ncols 433
nrows 32
xllcorner    425032
yllcorner    436448
cellsize     2
NODATA_value -9999
45.413 44.755 43.862 41.372 45.918 45.872 45.826 45.829 45.805 45.809 45.938 45.909 45.634 45.767 45.754 45.809 45.657 45.782 45.804 45.732 45.743 45.771 46.405 46.005 45.85 45.859 45.902 45.93 45.919 45.924 45.943 46.063 46.817 46.175 46.841 47.49 47.808 47.943 47.735 48.361 48.06 48.568 48.488 46.304 46.108 46.16 45.329 42.748 41.874 41.883 41.868 41.886 41.828 41.985 51.797 48.048 56.157 53.097 49.346 55.217 55.912 54.649 50.346 45.835 45.065 44.583 47.037 47.057 53.106 54.952 56.627 50.419 54.793 52.853 49.632 52.807 52.155 52.963 52.212 52.066 51.966 51.853 51.875 51.844 51.808 52.352 51.867 51.752 51.683 51.662 51.609 51.578 51.741 51.627 51.395 51.306 51.363 51.354 51.351 51.341 53.564 57.235 57.409 57.399 57.379 57.363 57.332 57.315 57.348 57.356 57.388 57.405 55.525 54.677 54.637 54.603 52.349 52.024 60.572 62.26 62.939 63.333 61.033 57.847 58.424 63.382 67.733 64.007 68.614 70.361 70.011 62.29 61.272 66.083 67.193 67.932 64.091 63.373 61.368 60.329 60.175 60.106 60.344 60.154 60.339 60.125 60.224 59.867 59.831 60.584 59.977 59.672 59.486 59.35 59.308 59.645 59.69 60.667 63.46 60.561 61.479 59.193 58.78 59.839 60.177 59.65 58.581 58.497 58.43 58.958 57.776 57.16 57.242 57.32 57.613 57.976 57.689 60.46 61.969 57.499 57.741 57.164 61.301 64.075 64.29 63.667 63.208 61.218 58.134 56.903 56.546 56.326 56.381 56.266 56.274 57.338 56.485 56.335 56.348 56.101 56.04 55.972 55.916 55.873 55.762 55.751 55.607 55.606 55.693 56.059 56.822 56.882 56.594 56.82 57.032 55.554 55.264 55.29 55.212 55.314 55.692 55.368 55.336 60.174 61.702 61.773 60.906 56.862 54.986 56.761 57.129 57.101 56.725 57.107 58.73 57.822 55.232 54.844 55.753 57.134 57.675 61.059 62.189 61.168 56.393 54.765 55.729 54.386 54.385 54.454 54.473 54.607 54.833 54.914 54.91 60.321 59.792 59.589 58.663 54.915 55.985 55.745 56.473 57.026 56.993 56.959 55.595 54.784 56.174 56.256 56.384 55.388 54.758 56.175 58.065 60.501 57.468 54.466 54.437 54.532 53.979 53.916 53.961 53.892 53.988 54.179 54.184 54.302 59.809 60.802 60.514 59.756 55.294 54.154 54.343 54.276 54.541 55.086 53.706 53.729 54.204 53.696 53.987 54.517 54.723 56.93 55.203 54.967 53.889 54.275 53.552 53.488 53.479 53.531 53.542 53.718 55.167 55.84 56.867 58.061 57.776 56.598 55.731 54.797 53.001 55.235 54.883 54.841 55.983 56 56.484 53.789 52.679 52.683 52.683 52.797 54.316 54.349 54.941 56.359 57.407 56.544 54.123 52.436 52.94 52.366 52.156 52.129 52.067 52.212 52.313 55.231 61.62 63.09 63.571 62.154 57.348 52.189 51.637 51.634 51.665 51.612 51.533 51.542 51.436 51.463 51.538 51.556 51.575 51.521 51.566 51.546 51.555 51.559 51.555 51.568 51.588 51.623 51.627 51.627 51.661 51.657 51.689 51.634 51.641 51.614 51.607 51.678 51.689 51.683 51.709 51.726 51.708 51.746 51.777 51.792 51.874 51.84 51.876 51.952 51.958 52.011 52.019 52.023 51.983 51.988 51.945 51.918 51.989 52.034 52.096 52.102 52.097 52.126 52.104 52.171 52.175 52.181 52.183 52.143 52.18 52.194 52.218 52.239 52.237 52.229 52.255 52.196 52.283 52.36 52.443 52.544 52.651
44.884 44.535 44.22 45.742 45.77 45.728 45.726 45.787 46.495 46.058 45.804 45.834 45.823 45.859 45.909 45.93 45.916 45.918 45.909 46.063 46.019 46.039 46.966 46.59 46.67 47.754 47.83 47.453 48.052 48.292 48.534 48.16 48.576 48.657 48.462 48.603 48.362 48.243 48.395 48.157 48.172 47.897 47.959 46.639 46.155 46.116 46.018 44.183 42.044 41.896 41.84 41.829 41.819 41.782 44.247 52.511 54.904 54.732 54.67 50.844 53.793 53.289 49.892 44.647 45.357 42.808 45.72 44.766 47.679 51.91 53.22 55.063 54.621 53.415 56.261 58.155 56.157 48.603 52.821 53.189 52.539 51.925 51.834 51.743 51.737 51.718 51.91 51.677 51.688 51.668 51.619 51.523 51.751 52.274 51.521 51.362 51.261 51.224 51.22 51.232 51.261 51.321 56.17 57.274 57.367 57.358 57.367 57.35 53.524 53.575 57.153 57.318 54.987 54.653 54.619 53.901 51.555 57.392 62.806 59.837 63.578 64.345 60.284 60.047 61.017 63.122 70.032 64.706 70.001 70.086 68.951 66.822 62.381 61.511 68.179 63.94 60.477 61.824 60.285 60.289 60.484 60.088 60.114 60.19 60.349 61.625 59.913 59.843 60.887 59.82 59.699 59.661 59.509 59.388 59.419 59.487 59.832 59.34 59.393 61.401 61.483 58.93 58.84 60.669 60.853 58.756 58.584 58.609 60.042 58.431 57.372 57.271 57.219 57.226 57.133 57.655 57.508 58.129 57.589 57.876 57.077 60.872 63.132 64.178 64.515 64.829 64.479 63.435 58.542 56.828 56.356 56.36 56.271 56.243 57.02 58.251 56.358 56.094 56.269 56.132 56.11 55.992 55.883 55.759 55.672 55.68 55.559 55.519 55.436 55.425 55.499 56.378 55.929 55.707 55.254 55.19 55.203 55.179 55.173 55.243 55.335 55.03 57.802 60.89 61.845 61.813 57.298 55.46 54.899 55.32 56.626 56.949 56.974 55.674 60.827 61.953 58.54 54.767 54.836 55.709 58.981 61.669 62.11 60.489 56.926 54.822 55.048 55.155 54.46 54.399 55.301 54.726 55.15 54.831 57.707 60.718 61.44 61.517 60.798 59.716 57.22 54.8 56.603 56.865 56.776 56.73 55.477 54.429 55.096 56.505 56.559 54.817 54.38 55.894 54.73 54.866 55.008 54.189 54.547 53.919 53.826 53.861 53.902 54.391 54.049 54.602 54.018 54.19 55.144 58.611 59.917 59.585 57.851 53.802 53.653 53.635 54.495 54.831 53.949 53.547 53.509 53.417 54.188 55.013 53.429 54.368 54 53.614 53.613 54.294 53.363 53.38 53.377 53.729 53.459 53.165 55 55.931 57.486 58.323 57.709 56.425 55.104 55.391 52.816 53.286 54.442 52.998 55.037 55.618 54.616 53.259 52.664 52.697 52.582 52.716 54.507 55.3 55.252 56.232 57.468 56.582 55.107 52.442 52.416 52.268 52.041 52.06 52.022 52.152 52.156 56.973 60.991 63.443 63.572 62.237 58.173 52.045 51.53 51.528 51.543 51.52 51.465 51.4 51.388 51.379 51.342 51.446 51.482 51.4 51.417 51.472 51.47 51.45 51.457 51.506 51.484 51.534 51.494 51.524 51.534 51.567 51.555 51.527 51.525 51.525 51.545 51.594 51.582 51.563 51.636 51.672 51.656 51.704 51.703 51.691 51.749 51.738 51.749 51.784 51.847 51.835 51.872 51.9 51.821 51.848 51.831 51.818 51.88 51.924 51.988 51.962 51.94 51.983 52.01 52.056 52.021 52.057 52.06 52.01 52.054 52.102 52.093 52.101 52.085 52.109 52.147 52.175 52.252 52.346 52.413 52.514 52.575
40.957 45.245 45.854 45.853 45.896 45.9 45.914 45.95 46.639 46.401 46.771 46.33 46.851 46.487 47.683 47.199 48.216 48.048 48.334 48.126 48.71 48.452 48.242 48.532 48.431 48.397 48.327 48.201 48.193 48.057 48.075 47.919 47.916 47.783 47.641 47.806 47.708 47.517 47.389 47.279 47.132 47.233 47.079 46.167 45.991 46.042 45.987 45.939 45.204 42.571 41.861 41.876 41.803 41.807 41.75 43.483 48.999 49.655 50.47 49.555 50.82 49.757 47.577 48.169 48.087 47.78 47.401 46.84 45.589 46.046 47.949 53.042 54.729 53.009 55.556 58.403 56.116 49.783 53.807 54.939 56.472 55.558 52.124 51.902 51.747 51.696 51.68 51.618 51.606 51.612 51.608 51.536 51.533 51.469 51.527 51.407 51.329 51.247 51.222 51.183 51.164 51.195 51.197 51.197 54.014 57.217 57.341 57.248 51.352 51.277 53.258 55.022 54.65 54.637 54.615 52.43 52.468 61.855 65.816 67.696 65.314 64.979 58.388 63.06 64.407 69.564 68.333 64.241 64.869 67.822 65.349 65.373 65.483 65.944 62.654 67.829 60.501 66.386 66.842 64.614 61.274 60.01 60.141 60.104 60.375 61.18 60.843 60.209 62.17 64.389 59.988 59.772 59.954 59.558 59.542 59.539 59.366 59.285 59.283 59.338 59.585 58.736 58.767 59.37 59.463 58.671 58.799 59.948 60.682 58.14 57.206 57.385 57.176 57.18 57.307 57.128 57.137 58.823 58.084 58.661 56.98 58.174 61.357 62.656 63.32 64.064 64.201 59.932 56.753 56.59 56.213 59.99 60.039 56.622 56.615 56.903 56.381 56.347 56.162 58.767 56.925 57.355 56.241 55.759 55.739 55.565 55.48 55.432 55.348 55.299 55.28 55.18 55.249 55.108 55.087 55.111 55.119 55.112 55.079 55.18 55.237 55.057 59.435 61.396 63.75 61.215 60.191 55.128 54.832 54.889 54.822 54.876 55.181 55.541 57.027 60.407 57.301 56.179 55.165 57.893 61.773 62.375 61.439 60.073 55.906 55.876 54.599 54.903 54.374 54.322 54.892 54.372 54.556 54.623 59.262 61.922 62.322 61.633 60.784 57.65 56.115 54.791 56.246 56.724 56.676 56.248 56.511 54.421 54.232 54.463 59.616 59.71 59.448 58.869 56.872 54.245 54.248 53.933 53.858 53.688 53.638 53.775 53.78 54.138 55.381 53.876 54.091 56.102 53.872 53.87 54.091 54.602 54.114 54.374 55.307 53.694 53.887 55.611 53.546 53.532 53.429 53.857 56.857 56.361 55.573 54.644 53.326 53.365 53.625 53.428 53.327 53.33 53.31 53.98 53.588 53.077 54.137 56.367 57.448 58.391 57.225 54.602 53.12 53.136 54.446 52.663 52.602 52.605 55.309 56.815 55.387 55.095 54.874 55.026 54.037 52.941 54.52 55.26 55.238 56.719 57.538 56.731 54.267 52.909 52.482 52.23 51.978 51.892 51.88 52.031 52.118 54.434 60.024 62.204 61.754 61.417 56.748 51.86 51.469 51.47 51.439 51.42 51.381 51.363 51.269 51.244 51.25 51.297 51.338 51.267 51.279 51.37 51.357 51.377 51.376 51.397 51.378 51.398 51.419 51.439 51.427 51.455 51.447 51.452 51.445 51.463 51.419 51.457 51.435 51.505 51.578 51.574 51.621 51.633 51.644 51.643 51.697 51.707 51.728 51.753 51.74 51.762 51.728 51.759 51.777 51.791 51.754 51.763 51.789 51.831 51.829 51.814 51.783 51.805 51.82 51.867 51.897 51.937 51.942 51.912 51.968 51.975 51.941 51.977 51.972 51.982 52.051 52.092 52.213 52.311 52.344 52.434 52.522
43.211 45.745 46.008 46.043 48.021 48.043 48.296 47.978 48.554 48.406 48.653 48.457 48.492 48.492 48.309 48.381 48.17 48.012 48.059 47.964 47.84 47.87 47.739 47.574 47.661 47.596 47.378 47.433 47.27 47.367 47.232 47.091 47.099 47.076 46.837 46.735 46.821 46.607 46.738 46.478 46.358 46.396 46.242 45.932 45.834 45.783 45.859 45.773 45.808 45.838 43.058 42.005 41.843 41.777 41.771 41.715 41.682 41.604 41.617 41.581 41.627 42.235 47.474 48.988 49.087 48.704 48.519 48.399 48.031 47.919 47.027 48.422 50.089 52.084 50.971 55.153 51.973 51.199 56.43 57.365 57.087 51.353 53.849 52.829 52.122 51.724 51.803 51.585 51.547 51.551 51.527 51.499 51.484 51.459 51.449 51.408 51.34 51.272 51.283 51.16 51.168 51.041 51.126 51.128 51.146 51.178 53.881 51.897 51.241 51.231 51.222 51.218 52.253 53.894 52.263 51.768 55.438 61.511 65.674 67.461 67.753 67.07 63.708 64.605 61.525 67.55 63.344 60.978 63.764 59.103 64.598 61.363 64.637 61.001 61.439 66.84 65.896 68.027 67.898 66.941 64.291 60.372 60.039 60.107 60.689 61.675 60.779 60.184 63.527 67.56 62.664 60.687 64.151 63.196 60.359 59.549 59.801 59.656 59.756 59.495 58.71 58.615 58.724 59.54 58.831 58.662 60.069 60.529 60.297 57.578 57.187 57.267 57.211 57.136 57.379 57.112 57.223 59.873 60.286 57.728 56.882 56.919 57.085 58.001 58.309 61.678 63.344 59.469 56.71 56.174 58.975 62.264 62.578 62.217 60.631 59.394 56.251 56.199 56.147 58.326 57.894 57.165 56.414 57.012 56.909 55.588 55.521 55.383 55.264 55.187 55.135 55.107 55.086 55.027 55.035 55.064 55.06 54.972 55.015 55.955 55.934 55.284 60.412 61.096 61.345 60.924 56.665 55.146 54.942 55.288 55.034 54.797 55.257 56.394 56.456 56.515 56.786 56.891 55.426 59.548 61.015 61.479 61.107 57.252 54.574 54.54 54.231 54.341 54.212 54.183 54.35 54.391 54.502 54.608 60.293 61.417 61.925 61.386 60.334 57.588 55.242 54.694 54.674 54.535 55.347 56.381 55.834 55.779 54.966 55.644 59.873 60.441 60.838 60.472 59.86 56.171 54.002 53.739 53.717 53.594 53.679 53.667 53.764 53.924 54.572 53.915 56.781 58.899 59.594 57.796 53.897 55.09 54.344 56.096 56.085 55.775 55.547 54.509 53.505 53.438 53.414 55.867 57.497 58.069 57.272 56.827 53.348 53.289 53.362 53.286 53.275 53.272 53.364 53.886 54.014 53.197 55.73 56.754 57.615 57.792 56.823 53.926 53.653 54.639 54.537 53.766 54.485 54.642 55.412 55.29 54.581 54.749 52.966 53.08 52.532 52.917 54.517 55.079 55.201 56.511 57.557 56.423 54.734 52.46 52.807 52.228 52.625 52.04 51.826 51.998 51.969 52.035 59.144 60.51 60.579 59.662 51.883 51.39 51.422 51.404 51.381 51.285 51.299 51.281 51.256 51.207 51.185 51.178 51.231 51.171 51.19 51.219 51.242 51.272 51.303 51.274 51.286 51.258 51.253 51.29 51.32 51.299 51.37 51.362 51.354 51.333 51.34 51.396 51.403 51.411 51.478 51.477 51.518 51.567 51.568 51.6 51.631 51.657 51.692 51.683 51.705 51.693 51.696 51.724 51.722 51.733 51.692 51.732 51.724 51.745 51.74 51.725 51.743 51.764 51.761 51.809 51.85 51.869 51.896 51.843 51.909 51.929 51.919 51.885 51.933 51.941 52.021 52.095 52.194 52.243 52.309 52.384 52.41
46.164 46.139 46.15 46.159 48.118 48.226 48.129 47.968 47.987 47.815 47.822 47.717 47.64 47.531 47.522 47.516 47.379 47.341 47.297 47.189 47.058 47.071 47.018 46.828 46.72 46.657 46.596 46.532 46.492 46.483 46.564 46.196 46.231 46.13 46.071 46.078 45.855 45.888 45.8 45.742 45.831 45.627 45.803 45.782 46.074 45.817 45.802 45.849 45.87 45.926 45.913 43.635 42.504 41.833 41.766 41.708 41.677 41.622 41.579 41.609 41.582 41.686 48.082 48.496 48.594 48.765 49.007 49.006 48.898 48.854 48.604 48.306 48.205 48.848 49.732 52.112 51.695 53.661 54.389 56.435 55.315 51.092 53.574 53.482 51.601 56.321 56.669 53.451 52.419 51.577 51.49 51.488 51.453 51.484 51.679 51.44 51.346 51.35 51.304 51.241 51.171 51.137 51.114 51.062 51.07 51.057 51.026 51.456 51.075 51.187 51.126 51.084 51.113 51.184 51.217 51.345 53.775 61.408 65.288 66.575 67.144 66.126 58.852 62.685 59.119 65.629 67.846 60.108 59.209 64.392 65.047 59.561 58.788 61.399 66.231 67.774 63.807 67.969 67.687 67.139 64.426 60.334 60.257 59.957 60.415 60.858 60.415 63.761 66.085 68.282 68.478 63.906 67.78 68.193 66.714 60.58 64.135 61.108 66.174 59.82 58.625 58.625 58.643 59.357 58.888 62.901 63.808 61.615 58.888 57.478 57.264 57.212 57.198 57.253 57.249 57.076 57.117 60.543 59.977 56.698 56.645 56.607 56.778 58.278 57.042 56.983 58.626 57.649 56.372 56.23 61.433 62.881 63.678 63.335 62.63 61.186 57.442 56.096 56.626 58.001 57.743 57.86 56.245 55.557 55.862 57.454 56.683 55.307 55.193 55.097 54.96 54.976 54.93 54.924 54.987 54.967 54.973 54.919 54.971 55.505 55.646 55.176 56.174 59.089 60.254 57.634 54.875 54.846 54.802 54.706 54.768 55.775 54.994 56.212 55.497 56.365 54.886 55.195 55.06 54.65 56.116 56.357 60.27 54.828 54.461 54.242 55.401 54.466 54.175 54.076 54.083 54.265 54.386 54.6 60.468 60.932 61.241 60.987 58.476 57.573 55.455 56.114 55.149 54.592 56.286 54.886 54.67 54.375 54.753 54.498 58.94 60.4 61.418 61.292 60.212 57.751 54.833 54.012 53.556 53.486 53.63 53.628 53.685 54.625 54.624 53.952 58.729 60.264 60.685 59.495 55.217 54.361 55.691 55.564 54.246 55.749 54.127 54.12 54.354 53.517 55.382 56.739 57.768 58.264 56.76 54.233 53.465 53.213 53.414 53.153 53.194 53.186 53.267 53.343 53.468 52.931 53.783 55.477 56.407 56.81 56.483 55.156 52.92 52.825 53.213 54.181 55.448 55.464 55.056 52.648 52.401 52.244 52.248 52.31 52.242 52.413 52.779 52.63 54.467 56.309 57.645 56.37 53.276 52.264 52.685 52.245 51.984 51.828 51.784 51.891 51.872 55.541 60.281 60.568 61.791 58.762 51.496 51.37 51.381 51.264 51.243 51.221 51.221 51.254 51.187 51.132 51.144 51.109 51.122 51.138 51.163 51.176 51.164 51.201 51.185 51.166 51.154 51.17 51.169 51.223 51.238 51.223 51.271 51.288 51.287 51.268 51.31 51.346 51.405 51.415 51.434 51.434 51.465 51.445 51.518 51.551 51.575 51.575 51.627 51.601 51.617 51.684 51.64 51.636 51.645 51.635 51.646 51.637 51.661 51.681 51.663 51.694 51.703 51.713 51.736 51.755 51.755 51.747 51.772 51.828 51.834 51.84 51.84 51.881 51.884 51.923 51.961 52.061 52.127 52.194 52.281 52.311 52.399
46.105 46.145 46.091 46.028 47.091 47.397 47.331 47.301 47.3 47.016 46.924 46.942 46.859 46.707 46.71 46.524 46.562 46.433 46.373 46.424 46.185 46.169 46.048 45.951 46.031 45.786 45.917 45.724 45.771 45.668 45.789 45.761 45.537 45.775 45.753 45.835 45.786 45.851 45.844 45.863 45.873 45.887 45.937 46.92 46.4 45.985 46.012 45.967 45.999 46.009 46.039 46.056 44.965 42.064 41.774 41.729 41.688 41.626 41.611 41.565 41.58 43.854 46.8 47.448 47.552 47.77 48.094 48.312 48.546 48.694 48.947 49.13 49.083 48.767 48.544 46.25 48.825 49.452 52.2 54.032 55.824 49.59 53.724 56.483 58.596 58.494 50.663 54.472 57.449 56.178 51.641 51.402 51.396 51.656 51.638 51.328 51.336 51.312 51.316 51.221 51.224 51.236 51.133 51.074 51.045 50.965 50.933 50.919 50.889 50.928 51.951 51.055 51.042 51.049 51.092 53.011 54.14 61.482 63.645 65.009 65.079 64.729 57.857 57.138 59.704 66.045 66.254 63.976 66.137 63.348 64.839 61.718 66.346 67.552 66.309 66.426 67.703 66.989 66.166 64.161 61.268 65.967 65.444 60.162 59.705 59.994 60.82 63.429 65.225 63.307 63.277 64.195 67.696 68.859 68.343 68.09 65.336 64.79 62.9 59.132 58.839 59.779 61.24 59.257 59.461 64.857 67.831 65.794 62.42 62.866 58.65 59.778 57.372 57.999 57.332 57.079 57.013 57.609 58.201 57.613 56.973 56.555 59.213 60.288 56.999 57.04 56.54 56.559 56.18 59 61.946 62.73 63.376 63.771 63.436 62.759 58.873 56.15 57.224 57.69 57.833 57.856 55.551 55.352 55.29 55.191 55.305 55.712 55.943 55.081 54.92 54.827 54.796 54.78 54.83 54.85 54.861 54.812 54.808 55.024 55.929 55.224 54.954 54.554 54.57 54.666 54.802 55.052 54.659 54.812 55.961 56.485 55.794 54.844 54.511 54.293 54.282 54.374 57.16 54.251 54.222 54.484 54.998 55.375 54.109 53.965 55.275 54.148 54.176 53.982 54.031 54.176 54.309 54.397 55.439 56.111 60.311 60.491 57.743 55.9 54.47 54.449 55.045 54.872 55.427 54.642 55.568 54.275 54.235 54.301 58.137 60.783 61.79 61.978 59.711 54.8 54.125 53.658 53.497 53.501 53.515 53.521 53.727 53.722 53.89 53.878 61.219 60.916 60.337 59.16 53.698 53.513 53.523 53.645 54.167 55.665 53.417 53.356 53.324 55.403 56.033 57.163 58.282 57.717 56.485 53.532 53.323 53.701 53.39 53.13 53.121 53.149 53.42 53.144 54.134 53.182 52.843 53.386 53.108 53.724 55.692 54.817 53.155 54.462 52.51 52.314 52.234 56.022 53.919 53.37 53.588 52.284 52.247 52.281 53.995 52.7 52.827 52.405 54.838 56.33 57.025 56.482 54.064 52.17 53.241 52.09 51.714 51.71 51.659 51.825 51.93 58.037 62.238 63.141 62.248 59.355 52.534 51.344 51.266 51.203 51.226 51.159 51.205 51.187 51.144 51.086 51.08 51.072 51.066 51.088 51.125 51.102 51.09 51.101 51.112 51.105 51.105 51.126 51.137 51.174 51.172 51.2 51.199 51.26 51.273 51.27 51.283 51.309 51.329 51.382 51.39 51.405 51.425 51.436 51.453 51.481 51.463 51.48 51.549 51.582 51.606 51.623 51.624 51.608 51.605 51.575 51.601 51.616 51.592 51.584 51.557 51.574 51.571 51.629 51.656 51.667 51.689 51.738 51.74 51.767 51.735 51.768 51.835 51.819 51.87 51.907 51.966 52.063 52.101 52.135 52.227 52.273 52.369
45.991 45.987 45.987 45.879 46.229 46.48 46.444 46.504 46.313 46.318 46.157 46.077 46.043 45.977 45.888 45.812 45.86 45.689 45.763 45.764 45.768 45.719 45.795 45.736 45.8 45.776 45.795 46.487 45.982 45.841 45.875 45.898 45.945 45.901 45.942 46.026 46.475 47.2 46.552 47.307 47.019 47.756 47.997 48.3 48.276 48.28 47.233 46.119 46.12 46.166 46.22 46.169 46.21 45.577 42.097 41.74 41.712 41.655 41.644 41.592 41.584 44.784 46.373 46.849 46.435 45.687 46.863 47.445 47.686 47.793 48.099 48.327 48.493 48.621 44.842 44.688 45.334 46.639 51.459 54.132 55.914 55.745 56.464 56.362 58.875 55.958 53.579 49.888 55.735 57.3 54.14 51.967 51.506 51.346 51.232 51.278 51.318 51.266 51.233 51.229 51.216 51.181 51.172 51.091 51.037 50.999 50.924 50.892 50.802 50.755 50.804 50.842 51.554 51.265 51.545 51.277 55.28 56.394 59.104 62.458 57.934 57.244 60.468 60.674 64.301 63.44 59.991 66.38 67.223 67.419 64.001 64.449 63.454 61.827 63.606 66.187 68.04 66.908 63.396 66.938 59.98 62.768 66.204 62.702 63.179 61.669 62.992 61.103 61.33 59.638 59.327 59.053 65.644 68.355 67.418 67.314 68.109 66.994 66.18 59.423 66.739 66.837 67.991 59.012 65.999 62.321 69.772 69.021 67.541 66.242 66.204 63.117 59.855 58.231 57.247 57.204 57.008 58.097 58.692 57.581 56.572 56.531 59.348 56.925 56.739 57.095 57.4 57.956 56.137 58.148 59.773 61.224 62.075 62.863 63.003 62.225 56.989 56.625 56.923 56.225 57.308 57.046 55.473 55.691 58.087 55.226 55.153 55.102 55.348 56.079 54.854 54.76 54.643 54.644 54.724 54.739 54.722 54.704 54.661 54.634 54.617 54.79 54.871 54.56 54.579 54.578 54.586 54.548 54.45 54.415 56.52 55.361 55.188 54.352 54.281 54.379 54.352 55.112 59.964 61.212 59.316 55.864 55.109 54.192 53.957 53.853 53.899 53.946 53.968 53.962 54.604 54.38 54.269 54.197 54.282 54.339 55.362 55.109 56.244 56.158 54.779 54.419 54.518 54.796 55.409 55.507 56.409 56.172 55.435 54.367 59.565 60.929 61.416 60.578 59.8 54.797 54.771 53.821 53.738 53.467 53.475 53.466 53.576 53.744 53.68 57.377 59.933 60.95 59.97 58.935 53.869 53.511 53.481 53.426 55.099 53.616 53.31 53.276 53.365 54.441 56.254 57.703 58.472 57.734 55.976 53.314 53.171 53.566 53.114 53.067 53.083 53.123 53.313 52.72 52.814 56.07 55.212 53.395 53.313 52.812 52.96 53.197 53.386 52.747 52.303 52.337 52.458 53.318 54.01 54.461 54.632 53.859 52.295 53.667 54.927 54.141 53.972 52.745 54.626 55.607 55.596 55.468 53.99 52.201 53.078 52.033 51.579 51.601 51.606 51.698 52.142 56.936 59.166 61.405 61.094 58.61 54.048 51.588 51.149 51.097 51.136 51.147 51.147 51.123 51.076 51.098 51.044 50.995 51.018 51.034 51.045 51.004 51.011 51 51.022 51.033 51.057 51.092 51.123 51.16 51.164 51.185 51.237 51.249 51.281 51.285 51.294 51.302 51.283 51.306 51.339 51.328 51.399 51.403 51.404 51.444 51.466 51.492 51.514 51.55 51.581 51.572 51.582 51.576 51.574 51.588 51.579 51.579 51.568 51.567 51.557 51.572 51.523 51.504 51.517 51.561 51.637 51.653 51.679 51.757 51.731 51.726 51.751 51.757 51.818 51.874 51.947 51.984 52.05 52.11 52.185 52.276 52.341
45.848 45.861 45.795 45.723 45.797 45.73 45.821 45.824 45.721 45.746 45.773 45.733 45.815 45.731 45.79 45.809 45.827 45.892 45.898 45.905 45.909 45.967 45.998 45.967 46.125 46.4 46.977 46.733 46.99 46.855 47.633 47.982 47.763 48.447 47.969 48.728 48.243 48.365 48.498 48.363 48.394 48.293 48.367 48.125 48.086 47.869 47.046 46.125 46.142 46.122 46.142 46.176 46.143 46.072 46.115 45.157 41.832 41.65 41.644 41.658 41.606 45.164 46.475 46.721 46 45.24 45.795 46.068 46.649 46.584 46.535 47.474 47.56 45.626 44.808 44.717 44.928 45.555 47.152 52.157 54.086 55.596 57.092 58.455 58.306 58.569 56.324 49.328 51.215 56.781 53.923 53.944 55.757 51.917 51.331 51.286 51.237 51.205 51.237 51.205 51.207 51.173 51.179 51.144 51.089 51.055 50.978 50.928 50.863 50.763 50.706 50.72 50.746 51.098 51.186 51.848 54.977 56.506 55.28 55.992 60.092 57.549 60.015 56.18 62.404 63.585 58.525 65.686 66.461 61.939 63.536 60.946 66.683 65.443 64.878 63.996 67.415 65.312 65.72 60.382 63.744 68.048 63.713 61.419 66.769 64.851 62.592 59.364 60.283 58.91 58.546 58.27 60.853 65.039 61.435 66.829 64.651 67.37 61.553 68.417 65.502 70.708 66.974 68.015 66.918 70.475 68.64 69.86 63.626 69.891 62.697 63.963 59.683 59.593 57.227 57.363 57.042 58.193 58.592 57.553 56.52 58.067 57.917 56.359 57.322 57.934 58.755 57.628 57.147 56.024 56.978 58.436 58.703 61.339 61.895 57.89 57.097 58.626 57.955 57.157 55.617 55.544 55.532 58.664 61.263 59.385 58.411 56.156 54.977 54.85 54.842 54.572 54.547 54.518 54.543 54.627 54.66 54.577 54.559 54.452 54.435 54.44 54.679 55.238 54.538 54.537 54.505 54.466 55.004 54.26 54.981 54.473 56.091 55.835 54.669 54.447 56.509 58.108 59.696 61.674 60.925 59.096 54.091 54.032 54.138 53.785 53.844 53.901 53.857 54.461 54.669 54.136 54.207 58.942 55.281 54.188 54.094 54.519 56.441 56.333 55.416 55.92 56.168 54.935 55.612 55.158 54.825 55.823 54.704 54.869 59.827 59.893 60.451 60.182 56.805 54.169 53.933 53.463 53.404 53.393 53.412 53.425 53.754 54.426 54.142 58.203 59.87 60.392 59.548 55.29 53.792 53.737 53.6 53.443 55.245 53.367 53.357 53.262 53.295 53.893 56.572 57.627 58.063 56.769 54.749 53.351 53.864 53.362 53.072 52.974 53.058 53.392 53.07 52.671 52.991 55.849 56.678 56.42 55.757 53.585 52.649 54.032 54.453 53.456 53.044 52.585 52.177 53.241 54.141 52.746 54.139 53.482 53.322 53.563 54.42 54.113 54.228 53.097 53.339 52.586 52.988 53.299 52.423 51.989 52.017 51.779 51.472 51.51 51.53 51.627 51.676 52.734 57.332 58.516 56.393 55.717 51.515 51.106 51.056 51.063 51.101 51.167 51.099 51.036 51.008 51.129 50.981 50.985 50.998 51.001 50.988 50.997 50.996 50.99 50.952 50.957 51.017 51.026 51.085 51.136 51.116 51.155 51.195 51.219 51.237 51.23 51.266 51.283 51.293 51.314 51.303 51.352 51.37 51.372 51.39 51.394 51.443 51.471 51.494 51.491 51.517 51.5 51.512 51.539 51.509 51.527 51.537 51.527 51.534 51.515 51.548 51.535 51.516 51.507 51.471 51.517 51.546 51.617 51.662 51.644 51.651 51.697 51.699 51.754 51.826 51.864 51.886 51.976 52.013 52.069 52.143 52.238 52.328
45.79 45.786 45.804 45.845 45.811 45.828 45.829 45.889 45.917 45.898 46.027 45.958 46.071 46.094 46.752 46.98 46.837 47.225 47.164 48.007 48.076 48.33 48.505 48.596 48.502 48.665 48.361 48.333 48.404 48.309 48.251 48.222 48.247 48.039 47.929 48.012 47.815 47.809 47.838 47.72 47.452 47.481 47.405 47.359 47.213 47.139 46.525 45.952 46.032 46.325 46.439 46.607 46.403 46.582 46.512 46.536 41.667 41.695 41.636 41.613 41.598 41.564 42.526 46.412 46.023 45.306 45.839 46.15 46.778 46.396 45.995 45.758 45.139 45.526 46.186 45.495 45.175 45.743 46.639 50.968 52.95 53.891 56.242 57.429 56.47 56.008 55.247 47.694 55.862 53.987 54.815 56.689 57.632 55.134 54.176 53.511 51.608 51.244 51.142 51.052 51.118 51.111 51.092 51.128 51.07 51.059 50.99 50.958 50.93 50.881 50.764 50.733 50.661 50.725 50.712 50.743 54.74 56.299 55.533 59.233 62.212 62.282 61.385 59.31 64.342 57.858 55.979 61.007 64.709 61.833 63.027 65.414 67.689 67.124 67.313 63.779 61.772 65.582 65.231 61.729 62.267 66.109 64.14 65.104 67.192 65.016 65.187 60.865 64.024 61.85 60.724 61.334 58.154 61.054 64.267 65.312 65.029 67.584 64.667 67.792 69.228 70.637 67.946 62.983 64.981 71.271 69.003 69.81 69.089 70.596 68.924 68.284 62.47 63.939 61.092 61.823 57.67 57.182 57.832 56.775 56.497 56.6 56.414 56.348 57.402 58.659 57.327 56.249 56.166 56.683 55.972 56.083 56.652 58.387 59.448 57.174 57.648 59.567 56.445 58.056 57.343 55.568 55.344 59.555 62.109 62.158 61.597 57.314 54.978 54.729 54.487 54.413 54.345 54.372 54.461 54.483 54.478 54.494 54.46 54.427 54.355 54.307 54.174 54.183 54.574 54.383 54.576 56.542 56.026 54.78 54.385 55.271 56.343 55.909 54.328 54.067 55.495 59.469 60.893 62.01 60.454 59.297 54.13 54.438 54.177 53.696 53.778 53.818 53.753 55.276 55.803 54.264 57.453 60.549 60.452 59.955 57.116 55.552 54.302 56.105 55.03 55.962 56.498 54.755 54.061 54.063 54.095 54.133 53.929 53.931 54.157 54.148 55.768 55.735 54.06 53.941 53.557 53.369 53.295 53.389 53.34 53.51 53.505 53.449 53.61 54.667 55.766 59.375 58.995 54.284 53.644 53.36 53.267 53.529 53.957 55.307 54.97 54.733 53.299 55.288 57.282 58.143 57.424 56.142 53.341 52.97 52.988 53.065 52.963 53.004 53.008 52.988 52.771 52.888 52.786 56.141 57.433 57.351 56.063 53.428 52.714 54.02 54.696 54.575 52.36 52.58 53.524 53.872 52.968 51.955 51.864 51.784 51.976 53.38 53.926 53.894 53.989 51.991 51.903 52.885 51.94 51.798 52.12 52.184 51.597 51.491 51.396 51.493 51.441 51.624 51.605 51.49 51.793 52.555 52.407 51.726 51.067 51.082 51.071 51.033 51.029 51.065 51.02 50.971 50.951 50.909 50.903 50.885 50.937 50.957 50.938 50.932 50.924 50.943 50.953 50.979 51.004 50.995 51.05 51.054 51.112 51.118 51.163 51.184 51.235 51.231 51.242 51.25 51.248 51.285 51.319 51.336 51.352 51.386 51.354 51.413 51.406 51.43 51.436 51.458 51.469 51.482 51.476 51.513 51.496 51.482 51.486 51.473 51.492 51.476 51.517 51.518 51.522 51.516 51.49 51.506 51.512 51.528 51.589 51.603 51.615 51.632 51.663 51.686 51.765 51.845 51.863 51.893 51.963 52.055 52.125 52.235 52.33
45.997 45.938 46.198 46.114 46.064 46.484 47.015 47.605 47.404 48.018 47.741 48.628 48.369 48.722 48.567 48.435 48.44 48.263 48.304 48.216 48.151 47.978 48.065 47.908 47.894 47.838 47.733 47.608 47.431 47.399 47.45 47.265 47.362 47.155 47.182 47.125 46.927 47.064 46.973 46.857 46.797 46.581 46.494 46.519 46.382 46.315 46.267 45.768 45.821 46.205 46.597 46.649 46.575 46.58 46.638 46.558 41.785 41.605 41.561 41.593 41.563 41.567 41.507 41.507 42.64 45.393 45.974 46.181 46.384 46.236 46.003 45.491 45.047 45.636 46.317 45.463 45.317 45.984 46.976 47.367 47.434 51.656 53.965 55.188 48.885 53.339 55.452 49.895 58.04 52.401 54.804 56.814 57.424 57.752 53.78 55.263 54.321 51.791 51.216 51.073 51.022 51.03 51.066 51.053 51.049 51.042 50.981 50.972 50.906 50.854 50.866 50.76 50.711 50.619 50.602 50.641 51.43 50.605 54.796 60.303 63.343 62.551 62.449 59.55 65.139 62.665 65.336 64.997 61.019 56.911 61.274 62.638 61.592 65.575 66.847 64.575 66.501 60.943 65.053 62.043 62.686 68.056 65.211 65.777 59.173 62.203 62.315 65.788 64.289 63.589 62.779 61.205 60.864 58.664 62.337 63.865 64.554 64.195 63.353 65.82 62.907 66.003 69.795 68.582 68.574 68.326 67.384 71.118 65.232 61.873 69.316 61.091 68.21 67.071 67.162 64.847 59.874 62.143 58.935 59.634 58.354 57.185 56.398 56.358 56.722 56.814 56.98 56.503 58.235 55.899 57.111 56.683 55.946 56.556 56.826 56.013 58.528 57.633 55.686 55.612 55.474 55.452 55.908 61.179 62.563 62.877 61.52 56.101 55.469 55.389 54.914 54.416 54.238 54.238 54.257 54.316 54.312 54.279 54.335 54.309 54.313 54.219 54.154 54.037 53.968 54.283 54.395 57.549 55.457 54.185 54.723 55.813 56.215 56.376 54.033 53.994 54.425 60.064 61.43 61.836 59.955 55.439 54.107 55.493 53.703 53.67 53.664 53.77 53.77 56.617 57.32 54.294 59.825 60.948 61.398 60.622 57.721 56.713 54.494 55.931 56.136 56.027 55.419 54.341 54.36 54.152 54.068 54.362 53.758 53.867 53.702 53.915 54.191 54.045 53.629 53.377 53.475 53.182 53.226 53.292 53.298 53.494 54.454 53.864 54.044 54.389 53.532 53.551 53.603 53.598 53.747 53.739 53.214 53.792 54.991 55.175 55.251 54.163 53.187 56.178 56.588 57.257 57.241 56.489 53.229 53.575 53.105 53.016 52.895 52.879 52.94 52.826 52.678 52.588 54.562 56.469 57.672 56.895 55.819 52.89 52.247 52.085 53.08 52.262 51.967 51.95 52.128 52.627 52.092 51.919 51.768 51.728 51.661 51.64 51.645 52.117 52.325 51.846 54.477 54.635 54.756 54.103 52.384 51.732 51.473 51.426 51.327 51.43 51.397 51.504 51.525 51.451 51.322 51.047 51.018 51.034 51.034 51.036 51.018 50.984 51.069 51.069 50.994 50.965 50.936 50.884 50.831 50.876 50.879 50.877 50.88 50.872 50.907 50.891 50.909 50.955 50.949 50.975 51.004 51.016 51.079 51.109 51.125 51.166 51.202 51.216 51.203 51.239 51.277 51.275 51.303 51.331 51.342 51.358 51.358 51.373 51.362 51.401 51.387 51.395 51.409 51.417 51.423 51.416 51.467 51.462 51.461 51.468 51.492 51.47 51.477 51.506 51.509 51.495 51.503 51.511 51.495 51.495 51.51 51.572 51.618 51.634 51.655 51.709 51.696 51.783 51.828 51.902 51.979 52.043 52.105 52.212 52.291
47.583 48.507 48.613 48.595 48.442 48.522 48.453 48.263 48.231 48.149 48.126 47.921 48.037 47.875 47.817 47.772 47.669 47.654 47.473 47.399 47.355 47.176 47.16 46.934 47.149 46.899 47.105 46.786 46.773 46.595 46.581 46.495 46.437 46.402 46.287 46.234 46.197 46.024 46.018 45.969 45.901 45.811 45.752 45.786 45.878 45.729 45.797 45.755 45.805 45.863 46.614 46.589 46.574 46.552 46.604 46.506 42.143 42.109 42.123 41.604 41.561 41.523 41.523 41.508 41.5 42.34 45.883 46.161 46.232 46.131 45.861 45.44 45.092 45.773 46.026 45.195 45.393 46.122 47.095 47.231 46.442 45.549 47.307 52.516 47.597 46.9 46.021 45.305 51.72 53.17 49.02 54.405 53.426 57.367 52.663 55.563 52.949 50.648 50.365 51.238 51.298 51.083 51.001 50.975 50.953 50.951 50.963 50.957 50.952 50.9 50.829 50.829 50.808 50.705 50.64 50.538 50.505 50.5 50.499 56.945 58.334 56.01 59.121 62.689 60.471 66.355 65.33 64.73 62.334 63.75 61.686 63.323 58.709 62.81 60.497 64.96 66.137 58.6 65.636 62.889 62.638 63.66 63.409 63.359 58.295 62.114 59.69 65.276 63.852 63.572 63.167 60.572 62.963 62.116 61.662 64.511 64.441 65.815 64.614 70.074 69.547 65.554 68.644 66.724 66.152 66.186 67.505 61.644 67.113 59.866 59.958 59.657 65.885 69.313 67.514 65.689 62.222 66.086 67.945 65.437 59.075 56.625 56.352 56.336 56.327 56.582 56.941 55.908 55.802 55.693 56.598 56.814 55.938 57.074 57.916 57.521 58.108 57.97 56.684 55.422 55.34 55.342 59.137 61.708 63.734 62.134 61.012 56.311 55.182 55.146 54.673 54.24 54.07 54.14 54.11 54.132 54.226 54.247 54.236 54.214 54.128 54.117 54.104 54.031 53.944 53.903 53.833 54.408 54.053 53.779 55.317 54.644 53.914 54.239 55.061 53.967 57.658 60.261 61.722 60.954 59.767 55.68 54.986 54.447 53.547 53.629 53.661 53.634 53.662 54.438 53.933 57.073 60.268 61.472 61.972 60.367 55.764 54.091 53.983 54.208 54.07 54.64 55.632 55.626 55.382 54.892 53.973 53.735 56.662 58.547 55.031 54.518 54.998 54.676 53.968 54.074 53.146 53.169 53.19 53.218 53.35 54.148 53.6 55.309 58.9 58.318 58.878 57.742 53.957 53.491 55.015 55.381 54.815 54.027 54.97 55.05 55.237 53.33 52.926 52.892 53.365 55.326 56.184 54.071 53.23 52.894 52.969 52.829 52.865 52.842 53.393 53.429 52.455 52.758 55.416 57.004 57.661 56.783 55.454 54.44 52.251 52.036 51.956 51.936 52 51.997 52.037 52.866 53.102 52.053 51.676 51.616 51.586 51.57 51.548 51.99 53.527 52.488 54.103 55.863 56.178 55.238 53.29 52.032 51.486 51.576 51.303 51.315 51.283 51.419 51.468 51.427 51.322 51.073 51.02 51.027 51.043 50.998 51.012 51.043 51.076 50.98 50.948 50.954 50.92 50.91 50.82 50.791 50.825 50.84 50.847 50.852 50.889 50.876 50.924 50.926 50.943 50.95 50.976 51.056 51.04 51.047 51.083 51.137 51.181 51.202 51.248 51.234 51.251 51.266 51.253 51.291 51.318 51.346 51.348 51.337 51.365 51.396 51.391 51.387 51.38 51.424 51.395 51.421 51.423 51.443 51.421 51.47 51.485 51.442 51.432 51.451 51.455 51.485 51.45 51.466 51.475 51.493 51.503 51.505 51.567 51.615 51.643 51.696 51.707 51.789 51.839 51.863 51.925 51.993 52.097 52.217 52.249
48.169 47.968 47.781 47.812 47.762 47.764 47.561 47.608 47.373 47.287 47.333 47.147 47.03 46.953 46.863 46.96 46.75 46.773 46.694 46.634 46.514 46.496 46.331 46.253 46.162 46.244 46.083 45.915 45.869 45.79 45.842 45.828 45.788 45.778 45.651 45.733 45.764 45.727 45.782 45.777 45.822 45.834 46.723 46.266 45.907 45.901 46.12 45.925 46.291 46.45 46.596 46.608 46.583 46.541 46.611 46.448 41.393 40.549 40.11 41.633 41.806 41.534 41.527 41.501 41.514 41.475 41.493 41.411 42.353 46.042 45.75 45.236 45.231 46.052 45.923 45.101 45.615 45.747 47.015 46.7 45.79 47.175 45.984 45.313 45.295 45.105 48.795 44.869 51.77 49.549 49.08 48.16 52.072 56.715 56.725 54.08 51.868 49.691 48.085 48.834 51.048 51.852 51.194 51.014 50.92 50.891 50.895 50.896 50.876 50.895 50.868 50.826 50.78 50.757 50.69 50.606 50.549 50.482 50.431 50.378 50.425 50.33 52.024 60.964 59.904 64.937 64.989 64.999 63.239 63.109 58.145 62.006 63.603 64.97 58.234 63.155 58.401 59.458 65.338 64.626 63.697 62.789 60.627 64.255 64.285 64.928 58.436 64.248 63.488 64.605 63.983 61.87 62.948 59.725 65.419 60.581 66.214 67.635 69.474 70.084 69.982 66.816 63.528 60.3 62.538 66.277 68.552 70.076 66.232 62.462 64.865 63.619 66.784 62.859 65.581 65.829 65.984 68.143 66.826 66.819 60.973 58.387 56.456 56.32 56.874 56.92 56.058 56.128 55.74 57.653 56.405 55.959 56.638 57.569 58.152 58.144 56.418 57.711 57.73 55.738 55.238 57.541 61.095 62.011 62.562 61.599 57.833 55.287 55.829 55.169 55.511 54.019 53.901 53.955 53.979 54.065 54.119 54.273 54.298 54.308 54.225 54.01 53.959 53.898 53.859 53.834 53.748 54.345 53.897 53.585 53.909 53.64 54.96 54.472 53.979 53.91 57.827 57.154 61.744 60.818 56.724 53.868 54.729 54.365 54.145 53.569 53.569 53.515 53.596 53.828 53.875 58.16 60.559 61.246 60.855 59.812 54.166 54.136 54.262 54.015 53.96 54.9 54.804 55.739 54.003 54.134 54.106 54.089 59.267 60.319 59.509 54.104 53.642 54.74 55.058 53.852 53.835 53.247 53.795 53.888 53.314 53.927 53.397 56.959 59.322 60.212 59.691 58.791 57.595 55.097 55.462 55.368 55.225 54.344 52.964 53.269 53.555 53.247 53.804 54.893 53.097 52.89 52.976 53.287 53.133 53.441 53.069 52.761 52.768 52.792 53.429 52.727 52.459 53.119 55.984 57.34 57.373 56.267 55.274 55.038 52.631 52.155 51.995 51.895 51.872 52.229 53.247 52.632 52.227 52.235 52.178 52.935 52.579 51.612 51.5 53.212 54.125 54.225 54.69 55.93 56.213 54.782 52.679 51.456 52.024 51.681 51.342 51.267 51.322 51.242 51.394 51.344 51.282 51.101 50.997 50.978 51.025 51.036 51.172 51.103 51.025 51.241 50.961 50.945 50.884 50.875 50.835 50.847 50.814 50.86 50.867 50.852 50.866 50.86 50.893 50.89 50.921 50.983 52.178 51.245 51.027 51.048 51.099 51.119 51.132 51.189 51.194 51.22 51.245 51.257 51.274 51.309 51.294 51.315 51.334 51.344 51.36 51.359 51.351 51.351 51.37 51.398 51.395 51.419 51.438 51.438 51.457 51.466 51.431 51.427 51.41 51.411 51.444 51.453 51.476 51.452 51.452 51.457 51.481 51.479 51.533 51.587 51.623 51.645 51.683 51.762 51.792 51.844 51.886 51.945 52.059 52.166 52.197
47.248 47.123 46.966 46.918 46.855 46.886 46.831 46.734 46.618 46.614 46.401 46.463 46.366 46.193 46.15 45.98 45.987 45.881 45.668 45.792 45.731 45.724 45.718 45.744 45.741 45.811 45.75 45.775 45.823 45.848 45.876 45.821 45.922 45.861 45.853 45.91 45.884 45.944 46.366 46.394 46.433 46.398 46.623 46.681 46.483 46.586 46.585 46.543 46.57 46.595 46.62 46.581 46.571 46.583 46.59 46.478 40.848 39.978 40.077 40.165 41.738 41.251 41.681 41.567 41.526 41.513 41.473 41.439 42.367 45.813 45.296 45.07 45.374 46.101 45.655 45 45.868 45.893 45.715 45.625 47.189 48.157 46.701 47.171 45.571 46.152 46.218 45.532 47.968 48.655 46.864 48.602 48.879 55.313 55.083 54.33 50.997 48.877 47.988 47.471 48.923 51.052 51.382 51.638 52.353 51.018 50.855 50.807 50.793 50.839 50.808 50.822 50.723 50.743 50.702 50.687 50.67 50.477 50.428 50.377 50.332 50.308 51.281 52.084 59.245 61.938 60.4 63.871 65.422 64.289 54.565 55.867 57.242 61.409 64.658 66.539 59.685 62.554 64.422 63.702 63.731 63.457 64.438 64.026 67.549 65.411 61.753 64.374 63.045 65.044 65.805 65.284 62.432 58.149 62.877 60.776 65.884 66.519 68.311 69.349 63.522 60.1 65.219 57.969 66.927 66.807 67.978 69.522 61.59 63.411 68.727 61.271 67.51 70.211 64.352 68.495 67.144 61.179 67.403 68.614 64.006 63.267 57.969 57.044 58.176 57.686 56.224 58.011 56.539 56.674 55.684 55.643 55.65 56.04 57.607 56.425 56.975 55.656 56.294 56.141 55.858 56.338 60.373 60.951 61.588 61.196 57.503 54.8 54.713 54.945 54.413 53.791 53.767 53.844 53.763 53.88 55.718 55.634 55.783 55.166 56.012 54.486 53.976 53.807 53.725 53.717 53.742 53.727 53.889 53.501 53.483 53.494 54.839 55.437 54.901 53.982 53.895 53.918 53.773 56.042 55.743 54.156 55.082 54.386 54.671 53.523 53.48 53.443 53.637 53.748 53.888 55.039 59.53 60.168 60.226 55.754 53.842 54.018 53.946 54.93 53.855 54.342 54.242 54.504 53.91 55.405 57.98 59.221 60.719 61.193 60.419 58.708 54.709 53.526 54.38 53.438 54.011 53.041 53.585 53.456 53.546 54.926 54.534 57.95 60.257 60.428 59.529 58.438 55.337 53.611 55.156 55.283 55.208 54.371 52.891 52.884 52.851 53.145 55.202 56.709 56.19 55.196 53.816 52.908 53.198 52.938 52.719 52.712 52.787 52.685 53.617 52.636 52.965 54.255 56.22 57.756 57.055 55.791 55.092 53.335 52.747 53.536 52.109 51.968 51.774 52.021 52.428 52.137 51.97 51.875 51.874 51.854 52.129 51.661 51.684 53.324 54.206 54.324 55.009 56.32 56.001 54.764 51.975 51.333 51.824 52.312 51.276 51.216 51.293 51.231 51.345 51.363 51.243 51.081 51.044 51.098 51.036 50.958 51.024 52.233 51.02 50.987 50.958 50.933 50.888 50.816 50.81 50.832 50.831 50.843 50.836 50.853 50.819 50.86 50.888 50.896 50.937 50.948 51.412 50.973 51.014 51.039 51.088 51.108 51.171 51.172 51.198 51.191 51.238 51.284 51.291 51.277 51.272 51.292 51.289 51.319 51.304 51.32 51.292 51.3 51.308 51.335 51.371 51.372 51.404 51.401 51.376 51.398 51.426 51.396 51.373 51.388 51.406 51.421 51.434 51.442 51.447 51.451 51.437 51.478 51.493 51.518 51.61 51.605 51.659 51.716 51.767 51.8 51.849 51.908 52.008 52.112 52.168
46.367 46.302 46.396 46.136 45.943 45.907 46.033 45.836 45.741 45.737 45.616 45.761 45.741 45.775 45.785 45.76 45.695 46.699 46.252 45.862 45.899 45.887 45.874 45.897 46.07 45.955 45.972 46.302 45.987 46.903 47.345 46.632 46.947 47.685 48.094 46.59 46.053 46.053 46.598 46.581 46.604 46.594 46.574 46.606 46.608 46.609 46.59 46.578 46.621 46.599 46.64 46.597 46.585 46.606 46.627 46.559 41.153 40.002 40.075 40.154 40.311 41.382 40.833 41.526 41.556 41.491 41.513 41.49 41.484 41.462 41.463 42.127 42.644 45.287 45.311 45.096 45.859 45.913 46.135 46.26 48.375 49.064 48.849 48.738 47.916 46.818 47.621 47.499 47.446 47.681 47.174 46.134 46.518 52.344 52.851 51.874 48.78 49.193 48.264 47.215 47.088 51.361 50.96 53.129 53.995 51.927 51.3 50.902 50.766 50.709 50.711 50.735 50.735 50.728 50.664 50.639 50.572 50.55 50.515 50.45 50.393 50.308 50.23 50.325 52.314 52.626 58.541 62.79 62.873 62.606 60.391 55.539 59.887 62.495 61.58 60.933 65.339 67.908 65.766 67.07 60.416 58.396 62.03 56.785 57.389 63.395 59.705 63.304 60.251 63.834 65.381 64.191 61.147 58.326 63.187 59.253 63.135 66.679 67.171 67.928 65.847 65.348 64.534 61.347 62.388 69.317 68.913 67.563 67.715 66.588 66.679 70.72 66.585 63.542 64.709 60.497 66.787 60.275 69.47 70.726 66.999 65.158 61.996 58.877 58.195 59.125 57.04 56.35 56.309 56.449 55.603 55.489 55.561 55.612 56.015 56.178 55.329 55.135 55.066 55.042 55.162 54.729 54.651 55.907 59.154 58.166 55.999 54.67 54.616 54.529 53.752 53.583 53.62 53.634 53.711 54.438 54.493 54.021 53.698 53.606 53.706 54.331 55.654 54.325 53.766 53.642 53.586 53.629 53.558 53.55 53.45 53.351 53.406 53.394 55.348 54.694 54.182 54.048 54.605 53.66 54.127 54.932 53.645 53.493 53.478 53.42 53.337 53.434 54.118 53.938 53.908 53.961 54.926 55.522 55.807 54.616 53.789 54.038 53.757 53.871 54.212 56.141 54.255 53.811 53.592 57.145 59.781 60.58 61.471 61.043 60.135 59.382 53.561 53.33 52.983 52.954 52.974 53.021 53.106 53.083 53.231 53.497 56.151 58.836 60.312 60.371 59.887 56.537 54.407 53.212 53.19 53.581 54.515 53.138 52.903 52.962 52.934 55.055 56.252 57.435 57.27 56.44 54.424 53.241 52.981 52.843 52.623 52.618 52.653 52.721 52.657 52.673 52.504 56.24 56.694 57.261 56.7 53.979 52.413 52.112 52.838 52.536 52.222 53.484 52.807 52.25 52.891 52.675 52.145 53.062 51.402 51.321 52.102 51.995 51.479 51.955 54.197 54.354 55.614 56.605 56.673 54.51 51.586 51.42 51.571 52.201 51.341 51.1 51.133 51.101 51.294 51.276 51.189 51.079 50.997 50.998 50.975 51.023 50.935 51.045 51.194 50.897 50.879 50.842 50.804 50.804 50.784 50.804 50.834 50.834 50.838 50.811 50.79 50.839 50.826 50.852 50.897 52.126 51.574 50.957 50.951 50.992 51.035 51.096 51.114 51.156 51.183 51.194 51.233 51.257 51.272 51.27 51.245 51.281 51.278 51.303 51.301 51.276 51.294 51.262 51.272 51.326 51.306 51.309 51.346 51.355 51.37 51.373 51.366 51.372 51.36 51.339 51.369 51.38 51.407 51.428 51.394 51.405 51.414 51.411 51.458 51.509 51.553 51.584 51.63 51.682 51.706 51.739 51.797 51.868 51.959 52.073 52.113
45.608 45.578 45.717 45.844 45.758 45.779 45.782 45.852 45.843 45.865 45.866 45.867 45.91 45.948 45.921 46.162 46.009 46.416 46.803 47.327 46.714 47.593 47.677 48.031 48.128 48.301 48.448 48.558 48.477 48.528 48.505 48.401 48.375 48.247 48.136 46.744 46.12 46.171 46.571 46.604 46.57 46.579 46.62 46.609 46.593 46.554 46.581 46.642 46.605 46.591 46.585 46.614 46.63 46.673 46.601 46.626 41.965 39.989 40.07 40.115 40.214 40.23 40.333 40.473 40.851 41.653 41.578 41.555 41.534 41.517 41.496 41.554 41.584 41.561 42.21 43.404 44.169 44.818 45.15 45.536 48.422 48.981 49.219 49.225 45.824 47.677 47.853 49.305 47.981 47.699 47.645 46.033 45.424 44.635 47.547 49.509 48.558 47.987 46.954 49.384 50.9 53.32 54.878 55.135 50.637 56.452 51.43 52.031 51.664 50.846 50.681 50.612 50.76 50.601 50.635 50.597 50.574 50.575 50.483 50.488 50.419 50.368 50.289 50.221 50.175 50.048 53.392 54.085 59.543 59.412 59.682 57.724 59.246 58.188 56.149 63.115 65.166 66.12 65.84 59.291 63.077 58.421 64.627 57.665 62.157 59.421 57.053 65.261 60.355 61.317 60.5 62.003 60.194 62.698 65.049 59.372 63.244 66.324 66.436 65.701 62.978 60.346 64.213 66.825 62.96 65.894 69.93 62.052 67.18 65.901 70.074 67.186 68.755 66.995 69.538 58.032 65.697 58.121 66.852 62.941 67.052 68.309 66.182 60.397 57.469 61.143 58.273 56.899 56.681 55.818 55.638 55.565 55.543 55.591 56.402 55.913 55.197 54.995 54.928 54.808 54.874 58.767 58.685 54.614 54.43 54.667 54.334 54.017 53.889 53.879 53.384 53.431 53.435 53.408 53.554 56.723 55.438 53.859 55.451 53.695 53.708 53.717 55.709 55.933 55.574 54.138 53.602 53.519 53.453 53.473 53.46 53.42 53.323 53.271 53.311 53.338 54.036 55.664 55.446 54.039 54.147 53.811 53.505 53.355 53.357 53.302 53.257 53.405 53.917 53.681 53.75 53.733 53.789 54.189 54.078 54.014 54.073 55.032 55.919 53.663 53.609 55.226 54.196 53.639 53.935 53.881 59.428 60.303 60.751 60.775 59.414 54.145 53.523 53.293 53.056 52.891 52.896 52.97 52.954 53.042 53.654 53.604 56.255 59.249 60.266 59.715 58.625 54.332 54.362 53.74 53.419 53.213 53.201 52.962 53.671 53.242 54.328 55.679 56.448 57.872 57.05 55.984 53.327 52.806 52.744 52.775 52.569 52.608 52.612 52.636 52.638 52.476 52.363 53.315 55.482 55.892 56.064 53.152 52.329 52.297 51.886 51.807 51.466 51.903 52.047 54.154 53.602 52.489 51.932 51.604 51.307 51.28 51.316 53.014 51.463 51.773 54.057 54.256 55.423 56.406 55.772 54.221 51.302 51.264 51.416 51.337 51.225 51.086 51.144 51.083 51.187 51.21 51.212 51.068 50.927 51.021 51.006 50.951 50.922 51.112 51.073 50.845 50.867 50.793 50.765 50.771 50.76 50.739 50.778 50.764 50.755 50.78 50.752 50.787 50.8 50.768 50.828 50.837 50.849 50.888 50.876 50.937 50.954 50.98 51.062 51.117 51.169 51.191 51.224 51.233 51.262 51.282 51.264 51.271 51.263 51.307 51.289 51.243 51.268 51.276 51.272 51.282 51.298 51.325 51.318 51.354 51.349 51.352 51.368 51.391 51.4 51.34 51.372 51.363 51.365 51.423 51.4 51.382 51.411 51.406 51.412 51.463 51.527 51.539 51.586 51.62 51.652 51.703 51.754 51.77 51.872 51.983 52.017
45.878 45.896 46.192 46.807 45.934 46.047 46.368 46.69 46.622 47.449 47.251 47.262 48.109 47.795 48.279 48.58 48.687 48.462 48.59 48.402 48.533 48.355 48.186 48.208 48.193 48.063 47.993 47.944 47.852 47.633 47.659 47.509 47.539 47.454 47.457 47.015 45.986 45.963 46.466 46.598 46.592 46.572 46.579 46.594 46.582 46.587 46.571 46.589 46.596 46.59 46.55 46.593 46.586 46.601 46.606 46.605 42.777 39.991 40.037 40.11 40.163 40.261 40.304 40.43 40.469 40.487 41.937 41.581 41.592 41.549 41.502 41.51 41.499 41.498 41.567 41.589 41.658 41.646 42.174 42.856 44.542 47.216 48.241 48.443 44.673 46.924 46.999 47.314 47.672 47.816 47.509 45.957 43.854 43.511 45.162 49.212 48.082 47.658 47.808 50.407 51.775 54.213 55.712 59.478 59.663 58.04 52.401 51.062 52.706 55.121 55.538 54.103 52.21 50.518 50.576 50.529 50.535 50.508 50.517 50.469 50.439 50.369 50.301 50.248 50.194 50.158 50.051 49.987 50.202 56.025 57.972 59.908 59.009 55.733 59.281 61.025 63.085 64.772 62.115 58.25 61.797 63.667 62.169 59.795 62.427 57.289 64.523 63.155 61.798 62.181 65.303 63.722 59.697 63.834 66.808 62.281 67.453 68.486 68.782 67.286 67.053 66.625 61.992 64.912 66.486 66.078 70.621 65.023 68.602 58.84 66.84 69.061 62.276 67.55 58.88 70.082 60.306 60.458 65.246 68.196 68.02 67.711 64.978 56.961 64.936 65.829 64.222 63.08 58.455 57.219 55.966 55.956 55.63 55.625 55.934 55.313 55.908 55.012 54.922 54.722 58.388 60.98 62.146 61.014 58.695 54.378 53.991 53.707 53.426 53.269 53.179 53.219 53.271 53.33 53.492 54.099 53.873 53.874 59.123 59.159 57.004 57.407 55.437 55.445 55.724 55.534 55.273 53.569 53.45 53.479 53.319 53.33 53.379 53.29 53.202 53.175 53.167 53.251 53.275 53.233 53.206 54.551 53.835 53.303 53.262 53.183 53.162 54.427 53.707 53.128 53.137 53.222 53.834 53.367 53.186 54.798 54.784 57.752 59.256 54.986 53.5 53.536 55.618 53.771 53.651 53.531 54.842 58.486 60.091 59.213 54.43 54.687 53.551 54.192 52.863 52.795 52.878 52.835 52.89 53.556 53.315 53.146 54.272 57.647 58.898 59.361 55.786 53.2 52.913 52.844 53.134 53.197 52.649 52.942 54.789 55.088 55.602 56.006 57.067 57.792 56.517 54.268 52.756 52.784 52.811 52.579 52.507 52.578 52.563 53.292 52.796 52.471 52.349 52.344 52.222 52.706 53.097 52.346 51.917 53.178 52.018 51.507 51.4 51.414 55.295 56.136 53.782 53.376 53.105 51.877 51.881 51.831 51.351 53.073 52.385 52.047 51.728 54.085 55.721 56.359 55.457 53.812 51.327 51.25 51.23 51.456 51.128 50.993 51.003 51.056 50.974 51.112 51.181 51.059 50.959 50.893 50.898 50.904 50.883 50.844 50.846 50.807 50.751 50.737 50.741 50.736 50.763 50.754 50.708 50.702 50.696 50.678 50.699 50.735 50.729 50.742 50.784 50.796 50.798 50.827 50.798 50.872 50.881 50.881 50.966 51.024 51.092 51.128 51.145 51.185 51.227 51.266 51.236 51.251 51.243 51.233 51.233 51.239 51.244 51.267 51.283 51.279 51.271 51.31 51.345 51.33 51.353 51.347 51.354 51.349 51.327 51.356 51.334 51.382 51.381 51.372 51.394 51.392 51.41 51.408 51.411 51.446 51.491 51.527 51.512 51.612 51.638 51.651 51.697 51.741 51.813 51.878 51.946
47.819 48.032 48.043 48.286 48.286 48.473 48.575 48.494 48.594 48.475 48.265 48.229 48.208 48.152 48.074 48.106 47.92 47.834 47.772 47.758 47.622 47.55 47.464 47.384 47.463 47.113 47.111 47.141 47.001 46.906 46.881 46.777 46.617 46.658 46.546 46.113 45.846 45.886 46.51 46.572 46.583 46.582 46.569 46.558 46.585 46.615 46.625 46.571 46.565 46.565 46.558 46.577 46.596 46.583 46.61 46.603 41.999 39.978 40.042 40.091 40.166 40.257 40.3 40.384 40.438 40.507 40.639 41.052 41.051 41.76 41.562 41.565 41.513 41.564 41.572 41.539 41.565 41.6 41.595 41.648 41.772 41.754 41.756 43.518 42.312 41.793 41.825 43.219 43.38 46.704 46.526 45.768 44.69 43.415 44.114 44.626 46.291 45.289 45.755 50.329 53.533 53.415 56.722 57.8 58.348 56.522 53.79 51.887 51.57 56.748 57.376 57.13 56.013 50.75 50.451 50.45 50.42 50.474 50.423 50.45 50.4 50.373 50.346 50.272 50.226 50.2 50.103 50.042 49.996 49.929 56.693 59.525 59.56 53.555 56.056 60.227 62.087 60.556 57.563 58.279 56.398 64.847 60.91 54.146 60.071 63.047 64.734 62.546 61.211 59.362 64.779 64.882 61.23 63.047 61.686 68.311 61.62 68.689 69.237 68.271 64.952 62.562 63.088 58.398 57.677 62.155 62.567 62.47 68.864 59.114 65.729 66.81 60.274 66.54 61.214 65.531 60.53 62.776 69.481 67.88 66.682 66.259 57.468 59.24 67.9 59.41 67.259 65.333 63.131 59.452 56.45 56.802 56.028 57.525 57.552 55.159 55.182 55.102 55.628 56.041 58.567 61.456 62.428 61.184 59.189 54.392 54.157 53.587 53.254 53.101 52.956 53.134 53.054 53.144 54.409 55.065 54.861 59.205 60.243 60.962 60.513 59.265 54.155 53.802 53.866 53.351 53.424 57.222 57.682 53.908 53.319 53.215 53.222 53.262 53.228 53.194 53.193 53.155 53.156 53.141 53.177 53.235 53.281 53.257 53.213 53.091 53.168 53.601 53.35 53.087 53.107 54.335 59.338 57.462 53.206 54.905 55.631 55.912 58.023 55.513 53.488 53.529 55.956 55.416 53.576 53.512 53.932 54.601 56.12 54.081 54.593 55.917 55.047 53.431 52.863 52.803 52.842 52.979 52.906 53.288 53.892 53.115 53.543 53.164 54.342 54.39 53.087 52.909 52.848 52.831 53.869 53.652 52.644 52.689 52.749 53.565 54.944 56.146 57.474 57.494 56.356 54.04 52.758 52.677 52.847 52.481 52.5 52.469 52.585 53.436 52.406 52.446 55.033 53.867 54.419 52.283 52.165 52.021 52.932 53.868 53.706 53.072 51.663 52.161 56.356 56.123 54.136 53.271 51.881 51.271 51.274 51.714 52.452 53.429 53.545 53.593 51.877 54.247 55.244 55.605 55.283 54.306 51.378 51.255 51.229 51.813 51.135 50.938 51.022 50.965 50.924 51.109 51.115 51.065 50.941 50.856 50.875 50.897 50.836 50.846 50.782 50.774 50.762 50.723 50.72 50.691 50.672 50.702 50.689 50.664 50.678 50.706 50.708 50.696 50.726 50.755 50.755 50.75 50.792 50.789 50.816 50.857 50.854 50.853 50.916 50.964 51.039 51.08 51.109 51.169 51.194 51.243 51.204 51.166 51.201 51.205 51.193 51.197 51.193 51.212 51.242 51.223 51.228 51.267 51.305 51.318 51.295 51.332 51.332 51.324 51.335 51.318 51.305 51.351 51.319 51.311 51.324 51.372 51.405 51.399 51.371 51.444 51.467 51.486 51.498 51.545 51.582 51.632 51.668 51.689 51.752 51.846 51.875
48.275 48.161 48.119 48.179 47.874 47.916 47.922 47.818 47.718 47.569 47.547 47.495 47.366 47.318 47.215 47.12 47.071 47.162 46.955 46.939 46.657 46.78 46.621 46.454 46.561 46.418 46.338 46.129 46.08 46.048 45.97 45.905 45.93 45.829 45.693 45.591 45.636 45.784 46.255 46.551 46.568 46.604 46.555 46.568 46.578 46.552 46.573 46.6 46.563 46.569 46.604 46.611 46.58 46.571 46.624 46.584 45.328 40.061 40.061 40.122 40.231 40.268 40.29 40.409 40.428 40.535 40.568 40.669 40.738 40.813 40.938 41.39 42.138 41.747 41.589 41.618 41.62 41.613 41.649 41.671 41.719 41.746 41.783 41.756 41.755 41.723 41.766 41.761 41.833 41.922 41.977 43.231 44.375 42.527 43.72 43.88 44.097 44.734 45.101 49.007 51.458 53.582 55.203 52.906 51.183 54.648 47.838 56.558 52.486 51.342 57.18 54.351 57.365 55.724 52.042 55.15 50.655 50.34 50.533 50.372 50.374 50.325 50.291 50.291 50.237 50.169 50.133 50.038 50.007 49.899 50.776 50.609 50.443 49.673 57.492 60.885 61.621 61.07 56.905 59.784 64.237 62.486 57.117 57.641 57.784 62.182 62.499 56.83 65.25 58.288 60.551 64.902 61.885 64.231 67.447 67.39 68.134 69.008 68.335 66.804 58.778 62.064 64.54 63.428 57.892 64.431 63.101 64.568 63.011 59.874 63.611 67.616 70.529 59.422 60.267 67.068 68.001 68.019 67.653 66.398 64.577 60.898 63.842 58.78 66.01 67.133 66.077 66.517 57.638 60.071 56.77 56.156 57.282 57.003 56.478 55.456 54.973 54.717 54.623 58.636 60.498 62.603 63.681 60.921 57.725 54.76 54.425 54.06 53.582 52.926 52.824 52.906 52.909 53.002 53.848 53.69 54.653 59.448 61.662 61.389 60.057 58.045 53.654 53.587 53.394 53.308 55.878 59.422 59.122 55.987 54.16 53.233 53.167 53.202 53.163 53.173 53.166 53.15 53.137 53.157 53.173 53.216 53.179 53.15 53.128 52.958 52.964 53.436 53.076 53.066 56.85 61.021 60.112 58.973 54.156 53.364 53.262 53.916 54.951 53.628 53.41 53.397 56.896 56.052 53.796 53.525 55.065 53.645 53.323 53.282 53.415 54.866 54.761 53.009 52.804 52.763 54.126 53.594 53.211 53.257 53.131 57.361 58.553 56.896 53.566 53.016 53.516 54.366 52.943 52.755 54.494 52.937 52.645 52.663 52.667 52.715 54.781 56.593 57.774 57.156 55.887 53.254 52.939 53.246 52.537 52.407 52.459 52.451 53.301 52.611 52.26 53.084 55.851 56.313 55.923 55.401 52.452 52.021 53.384 53.648 53.217 51.554 51.66 51.185 54.083 53.141 52.684 52.851 51.489 51.273 51.709 51.578 53.884 52.018 53.367 52.168 51.348 53.173 52.298 54.492 54.454 53.432 51.897 51.247 51.168 51.162 51.14 50.923 50.937 50.898 50.872 50.882 50.983 51.1 50.929 50.882 50.899 50.855 50.831 50.787 50.782 50.764 50.736 50.72 50.706 50.654 50.623 50.625 50.678 50.63 50.647 50.661 50.69 50.681 50.711 50.724 50.721 50.749 50.763 50.787 50.789 50.84 50.847 50.881 50.865 50.9 50.982 51.049 51.059 51.125 51.169 51.193 51.169 51.161 51.168 51.193 51.163 51.188 51.146 51.142 51.172 51.172 51.199 51.209 51.242 51.256 51.27 51.254 51.289 51.302 51.279 51.287 51.259 51.279 51.297 51.332 51.321 51.301 51.312 51.349 51.379 51.42 51.417 51.453 51.49 51.515 51.534 51.583 51.62 51.647 51.742 51.774 51.81
47.521 47.327 47.362 47.176 47.083 47.153 46.997 47.055 46.866 46.733 46.746 46.639 46.565 46.422 46.432 46.317 46.24 46.15 46.123 46.096 45.923 45.921 45.637 45.843 45.758 45.829 45.755 45.796 45.818 45.808 45.802 45.803 45.885 46.863 45.873 45.975 45.923 45.917 46.339 46.556 46.54 46.596 46.525 46.522 46.542 46.559 46.585 46.592 46.61 46.554 46.582 46.548 46.579 46.602 46.59 46.614 44.504 40.03 40.044 40.165 40.203 40.242 40.301 40.373 40.458 40.464 40.587 40.636 40.667 40.771 40.854 40.911 40.987 41.047 41.256 41.577 41.634 41.676 41.673 41.636 41.703 41.745 41.811 41.8 41.834 41.852 41.885 41.892 41.902 41.918 41.938 42.016 42.115 43.042 43.384 43.429 43.737 44.805 45.525 43.858 49.901 50.785 51.05 55.133 52.238 53.926 58.037 55.962 56.965 54.863 55.946 52.146 58.228 56.499 58.054 59.131 55.503 57.749 51.513 51.479 50.247 50.27 50.282 50.279 50.243 50.206 50.171 50.074 49.984 49.932 49.905 49.81 49.739 49.656 55.663 58.989 59.667 61.418 62.598 63.294 64.22 60.675 57.11 58.343 58.183 62.583 58.183 63.814 65.294 64.133 64.085 66.411 65.141 65.113 65.559 66.06 66.727 66.991 67.01 65.761 59.526 66.712 63.899 63.654 65.223 64.432 63.878 55.991 59.213 66.466 65.249 67.506 70.405 66.937 68.38 60.793 60.073 64.437 61.1 64.77 66.428 66.535 66.719 67.961 66.303 67.203 65.699 58.743 58.496 58.989 56.607 56.029 55.985 55.925 56.957 55.649 55.023 54.877 56.063 59.098 60.938 62.381 61.724 60.251 55.027 54.383 54.194 53.885 53.073 52.775 52.676 52.713 52.703 52.88 53.781 53.633 58.284 59.983 61.559 60.998 59.465 54.895 53.982 53.396 53.257 53.227 53.42 58.657 59.012 54.355 53.159 53.343 54.088 53.266 53.142 53.09 53.072 53.085 53.131 53.075 53.093 53.144 53.095 53.092 53.012 52.883 52.815 52.992 53.05 53.174 56.729 60.618 60.612 59.701 54.796 53.303 53.257 53.388 53.457 53.409 53.402 54.096 57.866 56.863 55.153 53.522 54.881 55.048 53.165 52.952 53.131 53.855 52.803 52.638 52.699 52.795 54.681 53.076 52.992 53.566 55.588 57.588 59.292 59.517 58.865 55.783 53.182 54.563 54.741 54.882 54.865 52.66 52.601 52.627 52.651 52.741 55.063 56.808 57.48 56.899 55.08 52.855 52.527 52.542 52.418 52.343 52.374 54.343 54.128 52.282 52.701 53.967 55.993 57.033 56.557 55.282 52.477 51.961 53.748 53.987 53.858 52.918 52.588 51.836 53.979 52.183 51.158 51.342 52.732 51.541 52.21 51.31 56.025 55.908 51.829 51.413 51.348 51.386 51.624 51.274 51.189 51.246 52.139 52.239 51.148 51.12 51.114 50.816 50.838 50.869 50.779 50.784 50.855 50.911 50.971 50.912 50.879 50.834 50.804 50.761 50.693 50.701 50.687 50.663 50.665 50.603 50.607 50.608 50.608 50.628 50.611 50.609 50.642 50.667 50.695 50.711 50.719 50.742 50.781 50.777 50.806 50.825 50.874 50.876 50.89 50.941 50.94 51.016 51.018 51.121 51.135 51.195 51.147 51.138 51.145 51.157 51.162 51.151 51.161 51.154 51.152 51.134 51.189 51.18 51.205 51.241 51.266 51.277 51.251 51.241 51.258 51.255 51.253 51.272 51.24 51.271 51.282 51.32 51.306 51.315 51.358 51.392 51.393 51.373 51.452 51.477 51.485 51.547 51.546 51.578 51.655 51.716 51.77
46.556 46.504 46.469 46.355 46.356 46.144 46.131 46.165 45.996 46.078 45.912 45.817 45.722 45.832 45.687 45.771 45.707 45.799 45.844 46.723 45.819 45.872 45.845 45.859 45.871 45.927 45.909 46.012 46.042 46.27 46.419 46.359 46.38 46.628 46.506 46.503 46.505 46.557 46.555 46.551 46.521 46.573 46.52 46.56 46.553 46.567 46.562 46.606 46.579 46.532 46.531 46.536 46.608 46.558 46.602 46.603 45.351 40.053 40.037 40.119 40.177 40.249 40.327 40.327 40.422 40.46 40.527 40.664 40.675 40.782 40.811 40.901 40.959 41.018 41.108 41.174 41.234 41.519 42.456 41.639 41.674 41.749 41.784 41.833 41.837 41.897 41.966 42 42.057 42.023 42.045 42.098 43.312 42.986 42.571 42.641 42.515 42.794 44.523 42.854 44.704 47.706 49.171 45.061 48.535 54.616 57.85 57.842 54.492 55.242 56.873 58.372 58.543 53.698 52.205 59.652 57.467 59.666 57.815 51.862 50.272 50.201 50.158 50.308 50.163 50.115 50.121 50.097 50.028 50.014 49.92 49.849 49.781 49.723 49.604 49.564 49.458 57.432 59.751 61.04 60.682 59.731 55.439 57.267 61.85 60.793 60.3 62.86 64.028 63.795 66.306 67.581 68.293 63.613 63.136 64.571 65.309 65.597 64.135 63.995 63.077 54.244 61.642 58.992 62.577 58.527 65.228 65.655 64.953 62.572 65.09 61.24 68.021 68.05 67.274 61.743 67.921 68.861 66.181 61.88 59.136 66.347 68.44 67.971 67.904 67.673 65.672 65.917 61.652 59.431 59.92 57.716 55.309 56.15 55.258 55.528 54.847 54.634 56.549 56.797 61.512 62.205 61.124 59.302 54.273 54.158 54.075 53.77 52.684 52.511 52.511 52.539 52.554 52.74 53.338 53.307 58.236 60.065 60.746 60.563 58.605 53.396 53.175 53.69 53.619 53.565 59.77 58.847 58.065 53.717 53.093 53.323 53.175 54.302 53.419 53.125 53.055 52.951 52.981 53.016 53.004 53.046 53.038 52.98 52.901 52.888 52.722 52.882 53.019 53.109 57.99 59.83 61.823 60.122 58.441 53.664 53.327 53.279 53.443 53.322 53.345 54.62 54.681 55.836 55.436 53.822 53.642 53.217 53.757 52.843 52.564 52.55 52.604 52.588 52.668 52.676 52.635 52.818 52.904 52.885 56.344 59.491 59.833 59.599 58.363 55.372 52.864 54.486 55.101 55.231 54.821 54.531 53.934 52.678 52.635 52.759 55.726 56.152 56.741 56.512 53.633 52.453 52.538 52.699 52.275 52.271 52.332 56.897 56.953 53.35 52.602 55.349 56.483 57.05 55.977 53.435 52.115 51.698 51.572 51.972 52.733 51.712 51.321 51.382 53.086 52.191 51.109 52.202 53.146 53.294 52.073 51.823 53.327 54.887 51.226 53.939 57.349 56.347 56.536 54.347 52.795 51.593 52.52 51.594 51.158 51.033 50.996 50.808 50.778 50.792 50.737 50.753 50.734 50.807 50.776 50.886 51.387 50.842 50.821 50.752 50.68 50.683 50.619 50.626 50.645 50.576 50.588 50.594 50.557 50.593 50.577 50.604 50.597 50.644 50.675 50.674 50.709 50.739 50.774 50.784 50.802 50.795 50.806 50.872 50.862 50.902 50.941 50.999 51.033 51.072 51.097 51.152 51.163 51.133 51.168 51.132 51.151 51.128 51.109 51.137 51.129 51.12 51.154 51.133 51.146 51.171 51.159 51.204 51.197 51.182 51.186 51.192 51.227 51.227 51.275 51.231 51.233 51.221 51.277 51.306 51.334 51.329 51.338 51.341 51.411 51.418 51.425 51.471 51.496 51.563 51.63 51.699 51.737
45.726 45.906 45.623 45.816 45.718 45.82 46.462 46.032 45.817 45.811 45.746 45.834 45.846 45.844 45.887 45.966 45.932 46.234 46.056 46.698 46.255 46.455 46.326 46.445 46.448 46.534 46.545 46.558 46.527 46.507 46.56 46.538 46.538 46.534 46.54 46.582 46.562 46.571 46.608 46.626 46.552 46.583 46.528 46.557 46.516 46.5 46.539 46.577 46.589 46.544 46.549 46.551 46.591 46.599 46.598 46.614 46.49 40.18 40.015 40.098 40.192 40.234 40.281 40.347 40.415 40.475 40.522 40.653 40.681 40.77 40.82 40.895 41.008 40.997 41.105 41.158 41.254 41.301 41.376 41.527 41.605 41.698 41.784 41.859 41.88 41.902 41.926 41.989 42.026 42.123 42.113 42.448 42.623 42.285 42.307 42.456 42.51 42.602 42.671 42.805 42.837 42.866 42.991 44.691 43.219 50.358 57.389 52.953 50.128 53.211 55.197 56.065 56.514 55.566 58.811 57.652 56.476 61.017 58.97 55.54 50.836 52.66 54.224 53.717 52.938 50.295 50.054 50.016 50.009 49.979 49.918 49.86 49.791 49.717 49.651 49.616 49.548 50.428 52.121 58.66 56.953 55.955 52.934 53.917 60.008 59.502 60.546 59.773 62.36 65.019 66.245 67.138 65.868 64.284 58.985 60.11 64.532 63.948 55.378 58.86 63.943 58.12 61.653 61.788 56.339 64.284 64.293 65.954 67.112 69.377 61.16 67.577 64.282 66.695 65.992 60.365 66.433 59.03 65.095 61.064 64.933 66.999 58.649 67.8 60.82 66.554 65.213 65.042 62.142 58.069 58.97 58.625 57.318 55.899 54.719 54.397 54.313 55.058 54.302 54.202 58.701 62.03 60.498 55.761 54.135 53.991 53.856 53.021 52.47 52.339 52.353 52.393 52.472 52.704 53.039 53.38 54.619 58.924 59.237 59.677 54.408 53.231 52.922 52.793 52.882 53.462 60.117 60.382 59.233 54.203 54.325 53.516 53.092 54.336 53.012 53.099 53.176 53.004 52.884 52.898 52.924 52.912 52.94 52.947 52.885 52.81 52.702 52.769 52.96 53.049 54.184 59.056 60.975 60.69 59.307 54.82 53.046 53.104 53.104 53.097 53.116 53.126 53.171 54.676 55.045 54.875 53.615 53.702 52.908 52.578 52.494 52.496 52.619 52.677 52.654 52.583 52.685 53.164 52.862 52.822 56.603 59.517 59.843 59.038 55.6 52.899 53.425 52.671 52.918 53.926 53.196 53.008 54.268 52.993 52.36 52.392 52.331 53.127 54.992 55.589 52.927 52.425 52.375 52.282 52.181 52.221 52.19 55.196 56.094 56.655 54.34 55.63 57.478 57.029 55.563 52.494 52.739 52.35 51.648 51.734 51.457 51.291 51.303 52.192 52.716 52.285 51.533 50.915 51.262 52.707 51.166 50.863 51.78 53.058 52.059 52.176 57.398 58.182 56.761 56.574 54.508 51.481 51.974 53.977 55.248 51.393 51.071 50.891 50.755 50.757 50.724 50.75 50.695 50.655 50.579 50.612 52.548 50.704 50.751 50.738 50.631 50.612 50.584 50.579 50.546 50.553 50.573 50.571 50.538 50.56 50.581 50.564 50.594 50.611 50.674 50.689 50.709 50.729 50.764 50.768 50.794 50.78 50.795 50.825 50.806 50.891 50.973 50.965 51.023 51.033 51.104 51.127 51.131 51.155 51.155 51.103 51.125 51.148 51.12 51.131 51.128 51.154 51.119 51.102 51.135 51.102 51.114 51.15 51.141 51.154 51.177 51.194 51.217 51.213 51.23 51.175 51.18 51.211 51.231 51.267 51.291 51.318 51.294 51.309 51.351 51.347 51.366 51.425 51.443 51.534 51.579 51.694 51.689
45.808 45.839 45.857 45.86 45.909 46.063 47.019 46.359 46.246 46.381 46.376 46.427 46.43 46.478 46.603 46.625 46.575 46.558 46.578 46.525 46.49 46.517 46.532 46.532 46.539 46.539 46.56 46.567 46.551 46.574 46.561 46.524 46.526 46.556 46.538 46.574 46.585 46.615 46.625 46.671 46.59 46.703 46.643 46.611 46.531 46.502 46.499 46.531 46.592 46.546 46.571 46.548 46.555 46.543 46.523 46.481 46.325 40.162 40.02 40.069 40.158 40.217 40.257 40.325 40.379 40.471 40.523 40.606 40.685 40.742 40.834 40.915 40.923 41.016 41.088 41.145 41.244 41.317 41.372 41.453 41.561 41.69 41.755 41.823 41.812 41.871 41.932 42.007 42.011 42.061 42.135 42.58 42.137 42.265 42.351 42.455 42.533 42.652 42.756 42.808 42.852 42.936 42.972 43.031 43.088 47.904 51.357 48.547 44.175 45.495 52.892 54.678 52.988 58.595 60.388 61.515 60.638 58.619 59.468 53.473 50.545 55.33 57.468 58.937 56.872 53.498 51.237 49.939 49.93 49.896 49.892 49.84 49.826 49.739 49.708 49.618 49.554 49.485 49.393 49.298 50.981 49.86 49.259 56.033 56.967 55.317 57.226 58.256 62.826 65.228 63.255 65.004 65.927 65.353 61.77 58.863 58.933 63.992 61.351 57.577 63.657 60.996 62.238 56.623 58.323 66.798 58.766 68.018 68.648 68.676 68.639 67.517 63.025 59.8 64.739 67.978 64.75 64.617 56.03 61.303 62.044 61.293 64.827 64.364 64.901 67.821 68.427 58.949 61.277 62.501 59.946 59.377 59.712 54.213 53.805 54.026 53.874 55.819 56.534 53.902 53.824 53.855 53.922 54.078 53.586 53.635 53.51 52.607 52.184 52.198 52.167 52.197 53.599 54.077 53.141 55.467 52.965 52.877 53.934 53.92 52.986 53.064 53.3 52.999 52.696 52.848 59.719 58.901 56.279 53.078 58.212 56.399 54.722 53.249 52.88 52.993 52.991 53.316 52.963 52.91 52.877 52.836 52.876 52.866 52.87 52.795 52.709 52.612 54.361 53.065 52.98 57.397 59.909 60.906 59.792 58.513 54.262 54.413 53.305 53.559 54.008 54.657 53.799 54.426 55.645 55.323 52.864 52.553 52.509 52.458 52.511 52.597 52.633 52.563 52.545 52.629 52.69 53.648 53.069 52.857 57.465 59.443 59.793 58.809 56.376 54.665 53.984 52.705 52.784 53.745 53.378 53.9 52.478 52.368 52.323 54.639 54.208 52.756 52.545 53.501 53.819 53.331 52.308 52.143 52.174 52.106 52.282 52.532 51.983 52.427 54.542 55.975 57.035 56.338 55.374 54.65 54.038 52.908 51.941 51.936 52.482 51.767 52.33 51.894 51.303 51.097 52.376 51.585 50.932 50.789 51.017 50.809 50.769 50.811 51.082 55.001 57.758 57.754 56.782 56.55 53.878 52.517 53.658 54.77 55.88 52.879 51.094 50.833 50.703 50.705 50.684 50.67 50.631 50.599 50.532 50.557 51.029 50.465 50.548 50.623 50.615 50.573 50.527 50.527 50.509 50.507 50.536 50.542 50.55 50.514 50.528 50.54 50.535 50.565 50.596 50.615 50.672 50.696 50.715 50.74 50.769 50.794 50.788 50.806 50.829 50.84 50.902 50.992 50.991 51.082 51.084 51.096 51.122 51.088 51.074 51.06 51.105 51.087 51.127 51.131 51.126 51.13 51.105 51.137 51.116 51.082 51.117 51.101 51.128 51.136 51.129 51.186 51.184 51.194 51.206 51.173 51.174 51.235 51.226 51.265 51.258 51.267 51.251 51.292 51.283 51.319 51.349 51.355 51.448 51.516 51.578 51.623 51.676
45.976 45.944 46.253 46.552 46.565 46.539 46.535 46.56 46.514 46.552 46.597 46.567 46.571 46.555 46.572 46.597 46.584 46.562 46.527 46.525 46.534 46.56 46.575 46.548 46.552 46.552 46.544 46.555 46.55 46.494 46.502 46.527 46.544 46.525 46.532 46.57 46.885 46.658 46.549 46.764 46.435 46.455 46.719 46.608 46.529 46.525 46.502 46.452 46.525 46.527 46.474 46.573 46.504 46.32 46.258 46.29 46.079 40.824 40.019 40.081 40.13 40.206 40.26 40.351 40.402 40.488 40.55 40.585 40.706 40.714 40.818 40.898 40.972 40.988 41.046 41.163 41.238 41.292 41.36 41.422 41.527 41.616 41.717 41.796 41.846 41.937 42.226 42.008 42.009 42.107 42.471 43.099 42.751 42.246 42.313 42.402 42.532 42.592 42.719 42.743 42.875 42.917 43.014 43.051 43.106 44.276 44.387 44.774 43.326 43.393 48.878 48.272 56.079 58.113 57.573 51.296 56.895 57.428 57.203 53.363 48.122 57.307 59.584 60.658 60.462 58.274 55.292 50.578 49.83 49.828 49.775 49.776 49.804 49.698 49.678 49.648 49.571 49.471 49.447 49.412 49.323 49.254 49.214 53.471 55.87 53.259 54.723 54.023 60.081 61.955 65.163 63.079 60.607 55.759 60.843 55.006 56.566 60.728 64.123 62.924 62.135 65.419 63.622 56.876 62.068 65.797 60.844 67.557 60.809 66.065 60.965 63.694 64.539 66.212 67.097 66.107 66.737 57.566 61.63 59.104 58.579 64.438 66.353 66.733 65.261 68.83 63.544 60.674 62.51 61.963 61.109 60.54 56.989 54.46 53.813 53.791 53.879 56.486 59.166 59.211 57.771 54.073 54.509 53.32 53.012 52.42 52.195 52.025 51.935 51.938 51.989 52.197 54.631 53.294 52.964 56.569 58.786 57.077 53.021 52.846 52.901 55.075 55.946 55.716 54.831 52.863 54.435 56.15 53.847 58.234 59.542 59.225 57.948 54.772 53.864 52.916 52.951 53.1 53.019 53.173 53.318 52.889 52.848 52.709 52.718 52.716 52.653 52.583 52.591 52.897 52.843 54.145 59.102 60.726 57.944 54.72 53.604 54.487 54.631 55.524 55.589 55.723 53.686 52.719 54.076 52.476 52.417 52.404 52.472 52.543 52.52 52.533 52.642 52.672 53.071 53.971 52.695 52.915 53.356 53.827 58.292 58.709 59.041 58.389 55.444 55.203 52.846 52.885 53.817 54.66 52.398 52.319 52.333 52.229 53.63 55.579 56.044 55.604 55.143 52.341 52.173 52.19 52.19 52.031 52.091 52.098 52.954 52.463 51.894 52.109 55.031 56.388 57.111 55.798 55.003 54.966 54.713 52.895 52.594 51.769 53.167 52.536 53.257 51.435 51.475 51.081 50.945 51.132 51.237 50.814 50.791 50.71 52.153 53.158 50.882 52.887 54.187 54.703 54.403 55.439 52.189 51.474 52.968 54.092 51.144 51.398 50.801 50.796 50.602 50.692 50.624 50.575 50.589 50.585 50.485 50.446 50.418 50.353 50.348 50.425 50.506 50.475 50.504 50.504 50.457 50.502 50.477 50.463 50.483 50.5 50.485 50.524 50.485 50.566 50.543 50.599 50.626 50.64 50.652 50.7 50.736 50.701 50.753 50.794 50.797 50.835 50.875 50.966 50.978 51.004 51.064 51.068 51.16 51.095 51.071 51.11 51.095 51.077 51.113 51.067 51.074 51.096 51.073 51.121 51.114 51.102 51.099 51.081 51.077 51.068 51.081 51.137 51.128 51.185 51.169 51.17 51.171 51.192 51.216 51.211 51.25 51.21 51.212 51.232 51.233 51.258 51.297 51.327 51.415 51.491 51.527 51.546 51.576
45.782 46.031 46.311 46.559 46.565 46.546 46.526 46.558 46.548 46.567 46.566 46.556 46.565 46.552 46.59 46.579 46.578 46.565 46.566 46.517 46.553 46.61 46.568 46.549 46.546 46.534 46.55 46.548 46.5 46.461 46.49 46.514 46.525 46.498 46.497 46.506 46.878 47.11 46.459 46.401 46.428 47.713 46.812 46.437 46.389 46.388 46.402 46.256 46.355 46.394 46.479 46.507 46.572 45.858 45.858 46.202 45.602 40.753 40.29 40.066 40.132 40.185 40.27 40.312 40.425 40.474 40.513 40.595 40.662 40.722 40.82 40.871 40.941 40.965 41.083 41.155 41.204 41.262 41.385 41.412 41.518 41.628 41.692 41.786 41.837 41.906 42.476 42.452 44.952 45.755 47.088 47.168 42.267 42.16 42.181 42.306 42.485 42.566 42.616 42.723 42.774 42.93 42.98 43.081 43.132 43.182 43.317 43.35 43.4 43.444 43.512 48.175 54.21 54.35 56.628 54.612 57.27 53.14 56.9 48.76 49.134 57.293 59.081 60.495 59.688 58.002 55.739 50.374 50.033 49.783 49.753 49.726 49.703 49.697 49.637 49.588 49.534 49.539 49.456 49.424 49.341 49.285 49.196 49.085 49.077 49.028 48.973 52.171 60.857 61.236 61.032 56.038 60.868 60.722 61.21 61.003 62.338 57.179 64.187 60.513 62.752 61.349 62.401 53.61 63.219 65.394 59.866 59.988 66.598 62.641 66.741 62.26 57.871 67.17 66.841 58.967 63.666 64.937 66.107 66.523 66.235 66.145 66.968 67.952 68.765 66.037 59.854 67.407 65.735 58.578 57.37 58.333 56.191 53.566 54.746 54.474 54.461 58 60.088 60.863 60.503 60.098 54.649 53.507 52.837 52.298 52.033 51.832 51.781 51.866 52.519 52.631 56.978 56.493 56.322 58.848 59.739 59.703 58.9 56.292 53.004 55.809 56.291 56.415 56.24 53.437 53.574 53.415 56.951 59.501 60.281 60.491 59.847 59.088 55.859 53.04 53.131 53.762 53.173 53.203 52.957 53.79 52.866 52.698 52.571 52.595 52.544 52.506 52.509 53.136 52.955 52.753 55.356 55.54 55.512 53.382 53.25 53.049 54.059 56.021 55.984 55.647 52.796 52.406 52.336 52.401 52.413 52.412 52.473 52.406 52.444 52.512 52.628 52.703 54.703 55.923 55.521 52.677 52.495 52.51 53.465 53.335 55.957 54.383 52.841 53.118 52.47 52.479 55.296 54.56 52.414 52.418 52.354 52.853 53.75 55.965 56.989 56.247 55.672 52.616 52.141 52.169 52.071 52.011 52.006 52.035 53.153 52.13 51.964 54.603 55.987 56.433 56.739 55.611 54.843 54.815 52.192 51.384 51.461 53.116 55.825 52.817 52.308 52.87 52.919 51.682 50.951 50.906 51.189 51.668 52.016 50.978 53.559 54.158 52.061 51.286 53.543 53.599 51.714 51.004 50.99 54.227 53.436 51.825 52.688 50.985 50.809 50.76 50.567 50.588 50.531 50.54 50.528 50.487 50.438 50.412 50.311 50.348 50.329 50.218 50.314 50.436 50.474 50.45 50.445 50.478 50.468 50.411 50.451 50.467 50.499 50.505 50.482 50.512 50.54 50.585 50.589 50.59 50.658 50.675 50.701 50.684 50.748 50.776 50.807 50.865 50.877 50.941 50.922 50.972 51.045 51.089 51.022 51.08 51.076 51.067 51.083 51.097 51.114 51.111 51.109 51.085 51.09 51.124 51.109 51.087 51.093 51.066 51.072 51.077 51.022 51.069 51.121 51.138 51.15 51.16 51.174 51.177 51.212 51.182 51.153 51.16 51.187 51.191 51.169 51.248 51.224 51.284 51.382 51.417 51.452 51.49 51.535
41.179 46.037 46.2 46.494 46.514 46.503 46.524 46.56 46.531 46.539 46.509 46.516 46.508 46.56 46.557 46.574 46.554 46.518 46.528 46.527 46.54 46.55 46.54 46.555 46.549 46.578 46.53 46.514 46.5 46.477 46.44 46.492 46.44 46.479 46.448 46.473 46.875 46.869 46.274 46.219 46.238 46.315 46.178 45.48 45.786 45.868 45.662 44.906 43.637 45.03 42.704 42.661 42.164 40.914 41.495 40.492 40.357 40.248 40.222 40.099 40.131 40.215 40.24 40.316 40.375 40.456 40.513 40.594 40.68 40.742 40.771 40.853 40.921 41.013 41.075 41.113 41.177 41.247 41.334 41.43 41.554 41.7 41.688 41.835 41.895 41.963 41.94 42.13 45.104 46.311 46.773 45.749 42.103 42.135 42.166 42.276 42.392 42.542 42.855 42.73 42.832 42.883 42.973 43.027 43.071 43.196 43.227 43.305 43.399 43.504 43.54 43.614 45.033 50.342 54.649 55.63 56.154 49.733 47.698 48.735 46.521 52.46 56.488 59.153 57.925 55.491 50.808 48.284 48.908 50.237 49.887 49.653 49.6 49.979 51.209 49.834 49.515 49.636 49.463 49.409 49.362 49.292 49.217 49.161 49.059 49 48.92 50.935 60.065 60.294 58.991 59.887 60.853 61.552 60.963 62.46 61.418 62.022 63.295 64.647 58.668 59.773 59.446 55.024 60.488 57.502 57.434 54.707 62.188 59.375 64.775 59.327 54.457 66.7 66.259 65.797 63.548 66.846 62.74 59.544 64.511 60.721 59.764 55.978 67.784 55.829 67.705 61.179 55.881 61.283 61.919 57.649 55.213 54.299 53.519 53.869 56.294 58.788 60.432 61.617 60.582 59.452 53.671 53.521 55.576 54.371 51.842 52.145 51.642 51.674 52.378 52.574 56.676 57.011 58.25 59.219 60.56 59.866 58.714 54.706 53.69 54.954 55.729 56.012 53.894 54.599 55.305 53.147 57.859 58.764 59.537 60.286 59.985 59.342 55.684 52.947 52.8 52.722 52.794 52.862 52.843 52.787 52.873 52.713 52.555 52.512 52.556 52.458 52.388 52.389 52.586 52.596 54.104 54.343 53.004 52.688 52.632 52.607 52.511 52.624 52.448 52.373 52.329 52.292 52.323 52.396 52.355 52.703 52.844 52.458 52.539 52.566 53.173 53.165 53.158 53.722 55.983 54.122 52.486 52.581 52.468 52.636 52.536 53.407 52.885 52.472 52.417 52.45 55.191 53.065 52.253 54.068 54.33 54.396 55.339 56.379 57.197 55.828 53.649 52.162 52.145 52.367 52.026 51.928 51.942 52.088 54.071 52.156 51.964 53.697 54.663 55.401 55.664 55.069 54.598 54.203 51.97 51.449 55.442 54.618 53.189 51.182 51.137 51.035 53.25 51.807 51.265 50.849 50.852 52.916 53.382 53.867 54.669 55.173 54.171 52.709 52.825 52.135 51.136 50.931 50.908 52.547 53.86 51.629 50.778 50.778 50.738 50.569 50.531 50.524 50.6 50.421 50.437 50.488 50.381 52.796 51.232 50.845 50.205 50.218 50.169 50.764 50.353 50.357 50.382 50.419 50.427 50.441 50.467 50.479 50.499 50.543 50.537 50.588 50.571 50.585 50.616 50.598 50.648 50.659 50.638 50.707 50.736 50.747 50.785 50.842 50.911 50.911 50.959 50.931 51.003 51.049 51.049 51.055 51.046 51.039 51.028 51.079 51.058 51.067 51.101 51.088 51.114 51.09 51.08 51.092 51.091 51.096 51.069 51.064 51.034 51.037 51.087 51.129 51.159 51.196 51.161 51.184 51.165 51.169 51.129 51.14 51.148 51.141 51.149 51.167 51.159 51.245 51.335 51.378 51.419 51.482 51.496
40.66 45.943 46.066 46.388 46.509 46.491 46.537 46.541 46.533 46.574 46.542 46.518 46.528 46.558 46.576 46.57 46.559 46.513 46.509 46.467 46.457 46.367 46.382 46.456 46.371 46.436 46.399 46.451 46.379 46.223 45.463 46.057 45.851 45.811 46.201 46.329 45.84 44.845 42.675 43.525 43.411 43.601 42.294 40.974 41.357 40.079 40.946 40.137 40.694 39.91 39.94 39.913 39.944 40.261 40.074 40.049 40.173 40.155 39.988 40.016 40.249 40.197 40.513 40.559 40.383 40.46 40.691 40.728 40.625 40.71 40.794 40.873 40.943 40.96 41.24 41.338 41.378 41.44 41.58 41.574 41.67 41.705 41.78 41.874 41.925 41.959 43.116 42.157 44.935 45.075 45.167 43.705 41.988 42.065 42.164 42.264 42.354 42.428 42.528 42.61 42.723 42.83 42.906 42.988 43.116 43.179 43.377 43.325 43.381 43.46 43.539 43.666 43.681 43.752 45.785 45.422 46.849 44.295 46.523 46.96 46.776 50.149 54.717 52.629 54.442 47.774 47.141 47.082 48.5 49.84 50.479 50.025 53.371 55.488 56.167 51.01 56.66 50.394 49.399 49.354 49.299 49.319 49.222 49.169 49.075 49.055 48.955 53.899 57.774 58.908 58.491 57.872 55.535 55.822 59.048 62.191 61.832 62.912 65.368 66.323 62.837 56.842 53.423 58.28 60.919 64.422 62.662 57.846 60.703 63.906 55.17 61.654 63.279 66.803 66.747 61.782 67.883 67.301 64.948 64.511 64.394 59.034 66.124 58.241 59.748 64.969 65.72 66.573 67.784 67.342 62.654 59.313 55.8 53.465 53.421 53.515 56.698 59.911 60.901 61.914 60.167 56.353 53.737 53.442 55.717 53.624 51.848 51.642 51.488 51.462 51.755 52.39 53.539 52.781 58.641 59.745 62.259 59.701 55.799 52.911 52.587 52.485 52.963 52.75 55.248 55.314 54.222 53.504 55.317 56.076 58.562 59.112 59.625 55.721 52.839 52.654 55.709 53.957 53.777 52.799 52.713 52.703 52.693 52.604 52.506 52.404 52.419 52.379 52.374 52.271 52.347 53.252 53.546 53.782 52.758 52.688 52.494 52.41 52.339 52.247 52.289 52.305 52.309 52.341 52.299 52.314 52.431 52.535 52.538 52.871 52.596 52.649 52.646 52.612 52.564 54.171 57.11 57.964 58.263 56.93 52.536 53.184 52.757 52.682 53.058 52.546 53.726 55.564 55.12 52.48 52.286 54.95 54.757 54.813 56.365 56.764 56.777 55.528 52.989 52.108 52.12 52.396 51.871 51.923 51.926 51.98 52.443 53.916 54.419 54.571 54.044 54.01 52.958 54.143 53.865 53.114 51.434 51.477 54.439 52.761 51.344 52.519 50.908 50.882 51.878 51.203 50.851 50.862 51.972 53.546 55.753 54.896 55.754 55.514 54.786 53.765 50.763 50.736 50.819 50.794 50.988 51.593 51.115 50.732 50.675 50.695 50.599 50.469 50.462 50.488 50.831 50.437 52.552 51.146 56.658 58.139 57.459 53.657 50.147 50.138 50.1 50.126 50.236 50.265 50.327 50.343 50.366 50.421 50.405 50.409 50.458 50.477 50.531 50.551 50.55 50.638 50.626 50.607 50.615 50.662 50.649 50.738 50.768 50.786 50.837 50.86 50.927 50.892 50.896 50.946 50.904 50.988 51.028 50.992 50.999 51.024 51.009 51.034 51.013 51.026 51.042 51.064 51.085 51.099 51.098 51.077 51.081 51.068 51.038 51.034 51.05 51.052 51.077 51.111 51.145 51.173 51.198 51.143 51.123 51.147 51.109 51.132 51.123 51.104 51.122 51.13 51.137 51.206 51.261 51.299 51.383 51.447 51.488
42.76 45.431 45.746 46.347 46.475 46.492 46.508 46.456 46.489 46.515 46.497 46.526 46.529 46.552 46.528 46.485 46.473 46.291 46.321 46.391 46.243 45.209 45.881 45.637 45.077 45.157 45.01 44.938 43.246 44.038 41.327 42.427 41.191 41.46 42.528 42.577 42.188 41.943 42.363 42.708 42.853 42.745 42.243 41.547 39.952 39.97 40.615 40.392 40.308 39.885 39.997 39.97 39.89 40.034 41.308 42.557 40.07 40.909 40.065 40.123 40.227 40.399 40.584 40.623 40.617 40.613 40.704 40.79 40.861 40.909 43.339 41.403 41.39 41.337 41.34 41.392 41.375 41.501 41.738 41.765 41.744 41.658 41.756 41.958 44.23 42.115 44.145 45.199 44.95 44.605 44.788 43.254 42.465 42.499 42.201 42.279 42.353 42.402 42.492 42.543 42.66 42.719 42.823 42.915 43.012 43.069 43.175 43.26 43.451 43.718 43.537 43.656 43.669 43.75 43.801 43.885 43.97 44.033 44.084 44.148 44.282 47.569 52.016 52.476 47.766 51.065 49.397 50.481 50.704 50.124 48.478 52.321 56.844 59.444 62.647 62.439 61.119 57.327 55.803 49.609 49.28 49.263 49.226 49.186 49.104 49.084 49 48.932 54.384 56.265 52.257 48.619 48.55 53.194 51.813 61.539 61.48 62.278 62.793 65.814 62.529 52.893 52.546 60.05 62.61 64.017 65.142 63.552 56.265 56.175 50.911 63.227 63.215 67.591 61.743 64.117 58.912 66.371 63.057 66.761 57.324 59.88 65.025 55.811 67.507 65.645 61.072 67.241 64.768 61.983 65.494 61.535 56.094 55.119 53.665 53.72 54.455 60.093 60.991 60.995 59.849 54.733 53.536 54.543 55.513 51.705 51.877 51.283 51.259 52.201 51.728 52.075 52.972 54.643 58.896 60.058 60.183 58.95 55.268 56.009 52.968 52.452 52.468 52.369 56.122 56.369 55.292 52.711 52.698 53.714 55.717 56.647 58.711 53.641 53.124 52.77 58.251 58.976 58.521 54.503 52.688 52.605 52.59 52.594 52.554 52.372 52.302 52.347 52.327 52.309 52.217 52.3 52.311 52.658 52.364 52.262 52.312 52.232 52.165 52.239 52.309 52.251 52.297 52.246 52.361 52.41 52.473 52.958 52.658 52.525 52.58 52.648 53.37 53.031 55.581 58.178 58.808 59.294 59.496 57.535 53.547 53.007 52.692 53.994 54.873 54.594 54.632 54.827 53.292 52.413 52.336 52.386 52.689 54.498 55.992 57.198 56.556 55.36 52.378 52.239 52.188 51.986 51.819 51.852 51.835 54.359 52.059 55.043 56.761 56.271 54.645 52.268 51.73 51.669 52.213 52.22 51.449 53.239 53.144 52.563 52.446 51.504 50.791 50.777 51.162 50.881 50.806 52.256 53.368 54.55 55.228 55.907 55.132 54.618 53.918 52.276 51.691 52.138 50.731 50.706 52.368 50.921 50.759 50.799 50.635 50.544 50.496 50.471 50.418 50.44 50.572 51.288 56.474 59.957 60.645 60.606 58.293 54.399 51.378 50.126 50.031 50.021 50.023 50.123 50.217 50.265 50.31 50.372 50.363 50.394 50.446 50.46 50.478 50.536 50.559 50.532 50.589 50.616 50.66 50.656 50.641 50.712 50.734 50.722 50.807 50.821 50.831 50.859 50.859 50.885 50.895 50.956 50.962 50.97 50.969 50.987 50.97 50.99 51.004 51.03 51.004 51.055 51.072 51.081 51.126 51.087 51.104 51.055 51.047 51.043 51.011 51.045 51.07 51.11 51.104 51.129 51.134 51.102 51.1 51.098 51.103 51.105 51.062 51.078 51.097 51.111 51.097 51.195 51.225 51.269 51.352 51.388 51.445
39.855 43.944 45.44 46.131 46.404 46.435 46.416 46.438 46.421 46.484 46.358 46.389 46.504 46.418 45.907 42.672 41.512 42.056 42.19 43.174 43.081 40.795 39.622 40.912 40.999 40.633 39.983 41.318 40.257 41.252 41.534 41.477 41.372 41.636 39.769 39.767 39.863 39.93 42.682 39.934 39.992 39.966 39.949 39.984 39.979 39.659 41.755 43.776 42.115 42.396 40.023 40.785 39.977 40.116 43.156 44.188 42 41.286 41.973 41.034 41.685 41.786 41.285 41.464 40.74 40.566 40.78 42.578 41.096 44.063 43.695 41.635 41.742 41.574 41.4 41.582 41.618 42.132 43.702 42.214 41.952 41.805 42.911 48.606 47.87 46.008 45.35 47.257 45.541 44.524 44.887 44.723 42.866 42.729 42.659 42.339 42.334 42.373 42.441 42.517 42.599 42.634 42.743 42.809 42.895 43.025 43.132 43.239 43.269 43.385 43.454 43.575 43.663 43.749 43.807 43.873 43.966 44.058 44.118 44.202 44.345 47.307 51.172 51.998 48.49 50.464 51.057 50.344 53.955 52.641 49.486 54.083 60.166 62.516 63.683 63.076 61.884 62.341 58.902 53.72 49.209 49.187 49.186 49.126 49.107 49.08 48.976 48.949 48.889 48.833 48.761 48.682 48.649 48.552 48.65 52.107 58.704 59.77 61.03 63.011 58.096 58.423 53.661 57.014 61.043 62.627 60.59 63.062 62.683 65.882 63.288 64.555 63.748 58.543 66.892 66.852 65.041 65.442 65.66 63.985 66.792 62.115 66.512 67.969 66.556 68.195 67.096 62.757 67.132 65.221 66.609 63.659 55.79 54.384 54.409 54.074 57.639 59.432 59.773 60.081 59.39 52.999 52.805 52.531 55.257 52.145 51.54 51.139 51.157 51.515 51.612 52.225 52.084 56.524 58.549 59.119 59.49 58.607 53.151 53.422 52.737 52.71 54.416 53.928 53.884 54.043 52.611 52.713 53.404 52.891 52.737 53.039 53.827 53.032 52.636 55.754 59.224 59.931 59.602 58.745 56.808 52.752 52.485 53.114 52.724 52.951 52.187 52.239 52.312 52.229 52.229 52.117 52.124 52.144 52.13 52.105 52.186 52.176 52.232 52.21 52.261 52.283 52.341 52.369 52.534 53.009 52.65 52.54 52.513 52.524 52.559 52.811 52.863 55.69 58.912 59.463 61.238 60.884 60.284 58.911 56.215 53.61 52.612 54.233 55.092 55.034 54.872 52.593 52.076 52.15 51.948 51.959 52.467 55.081 56.453 57.026 56.079 54.916 52.423 52.125 52.252 51.75 51.751 51.717 51.934 54.536 53.582 54.377 56.619 55.407 52.38 52.165 52.136 52.041 51.521 53.624 53.793 53.449 51.727 50.908 51.307 51.158 50.799 50.764 50.862 51.92 50.786 53.764 54.797 55.663 55.83 54.937 54.097 52.265 51.544 50.741 50.731 51.965 51.235 50.662 50.673 50.767 50.806 50.572 50.489 54.361 51.992 55.625 52.057 51.2 52.632 56.435 59.053 55.809 63.163 59.039 55.759 52.664 51.793 50.675 50.407 49.97 49.914 49.95 50.11 50.197 50.203 50.284 50.338 50.346 50.405 50.409 50.465 50.462 50.533 50.565 50.595 50.582 50.632 50.621 50.632 50.652 50.665 50.741 50.774 50.785 50.822 50.838 50.836 50.864 50.881 50.891 50.934 50.868 50.929 50.922 50.895 50.918 50.985 50.968 51.003 51.059 51.1 51.126 51.1 51.094 51.085 51.027 51.042 51.031 51.012 51.016 51.036 51.09 51.119 51.107 51.133 51.049 51.057 51.087 51.08 51.055 51.045 51.062 51.106 51.08 51.147 51.177 51.208 51.242 51.287 51.368 51.401
39.578 40.243 41.825 42.734 44.506 44.891 42.532 43.23 42.414 43.465 42.908 42.346 42.514 41.929 40.028 40.328 40.272 40.835 41.406 41.892 41.923 41.128 40.559 40.74 40.88 40.592 40.171 40.618 40.662 40.642 40.683 39.495 39.697 39.72 39.775 39.78 39.836 40.536 39.914 39.938 39.928 39.341 39.592 39.712 40.231 40.857 42.027 43.453 43.557 42.259 44.625 42.797 41.797 41.338 44.074 43.557 44.142 43.459 43.767 43.109 43.787 43.615 43.79 44.577 43.591 41.008 41.968 42.688 44.632 44.855 44.846 44.96 42.642 43.831 42.77 44.128 43.708 45.354 48.048 44.472 44.954 46.896 48.783 49.628 50.978 50.319 50.086 50.714 47.774 45.619 44.768 45.418 45.517 45.798 44.983 43.074 42.324 42.327 42.439 42.498 42.563 42.603 42.732 42.761 42.856 42.943 43.075 43.142 43.194 43.285 43.333 43.474 43.581 43.717 43.851 43.925 43.976 44.031 44.08 44.158 44.183 44.336 45.042 45.461 45.321 45.813 48.795 52.91 53.918 53.888 49.48 52.186 59.562 62.357 61.373 63.637 63.735 63.597 61.819 53.032 49.186 49.118 49.117 49.046 49.038 48.993 48.98 48.93 48.866 48.841 48.796 48.7 48.702 48.593 48.54 48.431 49.985 51.36 58.826 58.193 59.335 62.295 56.142 57.124 58.518 55.571 63.005 61.396 64.385 65.904 65.798 57.631 64.385 65.879 65.999 63.03 65.405 65.549 66.18 64.394 59.007 65.551 66.302 66.971 65.586 60.101 65.267 63.629 65.161 62.267 64.33 58.926 55.037 54.077 54.357 54.739 54.356 52.884 52.6 54.487 54.038 56.069 56.996 54.208 53.553 55.806 53.585 50.996 50.889 51.202 51.588 51.844 51.987 52.454 54.77 53.804 57.269 55.829 52.662 52.434 52.423 52.67 56.608 56.522 54.794 52.805 52.665 53.839 53.295 52.499 52.573 52.868 54.366 52.805 52.665 58.076 59.076 59.874 60.529 59.911 58.826 53.13 52.501 53.68 53.32 52.587 52.18 52.185 52.188 52.183 52.2 52.131 52.144 52.106 52.132 52.135 52.141 52.193 52.126 52.184 52.258 52.335 52.488 54.933 55.373 52.464 52.453 52.473 52.603 56.176 57.605 56.103 52.69 54.049 58.136 59.778 60.049 59.713 58.984 58.557 56.776 52.503 52.749 54.316 54.725 54.897 53.763 52.22 51.921 51.886 51.932 51.885 52.107 55.362 56.574 56.938 55.425 52.841 51.772 51.83 51.922 51.665 51.684 51.679 52.335 54.129 53.252 53.653 53.8 54.273 53.342 53.921 54.381 53.958 53.311 54.507 52.07 51.116 51.422 51.981 52.716 51.11 50.655 50.692 52.221 52.954 52.31 51.286 54.163 55.007 54.565 53.635 51.411 51.478 50.881 50.538 50.706 52.388 50.602 50.554 50.55 50.657 50.548 50.53 51.98 60.546 61.391 60.015 51.321 52.624 55.819 52.401 59.472 61.01 56.261 56.219 52.203 52.448 50.669 50.575 50.53 50.044 49.886 49.904 49.886 50.03 50.184 50.206 50.237 50.29 50.354 50.374 50.409 50.406 50.462 50.543 50.576 50.613 50.581 50.575 50.614 50.645 50.674 50.695 50.765 50.733 50.777 50.792 50.836 50.808 50.806 50.825 50.854 50.881 50.857 50.839 50.926 50.903 50.93 50.928 50.977 51.046 51.072 51.035 51.077 51.039 51.07 51.054 51.034 51.034 51.039 51.03 51.021 51.05 51.089 51.09 51.05 51.022 51.015 51.043 51.078 51.047 51.003 51.061 51.075 51.076 51.112 51.159 51.196 51.224 51.268 51.312 51.323
39.122 39.773 40.858 41.188 41.26 41.582 41.448 42.225 42.6 42.838 42.779 42.736 42.403 41.95 41.085 40.686 40.463 39.097 41.012 39.19 39.228 39.236 39.171 38.355 37.923 38.458 38.434 38.224 38.544 39.041 39.245 39.134 38.935 38.925 39.691 39.657 40.002 41.147 41.019 41.204 39.699 39.425 40.245 40.182 40.36 41.036 41.763 42.579 41.813 43.507 45.217 44.223 42.697 42.229 42.821 43.628 44.11 44.296 44.298 44.362 43.908 43.887 43.598 43.219 43.814 44.304 43.414 44.232 44.149 44.293 44.29 44.704 44.766 44.808 44.841 45.7 45.286 46.147 46.656 47.054 45.538 48.344 48.579 50.217 50.148 47.184 50.446 50.017 50.097 46.89 46.599 47.521 46.308 46.302 46.136 43.531 42.444 42.423 42.505 42.515 42.496 42.543 42.693 42.694 42.777 42.856 43.026 43.092 43.169 43.223 43.279 43.395 43.497 43.596 43.697 43.82 43.886 43.985 44.076 44.146 44.191 44.231 44.358 44.441 44.522 44.594 44.783 48.207 53.235 54.36 47.543 50.631 51.998 59.192 60.87 63.28 63.199 62.662 59.964 51.907 49.339 49.168 49.043 48.997 48.961 48.937 48.959 48.885 48.88 48.849 48.809 48.721 48.731 48.632 48.584 48.492 48.404 48.364 48.48 55.925 58.626 58.102 58.66 55.452 54.452 57.219 61.106 62.689 63.059 64.451 63.724 64.686 62.458 63.873 61.992 54.797 61.034 64.9 57.492 62.228 62.444 63.694 64.608 63.951 63.203 65.2 61.782 60.161 62.663 62.638 63.319 60.691 54.155 52.282 52.341 52.36 52.817 53.576 54.073 53.655 52.106 53.88 54.286 51.958 54.363 52.215 50.725 50.747 50.889 51.209 52.402 52.603 52.191 56.305 52.29 53.431 52.369 52.7 53.863 53.963 52.548 52.278 52.116 53.558 52.462 52.525 52.618 53.031 52.501 52.42 53.915 55.16 54.841 52.661 52.576 54.834 58.118 58.558 59.285 59.265 55.811 52.511 52.924 53.376 52.652 52.139 52.084 52.024 52.113 52.102 52.14 52.154 52.112 52.079 52.108 52.059 52.026 52.043 52.131 52.297 53.721 55.521 56.045 55.607 55.573 52.769 53.313 52.585 56.867 59.242 59.299 57.423 52.667 54.185 56.957 58.834 58.863 58.074 57.852 55.762 55.55 53.08 52.424 52.476 52.494 53.091 52.593 51.987 51.932 51.907 52.945 52.544 52.42 55.11 55.56 55.851 55.831 52.533 51.594 51.674 51.772 51.572 51.633 51.596 52.644 51.909 51.566 51.923 51.815 52.169 51.406 51.477 52.764 53.283 53.264 53.346 52.714 51.764 50.918 51.24 53.32 53.164 52.121 53.45 53.945 53.467 52.574 50.953 53.228 54.519 53.655 51.331 50.972 51.548 50.547 51.791 51.712 50.571 50.542 54.522 57.274 55.799 52.377 54.883 59.514 59.771 62.82 55.393 58.757 53.748 51.319 57.228 56.522 54.578 55.377 52.342 50.847 50.665 50.562 50.483 50.432 50.253 50.019 49.849 49.842 49.866 50.12 50.117 50.158 50.232 50.26 50.317 50.355 50.391 50.405 50.492 50.489 50.497 50.548 50.578 50.61 50.592 50.657 50.682 50.721 50.729 50.727 50.74 50.751 50.775 50.819 50.784 50.798 50.854 50.824 50.85 50.887 50.893 50.956 50.968 51.005 50.977 50.961 50.992 51.018 50.992 51.018 51.036 51.031 51.063 51.017 51.05 51.025 51.032 51.07 51.055 51.056 51.007 51.043 51.041 51.035 51.015 51.019 51.037 51.039 51.043 51.156 51.118 51.156 51.193 51.204 51.255 51.276
38.844 38.995 39.684 38.702 38.751 38.765 38.813 38.81 38.834 38.88 38.874 38.904 38.923 38.975 39.029 38.926 38.997 39.191 39.517 39.536 38.686 37.647 37.199 37.855 38.285 38.976 39.109 38.415 38.044 37.914 39.246 39.626 39.63 39.846 40.137 40.362 40.727 42.071 42.15 41.915 39.672 39.734 40.633 40.535 39.514 39.594 40.837 41.809 42.615 44.345 44.885 43.851 41.503 39.374 38.909 41.021 42.188 42.279 43.022 43.553 43.541 43.646 43.419 41.072 43.704 42.869 44.148 44.045 43.498 41.466 43.829 45.199 42.648 44.915 44.983 45.25 45.31 45.858 46.005 45.559 44.371 48.192 48.432 49.036 49.289 45.42 49.449 49.692 49.095 47.116 46.607 47.798 47.816 46.109 47.379 44.799 46.251 44.348 47.04 43.132 43.775 42.67 42.642 42.699 42.698 42.816 42.938 43.052 43.126 43.199 43.285 43.345 43.43 43.527 43.605 43.734 43.808 43.922 43.952 44.092 44.194 44.269 44.374 44.431 44.431 44.547 44.629 44.745 50.133 48.566 46.995 44.924 45.878 49.091 60.77 61.432 62.542 61.748 53.024 49.476 49.699 49.931 49.271 49.078 49.008 48.894 48.842 48.807 48.838 48.845 48.735 48.733 48.717 48.663 48.619 48.545 48.457 48.389 48.363 52.46 56.761 51.165 49.344 48.44 48.659 58.104 52.604 59.397 59.168 62.812 63.069 61.897 52.58 59.949 53.58 58.918 58.378 62.186 63.204 62.943 59.896 61.349 62.601 61.014 62.611 59.939 62.535 63.131 61.876 62.476 62.064 59.5 53.893 52.288 52.199 52.073 52.038 52.426 53.331 53.938 52.386 51.964 51.252 50.74 50.521 50.39 50.568 50.577 50.777 51.071 52.553 55.158 57.095 58.853 58.693 56.684 53.501 52.289 52.495 52.812 53.538 54.494 52.976 55.613 52.76 52.478 54.178 53.064 52.613 52.644 53.314 54.874 52.914 52.678 54.536 55.744 55.522 55.724 58.458 58.445 53.841 52.811 53.117 53.005 52.299 52.115 52.093 51.966 51.98 52.02 52.044 52.072 52.096 52.006 51.97 51.917 52.011 52.161 53.992 55.525 54.353 54.765 53.463 51.926 53.329 53.321 52.963 52.454 56.237 59.1 59.948 58.828 54.438 54.179 55.182 57.894 54.031 52.498 53.485 53.401 54.632 52.802 52.192 52.46 52.067 53.06 52.302 52.909 53.05 52.735 51.708 51.792 51.788 51.618 52.03 54.641 55.085 51.53 51.751 51.9 51.816 51.521 51.511 51.583 51.735 51.257 51.255 51.427 51.32 51.337 51.479 51.104 51.021 51.327 53.003 52.742 52.824 51.133 51.236 52.56 53.444 53.827 54.178 54.907 55.257 54.289 53.133 51.821 51.13 53.832 50.893 50.462 50.542 51.348 51.678 51.133 50.547 50.696 54.78 58.808 60.257 61.232 55.061 57.985 63.024 58.174 63.523 59.371 58.52 52.1 50.361 52.318 53.142 51.686 50.982 50.862 50.425 50.422 50.432 50.339 50.267 50.211 50.123 49.954 49.817 49.786 49.812 50.012 50.094 50.163 50.243 50.25 50.304 50.338 50.392 50.444 50.442 50.488 50.529 50.53 50.595 50.621 50.653 50.636 50.66 50.694 50.691 50.683 50.724 50.684 50.753 50.793 50.791 50.822 50.813 50.856 50.881 50.857 50.873 50.902 50.935 50.958 50.921 50.961 50.947 50.964 50.959 50.988 50.999 51.001 51.023 51.023 51.002 50.998 51.049 51.078 51.011 50.964 50.989 50.987 51.012 50.983 50.978 51.06 51.013 51.092 51.751 51.094 51.165 51.216 51.202 51.211 51.244
39.036 38.6 38.7 38.854 38.258 38.856 38.351 38.822 38.86 38.854 38.886 38.878 39.664 39.204 39.082 38.979 38.885 38.884 39.503 39.73 38.384 37.56 36.743 36.797 37.766 38.061 38.218 37.861 37.63 37.232 38.29 38.896 38.293 38.511 39.524 40.056 39.474 39.814 40.891 41.977 39.213 36.993 38.382 38.516 37.313 37.984 39.036 38.235 40.814 43.11 44.127 42.832 40.634 39.5 38.575 39.161 40.136 41.255 42.132 42.311 42.512 43.521 42.356 40.475 41.142 43.456 43.785 43.506 42.892 39.98 42.614 44.373 44.566 43.936 41.849 44.919 45.464 44.717 44.077 44.703 44.228 43.518 46.488 46.629 47.887 47.944 46.068 47.203 46.332 45.494 46.164 46.868 46.942 48.487 49.267 49.619 51.015 48.629 50.615 51.315 48.965 46.896 43.617 42.886 42.634 42.737 42.863 42.973 43.113 43.194 43.25 43.296 43.422 43.524 43.559 43.66 43.758 43.822 43.905 43.987 44.117 44.209 44.291 44.372 44.498 44.564 44.556 44.623 44.712 44.836 44.911 45.027 44.989 45.059 57.243 58.792 57.827 57.194 51.125 48.27 47.492 47.883 49.065 49.778 49.309 49.116 48.839 48.755 49.497 49.029 48.915 48.685 48.653 48.645 48.626 48.564 48.529 48.473 48.443 48.395 48.314 48.228 48.103 48.165 48.16 49.25 55.531 57.38 60.501 59.51 59.37 53.774 53.739 56.772 57.066 54.285 52.327 58.835 56.286 57.774 59.499 61.889 59.516 56.746 62.102 62.678 55.095 63.203 62.483 62.397 58.357 52.624 51.649 51.71 51.858 52.417 51.937 53.776 54.126 53.548 52.461 51.64 53.321 51.04 50.343 50.29 50.384 50.44 50.693 52.188 52.808 55.184 58.042 59.453 59.644 58.554 53.882 52.201 52.342 52.294 52.577 52.606 53.92 55.148 53.235 53.217 54.104 52.732 52.631 52.783 52.71 54.211 54.662 53.231 52.713 53.712 52.861 52.983 54.753 54.442 53.185 52.412 52.526 52.204 52.592 53.19 52.046 52.106 51.913 51.92 51.923 51.978 51.988 51.899 51.865 51.96 53.161 54.49 54.092 54.733 54.022 52.377 53.156 53.586 52.951 54.411 53.858 52.455 53.473 58.335 59.726 59.348 57.145 53.781 54.581 54.808 52.41 52.362 52.913 54.545 53.02 52.103 51.799 55.492 55.085 52.939 51.721 53.375 53.824 54.172 52.019 51.215 51.257 51.376 51.294 51.293 51.257 51.305 51.41 51.448 51.442 51.507 51.453 51.572 51.599 51.194 51.152 51.137 51.063 51.07 51.421 50.976 50.903 51.108 51.121 50.955 51.703 50.746 53.044 53.613 54.426 55.451 55.557 55.452 55.263 54.635 53.707 51.8 51.217 50.541 50.44 50.518 51.687 51.102 50.63 50.552 50.658 50.6 57.207 60.224 59.882 62.83 60.508 59.483 59.999 61.925 60.826 62.696 59.997 53.603 50.398 50.567 51.296 50.981 50.4 50.374 50.366 50.338 50.196 50.158 50.134 50.136 50.099 50.081 49.917 49.683 49.732 49.723 49.917 50.059 50.112 50.219 50.226 50.278 50.349 50.371 50.421 50.441 50.456 50.539 50.514 50.546 50.604 50.634 50.599 50.627 50.643 50.636 50.695 50.686 50.702 50.715 50.781 50.819 50.835 50.86 50.829 50.853 50.868 50.884 50.875 50.9 50.917 50.938 50.96 50.95 50.943 50.974 50.962 50.973 50.984 50.991 50.991 50.967 51.008 51.014 50.965 50.947 50.986 50.988 50.987 50.997 50.994 51.021 51.063 51.915 51.069 51.05 51.113 51.175 51.18 51.219 51.233
