ncols 433
nrows 32
xllcorner    425018
yllcorner    435724
cellsize     2
NODATA_value -9999
87.682 88.051 87.34 85.906 85.647 85.609 85.845 85.191 85.927 86.072 85.184 85.698 88.267 90.222 89.844 85.285 84.147 84.161 84.091 83.942 83.792 83.732 83.735 83.613 83.515 83.607 85.756 84.814 83.495 84.337 85.798 85.774 85.793 86.16 87.733 86.581 82.426 82.265 82.178 83.8 86.635 96.718 95.713 87.266 91.311 85.348 86.705 85.803 80.884 79.82 79.521 79.181 79.193 79.122 78.91 78.606 78.49 78.252 78.02 77.833 77.563 77.318 77.264 77.027 76.606 76.43 76.075 75.78 76.391 76.589 75.048 74.765 74.887 74.898 74.863 75.254 74.165 75.36 73.142 72.787 72.581 72.348 72.133 72.294 72.354 71.346 71.092 70.848 70.604 72.115 75.008 71.391 70.144 70.116 70.326 69.423 69.766 69.194 69.42 68.655 68.552 68.101 67.836 67.459 67.944 66.826 66.588 66.297 66.184 65.994 65.787 65.755 65.647 65.522 65.49 65.316 65.378 65.416 65.71 67.037 66.68 66.408 66.286 66.327 66.306 66.691 67.562 68.977 69.304 68.386 68.432 68.716 68.942 69.102 69.096 68.991 69.286 69.004 69.878 69.122 69.162 70.011 69.516 69.478 69.786 70.557 70.124 70.219 71.511 70.319 70.184 72.234 71.959 70.602 70.504 71.045 72.602 73.773 72.279 73.387 75.809 71.268 71.089 76.009 76.742 76.924 77.138 77.64 77.627 77.825 76.852 74.133 72.848 73.912 76.28 75.41 74.666 73.932 70.394 70.527 71.183 69.118 69.022 69.595 72.279 68.999 74.611 74.592 72.98 69.868 70.267 69.546 69.559 69.517 68.837 72.985 78.242 76.045 66.464 66.496 67.143 70.766 72.423 73.501 73.344 72.465 67.451 66.862 66.31 65.855 65.699 65.393 66.129 65.262 65.151 65.166 65.14 65.173 65.059 65.386 65.257 64.53 68.194 71.376 72.674 72.856 70.882 71.298 69.082 61.942 61.798 64.008 66.342 67.257 67.689 66.77 68.632 69.388 66.994 72.2 72.491 72.27 71.16 63.458 67.833 66.735 69.106 65.995 69.285 59.956 55.765 64.732 61.458 61.257 68.092 67.618 64.542 58.089 61.861 66.353 59.709 64.16 56.543 60.18 58.15 65.057 62.813 58.747 63.389 61.37 56.689 55.242 51.395 52.245 49.191 48.543 48.52 48.426 48.407 48.311 48.262 49.049 55.112 54.685 52.985 48.311 48.117 48.018 47.905 47.852 47.828 49.929 50.44 47.615 48.97 47.826 52.726 55.316 55.178 54.843 52.518 50.223 51.497 47.055 46.317 46.31 46.191 46.149 46.108 46.111 47.612 46.598 48.681 48.702 48.381 52.087 54.596 52.191 50.876 52.095 51.129 51.5 50.142 45.917 44.303 46.457 42.213 41.905 41.812 41.81 41.234 40.874 40.719 40.466 39.956 39.36 41.557 41.201 39.563 41.371 40.56 38.069 36.846 36.766 36.725 36.765 36.791 36.808 36.967 38.594 40.316 39.083 38.328 37.617 37.39 37.453 37.398 37.372 37.368 37.358 37.365 37.369 37.44 37.385 37.445 37.488 37.507 37.507 37.543 37.586 37.504 37.44 37.432 37.392 37.281 37.252 37.16 37.105 37.071 37.057 37.025 36.994 36.952 36.984 37.016 36.973 36.87 37.003 37.577 37.707 37.748 37.785 37.313 37.099 37.013 36.938 36.911 36.756 36.654 36.584 36.518 36.418 36.378 36.366 36.869 36.765 35.994 35.401 35.367 35.282 35.164 35.096 35.312 35.354 35.408 35.468 35.512 35.211 35.557 35.079 34.868 34.895 34.906 34.852 34.795 34.776 34.696 34.665 34.661 34.696 34.751 34.758 34.817
87.744 87.274 87.197 85.906 85.684 87.683 87.465 86.558 85.655 85.349 84.503 85.476 90.455 91.815 90.768 87.167 84.182 84.138 84.145 83.88 84.17 83.756 83.61 83.541 83.467 83.581 85.558 87.773 87.04 84.84 83.84 82.569 88.152 88.745 89.326 87.655 83.318 82.304 82.816 85.387 87.967 98.02 96.417 97.383 84.021 84.628 83.992 81.577 79.856 79.859 80.503 79.159 78.939 79.002 78.822 78.596 78.91 78.274 77.996 77.788 77.529 77.154 77.559 76.755 76.746 77.624 78.942 76.532 75.837 75.119 74.823 74.881 74.936 74.923 76.332 75.142 74.388 74.036 73.776 73.134 72.497 72.247 71.941 71.86 71.603 71.402 71.172 70.879 70.697 70.497 70.377 72.199 72.173 70.571 69.716 69.428 69.15 69.016 68.768 68.568 68.263 67.548 67.335 67.125 66.857 66.65 66.517 66.357 66.259 66.123 65.942 65.856 65.729 65.725 65.632 65.526 65.515 65.655 66.267 66.594 66.23 66.382 66.296 66.434 66.9 67.287 67.553 68.085 69.088 68.276 68.3 68.418 68.926 68.874 69.033 70.016 69.167 69.908 69.46 69.493 69.34 69.745 70.307 70.058 70.07 70.292 70.425 71.077 71.491 71.703 71.398 71.178 71.527 71.669 70.763 70.611 71.672 71.488 71.008 71.072 70.989 71.727 71.03 71.589 72.098 74.838 75.745 76.13 76.452 76.669 76.713 73.948 71.131 75.558 76.926 77.422 77.136 76.275 72.721 70.741 69.987 70.168 69.123 70.329 71.055 69.338 71.104 70.934 70.099 69.102 71.343 69.967 69.741 69.639 72.146 73.171 76.25 72.759 68.298 66.978 66.479 67.272 67.84 69.033 72.865 72.143 68.351 67.915 67.071 66.622 65.902 65.786 66.931 65.628 65.224 65.018 64.955 65.08 65.859 65.128 64.884 64.99 65.026 68.461 69.811 69.597 66.587 63.375 62.172 61.696 61.716 61.503 61.572 62.227 64.13 62.455 68.219 70.206 71.848 72.071 72.287 71.867 71.196 63.912 65.828 68.684 68.078 67.552 67.28 56.539 57.846 68.048 61.14 63.53 60.994 67.299 60.524 61.935 64.09 66.756 65.183 64.961 65.451 58.657 57.403 64.94 62.791 54.616 63.449 59.419 62.221 58.561 59.861 58.704 53.122 56.647 50.057 48.614 48.416 48.306 48.232 48.13 51.558 51.83 49.025 48.329 48.149 48.034 48.012 47.911 47.677 47.637 47.541 47.448 47.367 47.361 47.28 52.965 53.789 53.073 51.603 49.104 47.428 46.286 46.375 46.282 46.161 46.134 46.076 46.639 49.731 49.337 48.552 50.447 51.724 48.757 51.338 50.032 48.235 50.559 49.253 44.007 43.637 42.724 42.567 42.395 42.217 42.156 42.067 41.945 41.576 41.342 41.343 41.365 41.084 39.519 39.717 41.67 42.916 42.514 40.406 38.753 37.993 37.029 36.777 36.797 36.794 36.779 36.841 38.359 40.182 40.835 39.856 37.822 37.579 37.49 37.388 37.305 37.332 37.338 37.311 37.373 37.469 37.419 37.411 37.478 37.538 37.516 37.521 37.474 37.533 37.508 37.403 37.374 37.265 37.214 37.136 37.094 37.088 37.027 37.018 37.03 37.055 37.014 36.98 36.93 37.08 37.497 37.558 37.831 37.77 37.444 37.25 37.061 36.996 36.98 36.901 36.75 36.712 36.665 36.586 36.501 36.467 36.451 36.873 36.994 36.354 37.427 36.135 35.31 35.136 35.065 35.087 35.28 35.307 35.443 35.545 35.228 35.412 35.416 34.928 34.919 34.947 34.892 34.828 34.75 34.784 34.693 34.652 34.657 34.774 34.739 34.772
86.128 86.816 88.046 86.214 86.334 88.746 89.745 88.382 84.956 84.677 84.505 84.892 89.852 91.555 91.045 88.305 84.233 84.152 84.118 84 83.767 84.075 83.487 83.459 83.352 83.461 86.748 87.824 87.48 82.944 82.581 82.981 87.548 89.838 90.421 89.087 86.076 84.018 84.663 83.21 88.512 95.833 99.337 97.672 88.986 83.483 80.07 81.321 81.615 81.069 78.801 78.768 78.737 78.741 78.72 78.601 78.56 78.4 78.014 77.603 77.325 77.073 76.831 76.748 78.693 78.628 79.323 78.844 75.265 75.193 74.976 75.022 74.918 75.766 75.541 74.688 74.527 74.305 73.732 74.14 73.45 72.183 71.989 71.698 71.511 71.305 71.118 70.881 70.698 70.494 70.336 70.799 70.185 69.825 69.65 69.422 69.231 68.965 68.654 68.459 67.877 67.456 67.251 67.07 66.855 66.776 66.647 66.502 66.391 66.201 66.125 66.017 65.889 65.838 65.714 65.683 65.648 67.389 67 66.44 66.411 66.478 66.437 67.007 67.176 67.395 67.871 68.646 68.799 69.632 68.937 68.206 68.528 68.773 69.033 68.975 68.854 68.886 69.059 69.318 70.029 69.422 69.472 69.706 69.824 70.339 70.104 70.314 70.353 70.476 70.818 70.736 71.026 71.435 72.218 72.184 72.605 71.908 71.395 71.439 71.177 72.026 70.948 70.727 70.661 70.619 71.811 72.452 71.139 72.996 74.99 72.031 71.431 75.598 76.307 77.026 77.46 76.274 74.359 71.439 71.974 75.086 73.32 70.554 70.579 69.012 70.585 70.732 69.019 69.003 68.961 69.036 70.325 72.016 73.673 72.507 72.496 68.905 67.853 67.498 67.35 67.663 66.76 66.267 70.464 70.538 66.907 70.206 71.951 69.956 67.31 67.115 66.867 66.044 65.4 65.355 65.041 64.85 65.313 65.13 65.183 64.938 65.235 64.707 64.059 65.349 64.05 63.386 62.876 62.522 62.493 61.798 61.46 60.874 60.842 65.73 70.653 68.231 71.441 68.012 72.453 71.643 70.015 69.501 62.044 70.34 61.486 66.018 66.982 66.344 66.856 65.74 67.59 68.798 59.42 62.625 59.182 60.555 57.677 64.768 61.809 64.01 57.612 62.774 54.701 60.156 63.098 60.27 60.57 63.854 60.264 61.722 61.533 61.766 59.437 54.633 54.497 49.362 48.399 48.331 48.246 48.159 48.094 48.946 48.22 48.65 48.267 48.096 47.976 47.876 47.699 47.61 47.562 47.486 47.372 47.257 47.169 47.156 49.561 52.708 49.432 46.315 46.305 46.326 46.281 46.243 46.188 46.129 46.039 46.099 49.967 50.404 48.62 51.892 51.804 48.43 47.983 47.125 46.526 49.867 45.696 43.906 43.026 42.882 42.727 42.602 42.45 42.303 42.224 42.853 41.711 41.52 41.413 41.273 40.835 39.918 39.302 42.643 44.307 41.491 40.961 39.655 38.892 37.345 36.806 36.839 36.789 36.746 37.106 38.422 39.394 40.138 39.118 37.949 37.739 37.545 37.455 37.343 37.363 37.328 37.384 37.385 37.49 37.529 37.48 37.532 37.554 37.54 37.561 37.535 37.472 37.49 37.426 37.395 37.277 37.232 37.189 37.104 37.129 37.062 37.162 37.09 37.092 37.005 36.987 37.151 37.799 37.748 37.853 37.946 37.59 37.404 37.195 37.102 37.112 36.992 36.91 36.804 36.782 36.718 36.655 36.558 36.502 36.494 36.544 36.982 36.635 36.233 35.68 35.242 35.102 35.073 35.045 35.155 35.247 35.405 35.47 35.416 35.102 35.586 35.024 34.88 34.896 34.899 34.868 34.803 34.732 34.718 34.685 34.735 34.722 34.745 34.778
86.016 86.62 87.505 87.838 85.806 86.052 86.622 86.11 84.962 86.784 87.71 88.302 89.588 90.854 91.739 90.322 85.246 84.073 84.055 83.966 83.803 83.686 83.448 83.339 83.26 83.291 83.566 86.536 85.611 82.778 82.671 82.522 86.132 88.834 91.022 90.113 87.125 82.486 82.223 82.092 82.195 94.168 96.6 83.74 83.021 83.246 80.892 81.774 79.639 79.061 78.587 78.555 78.711 78.903 78.948 78.784 78.262 78.041 77.82 78.578 78.244 77.465 77.048 77.056 76.904 77.034 80.786 75.68 78.287 80.583 76.759 75.934 74.919 75.261 74.867 74.798 74.612 74.465 74.12 73.932 73.052 72.082 71.88 71.647 71.376 71.214 70.987 70.839 70.645 70.495 70.431 70.277 70.13 69.907 69.66 69.49 69.257 68.896 68.526 68.244 67.709 67.399 67.283 67.181 66.97 66.847 66.665 66.604 66.501 66.305 66.198 66.082 66.035 65.966 65.904 65.793 65.81 66.311 68.198 67.068 66.545 67.466 67.279 68.271 68.55 69.027 69.233 69.498 68.454 68.123 67.979 68.074 68.249 68.413 68.56 68.633 68.789 68.86 68.982 69.259 69.543 69.489 69.559 69.61 69.817 69.875 70.016 70.188 70.253 70.458 70.486 70.67 70.816 70.964 71.027 71.195 71.584 71.548 71.709 71.524 72.307 72.158 71.241 71.377 71.78 71.115 71.91 70.915 70.844 71.356 71.548 71.124 71.019 71.499 74.141 75.25 75.522 75.69 70.589 71.393 75.813 75.883 75.936 75.234 73.308 69.753 70.753 69.235 69.033 69.001 68.957 68.98 69.446 72.317 73.167 72.462 69.405 68.294 67.901 67.944 68.375 67.659 66.844 66.755 66.234 67.166 68.898 71.926 73.065 72.879 71.773 69.098 66.505 66.114 65.495 66.037 65.185 64.974 64.891 64.935 65.004 64.914 64.76 64.873 64.648 64.251 64.327 63.864 63.533 63.242 62.635 62.471 61.738 61.497 61.114 62.694 69.803 67.32 70.202 66.302 71.501 62.232 68.148 62.795 64.474 67.765 61.094 60.887 67.473 66.878 62.489 68.309 66.16 61.281 61.476 67.029 63.064 62.69 62.819 60.904 62.305 65.614 62.932 55.073 58.775 62.182 57.836 62.437 61.818 55.325 63.162 61.574 60.292 61.843 61.441 58.384 55.374 49.61 49.118 48.389 48.251 48.194 48.07 48.173 48.037 47.994 48.742 48.054 47.988 47.914 47.698 47.669 47.538 47.425 47.364 47.256 47.236 47.12 47.786 47.476 47.314 46.375 46.384 46.358 46.27 46.187 46.166 46.104 46.049 46.031 46.094 49.613 48.193 50.59 50.677 47.457 46.738 45.877 45.467 45.193 43.617 43.417 43.138 43.009 42.912 42.769 42.605 42.424 42.327 42.045 41.747 41.359 41.263 40.765 40.568 39.981 39.545 40.111 41.052 41.982 38.73 38.557 38.676 37.571 36.855 36.801 36.781 36.773 36.814 37.3 38.504 38.378 39.58 37.781 37.801 37.595 37.538 37.44 37.415 37.384 37.442 37.405 37.437 37.517 37.474 37.532 37.499 37.598 37.542 37.495 37.549 37.47 37.457 37.378 37.279 37.222 37.203 37.171 37.177 37.113 37.166 37.302 37.063 36.94 37.168 37.78 38.042 37.962 38.011 38.088 37.428 37.313 37.226 37.152 37.071 36.999 36.972 36.885 36.824 36.778 36.735 36.647 36.581 36.527 36.606 37.592 37.032 36.04 35.321 35.305 35.06 35.035 35.069 35.061 35.269 35.278 35.439 35.608 35.197 35.232 35.334 34.855 34.846 34.914 34.867 34.784 34.727 34.722 34.708 34.706 34.685 34.754 34.783
86.002 85.993 86.827 89.009 88.772 85.581 85.602 85.274 87.301 88.533 89.449 90.32 89.127 90.511 91.733 90.795 86.302 84.07 84.037 83.868 83.763 83.661 83.409 83.324 83.206 83.153 83.173 83.129 82.967 82.881 82.727 82.709 83.807 87.955 89.799 90.392 88.848 84.371 82.312 82.114 83.901 85.49 85.612 84.315 82.241 80.458 79.761 79.164 82.24 83.778 82.674 78.803 78.639 78.616 78.521 78.72 78.313 78.737 79.516 78.177 78.603 78.018 77.188 77.102 77.109 76.89 77.896 77.267 80.266 81.578 81.167 79.961 76.23 75.084 74.922 74.964 76.087 74.508 74.128 74.083 72.383 72.02 71.664 71.421 71.404 71.119 70.933 70.69 70.43 70.376 70.208 70.234 70.045 69.837 69.647 69.444 69.205 68.748 68.335 67.963 67.656 67.492 67.429 67.228 67.138 66.909 66.793 66.651 66.484 66.411 66.226 66.174 66.132 66.068 66.034 65.973 65.848 65.955 66.537 67.879 68.09 68.535 67.371 67.436 67.454 67.698 67.416 67.548 67.702 67.729 67.92 68.032 68.234 68.384 68.504 68.642 68.766 68.867 68.999 69.059 69.203 69.305 69.51 69.726 69.808 69.937 70.07 70.254 70.379 70.491 70.591 70.753 70.865 70.961 71.073 71.12 71.184 71.169 71.263 71.257 71.252 71.237 71.135 71.527 71.516 71.41 72.117 71.217 71.193 72.154 71.878 71.82 70.249 70.219 70.966 71.737 70.886 71.458 70.02 72.245 75.193 75.773 76.689 76.517 75.914 75.382 73.821 70.718 71.815 69.07 69.056 69.02 70.396 72.764 72.74 68.993 69.002 68.949 69.057 68.915 67.943 67.583 67.289 66.905 66.769 66.931 67.151 70.299 72.059 72.78 73.126 72.3 70.852 67.298 66.431 66.921 65.497 65.28 64.9 64.853 64.692 64.693 64.837 64.934 64.796 64.61 64.234 64.029 64.053 63.726 63.314 62.845 62.433 62.137 61.646 61.463 67.048 68.436 66.28 64.164 63.006 67.024 66.911 62.139 66.13 62.209 66.274 65.99 68.639 69.719 61.291 66.457 62.115 65.517 59.101 65.314 64.583 57.108 54.342 56.429 62.52 55.105 65.675 61.819 64.998 63.278 65.241 63.227 58.364 63.856 62.051 60.011 58.513 62.106 61.22 59.697 59.897 52.94 51.948 49.704 48.218 48.157 48.092 48.042 47.94 47.956 47.976 48.52 47.855 47.811 47.741 47.595 47.521 47.463 47.353 47.261 47.184 47.119 46.973 46.786 46.601 46.46 46.389 46.358 46.393 46.186 46.111 46.093 46.035 46.113 49.336 50.805 48.338 51.745 51.366 53.14 48.172 49.502 48.196 44.467 43.638 43.438 43.365 43.16 43.019 42.919 42.657 42.514 42.526 42.109 41.829 41.44 41.161 41.024 41.645 40.461 39.81 39.472 39.316 39.451 38.8 38.985 38.549 38.271 36.792 36.782 36.78 36.79 36.809 36.863 37.054 37.446 38.723 38.466 37.822 37.633 37.587 37.518 37.406 37.434 37.4 37.442 37.446 37.44 37.494 37.524 37.538 37.56 37.525 37.522 37.482 37.404 37.484 37.363 37.328 37.295 37.2 37.208 37.239 37.168 37.196 37.164 37.049 37.337 37.831 37.876 38.041 38.08 37.868 37.503 37.315 37.244 37.235 37.182 37.074 37.025 36.955 36.932 36.878 36.823 36.785 36.721 36.631 36.61 36.576 37.036 37.316 36.502 35.378 35.277 35.155 35.091 35.046 35.002 35.287 35.296 35.383 35.418 35.31 35.197 35.405 34.919 34.822 34.879 34.867 34.847 34.77 34.727 34.7 34.703 34.715 34.749 34.78
85.94 85.981 86.227 88.773 86.726 85.5 85.394 87.582 89.407 90.376 90.247 87.051 85.584 89.955 91.244 91.616 89.541 84.251 83.964 83.996 84.384 85.061 83.407 83.197 83.099 83.056 83.059 83.138 83.064 83.767 83.916 84.027 82.878 86.797 89.137 89.351 88.565 86.643 82.882 82.189 83.057 83.374 82.976 82.895 81.082 82.151 79.876 79.695 84.38 85.462 84.898 85.063 82.378 78.655 78.456 78.41 79.447 78.06 77.32 77.17 79.103 78.032 77.447 77.31 79.974 81.102 77.568 79.027 76.74 82.334 82.129 81.699 80.72 76.047 75.016 79.764 82.057 82.914 78.616 72.738 72.43 71.65 73.543 71.388 71.299 71.042 70.882 70.622 70.457 70.183 70.033 69.858 69.799 69.707 69.518 69.277 69.094 68.543 68.246 67.88 67.729 67.644 67.508 67.371 67.231 67.037 66.948 66.746 66.591 66.455 66.28 66.216 66.2 66.158 66.127 66.163 66.105 66.063 66.109 66.34 66.521 66.626 66.754 66.947 67.025 67.179 67.294 67.518 67.656 67.802 67.959 68.079 68.255 68.336 68.463 68.655 68.795 68.851 69.046 69.148 69.172 69.398 69.462 69.698 69.786 69.962 70.12 70.25 70.44 70.498 70.685 70.803 70.899 70.994 71.069 71.188 71.246 71.243 71.262 71.192 71.143 71.107 71.046 71.011 70.949 71.659 71.204 70.917 70.889 70.886 70.784 70.885 71.69 70.716 70.56 70.684 70.009 70.056 70.01 70.261 70.84 71.841 75.044 75.706 76.329 77.497 76.054 75.726 74.174 73.919 69.325 69.079 70.926 71.997 70.194 68.787 68.703 69.08 70.918 70.802 68.708 68.344 67.903 67.323 68.337 66.893 66.584 66.196 67.104 71.131 72.556 73.697 72.7 70.951 67.633 66.016 65.637 66.783 65.894 65.557 64.808 64.709 64.629 64.711 64.917 64.853 64.52 64.358 64.348 64.295 63.742 63.532 63.212 62.676 62.437 61.929 62.708 66.929 63.183 68.725 60.979 67.631 69.857 71.269 73.063 69.001 68.91 68.774 68.716 65.144 68.551 65.923 62.547 68.031 67.701 66.839 63.598 66.235 58.97 65.703 64.148 55.157 59.701 66.756 66.732 64.132 62.74 63.469 59.432 60.139 62.794 55.635 60.465 52.039 61.544 61.734 61.142 58.883 54.661 49.516 48.241 48.16 48.171 48.063 47.985 47.885 47.836 47.865 48.213 48.269 47.972 47.622 47.525 47.53 47.486 47.325 47.179 47.08 46.904 46.778 46.616 46.547 46.396 46.365 46.278 46.189 46.114 46.101 46.038 46.123 53.752 53.051 49.633 48.518 53.317 55.61 55.367 54.826 50.145 44.691 43.682 43.521 43.383 43.269 43.114 43.262 43.171 42.695 42.367 42.101 41.926 41.497 41.229 41.287 41.42 40.739 40.068 39.696 39.436 39.147 38.975 39.864 39.253 38.165 37.328 36.749 36.754 36.77 36.803 36.837 36.942 38.307 39.605 40.71 40.42 38.486 37.618 37.531 37.479 37.428 37.405 37.437 37.436 37.478 37.481 37.511 37.546 37.536 37.534 37.509 37.489 37.458 37.455 37.439 37.342 37.31 37.274 37.298 37.229 37.266 37.304 37.087 37.518 38.163 38.089 38.084 38.106 37.97 37.477 37.383 37.311 37.244 37.226 37.112 37.058 37.044 36.974 36.971 36.949 36.904 36.791 36.752 36.692 36.645 36.622 36.822 37.218 37.292 36.064 35.887 35.124 35.093 35.048 34.961 34.947 35.24 35.294 35.351 35.51 35.146 35.308 35.233 34.818 34.84 34.886 34.865 34.767 34.716 34.734 34.695 34.727 34.723 34.81
86.743 85.783 85.672 86.524 87.534 86.711 85.644 86.161 88.627 89.167 87.72 85.742 84.516 87.572 90.564 90.594 89.586 84.704 84.58 84.717 84.98 84.286 83.594 83.202 83.01 83.002 82.915 83.037 83.366 83.505 83.002 82.542 82.34 85.946 88.176 84.977 83.738 82.863 83.339 83.681 82.226 81.946 83.87 84.722 83.815 90.956 85.896 87.341 83.996 84.924 85.538 85.833 84.456 81.115 78.567 78.553 79.713 77.513 77.196 77.263 80.168 80.172 82.483 82.617 82.877 81.386 78.042 76.581 75.89 79.159 80.854 81.904 81.885 80.565 79.839 83.139 85.834 83.705 75.27 72.497 72.077 73.798 72.554 71.415 71.273 71.054 70.864 70.712 70.388 70.074 69.978 69.641 69.497 69.358 69.199 69.042 68.744 68.369 68.088 67.992 67.935 67.781 67.586 67.495 67.316 67.073 66.978 66.796 66.697 66.599 66.347 66.38 66.254 66.323 66.331 66.242 66.298 66.269 66.262 66.365 66.535 66.609 66.812 66.893 67.1 67.212 67.359 67.538 67.667 67.831 67.961 68.056 68.227 68.285 68.472 68.604 68.779 68.923 69.075 69.187 69.298 69.465 69.516 69.81 69.84 70.083 70.209 70.347 70.503 71.178 71.669 70.923 70.884 71.036 71.099 71.201 71.263 71.272 71.295 71.228 71.195 71.124 71.135 71.023 70.964 70.931 71.141 70.849 72.292 72.517 71.14 70.657 70.649 71.063 71.188 70.536 70.149 70.252 70.594 69.889 69.599 69.501 71.996 74.535 75.044 76.04 76.353 76.449 76.253 75.589 74.691 69.9 71.024 69.893 68.797 68.753 68.852 70.501 70.95 68.837 68.932 69.335 68.334 68.637 68.439 67.07 67.04 66.761 66.524 67.65 70.151 70.986 72.075 69.809 66.99 70.356 69.839 66.537 65.539 66.414 66.149 65.533 64.879 64.544 64.471 64.646 64.52 64.484 64.7 64.465 64.169 63.939 63.787 63.421 63.155 62.799 63.458 68.673 68.728 63.821 63.991 65.001 71.254 72.497 62.142 71.925 61.892 69.342 64.71 69.234 64.949 69.958 67.183 61.415 63.963 66.028 64.79 63.061 65.729 61.061 60.356 63.43 56.293 55.403 64.215 62.113 64.833 65.551 66.243 66.027 62.815 59.482 51.687 58.928 62.007 55.197 56.048 58.185 59.164 56.208 49.539 49.116 48.022 48.034 47.952 47.973 47.792 47.776 47.782 48.207 48.775 48.187 47.664 47.439 47.391 47.402 47.247 47.144 46.909 46.746 46.559 46.439 46.388 46.324 46.257 46.217 46.137 46.053 46.128 48.339 54.468 55.616 54.535 54.771 53.735 54.804 55.717 55.185 47.367 48.422 43.877 43.695 43.499 43.39 43.19 43.269 43.738 46.99 42.393 42.156 41.977 41.558 42.136 42.582 41.322 40.669 40.474 39.835 39.633 39.315 39.404 40.943 39.834 39.576 38.757 37.316 36.826 36.773 36.738 36.731 36.734 37.091 39.868 41.443 42.356 38.69 37.68 37.524 37.458 37.401 37.404 37.43 37.429 37.449 37.461 37.46 37.497 37.53 37.515 37.488 37.482 37.505 37.449 37.423 37.355 37.319 37.349 37.373 37.36 37.269 37.163 37.284 37.866 38.005 38.096 38.109 37.839 37.555 37.353 37.304 37.335 37.23 37.215 37.105 37.074 37.027 36.988 36.918 36.922 36.856 36.896 36.841 36.767 36.676 36.638 36.725 37.251 37.238 36.716 35.405 35.287 35.365 35.128 34.969 34.916 35.172 35.206 35.359 35.377 35.255 35.396 35.369 34.887 34.804 34.861 34.867 34.825 34.766 34.801 34.734 34.747 34.738 34.774
86.096 85.713 85.618 85.675 86.562 87.207 86.231 85.13 85.516 85.799 84.675 84.577 84.223 85.069 86.028 85.672 84.456 84.835 83.938 83.46 83.342 83.264 83.337 83.129 82.962 82.898 82.811 82.891 83.249 82.734 82.584 82.519 82.47 82.35 82.799 82.306 83.157 83.864 82.995 81.934 81.575 81.576 83.1 84.794 88.389 91.942 94.361 80.406 78.491 82.202 84.352 85.674 85.983 85.175 82.787 79.317 82.165 77.387 78.475 82.256 83.946 83.671 84.605 84.72 83.603 78.734 78.693 79.777 76.091 75.924 76.617 80.682 82.321 81.468 82.56 83.723 85.208 82.69 74.361 74.503 71.673 72.196 71.47 71.446 71.295 71.249 70.937 72.606 70.602 70.1 69.835 69.583 69.372 69.168 68.921 68.784 68.498 68.274 68.224 68.118 68.006 67.91 67.686 67.57 67.381 67.194 67.218 67.215 72.162 69.812 66.849 66.758 66.522 66.558 66.465 66.457 66.418 66.41 66.449 66.506 66.586 66.732 66.812 66.997 67.154 67.199 67.386 67.579 67.634 67.756 67.988 67.993 68.305 68.402 68.582 68.671 68.875 69.029 69.262 69.326 69.497 69.475 69.77 70.041 70.102 70.931 70.397 71.461 71.441 70.735 71.052 70.955 71.053 71.054 71.124 71.224 71.217 71.251 71.217 71.251 71.204 71.19 71.119 71.002 71.02 70.918 70.873 70.759 71.134 70.708 71.118 70.567 71.521 70.796 70.425 70.586 70.345 70.291 70.576 70.319 69.979 70.541 69.436 69.558 70.952 74.295 74.829 75.524 76.014 75.89 73.912 69.377 69.463 68.641 68.705 68.857 69.185 71.871 69.267 68.677 68.442 68.771 70.183 71.279 69.723 67.889 67.293 67.763 67.784 66.899 66.345 66.027 67.95 66.974 69.045 71.675 71.952 70.905 67.028 66.21 65.618 65.453 66.24 64.578 64.527 64.454 64.381 64.541 64.487 64.365 64.298 64.111 64.209 63.759 65.327 68.768 69.169 70.442 70.13 69.917 67.439 60.984 64.057 71.591 71.986 68.883 67.563 64.441 71.081 68.153 60.034 69.936 66.401 66.788 66.566 61.439 66.858 59.998 61.458 65.61 66.184 62.332 58.205 61.704 62.772 65.242 60.344 64.774 58.446 59.147 63.838 63.645 60.933 55.057 62.504 60.191 60.432 60.571 60.354 59.554 58.193 51.373 48.226 47.962 47.963 47.944 47.849 47.706 47.706 47.668 48.706 49.483 49.401 47.436 47.318 47.33 47.229 47.166 46.968 46.762 46.619 46.471 46.415 46.311 46.218 46.188 46.085 46.072 46.057 46.889 53.521 54.963 54.312 56.149 53.435 53.894 56.466 56.19 53.614 47.961 44.009 43.812 43.689 43.479 44.632 45.027 50.764 51.077 45.189 42.146 42 41.783 44.392 41.201 44.501 40.604 40.075 39.964 39.68 39.391 39.305 39.266 38.911 41.011 40.06 38.478 37.853 37.02 37.179 36.747 36.74 37.353 39.938 40.649 42.136 41.683 37.871 37.536 37.421 37.377 37.393 37.37 37.413 37.456 37.444 37.47 37.47 37.478 37.496 37.492 37.416 37.455 37.476 37.453 37.393 37.452 37.468 37.458 37.404 37.286 37.354 37.933 38.112 38.173 38.127 38.105 37.528 37.404 37.365 37.307 37.297 37.225 37.15 37.129 37.087 37.057 37.005 36.972 36.969 36.903 36.906 36.843 36.835 36.703 36.665 36.671 37.151 37.353 37.127 36.572 38.79 36.962 35.389 34.981 34.912 35.061 35.195 35.29 35.364 35.354 35.094 35.213 35 34.784 34.826 34.892 34.855 34.839 34.84 34.755 34.762 34.724 34.724
85.758 85.678 85.632 85.688 85.991 85.481 85.488 85.155 84.918 84.697 84.559 84.502 84.402 85.12 84.952 85.67 83.816 83.484 84.446 83.621 84.207 83.289 83.894 83.41 82.946 82.839 82.759 82.692 82.809 82.841 82.708 82.608 82.461 82.305 83.084 83.533 82.536 81.981 81.769 81.654 81.574 81.566 81.755 87.05 89.231 90.594 84.949 80.306 78.541 78.556 78.531 80.163 84.722 85.55 80.207 79.486 78.435 77.433 82.907 84.431 84.668 84.177 83.569 83.145 81.45 78.63 82.749 77.039 77.513 76.535 75.254 75.935 78.331 81.927 85.013 85.231 83.954 83.214 72.912 72 71.639 71.553 71.561 71.436 71.369 71.26 71.063 71.053 70.791 70.347 69.953 69.625 69.326 69.144 68.91 68.796 68.625 68.504 68.389 68.191 68.18 68.012 67.846 67.636 67.49 67.53 67.521 68.029 72.455 72.658 67.89 67.009 66.853 66.615 66.668 66.589 66.586 66.606 66.647 66.678 66.711 66.799 66.936 66.997 67.098 67.281 68.671 68.165 67.768 67.916 68.153 68.219 68.476 68.627 70.429 69.548 69.411 69.692 69.721 69.921 71.161 70.306 71.209 71.548 70.969 71.682 71.986 71.454 70.802 71.18 71.527 72.221 71.998 71.505 71.532 71.283 71.31 71.263 71.329 71.286 71.205 71.212 71.066 71.035 70.915 70.859 70.823 70.807 70.751 70.752 70.692 70.546 70.523 70.451 70.474 71.329 70.503 70.201 70.215 70.394 70.671 70.906 70.146 69.896 69.794 70.11 70.222 73.621 74.757 74.755 70.713 70.488 69.269 74.052 72.869 70.52 70.795 72.129 69.342 68.605 68.544 68.535 70.842 71.409 70.177 68.27 71.689 70.718 67.928 67.348 66.527 66.299 67.307 66.286 70.459 71.662 72.87 72.933 71.673 70.059 66.765 65.541 65.368 65.513 65.673 64.762 64.362 64.237 64.299 64.32 64.319 64.407 64.123 64.174 66.837 67.7 70.419 71.45 71.707 71.625 69.469 60.566 69.133 67.68 68.868 62.544 60.352 68.368 67.081 69.395 69.875 62.862 64.974 67.403 67.526 67.466 65.445 65.36 56.58 57.746 63.976 62.351 56.681 63.787 66.585 54.386 65.46 65.709 61.7 54.947 55.067 63.736 63.456 56.468 54.382 54.499 59.46 61.345 60.974 62.141 61.024 57.345 50.733 48.041 47.936 47.841 47.82 47.761 47.636 47.596 47.535 49.37 49.364 47.933 47.232 47.202 47.336 47.097 47.051 46.893 46.668 46.557 46.457 46.359 46.274 46.202 46.132 46.045 46.091 46.108 49.41 53.214 54.551 55.159 56.039 57.054 57.204 56.778 52.43 45.374 44.132 43.903 43.718 43.403 44.613 44.509 47.532 50.238 46.426 42.157 41.99 41.803 41.65 41.277 41.226 42.437 40.23 42.966 39.748 39.48 39.187 38.943 38.794 39.627 39.947 40.33 38.823 39.169 37.896 37.265 36.706 36.815 38.008 38.68 41.449 43.401 39.699 38.529 37.411 37.368 37.347 37.377 37.372 37.415 37.413 37.448 37.484 37.468 37.449 37.504 37.454 37.45 37.479 37.501 37.596 37.502 37.543 37.58 37.47 37.757 37.919 38.169 38.101 38.238 37.81 37.486 37.39 37.353 37.298 37.252 37.173 37.25 37.188 37.047 37.045 37.057 36.97 36.978 36.956 36.945 36.972 36.863 36.818 36.761 36.741 36.672 36.803 37.248 37.193 37.888 38.968 39.016 35.678 35.183 34.978 34.968 35.191 35.249 35.3 35.455 35.181 35.238 35.217 34.794 34.812 34.824 34.887 34.866 34.845 34.787 34.762 34.729 34.689
85.666 85.563 85.546 85.582 86.093 85.696 85.242 85.339 84.989 84.823 84.948 84.917 85.695 85.859 84.202 87.934 89.644 89.533 84.889 83.378 83.191 83.214 83.714 84.272 83.439 82.694 82.688 82.607 82.688 82.79 83.043 83.208 83.429 84.056 83.72 82.3 82.14 82.661 81.624 81.62 81.808 81.858 81.503 89.37 92.83 87.466 81.824 79.721 78.982 79.238 78.928 78.693 80.095 83.779 80.322 80.462 77.626 77.37 81.775 83.722 82.743 79.761 79.538 77.578 76.935 79.557 81.7 81.286 77.663 75.699 75.167 75.057 74.95 80.919 84.378 85.049 84.311 75.904 72.309 71.695 71.639 71.558 71.594 71.475 71.484 71.391 71.201 71.274 70.979 70.807 70.345 69.889 69.392 69.095 68.953 68.81 68.703 68.632 68.553 68.387 68.241 68.105 67.992 67.855 67.864 67.782 70.401 74.376 73.953 70.602 67.323 67.217 67.047 66.788 66.777 66.774 66.748 66.801 66.705 66.734 66.817 66.87 66.931 67.101 68.483 67.384 67.877 67.656 68.083 69.64 70.565 71.177 69.494 69.756 71.407 70.909 70.477 71.297 71.396 70.636 71.817 70.83 71.714 72 70.976 71.269 71.599 71.202 71.285 71.125 71.135 72.037 72.002 71.625 71.513 71.316 71.969 71.542 72.101 71.991 71.999 71.344 71.212 71.151 70.994 70.935 70.786 70.802 70.727 70.683 70.667 70.574 70.52 70.479 70.455 70.316 70.316 70.187 70.119 70.113 70.084 70.222 70.283 70.833 70.171 69.483 70.701 69.972 70.076 73.381 70.334 69.65 73.199 76.692 75.407 75.859 74.817 71.406 68.765 68.702 68.636 69.84 71.289 68.986 70.502 70.38 71.877 71.562 68.36 68.468 66.912 66.659 68.048 66.264 65.705 69.536 71.209 72.22 72.758 72.393 71.815 68.696 65.657 65.545 65.306 65.32 65.027 64.342 64.242 64.108 64.372 64.311 64.396 64.261 66.085 68.764 70.581 71.594 70.774 69.773 66.322 71.349 67.988 67.414 70.371 64.967 66.541 66.816 62.003 69.442 68.075 65.205 68.981 69.342 69.285 68.772 62.221 59.962 62.123 64.636 67.07 57.247 64.242 60.715 58.821 64.861 60.002 66.744 61.324 62.543 54.129 64.73 64.023 61.498 62.491 56.259 55.224 63.76 63.098 62.604 61.941 58.384 57.117 50.547 49.005 47.813 47.803 47.736 47.705 47.604 47.519 47.512 47.486 47.636 47.21 47.195 47.166 47.118 47.003 46.94 46.778 46.632 46.508 46.43 46.315 46.234 46.176 46.099 46.188 46.044 46.44 49.946 50.419 56.019 56.34 56.175 46.494 53.349 45.409 44.723 44.182 43.975 43.452 51.242 50.481 42.532 43.276 42.089 46.027 42.218 42.061 41.937 41.716 41.419 41.133 43.075 40.498 40.643 39.679 39.497 39.255 39.027 39.078 39.041 41.376 42.538 41.806 40.801 40.352 37.3 36.727 36.78 37.868 39.621 42.508 43.915 43.063 38.612 37.451 37.332 37.334 37.32 37.341 37.404 37.351 37.409 37.482 37.435 37.419 37.462 37.48 37.459 37.472 37.516 37.572 37.543 37.624 37.575 37.78 38.261 38.082 38.052 38.217 38.058 37.498 37.338 37.351 37.304 37.192 37.194 37.172 37.141 37.115 37.078 37.099 37.029 36.984 37.025 37.014 36.945 36.975 36.909 36.871 36.812 36.703 36.671 36.827 37.837 37.379 36.512 37.972 42.127 42.956 35.182 35.044 34.976 35.055 35.154 35.291 35.362 35.282 35.159 35.21 35.119 34.793 34.815 34.901 34.887 34.86 34.846 34.811 34.697 34.687
86.335 85.597 85.543 86.007 87.428 88.396 85.777 85.505 85.874 85.93 85.844 84.932 85.608 84.37 84.223 88.02 91.588 90.251 88.823 84.038 83.171 83.537 84.26 86.642 84.562 84.877 82.671 82.555 82.51 82.822 83.838 84.189 82.845 81.946 84.713 86.727 88.254 86.032 81.699 81.684 81.628 81.374 81.17 81.618 86.988 84.424 81.723 80.339 80.338 80.818 79.022 78.904 78.745 78.696 78.919 79.91 77.597 77.425 80.629 78.676 77.691 77.174 79.342 77.295 76.931 80.412 81.72 78.532 76.483 75.318 75.13 75.062 75.043 75.705 81.256 76.588 74.008 73.174 72.033 71.718 71.645 71.634 71.571 71.515 71.501 71.417 71.368 71.242 71.142 71.043 70.669 70.135 69.614 69.114 68.882 68.879 68.81 68.75 68.631 68.584 68.467 68.227 68.165 68.134 68.064 70.764 72.139 74.41 73.466 68.916 68.739 67.299 67.197 67.006 66.962 66.956 66.954 66.928 66.9 66.866 66.832 66.962 67.077 68.497 69.14 69.778 69.589 68.22 68.937 71.306 71.714 71.772 70.799 70.434 71.393 71.717 71.048 71.95 72.104 71.18 72.845 71.427 70.976 71.235 74.647 71.081 71.89 73.97 76.163 75.725 75.382 75.713 72.626 71.623 72.104 71.355 71.639 72.199 71.701 72.984 72.047 72.01 71.834 72.684 72.358 71.027 70.923 70.972 70.859 70.782 70.675 70.608 70.457 70.488 70.395 70.349 70.266 70.195 70.178 70.099 70.056 70.158 70.187 69.939 70.168 70.369 73.09 72.395 69.32 69.285 70.265 69.17 73.119 75.252 76.44 77.391 76.382 75.331 71.99 69.633 68.591 70.901 68.91 68.689 69.078 70.058 69.778 69.327 69.266 67.171 68.782 68.241 66.82 66.063 65.573 65.595 66.091 69.666 71.873 73.053 71.477 68.023 65.66 65.569 65.259 65.103 64.926 65.305 64.425 64.177 64.082 64.095 64.112 64.077 64.978 66.971 69.515 69.503 66.742 70.232 66.388 67.645 68.237 66.314 71.892 71.784 60.428 68.442 62.934 65.845 66.636 61.011 66.335 62.882 69.211 69.174 61.69 62.236 67.935 66.69 59.263 57.942 65.678 59.73 54.78 55.224 65.92 64.143 57.355 55.554 63.149 64.103 66.169 58.696 63.825 63.399 62.035 63.33 62.898 62.753 52.396 49.983 52.114 53.251 52.049 48.018 47.646 47.689 47.715 47.648 47.527 47.395 47.378 47.407 47.472 47.102 47.066 47.047 46.973 46.93 46.878 46.68 46.552 46.456 46.374 46.275 46.223 46.118 46.265 47.134 47.61 47.198 54.807 55.76 54.202 46.244 44.56 44.989 44.443 44.377 44.163 46.442 44.992 48.445 44.832 44.321 42.671 43.801 42.256 42.217 42.18 42.009 41.776 41.607 44.46 42.019 46.075 40.432 39.778 39.713 39.481 39.315 42.282 41.707 43.664 43.359 42.623 42.247 41.21 38.753 36.773 36.744 36.864 38.949 41.285 43.196 40.039 37.818 37.65 37.373 37.315 37.294 37.289 37.355 37.371 37.338 37.423 37.408 37.439 37.464 37.496 37.501 37.508 37.586 37.558 37.612 37.665 38.162 38.111 38.063 38.096 38.223 37.882 37.45 37.356 37.361 37.299 37.234 37.189 37.194 37.141 37.128 37.098 37.034 37.042 37.035 37.02 36.957 36.981 36.952 37.013 36.941 36.877 36.838 36.757 36.694 36.727 37.094 37.15 36.848 38.156 40.19 42.282 36.944 35.22 35.044 34.922 35.16 35.204 35.241 35.305 35.087 35.508 35.201 34.785 34.81 34.862 34.933 34.888 34.832 34.793 34.715 34.669
85.607 85.492 86.459 85.662 85.795 88.182 85.381 86.197 86.014 85.028 84.861 85.019 84.256 84.185 84.018 87.359 89.261 90.754 89.424 84.782 84.287 83.659 83.268 83.901 86.756 86.909 83.758 82.449 82.358 82.455 82.981 82.569 82.07 82.574 87.71 88.734 88.979 87.835 83.559 81.726 81.485 81.284 81.161 81.123 81.771 83.479 81.755 81.696 80.997 79.718 79.23 78.937 78.881 78.84 79.79 79.215 77.634 77.41 77.293 77.319 77.206 77.419 79.525 77.575 76.888 80.37 81.56 79.547 77.919 75.384 77.106 78.924 82.463 75.835 76.816 79.833 81.269 81.549 74.662 71.934 71.704 71.681 71.589 71.521 71.557 71.484 71.497 71.344 71.289 71.189 70.85 70.399 69.892 69.286 69.002 68.864 68.896 68.779 68.801 68.63 68.544 68.415 68.455 69.993 73.775 75.126 73.406 73.786 70.353 75.093 73.104 70.97 67.469 67.114 67.157 67.109 67.035 67.068 67 66.935 67.013 67.085 68.763 69.681 70.639 70.998 71.067 69.466 70.29 71.242 71.272 71.458 71.249 70.896 71.517 71.713 71.752 71.346 71.214 71.049 72.137 75.558 75.189 76.889 76.489 71.24 71.321 73.861 77.191 78.269 78.096 77.756 77.627 77.273 76.133 71.515 72.109 73.204 72.943 75.064 71.592 71.531 71.632 71.502 71.956 71.224 73.101 71.366 71.601 71.066 71.165 70.691 70.597 70.531 71.504 70.542 70.237 70.217 70.13 70.069 70.005 70.013 70.228 69.826 69.824 69.79 72.512 71.977 69.347 70.234 69.586 68.775 69.721 74.364 75.256 76.029 76.407 76.648 74.992 70.107 70.99 71.177 68.991 68.754 68.633 71.095 68.595 67.9 68.288 67.863 68.293 67.447 66.657 66.322 66.201 66.156 65.871 66.155 68.119 70.851 70.273 65.946 65.733 65.497 65.261 64.986 64.778 64.84 64.429 64.16 64.051 63.992 63.912 63.968 64.001 64.583 65.312 65.775 64.207 66.355 68.543 68.574 65.042 69.494 71.337 61.476 62.68 68.336 62.681 68.223 59.801 63.234 66.486 68.265 67.558 68.284 66.477 65.6 61.048 57.839 60.382 60.932 59.1 56.463 62.432 65.62 67.615 54.842 60.946 61.445 62.646 59.634 54.095 62.91 60.347 61.029 56.083 57.317 61.624 62.81 52.426 50.758 51.136 52.706 54.121 50.305 55.649 48.024 47.565 47.557 47.486 47.442 47.355 47.264 47.285 47.529 47.281 46.976 50.376 47.913 47.688 46.761 46.647 46.446 46.45 46.338 46.257 48.239 53.544 54.731 52.034 51.357 52.305 53.726 47.602 44.739 44.735 44.64 44.563 44.423 44.227 43.698 43.128 42.905 46.93 44.285 43.1 42.278 42.341 42.296 42.211 42.132 41.845 41.578 41.365 47.363 47.657 42.382 40.037 40.092 39.882 43.215 42.642 43.42 43.013 38.822 39.581 39.176 43.023 40.037 37.094 36.778 36.822 37.275 40.452 39.454 38.445 38.095 37.707 37.486 37.332 37.278 37.265 37.246 37.298 37.366 37.374 37.414 37.439 37.45 37.454 37.509 37.465 37.511 37.589 37.606 37.897 38.093 38.09 38.062 38.161 37.887 37.478 37.382 37.379 37.297 37.2 37.163 37.172 37.121 37.144 37.085 37.074 37.044 37.007 36.979 36.968 36.973 36.947 36.946 36.905 36.928 36.862 36.859 36.739 36.685 36.754 36.9 37.84 37.252 40.397 38.579 42.736 39.049 35.625 35.111 34.984 35.067 35.089 35.245 35.265 35.164 35.429 35.42 34.858 34.763 34.822 34.86 34.857 34.833 34.786 34.767 34.707
85.549 86.201 85.598 86.139 85.484 85.984 85.637 84.768 84.75 84.941 84.755 84.845 84.475 83.844 83.677 84.202 89.066 90.477 89.748 88.579 83.201 83.129 83.429 85.311 86.811 86.928 82.943 82.38 82.29 82.726 82.496 82.308 82.115 82.078 86.159 88.445 90.79 88.835 86.422 81.675 81.491 81.374 81.253 81.086 81.016 81.101 81.472 83.657 83.845 80.541 79.957 79.065 78.97 78.869 80.531 78.879 77.735 77.522 77.36 77.317 81.53 85.518 85.903 83.734 81.78 80.116 81.255 80.437 78.985 77.484 83.733 88.014 87.238 86.06 87.291 84.907 86.315 87.169 76.124 72.354 71.968 71.755 71.652 71.62 71.666 72.359 71.594 71.376 71.318 71.27 71.011 70.616 70.081 69.619 69.077 69.012 69.013 68.95 68.913 68.818 68.662 68.598 68.603 69.301 74.88 75.944 74.06 69.95 73.994 76.207 74.823 73.468 68.184 67.341 67.319 67.331 67.285 67.228 67.127 67.087 67.228 68.548 69.999 68.946 70.689 71.996 72.157 70.297 71.176 71.665 71.068 71.585 71.31 71.203 71.106 70.938 71.565 71.194 74.978 75.944 77.206 77.801 77.773 78.678 77.206 71.825 72.137 71.697 77.078 77.399 77.602 77.459 77.898 78.074 76.628 71.334 72.88 75.705 77.636 77.117 77.351 76.314 74.321 75.394 74.342 71.512 71.886 71.025 71.654 71.079 71.226 71.373 70.889 70.746 70.721 70.444 70.291 70.153 70.067 70.09 70.048 69.998 69.89 69.815 69.735 69.684 71.271 70.02 69.592 70.128 69.425 69.012 68.801 68.831 72.081 74.503 75.335 75.652 75.553 69.056 70.45 69.678 69.399 68.666 68.951 69.205 68.074 67.98 67.863 67.85 68.036 68.778 66.951 66.648 66.598 66.357 65.972 65.754 65.636 66.012 65.586 65.575 65.579 65.342 65.168 64.923 65.281 64.701 64.33 64.164 64.056 64.043 63.932 63.898 63.815 63.808 63.87 63.687 63.678 63.101 65.537 69.621 70.944 72.946 72.807 68.039 71.985 67.801 64.242 64.735 64.368 60.46 61.151 60.295 63.158 66.562 65.61 69.092 67.222 62.258 60.861 67.96 61.489 56.006 61.542 67.672 56.936 64.705 58.042 67.494 65.198 58.295 65.725 65.357 63.306 62.393 53.692 58.395 62.209 62.403 54.252 50.608 54.758 59.762 56.379 59.711 58.929 51.673 47.628 47.523 47.463 47.476 47.382 47.268 47.178 47.233 47.693 53.441 54.705 53.875 51.594 46.866 46.712 46.554 46.432 46.396 46.373 50.807 54.782 56.257 54.026 49.891 46.428 52.591 48.629 44.912 44.859 44.784 44.593 44.415 49.651 43.489 48.719 42.781 42.526 42.27 44.315 42.355 42.39 42.322 42.235 42.053 41.828 41.518 41.198 40.972 45.666 40.351 40.131 40.033 39.972 44.253 43.38 42.094 40.186 38.811 40.032 38.111 44.533 44.267 39.702 36.757 36.697 36.803 36.94 37.267 37.523 37.788 37.719 37.687 37.312 37.273 37.224 37.26 37.293 37.33 37.308 37.349 37.47 37.437 37.471 37.474 37.478 37.569 37.538 37.803 38.071 38.196 38.045 38.068 37.801 37.383 37.34 37.306 37.293 37.228 37.143 37.125 37.103 37.094 37.082 37.068 37.039 37.076 36.989 36.959 36.943 36.967 36.968 36.942 36.904 36.935 36.93 36.82 36.723 36.695 36.642 36.793 37.952 37.161 41.19 42.566 42.798 40.83 36.844 35.072 34.965 34.935 35.159 35.171 35.287 35.346 35.111 35.197 35.081 34.766 34.795 34.848 34.83 34.836 34.812 34.741 34.739
85.724 85.553 85.65 85.261 85.746 85.772 85.492 84.775 84.45 84.88 84.787 84.931 84.487 84.254 84.597 84.67 87.523 89.738 90.846 89.019 84.59 83.032 83.035 85.915 83.92 86.083 82.918 82.526 82.275 82.338 83.453 83.764 82.843 82.009 83.837 87.716 89.095 89.368 87.925 82.801 81.634 81.384 81.056 80.912 80.797 80.92 81.886 84.24 85.266 82.34 81.401 80.165 79.08 78.896 80.608 78.087 77.821 77.698 77.496 79.639 85.631 86.661 87.807 87.911 84.497 81.063 79.55 80.471 80.757 79.882 85.368 88.231 87.945 85.515 84.997 89.27 87.211 82.557 78.148 72.517 72.193 71.792 71.724 72.533 72.225 71.83 74.059 72.077 71.358 71.246 71.11 70.638 70.161 69.593 69.217 69.161 69.136 69.054 69.027 68.999 68.867 68.812 68.683 68.553 70.253 75.187 69.86 68.611 71.031 71.3 70.371 70.774 67.802 67.623 67.536 67.451 67.408 67.41 67.325 67.246 68.226 69.293 70.486 71.045 72.207 72.448 72.678 71.145 71.54 71.873 71.181 71.718 71.156 71.031 73.788 73.089 71.854 72.178 76.9 78.626 77.682 77.285 77.155 76.295 76.102 72.781 72.622 72.365 71.662 72.649 72.652 75.409 76.19 76.831 75.438 71.487 72.404 75.687 78.841 78.503 78.593 78.609 78.381 77.919 74.115 71.522 71.523 74.08 72.833 74.682 71.175 71.076 71.035 70.847 70.755 70.749 70.411 70.271 70.2 70.737 70.867 69.981 69.917 69.811 69.803 69.639 69.645 70.539 69.73 69.508 70.203 70.06 69.122 68.866 68.801 71.183 71.225 72.685 69.168 71.228 72.869 74.621 74.566 71.233 72.496 68.396 68.208 68.274 68.052 67.932 67.586 67.828 68.896 67.402 67.647 66.752 66.568 65.969 66.617 66.503 66.582 67.075 66.274 66.789 66.496 65.508 65.437 65.013 64.396 64.15 64.111 63.997 63.953 63.926 63.81 63.666 63.543 63.589 63.513 63.663 65.632 66.876 71.138 72.685 72.211 69.762 70.757 65.382 69.461 65.604 67.873 61.249 63.789 67.137 67.084 63.584 58.364 58.865 64.086 61.204 67.636 65.23 67.337 69.05 68.536 63.427 67.707 56.838 55.073 68.119 60.575 61.934 59.775 62.821 63.984 57.996 60.42 53.608 61.326 53.273 54.445 57.295 54.385 60.786 60.496 61.872 62.625 62.047 53.818 48.525 47.602 47.411 47.353 47.32 47.222 47.083 49.566 53.435 57.503 57.925 55.604 48.181 46.614 46.637 46.503 46.445 46.34 50 51.276 55.108 54.819 47.211 51.632 48.169 46.109 45.146 45.042 44.889 45.049 50.728 52.842 46.181 50.777 42.868 42.531 44.417 43.472 42.355 42.336 42.146 41.902 41.634 41.449 41.214 40.902 40.507 40.319 40.221 40.131 39.99 40.003 45.547 43.661 46.323 40.453 40.956 47.284 41.102 37.255 42.002 43.099 38.308 36.758 36.799 36.758 37.222 37.42 37.927 39.455 39.79 37.487 37.295 37.269 37.257 37.227 37.318 37.32 37.35 37.406 37.39 37.431 37.434 37.482 37.541 37.949 38.185 38.183 38.205 38.089 37.689 37.408 37.348 37.288 37.246 37.212 37.132 37.08 37.088 37.082 37.042 37.013 37.014 36.99 37.014 36.964 36.928 36.91 36.944 36.951 36.963 36.95 36.921 37.006 36.858 36.789 36.688 36.671 36.664 37.473 37.079 40.449 41.777 42.847 42.638 40.456 35.183 35.018 34.919 35.134 35.1 35.224 35.258 35.279 35.129 35.133 34.809 34.771 34.814 34.847 34.821 34.817 34.745 34.737
85.48 86.993 85.288 85.232 85.3 85.451 85.593 85.104 84.86 84.825 84.819 84.625 85.218 84.825 84.095 83.726 84.397 89.216 90.538 89.744 87.781 83.081 83.004 83.744 82.702 82.463 82.351 83.322 82.37 82.103 82.241 82.062 83.478 82.908 83.441 82.828 87.856 88.194 87.186 82.331 81.505 81.047 80.895 80.808 80.729 83.314 85.491 84.909 84.735 86.057 84.412 80.428 79.234 79.854 80.468 78.14 77.963 77.769 77.679 81.036 86.065 88.2 87.696 88.237 85.041 79.627 76.493 79.939 80.759 81.183 83.646 86.035 86.646 86.315 87.159 86.541 87.161 75.82 73.038 72.673 72.543 72.335 73.138 73.769 73.984 79.215 78.682 77.05 75.446 71.408 71.24 70.786 70.106 69.634 69.308 69.232 69.194 69.239 69.183 69.097 69.113 69.116 68.935 68.784 68.731 69.949 69.817 68.612 72.879 73.859 76.176 72.206 67.967 67.788 67.795 67.714 67.629 67.612 67.481 67.489 67.921 70.409 71.002 71.62 71.918 71.996 70.997 71.293 71.337 71.117 70.943 71.351 75.743 75.325 77.064 76.721 71.413 72.793 76.458 76.774 76.149 74.97 72.273 70.993 71.033 71.096 72.739 71.804 71.264 71.173 72.54 72.163 71.683 72.189 71.272 72.31 71.683 75.275 76.775 77.164 77.641 78.008 79.188 77.962 73.152 71.548 71.402 76.776 77.311 76.458 76.082 74.933 72.48 72.165 71.831 70.988 72.392 70.463 70.479 70.242 70.322 70.013 69.829 69.788 69.745 69.698 69.645 69.731 69.576 69.404 69.451 69.62 70.259 69.371 69.032 68.941 68.863 68.789 70.428 69.78 74.594 76.691 75.75 75.486 73.774 70.739 68.384 68.232 68.703 69.054 67.939 67.506 67.541 69.076 68.092 68.449 67.031 66.426 66.512 66.095 66.325 67.738 67.836 67.886 66.245 65.313 65.736 64.52 64.346 64.262 64.194 64.02 64.03 63.917 63.814 63.669 63.619 63.451 63.487 63.559 64.091 66.506 68.207 68.661 70.105 66.126 66.705 71.623 69.005 64.06 69.571 68.366 68.714 67.392 62.45 59.59 61.043 67.174 66.531 65.369 58.083 66.423 59.321 68.76 66.929 59.646 65.543 61.976 61.224 67.099 60.846 65.248 68.246 66.498 58.562 66.122 62.816 62.949 64.535 63.637 60.825 54.025 61.567 59.63 60.64 59.947 62.619 61.705 59.263 56.701 49.068 49.382 47.641 47.3 47.191 47.124 47.052 48.49 58.435 58.122 53.58 48.064 48.207 46.623 46.467 46.45 46.412 46.218 47.169 50.582 49.054 54.873 52.573 46.82 45.279 45.243 45.12 45.016 44.825 50.382 56.918 46.366 44.46 45.424 42.512 42.405 42.366 42.235 42.125 41.918 41.582 41.011 41.118 40.903 40.42 40.288 40.282 40.22 40.197 40.079 40.159 45.385 42.949 44.008 42.026 41.729 49.754 43.85 41.515 50.137 48.122 42.745 36.781 36.791 36.819 37.17 41.374 45.234 45.356 43.624 37.647 37.313 37.208 37.211 37.22 37.204 37.289 37.307 37.345 37.337 37.481 37.424 37.444 37.788 38.087 38.269 38.138 37.981 37.917 37.424 37.355 37.323 37.243 37.251 37.146 37.088 37.033 37.034 37.006 37.002 37.039 36.976 36.951 36.988 36.94 36.884 36.898 36.916 36.956 36.954 36.905 36.944 36.952 36.845 36.827 36.682 36.69 36.609 36.791 37.091 39.542 40.703 42.297 42.606 42.376 35.608 35.197 34.983 34.994 35.143 35.274 35.251 35.431 38.39 38.046 35.051 34.746 34.763 34.796 34.828 34.821 34.811 34.745
85.736 85.408 85.319 85.303 85.341 86.215 85.412 85.475 84.887 85.155 85.599 84.374 84.019 83.765 83.476 83.399 83.317 87.413 89.641 88.569 83.669 83.053 83.977 82.775 82.121 82.217 83.067 82.5 82.081 82.044 82.034 83.173 82.599 82.654 81.859 81.82 86.937 83.337 82.074 81.358 83.573 81.262 80.722 82.137 84.032 84.542 85.774 83.591 82.887 84.646 85.28 85.074 82.961 81.397 79.157 78.869 78.695 80.29 78.693 81.343 84.289 85.077 87.943 85.71 85.651 78.04 75.693 76.498 77.636 77.326 75.824 77.86 77.311 78.729 77 83.217 76.951 81.824 77.58 73.268 72.889 72.158 73.764 75.033 77.607 79.778 79.261 78.98 77.171 71.585 71.265 70.821 69.839 70.765 69.929 69.307 69.348 69.397 69.273 69.23 69.294 69.27 69.133 69.093 68.913 69.005 68.877 68.709 70.178 76.111 75.807 75.721 68.187 67.968 67.911 67.936 67.822 67.761 67.656 67.717 69.456 70.221 71.291 72.288 72.13 71.318 72.345 71.845 71.03 71.955 74.106 76.798 77.698 78.005 78.901 77.141 72.983 74.027 73.156 71.451 71.21 73.616 73.804 71.555 71.313 71.562 72.575 71.708 71.399 71.364 72.815 72.087 72.2 71.443 71.948 72.339 71.586 71.666 72.377 72.045 73.111 73.338 76.142 76.742 73.172 72.331 71.463 76.877 78.368 78.1 77.94 77.699 77.521 76.868 72.077 72.707 70.978 70.492 70.421 70.542 70.232 70.083 69.907 69.86 69.721 69.694 69.572 69.592 69.451 69.444 69.396 69.327 69.386 70.49 70.592 69.29 68.979 69.914 70.957 68.641 73.366 74.714 76.055 76.828 76 74.221 69.413 69.056 68.152 68.043 67.869 67.673 67.591 67.945 67.401 68.056 67.02 66.206 66.306 69.429 68.326 66.962 66.542 65.738 65.598 65.374 66.544 64.621 64.537 64.366 64.29 64.212 64.078 64.031 63.914 63.887 63.695 63.49 63.356 63.291 63.359 64.102 65.404 66.656 70.097 68.309 68.34 68.295 70.273 59.757 66.317 69.57 71.997 70.59 68.011 67.457 62.732 59.656 61.03 61.672 68.733 60.797 66.261 69.565 66.784 62.01 58.014 68.39 67.778 61.637 63.208 58.253 67.164 60.348 67.303 66.38 65.373 62.8 65.378 64.48 63.807 56.678 62.035 59.617 62.019 53.757 61.456 60.083 56.214 62.118 54.687 57.484 48.922 47.161 47.218 47.136 47.081 48.459 50.94 56.86 54.731 55.775 50.958 49.699 46.731 46.444 46.388 46.257 46.218 46.947 52.011 53.647 47.768 45.511 45.508 45.386 45.3 45.124 45.95 46.759 47.101 56.567 47.93 45.382 42.44 42.344 42.049 42.017 41.856 41.693 41.61 40.966 42.638 40.554 40.26 40.252 40.23 40.239 40.217 40.171 40.099 40.13 41.998 43.3 39.927 39.908 41.06 39.839 51.752 52.097 45.095 45.639 38.893 37.068 36.804 37.756 43.579 43.291 45.541 44.877 37.767 37.382 37.199 37.233 37.216 37.218 37.264 37.272 37.276 37.316 37.379 37.372 37.82 38.135 38.14 38.033 37.935 37.577 37.424 37.351 37.295 37.228 37.18 37.113 37.096 37.093 37.006 36.961 36.989 36.936 36.919 36.901 36.908 36.955 36.912 36.862 36.887 36.933 36.92 36.913 36.901 36.944 36.993 36.93 36.808 36.686 36.647 36.632 36.755 37.208 36.971 40.529 41.83 42.446 41.686 35.633 35.502 35.026 35.005 35.13 35.189 35.263 35.201 37.825 38.382 35.208 34.839 34.746 34.785 34.831 34.863 34.816 34.751
85.664 85.48 85.421 85.485 86.404 86.927 84.918 84.851 85.981 84.244 84.016 83.985 83.911 83.815 83.516 83.392 83.356 84.961 84.57 83.872 84.13 83.079 85.827 87.433 82.694 82.215 82.244 83.12 82.149 81.927 81.936 82.167 83.656 83.099 82.252 81.747 82.579 81.473 81.225 84.514 86.761 82.862 82.239 84.325 84.567 84.039 82.667 81.549 82.237 82.762 84.275 85.045 84.573 83.584 82.318 82.112 84.476 82.162 78.239 78.178 80.677 84.099 86.355 86.055 80.122 75.471 75.501 75.432 75.418 75.396 75.316 74.974 74.707 75.269 74.431 74.092 73.87 80.147 75.099 73.013 72.694 72.567 71.956 74.832 77.108 79.054 80.305 79.494 78.313 73.031 71.235 70.864 69.898 71.18 70.148 69.479 69.548 69.532 69.411 69.355 69.488 69.383 69.307 69.294 69.211 69.146 68.988 68.846 72.99 75.875 76.846 73.794 68.309 68.162 68.062 68.072 68.023 67.957 67.876 67.93 68.548 71.294 72.047 72.061 71.718 71.364 71.61 72.83 72.351 76.853 78.004 78.228 77.606 76.704 76.311 72.773 71.619 73.751 72.871 71.132 71.156 73.419 74.457 72.062 71.813 72.043 73.395 73.066 73.715 72.939 73.465 72.456 72.459 73.001 73.414 72.802 72.103 71.742 71.751 71.829 71.864 71.555 71.805 71.5 72.221 71.726 71.52 74.915 76.393 75.927 77.157 77.468 78.263 76.536 71.059 70.534 73.404 73.722 73.063 70.439 70.958 70.252 70.264 70.127 69.858 69.703 69.572 69.56 69.469 69.429 69.376 69.302 69.174 69.393 69.592 70.455 70.39 71.406 69.79 68.477 72.1 72.921 74.812 75.737 77.125 75.257 74.232 68.499 68.553 67.85 67.827 67.715 67.824 67.64 67.722 68.36 68.134 67.6 68.062 71.753 71.98 70.901 66.208 65.789 65.71 66.727 65.169 64.674 64.625 64.497 64.408 64.366 64.222 64.107 64.003 63.928 63.905 63.825 63.466 63.317 63.199 63.129 63.071 64.395 67.908 68.834 65.338 70.121 60.744 66.486 70.635 72.364 70.608 72.185 70.781 70.259 69.233 70.758 68.606 66.97 69.02 67.427 68.055 67.206 69.223 68.971 68.596 66.547 64.585 59.229 59.753 62.856 60.523 67.996 65.404 59.151 66.195 59.73 58.872 55.772 61.972 62.744 57.406 51.69 58.778 61.552 59.192 63.106 62.259 64.402 64.529 60.852 51.776 47.138 47.135 47.063 47.045 46.911 46.849 46.79 53.072 57.186 57.164 55.687 50.532 46.475 46.361 46.29 46.162 46.065 46.46 46.231 45.583 45.565 45.573 45.448 50.164 47.991 50.457 49.677 53.966 43.212 44.455 47.14 42.23 42.135 41.971 41.809 41.715 41.591 41.569 41.271 40.707 40.323 40.265 40.265 40.232 40.223 40.221 40.162 40.176 40.139 40.125 40.19 40.259 46.447 48.861 49.369 51.529 49.742 50.406 46.828 44.897 43.706 38.13 37.615 40.036 44.973 44.643 42.231 38.148 39.176 37.253 37.206 37.194 37.178 37.168 37.24 37.268 37.299 37.364 37.704 38.02 38.091 38.138 38.009 37.613 37.304 37.29 37.238 37.216 37.13 37.135 37.056 37.027 36.947 36.955 37.002 36.969 36.903 36.892 36.86 36.896 36.898 36.938 36.863 36.882 36.945 36.945 36.899 36.854 36.841 36.986 36.84 36.788 36.732 36.618 36.565 36.576 37.374 37.165 40.579 41.515 42.205 42.256 38.372 35.65 35.117 35.154 35.113 35.105 35.196 35.152 35.557 35.302 35.545 35.103 34.739 34.788 34.835 34.864 34.824 34.756
85.932 85.578 86.36 86.106 87.037 87.174 84.979 85.801 86.625 84.401 84.065 83.986 83.856 83.784 83.451 83.384 83.341 84.237 84.98 84.314 82.245 86.215 88.267 88.687 87.192 82.261 82.819 83.238 82.324 81.935 81.726 81.751 81.652 81.81 82.834 82.017 81.569 81.074 85.306 87.277 88.121 87.168 84.367 84.794 84.404 81.957 81.163 81.125 80.438 81.648 80.289 83.672 83.96 83.807 82.132 79.903 80.322 79.976 77.575 76.991 76.566 76.967 79.307 77.901 75.528 75.466 75.475 75.434 76.709 75.805 75.272 75.116 74.877 74.79 74.863 74.307 73.771 73.502 73.191 73.006 72.809 72.633 72.296 74.461 76.589 78.51 80.244 78.421 77.647 73.69 71.294 71.023 70.229 69.772 69.559 69.536 69.574 69.582 69.519 69.495 69.617 69.521 69.379 69.387 69.417 69.23 69.084 68.97 68.806 72.383 71.995 69.18 68.432 68.381 68.257 68.224 68.116 68.032 68.036 68.115 68.589 71.418 72.477 71.809 71.463 71.534 71.42 72.834 71.976 75.722 77.186 76.669 73.729 71.929 71.059 71.004 71.101 73.348 74.24 71.578 71.862 72.014 75.194 72.969 72.433 72.467 73.527 72.959 72.733 72.782 72.847 72.663 72.822 73.538 73.333 73.408 72.305 72.236 72.099 72.077 72.645 72.028 71.772 71.711 71.927 72.002 71.612 71.427 71.116 72.483 72.405 76.097 76.113 76.162 72.526 70.997 75.942 77.053 76.413 75.468 71.247 70.424 70.456 70.416 70.521 69.857 69.726 69.541 69.43 69.356 69.289 69.282 69.226 69.377 69.784 69.11 70.223 71.288 69.101 68.784 68.595 68.867 69.972 73.042 74.318 74.781 70.576 68.368 68.003 71.85 68.948 67.901 67.734 67.643 67.702 67.468 66.959 67.454 71.288 72.931 73.435 72.352 69.998 65.943 65.711 66.744 66.182 64.846 64.763 64.589 64.604 66.019 64.378 65.254 64.187 64.051 63.717 63.806 63.919 63.583 63.286 63.081 62.905 63.012 63.914 65.185 66.98 62.197 62.409 68.504 66.509 70.368 66.2 70.564 66.461 66.59 70.804 62.044 60.026 66.99 66.471 65.145 61.86 66.016 70.441 57.929 63.451 68.955 64.148 60.202 65.084 61.557 64.08 60.427 67.942 63.114 62.669 64.456 53.033 58.257 57.929 55.658 59.205 62.31 61.293 58.273 61.416 63.204 64.329 64.773 64.442 63.877 53.081 47.487 47.019 46.987 46.999 46.922 46.854 46.726 51.551 56.211 56.38 56.972 51.303 47.455 46.392 46.305 46.221 46.141 46.094 45.923 45.828 45.662 45.598 48.265 52.556 54.19 52.112 56.138 48.564 48.246 42.617 42.342 42.27 42.173 42.033 41.887 41.745 41.611 41.576 41.32 40.99 40.51 40.285 40.232 40.246 40.278 40.176 40.213 40.217 40.187 40.208 40.181 40.149 45.443 43.277 49.37 51.528 52.232 52.878 51.886 48.859 47.339 46.923 42.704 40.069 41.734 43.39 44.54 47.366 40.724 37.349 37.155 37.177 37.133 37.16 37.197 37.302 37.333 37.471 37.721 38.007 37.953 37.854 37.726 37.289 37.281 37.272 37.183 37.143 37.073 36.962 37.013 36.993 36.978 36.979 36.879 36.863 36.876 36.865 36.85 36.855 36.838 36.862 36.85 36.849 36.865 36.893 36.85 36.813 36.894 36.898 36.914 36.939 36.715 36.667 36.611 36.522 36.954 37.368 40.186 41.55 40.454 41.864 38.261 37.068 35.258 35.068 34.981 35.14 35.134 35.249 35.24 35.113 35.533 35.444 34.935 34.773 34.799 34.832 34.855 34.808
87.091 87.713 86.534 86.811 85.904 84.719 84.546 84.449 84.977 84.92 84.118 83.927 83.824 84.045 83.774 83.364 83.435 84.517 83.514 82.95 82.181 86.015 89.332 89.584 88.425 84.709 83.224 82.044 82.253 81.859 81.709 81.69 81.654 81.596 81.932 81.832 81.147 81.029 85.785 87.466 88.612 88.274 86.817 83.928 81.822 81.507 81.233 80.241 79.688 79.774 79.512 80.221 83.059 83.222 82.491 82.653 79.988 77.581 77.087 76.514 76.158 76.903 75.565 75.809 75.475 75.546 75.51 75.508 75.451 75.382 75.601 75.209 75.144 75.091 74.862 74.443 73.94 73.405 73.189 73.007 72.931 72.708 72.56 73.846 73.435 77.782 80.196 78.992 79.351 76.89 71.6 71.189 70.377 69.868 69.67 69.636 69.649 69.615 69.64 69.563 69.673 69.673 69.552 69.46 69.503 69.332 69.247 69.114 68.976 68.961 68.836 68.627 68.579 68.59 68.525 68.434 68.32 68.247 68.217 68.313 71.267 71.382 72.361 71.702 71.61 76.366 72.662 71.539 73.094 73.941 72.384 71.425 71.578 73.479 71.256 71.06 71.465 72.309 75.053 73.714 72.396 72.577 75.903 73.273 72.638 72.594 73.679 73.234 72.856 72.957 73.35 72.738 72.945 72.683 73.157 73.672 72.388 72.43 72.274 72.263 72.392 72.767 72.362 76.993 78.767 75.034 72.167 71.692 71.919 71.902 71.387 70.998 70.987 71.69 70.739 72.653 75.742 76.619 77.132 76.901 76.102 74.628 71.257 70.676 70.496 71.597 71.704 70.042 69.562 69.387 70.22 69.435 69.19 69.083 69.129 69.007 68.92 69.011 69.098 69.267 68.9 68.882 68.258 68.289 69.791 69.911 68.781 68.114 72.174 74.46 74.535 72.891 68.997 67.84 67.563 67.854 66.607 70.138 72.026 73.916 73.037 71.721 67.325 65.823 65.699 65.686 66.527 64.901 64.815 64.755 64.655 65.223 65.531 67.153 69.391 65.151 63.87 63.775 63.612 63.609 63.461 63.117 63.007 62.906 62.837 63.564 65.286 65.784 63.997 67.173 70.441 70.654 72.795 69.987 65.515 65.982 70.873 62.65 64.959 60.971 69.437 69.817 70.641 63.018 69.738 60.553 68.183 69.221 66.955 68.975 64.643 60.047 56.488 61.214 58.387 68.458 67.349 67.738 55.663 60.562 58.401 61.263 53.746 62.98 63.21 63.389 61.435 62.186 63.625 63.797 54.875 58.796 60.32 51.422 49.771 47.106 46.925 47.052 46.843 46.763 50.906 53.913 55.705 56.566 54.093 46.874 46.54 46.411 46.388 46.176 46.068 45.964 45.785 45.597 45.39 50.682 54.301 53.475 54.967 56.636 53.731 44.188 42.61 42.449 42.329 42.247 42.107 41.941 41.771 41.701 41.411 41.178 40.862 40.601 40.385 40.179 40.215 40.242 40.269 40.23 40.197 40.205 40.197 40.216 39.889 44.317 45.459 48.922 51.509 53.627 48.095 53.206 51.448 50.781 42.012 42.536 37.62 39.239 46.457 48.605 42.552 43.88 39.099 37.24 37.144 37.159 37.162 37.227 37.3 37.379 37.711 37.984 37.935 37.799 37.83 37.268 37.215 37.163 37.141 37.087 37.039 36.929 36.973 36.96 36.961 36.936 36.9 36.848 36.877 36.877 36.81 36.872 36.797 36.837 36.837 36.844 36.864 36.849 36.901 36.878 36.886 36.873 36.867 36.865 36.862 36.821 36.676 36.573 36.538 36.742 37.489 38.869 40.628 41.461 40.855 40.653 37.404 35.199 35.026 34.984 35.066 35.092 35.153 35.174 35.014 38.243 35.88 35.274 34.881 34.813 34.847 34.874 34.831
87.578 87.726 86.218 84.952 84.806 84.652 84.508 84.584 84.419 87.405 85.778 84.247 83.855 83.788 84.285 84.466 84.994 83.378 83.035 82.939 82.615 82.026 86.719 88.854 89.462 88.147 85.688 83.026 82.21 81.825 81.68 81.53 81.534 81.434 81.479 81.423 81.648 81.177 81.776 85.169 87.951 88.905 87.593 85.913 80.862 82.1 80.368 79.682 79.634 79.59 79.523 79.194 78.7 78.859 81.272 84.478 80.953 80.815 76.845 76.227 75.886 76.303 75.606 75.527 75.479 75.511 75.494 75.506 75.453 75.379 75.349 75.343 75.411 75.312 75.077 74.774 74.263 73.802 74.096 73.071 72.949 72.797 72.657 72.177 71.492 76.357 79.5 80.297 79.138 77.323 72.312 71.288 70.624 69.923 69.696 69.73 69.738 69.706 69.723 69.743 69.809 69.812 69.699 69.671 69.523 69.435 69.342 69.282 69.244 69.116 68.885 68.835 68.79 68.728 68.692 68.598 68.541 68.479 68.37 68.755 69.873 70.566 71.638 71.545 75.267 78.103 78.003 75.921 72.765 73.493 71.283 71.018 71.081 72.986 72.286 71.922 72.218 72.497 74.707 75.353 72.866 72.961 75.355 73.864 72.776 72.771 73.85 73.161 72.937 72.9 73.086 72.909 72.762 72.828 73.141 74.195 72.698 73.306 72.75 72.593 73.597 83.13 80.601 84.313 78.783 83.784 80.505 73.857 71.802 71.827 71.347 71.22 71.095 71.101 70.904 70.615 71.424 74.644 75.59 76.446 76.95 77.108 76.055 70.568 71.261 70.415 69.941 71.202 70.146 69.41 69.463 69.383 69.167 69.088 69.049 68.937 68.899 68.823 68.884 68.933 69.017 69.171 68.432 68.367 68.239 68.384 69.246 68.022 73.439 75.3 75.565 75.569 74.449 72.474 68.847 67.634 68.251 71.351 72.523 73.074 72.161 69.179 65.892 65.762 65.699 65.692 65.499 65.036 64.908 64.903 64.806 65.036 66.219 66.053 71.497 70.861 64.254 63.757 63.697 63.555 63.484 63.76 63.164 62.958 62.718 62.677 62.815 62.726 62.765 64.851 68.44 70.656 71.765 72.364 65.351 68.596 70.363 70.398 69.062 67.616 65.414 69.282 68.395 63.768 69.608 60.577 63.571 70.13 70.037 61.211 59.854 55.985 62.448 60.219 64.085 68.708 67.457 64.244 64.67 65.627 56.778 60.958 57.06 61.915 60.23 60.108 52.795 55.005 56.267 58.057 63.681 62.614 49.823 54.193 54.779 48.369 48.272 47.854 46.784 46.733 46.654 46.619 47.517 53.918 50.833 47.177 46.774 48.931 47.928 48.017 46.09 45.984 45.818 45.638 50.063 55.908 50.975 57.274 48.292 55.898 53.112 46.055 42.688 42.525 42.44 42.34 42.186 42.066 41.882 41.727 41.526 41.242 40.917 40.68 40.473 40.273 40.209 40.265 40.248 40.238 40.227 40.193 39.679 39.356 38.915 38.909 45.174 52.676 54.492 54.495 55.68 55.52 54.994 53.367 50.804 44.042 37.016 39.762 44.499 41.52 47.362 46.593 38.882 37.402 37.221 37.18 37.215 37.314 37.345 37.675 37.854 37.881 37.954 37.535 37.245 37.197 37.218 37.071 37.004 37.046 36.977 36.919 36.88 36.868 36.927 36.857 36.87 36.88 36.811 36.815 36.801 36.845 36.786 36.814 36.798 36.839 36.851 36.872 36.87 36.842 36.776 36.825 36.835 36.834 36.85 36.757 36.653 36.558 36.509 36.495 37.416 37.202 39.327 40.336 40.037 37.554 36.304 35.464 35.085 35.049 34.948 35.008 35.105 35.13 35.445 38.241 37.949 36.299 35.251 34.874 34.851 34.788 34.831
86.046 87.185 85.593 84.863 84.708 84.57 84.399 84.355 84.284 85.553 85.355 85.578 85.408 85.152 85.242 83.787 83.425 83.427 83.084 82.959 82.837 82.163 83.998 87.083 89.073 89.123 87.724 83.783 82.847 82.248 81.703 81.598 81.631 81.304 81.305 81.652 81.513 81.459 81.56 82.028 86.387 87.46 86.723 83.212 81.764 82.474 81.892 79.788 79.654 79.612 79.553 78.855 78.64 78.586 78.398 81.467 81.261 82.2 79.009 76.194 77.884 75.555 75.593 75.526 75.552 75.502 75.521 75.466 75.424 75.457 75.42 75.473 75.346 75.394 75.29 74.975 74.684 74.092 73.567 73.297 74.295 72.823 72.62 72.406 71.729 75.393 78.709 80.009 78.453 76.526 72.598 71.327 70.904 70.05 69.789 69.798 69.848 69.872 69.78 69.703 69.862 69.832 69.803 69.675 69.617 69.538 69.522 69.367 69.278 69.16 68.988 68.989 68.902 68.829 68.83 68.771 68.64 68.644 68.75 69.317 70.13 71.844 71.764 74.365 77.225 79.041 78.563 73.238 71.532 73.091 72.534 71.677 72.295 72.74 73.704 72.898 72.916 72.933 73.746 76.009 73.792 72.993 75.222 75.322 75.483 76.358 73.674 73.134 72.949 73.237 73.422 72.956 72.934 73.507 73.709 74.024 72.701 72.564 72.483 72.455 72.246 80.638 85.864 83.828 84.098 81.558 75.677 71.909 71.836 71.943 71.436 71.406 71.295 72.324 72.233 71.997 71.702 71.784 72.478 73.506 75.705 76.449 76.009 71.385 71.366 70.406 70.125 71.174 70.539 69.608 69.42 69.297 69.155 69.069 68.993 68.967 68.876 68.786 68.769 68.68 68.706 68.888 68.928 68.444 68.452 68.963 68.085 68.849 72.906 74.727 75.783 76.374 75.207 73.753 72.498 67.845 69.491 69.259 70.793 71.973 70.853 66.043 66.42 66.1 65.818 66.174 65.212 65.125 65.035 65.614 65.259 65.887 65.096 64.698 70.525 70.569 65.028 63.968 67.362 64.908 64.256 63.521 63.641 63.377 63.035 62.806 62.551 62.487 62.756 62.85 65.919 68.546 70.363 70.968 70.766 70.289 68.174 68.625 64.189 67.7 66.884 68.553 68.039 61.663 66.32 61.223 64.719 61.927 65.634 56.443 55.998 62.564 68.324 64.781 67.919 67.87 68.503 66.361 61.307 56.987 64.192 59.639 64.354 63.937 55.941 62.938 63.355 53.821 52.734 54.877 52.508 55.362 53.549 54.33 57.681 59.319 52.426 57.085 48.969 46.732 46.697 46.662 46.5 46.42 46.351 46.363 46.672 49.934 54.562 50.702 47.689 45.98 45.821 45.576 50.887 53.17 51.017 55.275 57.367 55.073 51.159 43.252 42.819 42.686 42.592 42.423 42.281 42.168 41.96 41.817 41.603 41.32 41.031 40.816 40.566 40.324 40.23 40.271 40.28 40.265 40.232 39.491 38.868 38.346 37.608 38.01 40.772 44.607 52.797 54.257 55.198 47.644 56.628 54.722 52.879 49.402 37.411 37.684 37.043 38.842 46.262 46.059 39.029 37.732 37.334 37.188 37.246 37.317 37.467 37.698 37.797 37.95 37.372 37.215 37.152 37.08 37.027 36.959 36.947 36.925 36.845 36.899 36.844 36.849 36.828 36.812 36.835 36.817 36.804 36.805 36.81 36.826 36.803 36.804 36.803 36.834 36.818 36.855 36.856 36.869 36.861 36.848 36.862 36.828 36.775 36.808 36.659 36.568 36.49 36.494 37.223 37.494 37.211 37.321 40.697 41.231 36.132 36.495 35.346 35.066 34.986 35.005 35.055 35.161 35.168 36.998 35.85 35.934 35.76 35.004 34.861 34.823 34.856
85.136 86.603 85.097 84.797 84.632 84.582 84.413 84.351 84.237 84.208 84.839 84.597 84.545 84.312 84.027 83.72 83.417 83.277 83.148 83.075 83.022 83.67 82.877 83.035 87.788 89.251 88.423 86.55 82.72 82.78 82.416 81.495 82.484 81.493 81.226 81.412 81.733 81.26 81.093 80.707 81.128 83.431 82.154 81.863 82.538 83.361 80.106 79.661 79.687 79.98 80.075 79.106 78.53 78.535 78.218 78.007 80.913 78.634 81.153 77.15 76.326 76.516 75.522 75.563 75.546 75.504 75.466 75.479 75.407 75.415 75.387 75.433 75.346 76.212 75.452 75.165 74.971 74.322 73.644 73.643 73.59 75.145 73.618 72.509 71.822 74.345 77.799 79.829 78.555 72.289 71.382 71.278 70.929 70.069 69.964 69.861 69.852 69.92 69.85 69.764 69.896 69.906 69.825 69.818 69.688 69.686 69.617 69.526 69.425 69.213 69.141 69.151 69.036 69.017 68.915 68.807 68.748 68.801 69.077 70.172 71.703 71.635 71.566 74.779 78.317 78.654 77.452 72.15 71.677 71.774 74.167 72.534 72.484 73.076 75.535 73.499 73.146 73.386 73.679 76.481 76.138 73.307 73.743 76.061 73.452 73.144 74.716 73.247 72.985 74.002 73.061 72.992 73.801 73.68 73.124 73.063 72.608 72.607 73.338 72.863 72.61 74.355 76.444 82.302 84.904 85.868 83.233 72.202 72.028 71.852 71.479 71.44 72.08 73.09 73.168 72.5 72.269 71.537 71.502 70.806 70.469 71.913 71.852 71.667 70.511 70.386 70.12 70.08 69.863 69.651 69.609 69.432 69.269 69.126 69.001 68.86 68.81 68.787 68.764 68.729 68.66 68.636 68.671 69.018 69.375 69.232 68.143 68.135 69.043 73.64 74.405 75.31 74.924 75.349 70.922 68.237 68.287 69.473 67.943 69.385 66.518 66.008 66.037 66.313 66.952 65.648 65.313 65.246 65.321 65.633 65.32 66.279 65.056 64.885 66.119 66.176 64.127 66.888 69.793 70.16 68.422 65.162 64.2 63.827 63.792 63.276 62.719 62.501 62.384 62.436 62.551 62.967 63.957 64.01 64.992 66.403 65.955 70.65 71.44 71.127 70.991 67.267 72.497 71.011 62.481 68.368 70.586 63.996 67.677 64.433 68.119 63.376 62.271 69.24 68.367 65.93 64.167 65.531 55.016 58.876 66.587 54.252 66.022 64.921 64.487 63.154 53.045 59.407 56.231 63.264 58.028 60.957 51.639 63.131 61.428 60.34 56.15 58.044 48.407 46.676 46.649 46.608 46.527 46.436 46.346 46.228 46.243 53.152 56.128 53.34 47.502 45.873 49.711 46.996 47.965 49.991 57.054 55.842 54.709 56.17 47.093 43.23 42.978 42.831 42.663 42.701 42.614 42.41 42.317 41.962 41.605 41.361 41.124 40.884 40.628 40.394 40.35 40.292 40.312 40.365 39.675 38.722 38.004 45.464 39.015 37.524 38.035 45.528 49.49 53.653 53.833 53.965 52.721 49.61 50.724 48.309 38.034 36.767 37.213 37.805 41.09 39.069 37.7 37.674 37.683 37.297 37.303 37.4 37.673 37.747 37.748 37.489 37.151 37.115 37.08 37.079 36.924 36.866 36.811 36.762 36.828 36.796 36.792 36.786 36.79 36.827 36.804 36.746 36.79 36.753 36.792 36.793 36.759 36.742 36.835 36.816 36.755 36.83 36.818 36.815 36.871 36.845 36.841 36.8 36.776 36.758 36.664 36.576 36.465 36.463 37.035 37.389 37.235 37.456 37.324 40.208 40.308 39.899 35.829 35.136 35.151 35.031 35.045 35.148 35.077 35.115 35.201 35.986 35.951 35.616 34.968 34.808 34.79
91.744 91.111 89.712 85.101 84.871 84.67 84.358 84.28 84.21 84.998 84.292 84.377 84.47 84.111 83.923 83.719 83.571 83.456 83.336 83.186 83.806 83.155 82.374 82.175 85.916 87.817 82.575 83.112 82.479 81.032 81.225 81.981 81.544 81.313 81.134 81.07 80.995 81.034 81.633 80.886 80.69 80.879 81.584 82.144 85.003 85.835 84.535 81.347 79.914 79.785 79.835 79.539 78.886 78.38 78.142 78.094 78.034 80.233 82.098 77.271 76.696 77.232 75.556 75.544 75.44 75.468 75.495 75.482 75.487 75.424 75.373 75.346 75.343 75.282 75.453 75.278 75.252 74.433 73.744 74.119 73.206 72.737 75.169 75.331 74.289 72.809 71.695 73.85 72.419 71.784 71.357 71.361 71.003 70.237 70.02 69.954 69.965 69.986 69.937 69.912 69.777 69.893 69.989 69.896 69.763 69.753 69.737 69.531 69.423 69.304 69.339 69.288 69.191 69.139 69.065 68.924 68.956 69.144 69.638 70.585 72.621 71.718 75.107 77.844 79.165 78.079 73.155 71.614 71.685 71.789 74.249 74.969 73.525 73.21 74.701 73.528 73.306 73.479 73.573 76.105 76.041 73.4 75.135 76.742 75.409 73.329 74.172 73.547 73.084 74.537 73.363 73.138 73.079 74.074 73.933 72.949 72.66 72.67 74.237 73.121 72.279 72.142 79.916 85.488 82.986 84.454 73.384 72.079 72.479 71.956 71.562 71.536 71.756 73.213 72.76 71.465 72.67 72.423 71.394 70.797 70.649 70.694 71.485 70.755 70.327 70.41 70.167 70.011 69.734 69.685 69.677 69.576 69.427 69.219 69.156 68.923 68.89 68.786 68.697 68.707 68.604 68.546 68.508 68.513 68.738 68.59 68.353 68.16 68.122 69.09 69.586 73.837 73.672 72.97 68.658 68.174 67.729 67.432 67.549 67.116 66.986 66.025 66.524 66.637 66.072 65.52 65.441 65.427 66.197 65.575 65.442 65.358 65.325 65.121 64.947 64.552 65.495 68.678 70.38 71.193 70.574 69.636 66.862 65.321 64.154 63.238 63.96 62.636 62.469 62.328 62.041 62.845 62.569 62.387 62.256 67.087 69.551 71.077 70.098 71.048 69.984 70.875 71.866 70.048 64.992 68.24 58.157 59.406 59.549 70.828 67.433 63.083 69.229 67.101 60.37 56.317 65.789 68.688 67.986 63.961 64.712 66.728 65.871 65.162 64.753 62.33 59.501 60.34 65.378 57.153 51.664 59.372 54.423 60.615 63.759 59.584 51.825 53.013 54.973 51.958 53.425 52.258 46.654 46.415 46.363 46.247 46.188 51.794 54.027 54.609 54.711 51.108 51.064 49.276 47.61 46.872 53.466 56.866 54.495 47.043 44.508 43.268 43.087 43.039 43.112 43.042 42.823 42.655 42.259 41.89 41.608 41.411 41.174 40.943 40.689 40.468 40.45 40.397 40.128 39.733 38.571 42.904 46.791 46.555 44.251 38.926 37.636 38.099 38.832 46.368 46.199 46.546 58.607 45.801 53.935 49.74 41.883 36.771 36.818 37.141 37.325 37.547 37.843 37.674 37.777 37.682 37.466 37.49 37.572 37.657 37.681 37.122 37.122 37.051 36.963 36.923 36.875 36.804 36.806 36.731 36.737 36.739 36.736 36.752 36.746 36.762 36.781 36.793 36.757 36.738 36.75 36.773 36.8 36.748 36.8 36.784 36.817 36.836 36.841 36.822 36.848 36.804 36.843 36.752 36.762 36.709 36.656 36.551 36.501 36.467 36.474 37.556 37.335 37.578 37.966 41.031 41.073 41.056 35.725 35.128 35.199 35.115 35.02 35.015 35.089 35.178 35.165 35.617 37.632 39.514 40.012 35.901 34.749
91.807 91.546 89.503 85.79 84.63 84.509 84.307 84.213 84.069 84.319 86.727 84.385 84.348 84.093 83.907 83.855 83.694 83.376 83.249 83.584 82.811 82.545 82.404 82.326 82.302 83.97 82.211 82.022 85.549 83.772 81.057 81.244 81.301 81.242 81.586 80.978 80.926 80.903 80.893 80.852 81.006 82.26 82.566 83.695 86.243 87.168 86.154 83.971 79.819 79.651 79.676 79.889 78.807 78.31 78.233 78.198 78.579 80.25 78.763 78.326 83.397 77.833 79.805 77.29 75.588 75.56 75.512 75.478 75.452 75.384 75.418 75.372 75.332 75.354 75.264 76.631 75.397 74.363 74.502 73.935 72.959 72.49 72.202 72.254 73.043 72.9 74.302 75.27 75.551 72.372 71.39 71.424 71.243 70.564 70.165 70.015 70.054 70.08 69.99 70.001 69.9 69.802 69.887 69.831 69.806 69.709 69.683 69.566 69.603 69.495 69.483 69.373 69.263 69.305 69.113 69.078 69.182 69.356 70.351 72.015 71.516 71.64 76.899 78.594 79.11 77.178 71.883 73.126 71.84 72.271 72.617 76.223 73.938 73.171 73.334 75.287 74.646 74.12 73.691 75.717 76.99 74.539 74.194 76.772 74.711 74.014 73.927 75.084 73.305 74.412 73.647 73.482 73.337 73.636 74.018 72.78 72.71 72.598 73.377 74.165 74.139 72.253 72.177 80.376 83.02 73.553 72.05 72.123 72.388 71.7 71.63 71.661 72.21 72.181 71.391 71.305 71.487 72.095 71.174 70.857 70.793 71.03 71.129 75.606 76.047 75.186 70.852 70.184 69.976 69.826 69.766 69.692 69.54 69.399 69.215 69.057 68.918 68.764 68.647 68.641 68.58 68.559 68.477 68.408 68.374 68.412 68.61 69.309 68.406 67.958 67.896 67.871 69.279 68.398 68.848 68.016 67.575 67.314 67.095 66.959 67.849 66.429 66.078 66.469 65.766 65.658 65.614 66.513 65.949 65.407 65.364 68.567 67.746 65.39 65.319 65.622 63.924 63.78 68.057 69.675 70.549 70.985 70.017 69.442 65.439 64.521 63.384 62.897 63.641 62.405 62.253 64.116 62.703 62.35 62.016 64.972 68.646 70.915 71.028 71.495 73.641 73.6 73.368 66.875 71.491 70.971 70.63 65.763 69.769 59.774 68.355 69.532 56.419 64.404 67.987 58.312 64.079 66.564 67.553 64.421 58.054 64.63 63.22 64.913 64.488 65.477 64.047 58.084 60.028 60.338 55.681 52.003 50.739 63.181 53.997 51.863 49.801 57.726 55.145 50.222 56.404 56.679 48.706 46.426 46.411 46.253 46.196 46.182 47.435 52.158 49.479 52.322 54.133 53.144 50.391 45.61 45.339 46.21 44.054 43.872 43.587 43.409 43.298 43.365 43.472 43.352 43.161 42.899 42.326 41.714 41.586 41.36 41.194 40.981 40.75 40.559 40.449 40.473 40.221 39.636 46.765 48.066 47.12 46.721 46.5 38.917 37.347 37.681 38.156 45.025 43.928 56.221 52.696 43.693 54.05 48.957 51.272 45.433 37.256 36.793 37.185 37.359 37.592 37.604 37.562 37.722 37.609 37.584 37.607 37.51 37.173 36.995 37.059 36.933 36.854 36.848 36.801 36.765 36.695 36.721 36.702 36.682 36.712 36.687 36.723 36.761 36.748 36.724 36.733 36.77 36.738 36.754 36.779 36.733 36.768 36.789 36.813 36.827 36.84 36.896 36.749 36.793 36.871 36.772 36.756 36.721 36.653 36.574 36.463 36.4 36.431 37.092 37.484 37.618 38.891 40.621 40.939 40.194 36.422 35.255 35.191 35.242 35.023 34.984 35.123 35.129 35.091 35.453 41.344 42.394 42.809 38.144 34.752
91.541 91.56 90.577 85.155 84.579 85.073 85.166 84.042 84.027 83.849 86.485 88.694 88.123 87.516 85.661 85.234 85.209 84.889 84.803 84.815 84.388 82.642 82.565 82.73 83.765 83.315 83.865 85.971 87.61 86.607 83.534 81.105 81.265 81.145 81.769 81.057 80.783 80.73 80.735 80.746 82.492 82.239 80.086 84.074 86.052 87.431 88.162 86.189 84.357 79.84 82.676 80.67 78.464 78.345 78.26 78.435 78.111 77.727 79.501 81.719 79.865 81.201 78.927 76.021 77.054 75.579 75.46 75.495 75.471 75.422 75.418 75.344 75.378 75.366 75.319 75.374 75.541 75.035 74.98 73.276 72.532 72.339 72.264 71.799 71.575 74.865 74.149 72.38 73.709 72.349 71.455 71.452 71.352 70.904 70.329 70.125 70.109 70.149 70.062 70.08 70.03 69.854 69.871 69.782 69.813 69.791 69.719 69.723 69.663 69.607 69.603 69.503 69.455 69.287 70.52 69.804 69.515 69.992 71.505 71.931 71.736 75.472 77.806 79.183 77.503 72.084 71.84 72.456 73.724 75.237 74.956 73.848 76.428 73.487 73.397 75.572 74.899 73.615 74.421 74.25 77.278 77.456 75.696 76.958 76.309 74.637 74.809 75.512 75.988 74.918 74.215 74.196 74.077 74.427 74.5 72.961 72.792 73.176 74.736 73.351 73.052 72.373 72.647 72.366 72.502 72.478 72.169 72.039 72.097 71.695 71.668 71.708 72.037 71.565 71.453 71.407 72.006 71.749 71.007 70.889 70.791 71.366 70.467 74.743 77.221 76.39 71.449 70.195 70.346 69.844 69.879 69.775 69.618 69.549 69.324 69.246 69.157 68.837 68.775 68.613 68.561 68.535 68.445 68.403 68.346 68.298 68.326 68.337 68.752 68.154 67.933 67.808 68.276 68.356 68.425 67.895 67.594 67.381 67.056 66.976 66.907 66.995 66.252 65.968 65.919 65.718 66.346 66.039 66.664 66.6 65.404 70.089 71.392 69.734 65.599 65.197 64.257 63.808 64.309 67.65 68.739 70.369 71.334 69.63 66.531 64.478 62.861 62.765 62.673 62.815 62.381 62.181 63.145 62.185 61.895 63.348 67.337 69.768 70.576 73.169 67.349 74.598 75.443 74.229 73.908 70.35 72.757 67.468 65.308 64.187 65.528 57.534 67.426 66.125 63.692 68.898 64.128 67.911 63.825 67.076 66.527 62.86 66.097 64.857 57.947 65.902 64.209 65.803 56.744 65.631 61.855 54.93 52.201 55.003 52.801 59.254 53.039 59.544 60.886 64.207 60.326 50.803 56.113 46.469 46.331 46.281 46.243 46.055 45.994 45.957 46.09 53.712 56.494 52.762 48.116 48.12 44.375 44.298 44.251 43.997 43.776 43.609 43.649 43.74 43.737 43.607 43.371 43 43.05 42.44 41.58 41.385 41.157 41.04 40.847 40.655 40.515 40.461 43.572 46.79 47.442 48.131 47.455 46.76 46.597 41.313 37.389 37.466 37.353 44.405 51.65 56.314 45.854 47.543 54.551 53.601 51.531 46.552 40.015 36.776 36.993 37.345 37.689 40.27 42.72 37.963 37.628 37.64 37.528 37.251 37.078 36.95 36.955 36.856 36.802 36.795 36.732 36.764 36.7 36.683 36.676 36.66 36.658 36.644 36.675 36.696 36.66 36.748 36.763 36.758 36.725 36.693 36.701 36.774 36.789 36.788 36.799 36.807 36.791 36.8 36.815 36.82 36.775 36.803 36.735 36.722 36.617 36.58 36.525 36.432 36.405 36.853 37.674 37.689 37.361 37.889 37.916 37.486 35.873 35.344 35.168 35.113 34.996 35.038 35.076 35.103 35.196 35.239 38.644 42.461 42.497 42.108 35.565
91.273 91.955 90.83 86.288 84.491 84.404 84.302 84.058 83.923 84.159 85.106 87.775 88.926 87.457 84.586 84.335 84.161 83.871 85.324 84.569 84.703 84.236 84.091 83.812 83.777 81.353 81.813 86.396 88.706 87.972 86.561 82.58 81.571 81.128 80.99 81.824 81.093 80.674 80.578 80.57 81.092 80.687 80.301 79.744 81.717 86.374 87.532 86.458 85.235 81.39 83.337 79.026 78.358 78.343 78.467 78.254 77.903 78.681 80.858 78.943 77.119 78.068 78.937 79.486 77.087 78.657 75.53 75.478 75.431 75.511 75.425 75.366 75.377 75.382 75.347 76.423 75.138 79.064 78.604 77.733 74.063 72.332 72.307 71.566 73.071 77.616 76.931 75.137 72.234 71.441 71.433 71.447 71.369 71.073 70.585 70.228 70.166 70.251 70.2 70.105 70.036 70.055 69.94 69.844 69.866 69.803 69.794 69.785 69.78 69.603 69.69 69.55 69.523 69.462 70.888 69.912 70.223 71.046 71.791 71.591 71.628 77.548 78.943 78.305 74.293 71.729 71.98 72.046 72.493 73.348 76.521 76.129 76.416 76.261 74.035 77.864 78.928 76.482 77.049 76.856 76.979 77.982 77.262 76.389 75.949 75.026 75.4 75.606 75.788 75.499 75.605 75.338 75.526 75.501 76.104 75.609 74.628 74.229 80.055 78.239 74.811 74.505 73.637 73.161 73.588 72.253 72.098 72.163 72.763 71.714 71.719 71.693 72.132 71.587 71.571 71.534 71.915 71.698 71.022 70.947 71.144 71.325 70.581 74.164 77.566 77.291 72.938 70.295 70.321 69.949 70.002 69.793 69.793 69.597 69.412 69.359 69.174 69.07 68.876 68.716 68.543 68.404 68.48 68.347 68.314 68.245 68.18 68.112 68.164 68.553 68.455 67.997 68.115 68.392 67.994 67.823 67.653 67.451 67.187 67.026 66.832 66.65 66.239 66.131 66.012 65.902 66.128 65.875 65.79 65.835 69.416 71.892 72.988 71.898 70.673 65.408 64.82 65.893 66.388 65.002 64.96 67.672 69.663 68.456 65.127 65.765 68.18 66.698 63.282 62.832 62.724 62.443 62.099 62.004 61.893 63.793 67.686 68.74 71.814 73.024 75.17 72.247 64.197 75.79 72.187 75.154 74.441 61.4 70.084 57.796 71.117 65.767 63.235 66.167 58.047 68.974 65.889 61.394 58.48 66.787 63.545 55.753 57.53 66.229 54.691 65.782 62.312 64.602 63.482 63.439 63.864 59.865 58.647 51.378 55.192 51.761 62.395 56.737 51.584 61.984 64.478 61.528 55.596 46.669 46.314 46.26 46.207 46.122 46.02 45.886 50.76 56.375 56.589 56.061 49.968 45.973 44.636 44.6 44.308 44.143 43.897 43.901 43.975 44.079 44.087 43.875 43.752 43.42 43.048 42.534 42.201 41.549 41.182 41.031 40.98 40.897 40.619 40.421 44.676 46.41 46.988 47.685 48.293 47.193 46.711 46.337 43.039 37.326 37.259 39.533 43.546 49.853 41.296 49.967 48.289 46.023 51.882 47.189 40.135 36.822 37.145 40.535 40.574 46.974 46.026 41.901 41.404 37.756 37.303 37.076 36.947 36.901 36.864 36.84 36.759 36.771 36.699 36.687 36.632 36.641 36.594 36.664 36.663 36.668 36.675 36.65 36.643 36.704 36.703 36.79 36.725 36.734 36.701 36.766 36.745 36.777 36.853 36.846 36.79 36.838 36.881 36.833 36.784 36.803 36.669 36.719 36.719 36.589 36.613 36.391 36.364 36.363 37.14 37.429 37.384 37.881 38.494 38.589 36.213 35.535 35.342 35.025 35.054 34.96 34.985 35.163 35.062 35.056 39.704 42.716 40.492 41.735 39.378
91.107 91.818 91.108 87.016 84.527 84.705 84.447 84.007 83.865 83.947 84.302 84.083 85.055 83.946 83.846 83.818 83.723 83.496 83.617 83.969 84.597 84.704 84.242 83.681 82.022 81.233 80.833 83.499 86.84 88.259 87.881 85.678 83.358 81.556 81.436 81.19 82.446 80.625 80.47 80.345 80.752 80.366 80.909 79.913 80.901 82.335 85.996 85.405 82.233 81.942 83.633 79.85 78.465 78.359 78.214 78.45 78.048 80.877 81.554 79.203 77.345 78.624 76.746 78.87 80.685 80.475 78.885 75.562 75.421 75.467 75.457 75.373 75.389 75.394 75.459 75.457 77.786 79.049 79.757 78.955 76.688 74.014 71.71 71.538 78.589 79.621 78.489 77.232 73.446 71.39 71.467 71.434 71.446 71.139 70.68 70.423 70.253 70.25 70.281 70.206 70.111 70.101 70.083 70.053 70.011 69.889 69.907 69.824 69.793 69.838 69.692 69.584 69.585 69.614 69.665 70.18 70.763 72.114 71.652 71.601 76.516 78.503 79.138 74.658 72.396 72.043 72.299 72.144 72.725 73.127 73.727 76.118 77.309 77.84 78.307 79.308 78.509 77.962 78.052 76.935 77.403 76.183 75.639 75.92 75.828 75.6 75.761 74.784 75.213 74.357 73.967 74.048 74.562 74.955 77.245 76.952 76.888 83.665 86.461 82.144 78.138 76.76 75.779 74.929 72.394 72.514 72.111 72.074 72.033 71.881 73.251 72.864 71.758 71.708 72.405 72.744 71.913 71.29 71.051 70.979 71.756 71.176 71.442 74.059 77.459 77.229 72.495 70.29 70.398 70.014 70.096 69.984 69.808 69.652 69.573 69.393 69.287 69.083 68.985 68.882 68.632 68.514 68.437 68.332 68.253 68.205 68.217 68.124 69.335 69.777 68.422 68.371 68.904 68.102 68.023 67.884 67.679 67.459 67.296 67.074 66.906 66.558 66.286 66.242 66.05 66.816 65.945 65.855 65.593 68.998 71.488 73.783 73.035 71.405 67.024 65.567 65.229 67.706 68.594 65.377 64.092 65.358 66.55 64.784 65.273 68.488 69.609 68.906 67.107 64.872 63.47 62.474 62.531 62.074 62.002 61.91 64.832 68.131 69.343 71.867 72.987 73.056 75.73 64.659 75.469 75.11 71.648 67.429 64.992 66.455 71.617 70.277 63.305 65.245 66.222 61.982 66.17 67.934 67.956 61.328 65.79 57.193 64.248 61.496 57.031 63.763 59.002 59.211 63.409 56.526 58.963 62.7 61.311 59.895 52.863 59.695 56.314 53.641 62.011 62.884 54.877 54.128 55.262 49.628 48.395 46.156 46.15 46.072 46.112 45.92 51.472 50.809 56.299 56.316 51.539 45.262 44.989 45.453 44.562 44.317 44.196 44.231 44.285 44.387 44.392 44.206 44.071 43.727 43.396 43.072 42.608 42.518 41.692 41.051 41.378 41.175 40.763 40.55 41.389 45.062 46.692 47.283 47.972 47.203 46.846 46.665 44.894 38.965 37.345 37.74 38.566 41.728 53.033 53.174 52.293 42.568 48.121 50.271 44.371 36.909 36.831 37.751 44.339 48.449 49.028 49.041 44.721 37.694 37.202 37.05 36.952 36.866 36.816 36.761 36.73 36.688 36.682 36.633 36.586 36.677 36.667 36.605 36.604 36.694 36.662 36.657 36.668 36.697 36.727 36.729 36.724 36.802 36.774 36.746 36.756 36.809 36.805 36.773 36.793 36.823 36.86 36.804 36.767 36.895 36.708 36.666 36.612 36.591 36.531 36.411 36.361 36.341 36.852 37.498 37.544 40.956 42.157 42.099 40.068 36.519 35.958 35.149 35.047 34.904 34.964 35.049 35.042 35.158 36.304 41.887 40.632 42.31 38.705
90.644 92.365 91.425 89.324 84.6 84.392 84.351 84.02 83.819 84.916 84.354 84.104 84.076 83.912 83.789 83.69 83.69 83.687 83.533 84.089 83.913 84.31 84.097 83.385 81.954 81.697 81.038 81.158 85.045 87.058 88.365 87.262 86.155 81.071 81.606 80.916 80.651 80.487 80.372 80.362 80.482 80.62 80.178 80.012 79.733 80.645 81.699 82.392 80.078 81.114 84.672 84.488 82.76 79.468 78.324 78.304 80.106 80.931 78.651 77.32 77.399 77.621 76.822 76.77 77.242 79.79 80.976 78.297 75.733 75.463 75.387 75.436 75.357 77.2 75.565 75.45 77.933 75.547 76.366 76.921 77.202 76.015 72.086 74.31 78.07 80.989 80.325 78.795 73.46 71.409 71.501 71.491 71.438 71.183 70.698 70.495 70.368 70.294 70.309 70.256 70.196 70.146 70.096 70.113 70.019 69.968 69.962 69.881 69.864 69.814 69.739 69.708 69.765 69.831 70.294 70.688 71.111 72.014 71.713 74.199 77.908 78.822 79.229 73.376 71.783 72.167 72.361 72.872 73.078 73.176 73.229 73.484 74.911 78.517 78.529 75.262 75.053 75.122 75.041 75.225 76.262 75.509 74.972 75.934 76.078 75.742 76.082 75.545 75.545 74.156 73.887 73.864 74.043 74.733 74.971 79.439 85.299 89.214 89.536 89.118 87.868 79.263 77.425 75.156 74.583 72.273 72.162 72.903 73.849 73.328 72.469 73.8 73.155 71.973 72.26 72.236 71.371 71.332 71.136 72.077 71.809 70.914 70.498 71.806 77.209 77.473 74.873 70.261 70.221 70.051 70.154 70.109 69.9 69.776 69.644 69.499 69.357 69.153 69.094 68.867 68.849 68.742 68.498 68.451 68.241 68.158 68.157 68.164 68.087 69.65 68.616 68.035 68.16 68.092 67.958 67.931 67.755 67.544 67.379 67.224 66.932 66.532 66.461 66.325 66.32 66.768 67.389 66.324 66.115 70.383 71.943 72.722 71.922 69.255 65.388 65.359 65.536 69.51 69.633 66.542 65.767 66.203 67.125 65.043 65.855 68.304 69.821 69.966 69.412 67.8 65.716 62.753 62.457 62.84 62.496 62.129 61.905 62.254 64.552 69.615 69.297 72.862 74.388 76.156 75.063 75.025 72.591 69.152 68.609 61.352 63.197 64.632 61.957 58.641 57.135 66.341 68.955 65.338 65.872 60.377 62.129 66.805 67.239 65.246 60.348 63.95 58.417 64.907 57.664 65.846 63.849 55.707 61.916 63.968 60.643 53.748 55.669 61.289 62.311 58.747 50.474 62.073 60.921 54.099 46.877 48.401 46.879 45.981 46.032 45.914 46.973 50.374 48.479 47.611 46.148 46.412 45.587 45.062 44.817 44.652 44.507 44.55 44.632 44.719 44.656 44.532 44.391 44.167 43.858 43.529 43.015 42.598 42.207 41.989 41.784 41.561 40.984 40.603 40.496 41.573 46.195 46.936 47.509 48.17 47.283 46.774 45.032 45.215 37.532 37.712 38.24 43.979 41.842 48.529 50.626 52.305 51.206 45.952 42.168 37.253 36.806 41.523 45.003 49.008 44.805 48.973 45.374 39.339 37.253 36.938 36.869 36.81 36.738 36.72 36.669 36.623 36.692 36.593 36.582 36.576 36.589 36.584 36.603 36.59 36.601 36.615 36.601 36.688 36.737 36.752 36.705 36.745 36.744 36.768 36.75 36.808 36.759 36.767 36.759 36.786 36.798 36.82 36.804 36.712 36.678 36.701 36.624 36.63 36.541 36.429 36.326 36.352 37.117 37.451 37.682 44.463 44.918 44.359 40.635 35.936 35.545 35.145 35.085 34.979 34.974 34.946 34.955 35.047 35.991 39.284 41.979 43.336 43.681
90.505 91.713 91.541 90.103 84.906 84.382 84.071 83.936 83.82 85.18 84.175 84.098 84.003 83.833 83.708 83.664 83.619 86.381 88.479 88.884 83.775 83.663 82.915 82.713 81.991 81.868 81.62 81.644 81.458 85.161 87.446 88.167 87.211 85.122 81.114 80.833 80.785 80.591 80.37 80.233 80.153 80.032 80.071 79.99 79.75 79.706 79.736 80.569 78.587 83.702 86.118 86.033 84.984 83.29 78.533 78.477 79.707 78.4 77.725 78.168 78.805 77.114 77.239 76.768 77.427 80.498 77.931 76.942 79.588 77.36 75.411 75.385 75.495 75.772 75.503 75.499 78.268 74.838 78.366 76.619 78.266 77.692 74.215 75.153 76.568 77.267 78.44 74.853 72.988 71.526 71.437 71.527 71.508 71.238 70.9 70.573 70.456 70.425 70.436 70.362 70.341 70.237 70.191 70.152 70.109 70.099 69.96 69.988 69.935 69.91 69.838 69.896 69.985 70.387 70.811 71.158 72.444 72.132 74.298 76.79 78.863 78.72 74.537 72.237 71.984 72.438 72.821 73.018 73.519 73.354 75.243 74.059 74.166 77.255 79.22 75.372 73.9 73.966 74.217 74.591 75.009 74.621 74.563 74.925 75.617 75.059 76.05 75.678 73.997 73.911 73.83 73.863 74.288 73.952 73.329 80.362 87.635 89.47 89.942 89.471 89.115 85.531 76.169 76.205 73.663 73.583 74.037 75.004 74.119 73.249 73.613 76.118 75.996 74.581 72.195 72.657 71.454 71.385 71.497 71.892 71.031 70.801 70.466 70.458 76.588 77.277 74.862 70.348 70.212 70.109 70.197 70.179 69.963 69.844 69.658 69.562 69.407 69.24 69.173 69.067 68.998 68.835 68.675 68.478 68.324 68.259 68.126 68.057 68.066 67.988 67.911 67.83 67.84 67.864 67.948 67.924 67.792 67.605 67.413 67.317 66.825 66.691 66.597 66.448 66.606 66.565 66.744 67.35 67.502 67.792 70.131 71.438 69.766 67.396 67.012 67.695 67.416 67.343 68.638 65.07 64.913 64.371 64.994 64.243 63.17 64.012 67.044 68.716 69.589 69.788 69.085 67.644 64.012 62.484 61.946 62.175 62.123 61.716 61.621 62.077 61.658 67.863 70.112 71.288 66.129 73.293 73.415 69.241 60.904 63.245 69.061 64.857 67.474 61.484 69.33 69.32 62.758 66.9 68.836 68.538 66.981 59.131 62.903 59.476 61.569 65.235 64.519 67.249 66.552 67.025 54.434 64.193 62.296 54.383 63.887 64.57 59.868 64.701 58.576 60.389 56.52 61.646 62.601 51.454 51.716 52.95 49.347 50.364 46.083 45.974 46.203 45.796 45.705 45.625 45.631 45.521 45.387 45.141 44.98 47.171 52.073 50.94 44.954 44.875 44.831 44.795 44.612 44.475 44.255 43.917 43.679 43.227 42.936 42.551 42.189 41.752 41.307 40.791 40.585 40.536 44.908 46.542 47.159 47.848 47.651 47.139 46.685 44.212 38.398 37.462 38.022 38.79 47.18 45.68 42.667 51.068 44.556 46.933 43.847 45.37 38.706 39.71 46.814 48.013 48.183 48.966 46.268 39.255 37.145 36.897 36.875 36.815 36.737 36.708 36.686 36.625 36.58 36.565 36.59 36.591 36.586 36.608 36.585 36.658 36.62 36.652 36.637 36.713 36.684 36.732 36.686 36.709 36.732 36.717 36.738 36.697 36.715 36.737 36.758 36.796 36.78 36.766 36.781 36.731 36.725 36.675 36.669 36.628 36.501 36.58 36.365 36.342 36.399 37.332 37.416 43.688 44.399 38.813 39.488 36.037 35.728 35.317 35.138 35.047 34.924 34.954 34.97 34.993 34.909 36.906 39.823 39.969 39.595
87.168 86.574 85.407 85.254 86.28 84.761 83.991 83.86 85.302 85.531 84.454 84.008 83.936 83.786 83.687 83.562 86.372 88.756 89.654 90.398 85.555 83.752 85.312 83.443 82.054 81.986 83.226 82.064 81.285 81.346 86.235 87.275 88.149 86.918 85.086 80.873 80.862 80.647 80.404 80.161 80.101 80.028 79.893 79.868 79.763 79.672 80.299 79.012 82.013 84.314 85.624 86.507 86.59 85.347 84.264 82.015 79.419 78.315 78.117 79.257 77.476 76.98 76.68 77.514 79.962 80.059 75.893 79.781 80.26 79.958 76.586 75.474 75.502 75.492 77.062 79.152 76.585 74.172 74.634 74.619 77.45 76.767 75.589 76.64 76.865 75.855 76.952 74.148 71.505 71.544 71.534 71.515 71.555 71.246 70.896 70.636 70.534 70.595 70.486 70.48 70.393 70.334 70.234 70.245 70.113 70.019 70.094 70.01 70.038 70.025 69.938 70.051 70.274 70.76 71.064 72.053 71.885 71.753 71.735 78.083 78.809 77.823 74.015 71.786 72.289 72.664 72.935 73.12 73.193 75.802 77.432 76.954 76.424 77.666 78.925 76.979 73.992 74.939 74.106 74.719 73.973 73.928 73.917 74.14 75.775 74.17 74.503 74.651 73.897 73.877 73.714 73.778 73.99 73.427 73.487 73.426 86.05 89.389 89.402 88.537 87.463 82.47 74.227 75.1 73.066 73.121 72.64 73.166 73.926 73.681 73.892 74.787 75.208 73.544 72.538 71.759 71.544 71.623 71.758 71.414 71.099 70.869 70.522 70.751 76.122 76.962 74.769 70.351 70.272 70.219 70.25 70.211 70.071 69.967 69.826 69.692 69.489 69.426 69.275 69.184 69.125 68.897 68.813 68.632 68.491 68.266 68.169 68.111 67.993 67.931 67.856 67.815 67.708 67.67 67.733 67.693 67.621 67.561 67.288 67.108 66.857 66.732 66.569 66.78 66.835 66.699 66.542 66.355 68.414 68.802 67.787 68.854 66.583 69.02 67.8 66.696 65.866 66.369 68.526 68.245 65.364 64.358 65.203 63.544 63.368 63.278 63.404 65.389 68.07 70.322 68.992 66.744 63.226 64.442 62.412 62.186 62.551 62.825 62.63 61.534 61.446 61.671 66.195 69.644 69.034 71.324 70.469 69.974 62.502 62.63 71.017 62.704 69.737 70.883 71.133 60.587 64.479 67.404 62.612 65.163 60.012 57.853 61.365 59.437 54.736 60.885 60.742 62.375 58.207 65.086 56.748 65.563 63.03 64.58 59.31 57.983 56.182 63.978 63.591 60.048 61.054 59.068 57.901 50.746 52.647 54.798 54.126 55.158 47.237 53.491 47.349 45.755 45.71 45.605 45.541 45.471 45.403 45.278 52.5 46.209 45.101 51.913 46.882 44.908 44.89 44.863 44.807 44.686 44.599 44.383 44.187 43.866 43.568 43.225 42.701 42.214 41.63 41.104 40.679 40.564 41.602 45.934 46.827 47.524 48.193 48.062 46.784 46.45 43.411 39.929 38.366 39.102 41.63 47.531 50.095 51.711 51.026 52.237 48.882 46.911 38.66 41.186 42.944 45.588 46.986 47.071 42.242 39.344 37.677 36.968 36.856 36.792 36.726 36.654 36.603 36.59 36.586 36.569 36.534 36.542 36.558 36.553 36.572 36.561 36.622 36.68 36.617 36.692 36.668 36.734 36.729 36.741 36.743 36.744 36.715 36.731 36.713 36.741 36.775 36.783 36.742 36.747 36.732 36.722 36.735 36.7 36.593 36.611 36.53 36.476 36.377 36.312 36.325 37.265 37.308 37.349 40.383 41.095 36.772 36.156 35.938 36.184 35.103 34.992 34.895 34.878 34.958 35 34.958 37.01 39.659 39.121 36.086
85.574 84.933 84.797 86.322 86.578 85.992 85.475 83.963 85.85 86.512 84.581 84.411 83.898 83.751 83.718 86.247 89.099 89.841 90.632 90.635 89.829 87.993 85.349 84.536 82.681 83.219 83.608 81.422 81.389 81.273 81.741 86.282 87.854 88.121 86.827 81.93 80.935 81.62 80.684 80.227 80.049 79.938 79.852 79.754 79.645 79.611 80.179 79.266 78.982 79.832 84.075 85.041 86.28 86.7 86.627 83.585 79.495 78.33 79.566 78.275 77.553 77.213 77.042 79.81 80.029 77.608 78.676 79.98 81.037 81.359 81.417 78.152 75.604 75.466 76.99 78.094 75.314 74.329 75.049 74.539 73.579 73.484 73.895 75.883 77.15 77.12 75.62 72.135 71.541 71.558 71.524 71.556 71.463 71.136 70.916 70.747 70.654 70.698 70.682 70.573 70.447 70.391 70.31 70.257 70.192 70.207 70.133 70.105 70.12 70.116 70.578 70.269 70.481 70.848 71.334 72.071 72.089 71.64 75.502 78.231 78.566 74.252 71.633 71.818 72.105 75.222 74.982 73.774 73.135 74.028 77.237 78.016 78.008 77.717 78.839 77.513 75.079 75.439 74.231 74.138 73.895 73.884 73.862 74.376 75.521 74.003 73.938 74.183 73.797 73.702 73.608 73.649 73.587 73.298 73.253 73.502 82.33 87.846 87.102 86.303 87.347 82.706 74.851 75.251 72.915 72.597 72.709 72.734 73.467 73.021 73.782 74.862 74.694 74.065 72.043 71.707 71.632 72.462 72.012 71.313 71.169 70.824 70.646 70.388 71.764 71.777 71.707 70.338 70.426 70.409 71.017 70.226 70.175 70.006 69.957 69.778 69.686 69.537 69.421 69.368 69.121 68.986 68.91 68.767 68.649 68.437 68.243 68.149 68.032 67.915 67.814 67.825 67.706 67.639 67.595 67.561 67.519 67.389 67.215 67.086 67.043 66.885 66.775 67.019 66.943 66.757 66.636 66.507 66.41 68.398 68.747 69.611 71.341 70.594 66.556 66.404 66.208 65.863 65.719 66.058 67.473 67.447 64.826 63.519 63.41 63.495 64.129 63.422 63.291 66.253 67.963 63.784 65.176 67.752 67.242 64.632 63.907 63.137 62.702 62.605 61.7 61.768 62.884 67.298 67.897 65.482 69.494 72.47 70.083 66.898 64.709 66.518 69.245 71.06 59.452 61.731 66.158 62.899 67.189 62.6 62.839 66.172 58.466 58.096 54.629 63.095 66.124 60.96 62.396 64.228 59.375 65.517 66.405 59.225 65.769 65.435 65.695 64.852 63.131 63.752 56.2 53.625 56.375 54.32 57.372 57.209 61.275 58.82 51.054 52.69 46.396 48.441 45.673 45.634 45.539 45.471 45.315 51.04 50.339 50.189 47.316 46.158 46.472 44.896 44.906 44.926 44.911 44.898 44.874 44.731 44.54 44.409 44.097 43.737 43.291 42.603 42.131 42.043 40.851 40.642 40.515 43.393 46.466 47.028 47.597 48.034 46.923 46.69 42.567 39.383 39.417 39.486 40.979 46.693 49.585 48.046 51.768 52.12 49.871 48.913 48.429 47.579 40.311 42.233 43.631 44.553 38.759 37.698 37.574 36.918 36.863 36.787 36.718 36.667 36.618 36.562 36.498 36.52 36.491 36.517 36.558 36.547 36.664 36.577 36.66 36.597 36.61 36.679 36.669 36.691 36.689 36.695 36.73 36.715 36.712 36.712 36.752 36.754 36.717 36.789 36.797 36.782 36.756 36.759 36.764 36.748 36.62 36.643 36.575 36.488 36.385 36.365 36.324 36.57 37.206 37.278 36.962 36.591 36.618 36.474 36.159 35.979 35.289 35.054 34.909 34.91 34.945 35.019 34.97 37.546 39.262 36.968 35.951
85.766 84.733 84.95 86.372 86.069 85.049 84.923 83.951 85.767 84.885 83.964 84.003 83.871 83.955 83.745 83.904 88.442 90.696 90.264 89.594 88.736 84.935 84.663 85.271 82.596 82.181 82.069 81.493 81.495 81.569 81.858 80.802 85.396 88.044 87.889 85.817 81.676 80.825 80.508 80.435 80.063 79.885 79.795 79.659 79.487 79.478 79.437 79.645 79.01 78.885 79.967 82.853 84.698 86.086 87.009 85.715 84.64 82.773 78.679 77.913 77.844 77.589 78.534 80.02 77.172 77.673 80.289 80.28 76.706 79.702 78.807 80.655 77.63 80.073 80.753 79.137 77.048 74.183 74.028 73.957 73.996 73.576 73.48 73.569 74.389 76.819 75.962 74.234 71.718 71.579 71.508 71.606 72.079 71.084 70.988 70.868 70.824 70.824 70.708 70.624 70.498 70.371 70.345 70.272 70.226 70.229 70.171 70.195 70.235 70.181 70.771 70.53 70.489 71.042 73.154 73.999 73.886 73.507 72.527 76.067 77.093 72.256 71.712 71.723 72.215 74.52 76.053 76.814 75.034 74.021 75.714 77.779 78.779 78.669 78.755 77.898 74.727 74.317 73.958 73.997 73.758 73.783 73.869 74.452 74.703 73.94 74.705 74.838 73.502 73.449 74.205 73.379 73.959 73.231 73.145 73.435 76.846 82.898 84.19 85.068 82.89 73.936 74.635 74.525 72.634 72.549 72.762 73.683 73.399 72.691 72.823 74.716 74.488 72.703 72.853 73.566 72.085 73.203 71.706 71.423 71.173 71.016 70.931 70.554 70.483 70.667 70.606 70.663 70.335 70.319 70.489 71.56 70.147 70.109 70.073 69.907 69.871 69.627 69.557 69.445 69.221 69.171 68.989 68.842 68.707 68.585 68.42 68.22 68.11 67.953 67.815 68.073 67.715 67.684 67.58 67.589 67.474 67.384 67.322 67.197 67.079 66.916 67.017 67.127 66.995 66.79 66.631 66.54 66.492 67.404 68.6 68.097 70.16 67.811 66.452 66.536 66.578 66.225 66.097 67.354 67.711 66.878 67.362 64.711 63.704 63.682 64.783 63.313 62.991 62.723 63.642 63.043 66.564 68.209 69.016 68.529 66.97 63.556 61.861 61.871 61.76 62.62 62.984 63.467 61.988 69.035 70.771 69.538 65.793 64.854 70.152 68.502 73.321 70.842 59.314 68.216 68.766 66.591 67.673 64.408 65.339 69.82 62.676 63.916 55.145 66.925 65.851 60.259 61.519 67.98 68.088 67.805 66.521 67.098 66.096 63.699 62.715 63.832 57.868 59.67 52.415 50.043 54.946 55.95 55.449 62.368 64.228 53.537 60.262 54.623 46.175 55.632 46.117 45.598 45.56 45.493 45.301 45.55 48.61 51.418 52.092 45.234 44.806 44.891 44.887 44.905 44.888 44.965 44.921 44.902 44.806 44.652 44.439 44.177 43.843 43.201 42.546 42.161 41.146 40.76 40.551 40.68 45.93 46.821 47.338 47.938 42.053 40.568 39.77 39.739 39.74 40.08 40.012 49.434 49.958 48.857 41.966 45.97 51.382 51.661 50.495 47.363 38.718 37.157 37.229 37.324 37.719 37.626 37.575 37.029 36.844 36.761 36.694 36.637 36.587 36.563 36.528 36.594 36.483 36.513 36.51 36.582 36.64 36.593 36.589 36.575 36.607 36.646 36.626 36.66 36.64 36.712 36.71 36.766 36.691 36.71 36.752 36.703 36.755 36.773 36.759 36.735 36.733 36.744 36.727 36.66 36.64 36.617 36.629 36.48 36.409 36.344 36.356 36.797 37.069 37.151 37.007 36.579 36.68 36.752 36.466 36.044 35.565 35.096 35.011 34.858 34.931 34.922 34.937 34.981 35.183 35.69 35.91
