ncols 458
nrows 31
xllcorner    425070
yllcorner    433210
cellsize     2
NODATA_value -9999
56.527 56.499 56.305 55.721 55.101 54.533 54.13 54.051 54.214 54.622 54.791 55.274 55.533 55.725 55.847 55.754 55.661 55.498 55.404 55.198 54.949 54.921 54.061 53.394 53.541 52.253 49.972 57.098 54.782 58.054 56.918 53.634 53.907 54.677 54.923 59.314 62.708 63.298 59.049 64.454 62.885 58.593 54.58 54.561 54.524 54.649 62.804 63.942 67.082 71.406 60.615 64.01 56.089 55.914 55.971 55.952 57.779 57.555 59.384 58.436 59.954 60.967 61.586 60.846 58.824 61.409 59.65 58.361 58.542 57.648 57.742 56.957 57.126 56.845 56.734 56.76 57.089 57.349 57.716 58.299 58.36 58.314 58.152 57.985 57.897 57.817 57.71 57.625 57.519 57.479 57.545 57.584 57.561 57.588 57.741 58.049 57.63 57.771 57.867 57.949 58.089 58.523 58.737 58.985 59.276 59.458 62.585 62.608 60.056 60.254 60.598 61.626 66.511 67.722 67.236 66.568 66.458 62.988 61.418 60.908 61.074 61.77 63.452 62.573 62.268 63.019 62.34 61.872 61.866 62.362 64.938 65.188 64.743 64.902 64.864 66.544 66.097 66 66.258 66.808 68.442 67.434 70.862 67.42 71.528 70.519 68.756 69.095 67.244 66.161 66.674 66.779 66.819 69.003 67.312 66.749 66.755 66.856 66.744 66.855 68.555 68.966 67.596 67.395 67.259 67.418 67.552 67.443 67.387 67.257 67.283 67.307 67.052 67.088 66.901 72.545 76.088 75.367 74.194 70.427 67.458 67.554 67.687 67.712 67.602 67.568 67.593 67.637 67.548 67.73 67.861 68.058 68.198 68.284 69.52 70.314 73.454 68.527 68.42 68.4 68.492 69.814 71.205 71.593 71.622 72.946 74.545 80.284 77.005 75.211 74.345 73.588 72.571 77.629 78.268 79.257 77.298 80.229 79.057 75.98 74.946 75.043 76.78 77.186 75.427 75.423 75.685 76.061 76.528 76.676 76.952 77.695 77.546 77.608 77.853 79.234 78.698 78.775 78.257 83.372 84.737 83.929 82.527 78.516 78.059 77.992 78.569 79.236 79.848 79.753 79.803 79.749 80.741 80.355 80.316 80.33 80.402 80.592 80.483 80.499 80.776 86.029 88.755 89.136 86.445 85.711 83.675 82.328 81.825 82.318 81.833 81.431 81.521 81.613 81.59 81.761 81.872 81.809 81.807 81.854 81.94 84.533 83.75 82.353 81.838 81.908 81.883 82.081 83.737 85.682 84.421 81.972 81.754 81.769 81.811 81.839 81.731 81.771 81.71 81.695 81.616 81.467 81.46 81.358 81.31 81.206 81.052 80.975 80.87 81.053 81.334 81.546 81.383 82.179 81.806 82.124 83.127 83.335 86.713 82.154 85.177 87.402 87.827 87.071 85.055 81.985 82.163 82.198 82.409 82.39 82.728 82.685 82.766 82.995 83.174 83.763 84.102 86.372 83.433 83.327 83.618 83.803 87.789 84.792 83.652 83.469 85.682 89.998 89.582 84.532 84.295 83.54 86.315 86.037 84.371 84.206 84.003 84.052 84.864 84.251 84.454 84.928 84.766 84.759 85.303 89.47 91.513 92.124 91.601 90.777 89.019 86.63 85.578 86.412 87.439 88.366 87.455 88.251 87.921 87.739 87.602 87.759 88.079 88.386 -9999 -9999 -9999 -9999 -9999 -9999 -9999 -9999 -9999 -9999 -9999 -9999 -9999 -9999 -9999 -9999 -9999 -9999 -9999 -9999 -9999 -9999 -9999 -9999 -9999 -9999 -9999 -9999 -9999 -9999 -9999 -9999 -9999 -9999 -9999 -9999 -9999 -9999 -9999 -9999 -9999 -9999 -9999 -9999 -9999 -9999 -9999 -9999 -9999 -9999 -9999 -9999 -9999 -9999 -9999 -9999 -9999 -9999 -9999 -9999 -9999 -9999 -9999 -9999 -9999 -9999 -9999 -9999 -9999 -9999 -9999 -9999 -9999 -9999
56.619 56.641 56.505 56.114 55.679 54.993 54.404 54.174 54 54.117 54.275 54.627 54.809 55.004 55.299 55.297 55.403 55.421 55.297 55.094 54.877 54.517 54.115 53.666 53.356 53.826 49.923 49.862 52.111 55.519 53.94 53.308 53.554 53.864 54.135 56.263 59.793 61.18 56.316 61.259 61.622 54.426 54.522 54.551 54.625 56.67 67.109 68.194 71.076 57.527 58.784 55.317 55.582 55.809 55.954 59.218 60.687 60.255 60.287 60.297 60.969 61.113 61.159 58.277 57.276 60.884 59.617 59.296 59.383 59.069 58.701 59.192 58.803 58.648 57.95 57.728 56.793 56.938 57.185 57.539 57.906 58.281 58.25 58.168 58.032 57.89 57.846 57.77 57.714 57.687 57.504 57.533 57.597 57.63 57.591 57.586 57.831 58.444 57.7 57.721 57.983 58.229 58.369 58.738 58.912 59.003 59.61 59.321 59.475 59.828 60.171 60.549 65.104 63.465 65.882 67.105 66.857 65.654 60.791 60.492 60.75 61.28 61.278 61.384 61.694 62.026 63.086 61.868 61.665 61.723 61.75 62.353 64.48 64.435 64.388 64.349 64.481 64.682 67.663 68.962 70.456 72.223 71.967 66.378 66.339 68.687 69.06 67.515 66.169 65.56 64.278 63.948 64.02 64.229 64.428 64.622 66.431 66.079 66.695 66.171 65.841 65.925 66.008 66.029 65.809 66.09 66.103 66.343 66.535 66.173 66.322 66.712 66.352 66.367 66.512 67.388 75.509 76.194 68.581 68.947 67.008 67.244 67.296 67.459 67.258 67.364 67.428 67.474 67.41 67.569 67.675 67.797 68.045 68.097 68.188 68.249 68.306 68.382 69.451 70.32 68.529 70.39 71.234 71.505 71.568 73.776 80.022 81.743 81.045 79.197 76.595 75.587 75.359 74.28 73.417 77.885 75.532 75.482 74.718 75.058 75.136 75.303 75.297 76.118 77.952 76.047 75.606 75.682 75.984 76.366 76.753 76.937 77.882 77.677 77.572 77.569 77.813 78.013 80.832 83.482 85.162 85.031 84.609 83.638 80.831 79.443 78.077 78.735 78.712 79.001 79.237 79.575 79.74 80.355 80.267 80.221 80.226 80.849 80.445 80.271 80.419 85.759 89.586 83.414 87.149 86.936 85.741 84.916 84.086 82.776 81.333 81.221 81.317 81.503 81.491 81.545 81.546 81.583 81.768 81.667 81.695 81.722 82.049 81.469 80.645 81.117 81.02 81.731 82.85 82.45 82.39 81.591 81.587 81.611 81.678 81.679 81.71 81.749 81.772 81.769 81.734 82.496 81.419 81.251 81.174 81.132 81.063 80.935 80.837 80.721 80.712 80.907 81.083 81.136 81.208 81.384 81.715 81.944 81.911 82.302 86.974 88.329 88.745 88.114 87.307 83.267 81.531 81.969 82.067 82.439 82.784 82.346 82.481 82.636 82.911 83.119 83.78 88.024 85.022 89.599 85.112 89.025 90.267 85.214 83.096 83.135 83.153 85.943 83.311 83.079 84.498 87.493 84.299 84.039 84.343 84.123 83.836 83.752 83.615 83.887 84.164 84.849 84.62 84.65 84.758 86.1 90.387 91.742 92.28 91.495 90.556 86.699 85.957 85.652 87.602 87.16 86.666 86.84 86.987 87.227 88.541 88.874 90.426 88.795 88.077 -9999 -9999 -9999 -9999 -9999 -9999 -9999 -9999 -9999 -9999 -9999 -9999 -9999 -9999 -9999 -9999 -9999 -9999 -9999 -9999 -9999 -9999 -9999 -9999 -9999 -9999 -9999 -9999 -9999 -9999 -9999 -9999 -9999 -9999 -9999 -9999 -9999 -9999 -9999 -9999 -9999 -9999 -9999 -9999 -9999 -9999 -9999 -9999 -9999 -9999 -9999 -9999 -9999 -9999 -9999 -9999 -9999 -9999 -9999 -9999 -9999 -9999 -9999 -9999 -9999 -9999 -9999 -9999 -9999 -9999 -9999 -9999 -9999
56.68 56.784 56.737 56.379 55.946 55.516 54.901 54.489 54.075 53.978 54.021 54.121 54.17 54.356 54.563 54.684 54.711 54.812 54.989 54.929 54.761 54.277 53.854 53.536 53.397 53.705 50.463 52.168 54.195 53.713 54.09 53.328 53.446 53.538 53.638 53.957 54.132 54.421 54.413 54.858 54.377 54.258 54.22 54.227 54.505 54.433 57.646 58.697 55.953 54.748 54.838 55.158 56.552 57.003 58.638 59.827 60.888 59.835 59.365 59.618 59.698 59.225 60.075 58.137 59.913 60.698 59.115 58.464 58.68 58.636 58.514 58.547 58.608 59.136 59.149 58.782 57.547 57.251 56.816 56.871 57.137 57.385 57.842 57.96 57.954 57.882 57.84 57.811 57.806 57.794 58.053 57.72 57.53 57.537 57.586 57.661 57.612 57.776 57.605 57.575 57.668 57.788 58.041 58.248 58.398 58.454 58.546 58.889 59.172 59.508 59.849 60.204 60.163 60.43 64.967 66.374 67.352 66.179 64.288 63.975 61.197 60.228 61.003 61.13 61.304 61.723 61.862 62.128 61.567 61.582 62.548 62.199 61.62 62.157 63.764 64.251 64.211 64.265 65.619 72.337 71.682 72.469 71.821 66.954 65.32 65.852 65.458 65.586 65.347 65.974 64.245 63.899 63.868 63.853 63.909 63.913 63.919 63.903 63.87 63.886 64.094 64.553 64.466 64.454 65.197 65.227 64.661 65.365 65.081 65.225 65.563 65.708 65.676 65.807 65.9 65.899 66.265 71.503 66.949 66.449 66.631 66.611 66.787 66.966 67.125 67.189 67.251 67.281 67.235 67.317 67.572 67.563 67.771 67.861 68.009 68.007 68.021 68.218 68.714 69.411 68.666 70.674 71.175 71.408 71.537 74.181 82.073 82.349 82.259 81.615 80.696 79.021 75.436 78.368 74.014 72.632 73.847 73.489 74.853 75.097 75.21 75.322 75.483 75.651 75.991 75.631 76.678 76.688 75.889 75.977 76.332 76.795 77.017 77.25 77.366 77.452 77.496 77.812 77.968 83.028 83.62 84.602 85.181 85.142 84.153 79.734 77.973 78.655 78.652 78.591 78.686 78.819 79.273 79.375 80.132 80.212 80.186 80.648 80.181 80.054 81.101 80.785 82.375 80.599 86.524 86.732 83.762 82.364 83.109 83.486 81.833 81.411 81.157 81.152 80.925 80.908 81.267 81.843 81.613 82.47 81.671 81.998 80.801 80.668 85.274 83.895 85.348 81.701 81.389 81.504 82.235 81.362 81.413 81.475 81.476 81.585 81.684 81.749 81.907 82.475 83.9 84.7 81.803 81.32 81.146 81.023 80.951 80.961 80.886 80.711 80.623 80.539 80.562 80.665 80.933 80.966 80.924 81.31 81.286 81.64 84.753 87.071 88.444 88.923 88.297 87.53 86.56 81.917 81.612 81.884 82.112 82.105 82.165 82.229 82.514 82.832 83.508 87.641 87.813 96.148 97.089 95.654 92.549 91.337 84.73 83.017 83.059 83.199 82.866 85.933 88.329 89.136 86.688 83.698 84.15 84.835 83.829 83.609 83.456 83.475 83.854 83.902 84.239 84.502 84.852 84.899 86.567 89.757 91.828 92.298 86.035 85.055 85.386 84.917 85.686 86.33 86.592 86.694 87.107 88.869 90.787 91.947 91.923 89.853 88.173 88.296 -9999 -9999 -9999 -9999 -9999 -9999 -9999 -9999 -9999 -9999 -9999 -9999 -9999 -9999 -9999 -9999 -9999 -9999 -9999 -9999 -9999 -9999 -9999 -9999 -9999 -9999 -9999 -9999 -9999 -9999 -9999 -9999 -9999 -9999 -9999 -9999 -9999 -9999 -9999 -9999 -9999 -9999 -9999 -9999 -9999 -9999 -9999 -9999 -9999 -9999 -9999 -9999 -9999 -9999 -9999 -9999 -9999 -9999 -9999 -9999 -9999 -9999 -9999 -9999 -9999 -9999 -9999 -9999 -9999 -9999 -9999 -9999
56.686 56.835 56.85 56.638 56.298 55.849 55.245 54.672 54.332 53.975 54.012 53.938 53.886 53.913 54 54.076 54.138 54.262 54.364 54.433 54.34 53.993 53.533 53.28 53.159 53.08 53.007 52.605 51.138 53.16 54.332 53.771 53.348 53.436 53.642 55.839 55.717 54.507 53.709 53.834 53.801 53.822 53.932 53.955 53.914 54.018 54.186 56.069 54.253 54.381 54.483 55.106 56.934 57.836 56.304 58.729 59.565 58.956 58.901 58.662 58.049 58.024 58.633 60.387 59.696 59.964 58.545 57.889 58.778 59.624 58.301 57.751 57.697 57.747 58.531 58.736 58.38 58.458 58.389 57.502 56.961 57.018 57.219 57.525 57.62 57.688 57.707 57.759 57.8 57.816 57.856 57.838 57.826 57.738 57.58 57.575 57.694 57.665 57.683 57.66 57.631 57.645 57.695 57.842 57.991 57.98 58.3 58.53 58.786 59.166 59.414 59.515 59.742 59.954 63.324 66.136 67.039 66.396 66.694 65.949 63.588 60.21 60.734 61.087 61.048 60.951 61.495 63.51 61.821 61.453 61.384 61.563 61.598 61.53 61.49 62.27 64.167 64.264 65.387 70.364 69.962 66.377 67.8 64.952 64.743 65.069 65.024 64.908 64.905 65.06 64.069 63.817 63.789 63.803 63.842 63.803 63.816 63.808 63.831 63.818 63.79 63.84 63.839 63.85 63.846 63.862 63.869 64.145 63.968 64.208 64.568 64.815 64.938 65.225 65.247 65.288 65.443 65.675 65.923 66.05 66.248 66.441 66.714 68.789 67.044 67.111 67.061 67.087 67.135 67.007 67.262 67.321 67.442 67.57 67.825 67.863 67.958 67.983 68.048 68.14 69.958 70.879 71.183 71.346 71.445 77.652 80.592 81.375 82.003 82.494 81.981 81.364 80.512 78.178 75.683 74.662 73.793 74.009 75.049 75.111 75.199 75.334 75.513 75.682 75.762 75.8 75.815 76.536 75.943 75.991 76.038 76.236 76.591 76.971 77.11 77.277 78.409 77.634 77.665 77.802 77.948 82.677 83.781 84.784 85.034 78.662 78.026 78.263 79.407 78.266 78.505 78.719 78.611 78.766 79.032 79.208 79.601 79.793 79.644 79.798 80.887 80.1 80.052 83.724 85.876 85.688 84.363 81.261 80.75 81.462 80.091 80.182 80.853 81.027 80.701 81.692 81.989 82.39 81.427 81.212 81.733 80.938 80.716 80.571 85.193 87.589 86.935 85.567 81.273 81.321 81.475 81.142 81.162 81.288 81.309 81.498 81.8 82.405 85.204 85.304 82.391 81.584 81.826 81.49 81.221 82.373 84.942 82.025 80.711 80.636 80.558 80.437 80.362 80.266 80.45 80.709 80.739 81.064 81.847 81.172 81.856 85.174 85.341 87.878 88.508 88.552 87.486 86.295 81.724 81.056 81.842 81.881 82.271 82.063 82.176 82.43 82.164 82.783 86.983 96.682 98.094 97.986 94.244 92.16 85.868 86.189 85.789 85.538 83.127 86.989 89.619 90.011 89.15 86.253 84.107 83.888 84.465 83.45 83.286 83.295 83.425 83.662 83.701 84.504 86.459 85.704 84.813 86.063 89.687 90.51 85.634 85.083 84.656 84.732 84.919 86.501 86.569 86.671 87.178 88.228 88.205 90.786 92.504 91.739 88.181 88.35 88.498 -9999 -9999 -9999 -9999 -9999 -9999 -9999 -9999 -9999 -9999 -9999 -9999 -9999 -9999 -9999 -9999 -9999 -9999 -9999 -9999 -9999 -9999 -9999 -9999 -9999 -9999 -9999 -9999 -9999 -9999 -9999 -9999 -9999 -9999 -9999 -9999 -9999 -9999 -9999 -9999 -9999 -9999 -9999 -9999 -9999 -9999 -9999 -9999 -9999 -9999 -9999 -9999 -9999 -9999 -9999 -9999 -9999 -9999 -9999 -9999 -9999 -9999 -9999 -9999 -9999 -9999 -9999 -9999 -9999 -9999 -9999
56.677 56.818 56.856 56.732 56.517 56.166 55.507 55.006 54.425 53.942 54.246 53.955 53.932 53.947 53.808 53.767 53.762 53.744 53.775 53.739 53.729 53.508 53.255 53.152 53.137 53.487 52.577 50.796 52.294 51.693 55.881 54.759 53.565 55.719 57.677 57.879 57.699 55.392 54.132 53.704 56.754 56.733 57.859 57.577 56.699 57.522 56.978 56.571 54.228 53.966 55.708 56.664 57.297 57.168 56.66 57.001 57.658 57.835 57.407 58.03 57.064 57.119 57.548 58.497 58.441 58.748 57.59 57.335 57.071 57.465 57.807 56.972 56.948 57.357 57.759 57.618 58.631 59.068 60.209 58.847 58.085 57.042 57.057 57.231 57.369 57.473 57.573 57.66 57.726 57.826 57.895 57.976 58.064 58.037 57.85 57.745 57.59 57.596 57.663 57.7 57.639 57.653 58.3 58.686 57.942 57.749 58.017 58.265 58.396 58.713 58.876 59.023 59.218 59.765 61.402 61.784 63.876 64.653 66.507 66.355 64.529 60.62 61.097 60.957 61.022 64.219 65.633 65.542 61.425 61.275 61.306 61.435 63.044 61.569 61.392 61.649 61.475 63.06 64.121 64.121 64.608 64.495 64.707 65.105 64.566 64.592 64.555 65.157 63.659 63.805 65.257 63.925 63.879 63.876 63.863 63.806 63.752 63.771 63.747 63.717 63.728 63.751 63.722 63.747 63.752 63.756 63.794 63.815 63.816 63.916 64.026 64.329 64.499 64.73 64.91 65.146 65.383 65.548 65.763 65.961 66.182 67.467 69.541 69.309 66.931 66.969 66.959 66.929 66.902 66.842 67.034 67.205 67.322 67.572 67.67 67.864 67.974 67.932 67.808 68.14 70.658 70.732 72.212 71.14 71.382 71.414 71.45 78.599 80.767 81.641 82.12 82.596 81.885 81.21 80.403 75.545 75.404 75.174 75.136 75.309 75.329 75.367 75.506 75.691 75.807 75.852 75.928 75.999 75.973 76.007 76.097 76.167 76.199 76.455 76.744 77.06 77.243 77.755 77.653 77.638 78.082 77.722 78.783 83.312 79.969 77.992 78.245 81.76 84.024 82.361 81.293 78.469 78.365 78.52 78.699 78.828 79.009 79.202 79.297 79.504 80.827 79.864 80.181 84.221 85.081 82.313 81.5 80.701 80.914 80.419 79.851 79.896 80.705 80.491 80.215 80.859 81.072 81.578 81.697 82.301 81.552 80.869 80.564 81.418 86.416 87.735 86.655 82.215 80.966 81.128 82.476 80.989 81.028 81.097 81.347 81.5 82.292 83.182 84.494 82.938 82.328 81.502 81.85 81.146 81.144 83.95 85.958 84.025 85.939 82.385 80.444 80.397 80.352 80.242 80.153 80.142 80.196 80.56 80.567 80.979 81.231 81.426 81.725 85.485 87.808 87.833 84.169 81.67 82.334 81.381 80.78 81.298 81.773 81.871 81.857 81.8 81.823 82.035 91.38 90.193 97.297 95.551 92.28 87.184 82.982 85.495 85.567 84.636 82.841 83.793 88.895 90.167 89.88 88.715 85.441 83.368 84.3 83.727 83.226 83.172 83.831 83.193 83.506 84.224 85.405 87.622 85.119 86.466 86.931 87.15 85.854 84.737 89.658 88.686 85.038 85.341 86.417 91.56 92.594 88.282 87.342 90.405 91.938 92.732 90.226 88.425 88.681 88.801 -9999 -9999 -9999 -9999 -9999 -9999 -9999 -9999 -9999 -9999 -9999 -9999 -9999 -9999 -9999 -9999 -9999 -9999 -9999 -9999 -9999 -9999 -9999 -9999 -9999 -9999 -9999 -9999 -9999 -9999 -9999 -9999 -9999 -9999 -9999 -9999 -9999 -9999 -9999 -9999 -9999 -9999 -9999 -9999 -9999 -9999 -9999 -9999 -9999 -9999 -9999 -9999 -9999 -9999 -9999 -9999 -9999 -9999 -9999 -9999 -9999 -9999 -9999 -9999 -9999 -9999 -9999 -9999 -9999 -9999
56.655 56.817 56.884 56.832 56.583 56.249 55.801 55.238 54.693 54.069 53.785 53.898 53.929 53.937 53.841 53.798 53.662 53.594 53.543 53.371 53.336 53.279 53.207 53.199 53.158 53.233 52.891 51.171 51.8 51.064 55.817 57.349 56.879 56.424 57.557 58.35 58.8 55.946 56.174 57.858 57.906 57.617 57.887 57.849 57.051 56.878 57.237 56.382 53.555 53.59 56.53 56.41 56.364 56.012 55.812 56.028 55.183 56.98 55.595 56.73 55.523 54.108 55.323 56.438 57.091 55.908 56.621 56.482 56.811 57.005 57.118 56.67 57.295 56.819 57.462 57.192 59.823 58.067 59.721 59.419 59.974 59.846 57.72 57.964 57.441 59.867 57.682 57.589 57.68 57.761 57.856 58.047 58.281 58.274 58.087 57.966 57.844 57.754 57.593 57.568 57.659 57.694 57.716 57.913 57.927 58.337 58.016 57.989 58.034 58.108 58.274 59.313 59.1 59.267 59.494 59.595 59.836 64.204 66.112 66.643 65.906 61.514 60.564 60.269 63.231 66.877 67.519 67.016 62.429 60.961 61.102 61.428 62.65 61.645 61.62 61.389 61.299 61.426 61.407 62.184 64.06 64.255 64.427 64.483 64.411 63.092 63.141 63.255 63.483 65.802 66.13 66.138 66.103 65.394 65.941 65.5 64.456 65.492 63.842 63.77 63.764 63.685 63.686 63.695 63.656 63.694 63.698 63.774 63.778 63.896 64.082 64.349 64.551 64.724 64.835 64.999 65.176 65.096 65.268 65.26 65.223 67.72 69.713 70.919 66.968 66.929 66.888 66.759 66.754 67.354 67.077 67.14 67.095 67.317 67.539 67.632 67.741 67.807 67.812 67.715 67.902 71.044 70.804 70.979 71.247 71.324 71.309 71.584 72.465 79.093 81.192 81.804 82.282 82.383 81.713 81.072 79.935 77.669 77.12 77.006 75.804 75.85 75.464 75.586 75.69 75.734 75.946 76.189 76.159 76.187 76.194 76.237 76.263 76.31 76.318 76.65 76.938 77.161 77.49 77.732 78.332 78.636 78.093 77.737 77.903 77.933 78.074 84.442 85.207 84.682 83.984 82.213 78.352 78.938 78.398 78.544 78.63 79.058 78.966 79.079 80.142 79.491 79.946 80.778 81.19 80.725 80.268 80.182 80.878 79.794 79.599 79.694 80.616 79.878 79.922 81.17 81.269 80.722 80.715 82.145 83.054 82.401 80.992 84.003 86.748 87.332 86.398 82.115 80.916 81.435 80.739 80.771 80.877 80.866 81.196 81.507 82.694 82.016 82.023 84.955 85.996 81.527 81.777 80.859 80.883 85.323 85.44 86.662 87.107 86.76 81.675 80.368 80.229 80.158 80.078 79.993 79.921 79.94 80.209 80.288 80.621 81.373 81.049 81.351 84.305 86.612 81.746 81.219 83.745 85.812 81.349 80.771 81.49 81.744 81.551 81.467 81.718 81.63 82.295 90.905 94.539 93.846 83.334 82.769 82.973 82.878 82.425 82.388 84.286 83.728 87.534 89.472 90.256 89.42 88.248 83.466 83.07 84.283 83.607 82.95 83.14 82.859 83.211 83.713 84.321 87.473 86.405 86.34 87.148 86.189 85.963 91.236 91.517 90.725 88.697 84.764 86.067 90.359 93.627 87.601 86.698 87.364 92.188 93.731 93.486 88.844 88.729 88.935 89.055 -9999 -9999 -9999 -9999 -9999 -9999 -9999 -9999 -9999 -9999 -9999 -9999 -9999 -9999 -9999 -9999 -9999 -9999 -9999 -9999 -9999 -9999 -9999 -9999 -9999 -9999 -9999 -9999 -9999 -9999 -9999 -9999 -9999 -9999 -9999 -9999 -9999 -9999 -9999 -9999 -9999 -9999 -9999 -9999 -9999 -9999 -9999 -9999 -9999 -9999 -9999 -9999 -9999 -9999 -9999 -9999 -9999 -9999 -9999 -9999 -9999 -9999 -9999 -9999 -9999 -9999 -9999 -9999 -9999
56.619 56.816 56.862 56.81 56.768 56.415 56.032 55.573 55.047 54.232 53.725 53.785 53.842 53.856 53.774 53.681 53.658 53.502 53.478 53.391 53.28 53.258 53.285 53.441 53.241 53.057 52.963 53.459 52.597 52.863 55.477 56.529 56.439 56.294 56.736 57.636 57.146 56.619 57.129 57.899 58.055 57.835 59.485 58.204 56.24 53.912 54.282 53.481 51.909 53.039 54.539 54.176 53.415 53.412 53.326 56.245 54.662 51.759 54.651 52.611 50.819 51.335 52.158 52.645 54.542 53.643 54.989 52.951 53.977 54.565 54.956 55.582 58.092 57.208 57.987 57.611 59.928 60.006 59.953 58.326 58.181 57.655 58.432 59.737 62.036 63.011 63.955 58.655 57.546 57.645 57.708 57.965 58.095 58.158 58.154 58.103 58.041 57.987 57.868 57.769 57.667 57.654 57.682 57.707 57.708 57.925 58.455 57.927 57.715 57.807 58.01 58.771 58.618 58.873 59.056 59.337 59.459 60.838 65.465 61.58 60.423 59.951 60.193 60.231 61.711 66.374 67.627 67.35 66.136 64.196 62.514 62.077 61.055 60.887 60.862 62.112 61.659 61.298 61.517 61.488 61.448 62.208 63.586 62.375 62.424 62.757 62.934 62.758 62.596 64.693 66.041 66.087 66.041 66.049 66.035 66.095 66.059 66.125 66.119 66.113 65.722 65.907 65.468 64.244 63.789 63.783 63.778 63.757 63.842 63.876 64.049 64.19 64.314 64.347 64.196 64.229 64.298 64.502 64.692 64.752 64.725 65.894 68.412 66.472 66.466 66.814 66.776 66.643 66.554 66.877 66.61 66.919 66.926 67.13 67.35 67.419 67.523 67.596 67.628 67.636 67.637 67.495 68.614 71.145 70.949 71.22 71.312 71.548 72.549 74.475 73.825 78.758 81.113 81.911 82.375 82.139 76.385 74.817 77.633 77.311 76.525 78.399 75.465 75.457 75.552 75.68 76.036 77.06 76.224 76.432 76.463 76.299 76.306 76.336 76.422 76.396 76.419 76.78 77.062 77.14 77.438 78.326 78.243 77.689 77.626 77.887 78.049 83.912 84.917 85.408 85.054 84.412 83.541 79.036 78.081 78.125 78.266 78.33 78.669 78.936 79.362 79.077 79.101 80.744 81.312 80.572 80.03 79.769 80.285 79.602 79.37 79.417 80.456 79.643 79.687 79.714 80.564 80.262 80.153 82.789 87.48 81.627 80.516 84.545 87.383 87.149 86.05 81.668 80.863 80.824 80.546 80.599 80.677 80.644 81.015 81.068 81.47 81.226 81.402 86.267 87.694 85.515 86.426 87.376 82.186 83.638 84.325 85.599 85.55 84.777 81.949 80.842 80.191 80.105 79.989 79.878 79.853 79.767 79.775 79.999 80.161 81.333 81.571 80.917 81.109 81.206 80.965 81.656 86.157 87.117 86.14 81.069 82.327 81.637 81.222 81.711 82.198 81.399 81.823 85.322 87.335 86.469 82.678 82.173 81.847 81.901 82.053 86.589 87.964 87.441 84.792 87.34 89.584 89.7 88.495 84.888 82.833 83.153 83.998 82.977 82.752 82.729 83.179 83.175 84.127 85.006 85.857 85.179 84.417 84.923 86.462 90.645 91.814 91.538 90.376 87.141 85.495 86.691 86.298 86.401 86.935 87.068 88.679 91.731 92.156 89.051 88.914 89.054 89.156 89.359 89.538 -9999 -9999 -9999 -9999 -9999 -9999 -9999 -9999 -9999 -9999 -9999 -9999 -9999 -9999 -9999 -9999 -9999 -9999 -9999 -9999 -9999 -9999 -9999 -9999 -9999 -9999 -9999 -9999 -9999 -9999 -9999 -9999 -9999 -9999 -9999 -9999 -9999 -9999 -9999 -9999 -9999 -9999 -9999 -9999 -9999 -9999 -9999 -9999 -9999 -9999 -9999 -9999 -9999 -9999 -9999 -9999 -9999 -9999 -9999 -9999 -9999 -9999 -9999 -9999 -9999 -9999 -9999
56.567 56.803 56.842 56.803 56.735 56.558 56.299 55.93 55.358 54.498 53.719 53.662 53.703 53.692 53.572 53.517 53.45 53.323 53.302 53.254 53.366 53.382 53.304 53.193 60.49 53.07 53.062 53.381 51.475 50.683 54.317 55.885 56.65 57.525 56.195 56.756 57.342 57.272 56.667 53.957 53.914 56.218 55.084 56.817 54.346 51.538 52.947 51.963 50.293 50.645 51.473 52.423 50.522 51.295 52.517 55.608 56.017 52.54 52.158 55.183 56.782 57.115 55.939 55.351 54.596 51.242 50.795 50.931 52.724 55.031 54.51 54.068 54.946 55.33 56.747 57.357 57.005 57.124 57.58 57.14 59.081 58.141 60.15 60.705 61.43 63.773 63.049 61.832 58.041 57.692 57.546 57.649 57.788 57.905 57.966 58.112 58.296 58.282 58.202 58.003 57.856 57.754 57.616 57.695 57.733 57.728 57.76 57.733 57.694 57.696 57.763 57.834 58.207 58.408 58.569 58.884 59.21 59.18 59.86 59.483 59.704 59.817 60.059 60.226 60.589 64.978 66.999 67.625 66.909 67.139 65.717 61.376 60.559 60.606 60.744 60.997 62.811 61.218 61.335 61.56 61.517 61.496 61.805 61.884 62.077 63.077 63.556 62.484 62.368 63.402 64.55 65.955 65.948 66.004 65.972 66.045 66.014 66.039 66.064 66.048 66.075 66.078 66.06 66.097 66.1 66.09 66.115 66.546 66.319 66.246 63.882 64.01 64.133 64.332 64.069 64.054 64.081 64.484 64.707 64.676 64.705 65.074 65.339 65.178 66.186 66.575 66.636 66.779 66.45 66.379 66.882 66.992 66.783 66.883 67.172 67.252 67.368 67.411 67.381 67.382 67.463 67.602 67.646 68.147 68.54 71.087 71.267 71.327 71.515 73.654 71.831 71.845 74.592 80.291 81.223 77.558 75.647 76.066 77.248 77.574 77.742 78.707 77.945 75.961 75.393 75.635 82.647 84.479 83.227 78.362 76.405 76.512 76.489 76.414 77.071 77.225 76.414 76.385 76.461 76.816 77.036 77.355 77.485 77.978 77.561 77.502 77.63 79.204 83.348 84.273 84.908 85.55 84.812 78.554 77.942 80.262 78.612 77.838 78.193 78.126 78.577 78.519 79.184 80.711 79.245 78.972 79.058 79.431 80.277 79.169 79.135 79.13 79.978 79.511 79.41 79.43 80.142 79.953 79.828 85.253 87.72 80.187 83.5 86.051 87.503 86.791 85.67 80.721 80.491 80.936 80.346 80.394 80.444 80.652 80.794 81.85 81.085 81.081 81.02 83.187 85.777 86.114 87.374 87.654 85.94 82.925 83.531 84.556 85.076 84.783 81.163 80.306 80.931 80.15 79.899 79.835 79.754 79.709 79.605 79.555 79.723 79.918 80.405 80.634 80.71 80.781 80.93 86.084 87.105 88 87.236 85.972 82.866 80.938 81.501 81.559 82.964 82.083 82.057 84.013 84.119 81.893 82.938 82.695 83.079 81.848 82.064 85.376 86.627 85.645 82.534 82.992 88.449 88.335 85.117 82.815 82.625 82.812 83.112 83.373 82.675 82.537 82.929 82.749 83.049 83.201 83.63 83.782 84.132 84.312 84.549 87.849 91.276 91.932 91.154 89.934 85.448 85.427 85.917 86.46 87.131 87.402 89.246 89.482 88.883 88.849 89.031 89.188 89.305 89.522 89.641 89.865 -9999 -9999 -9999 -9999 -9999 -9999 -9999 -9999 -9999 -9999 -9999 -9999 -9999 -9999 -9999 -9999 -9999 -9999 -9999 -9999 -9999 -9999 -9999 -9999 -9999 -9999 -9999 -9999 -9999 -9999 -9999 -9999 -9999 -9999 -9999 -9999 -9999 -9999 -9999 -9999 -9999 -9999 -9999 -9999 -9999 -9999 -9999 -9999 -9999 -9999 -9999 -9999 -9999 -9999 -9999 -9999 -9999 -9999 -9999 -9999 -9999 -9999 -9999 -9999 -9999 -9999
56.543 56.793 56.891 56.843 56.765 56.59 56.428 56.061 55.448 54.582 53.703 53.532 53.592 53.55 53.417 53.338 53.268 53.593 66.427 58.092 56.407 60.684 53.579 55.892 53.464 52.59 52.347 51.71 50.407 50.292 53.666 55.16 55.699 57.197 56.578 57.213 56.655 56.201 55.317 55.914 55.844 56.22 56.886 55.167 52.852 50.543 52.363 52.171 50.116 50.297 50.561 50.923 51.173 50.385 51.615 53.279 55.202 52.432 53.02 54.493 53.539 55.694 54.034 53.822 53.693 51.084 50.539 50.386 51.117 51.808 53.131 53.344 55.785 56.354 54.898 53.088 54.864 55.812 57.074 59.041 60.373 60.361 60.5 60.649 59.35 61.59 60.883 58.723 58.491 58.492 59.72 58.421 57.574 57.674 57.772 57.944 58.237 58.379 58.347 58.173 57.999 57.905 57.839 57.774 57.62 57.684 57.715 57.72 57.773 57.742 57.724 58.206 57.997 57.942 58.064 58.155 58.648 58.971 59.035 59.108 59.296 59.484 60.006 60.765 60.521 63.661 64.422 65.366 66.296 67.29 66.498 62.059 60.426 60.658 61.488 60.979 62.26 61.353 61.268 61.225 61.18 61.399 61.671 62.312 62.944 62.197 61.929 62.313 62.219 62.255 62.773 63.24 63.413 63.544 64.043 64.158 64.446 65.532 65.736 66.007 65.987 66.001 66.074 66.057 66.055 66.042 66.074 66.986 66.981 64.737 63.825 63.749 63.837 64.597 64.13 64.091 64.111 64.236 64.702 64.717 64.74 64.704 64.751 64.494 65.678 66.302 66.497 66.462 66.277 66.267 66.486 66.963 66.596 66.584 66.809 67.04 67.118 67.175 67.209 67.242 67.303 67.364 68.669 69.158 68.582 69.139 71.263 72.059 72.646 71.56 71.817 71.908 71.991 73.31 79.653 74.884 73.634 74.189 76.626 76.828 80.016 82.579 79.64 78.834 77.86 81.216 83.622 79.888 79.942 77.439 76.313 76.466 76.557 76.566 76.561 76.647 76.795 76.45 76.404 76.356 76.47 76.921 76.982 76.993 77.096 77.332 77.42 77.505 78.035 80.962 83.483 84.434 84.725 77.922 77.679 81.643 83.179 81.481 78.442 78.011 77.987 78.121 79.449 80.288 78.592 78.66 78.72 78.929 79.545 78.842 78.69 78.735 79.985 79.019 79.044 79.1 79.635 79.366 79.235 79.878 83.147 80.59 83.757 86.581 87.378 86.726 82.153 80.224 81.352 80.607 80.194 80.221 80.263 80.515 80.676 81.906 80.944 80.935 81.199 85.792 86.81 87.544 87.671 87.204 86.174 82.983 82.568 84.049 84.462 81.466 80.739 80.186 80.004 80.164 80.583 79.828 79.646 79.594 79.534 79.427 79.393 80.13 79.816 80.117 80.674 80.517 80.453 82.011 86.401 87.399 87.745 87.227 86.419 82.097 81.102 81.874 82.658 82.203 82.279 81.517 81.289 81.565 82.136 83.879 83.358 81.642 81.82 81.825 81.853 82.145 81.818 82.098 83.719 82.159 82.371 82.207 82.452 82.658 82.792 83.314 82.743 82.488 82.45 82.342 82.666 82.903 83.166 84.027 84.077 84.228 84.508 85.437 90.264 91.648 91.629 90.709 87.67 85.384 85.741 86.331 87.3 89.137 89.844 87.992 88.031 88.474 89.877 89.206 89.409 89.62 89.778 90.077 90.181 -9999 -9999 -9999 -9999 -9999 -9999 -9999 -9999 -9999 -9999 -9999 -9999 -9999 -9999 -9999 -9999 -9999 -9999 -9999 -9999 -9999 -9999 -9999 -9999 -9999 -9999 -9999 -9999 -9999 -9999 -9999 -9999 -9999 -9999 -9999 -9999 -9999 -9999 -9999 -9999 -9999 -9999 -9999 -9999 -9999 -9999 -9999 -9999 -9999 -9999 -9999 -9999 -9999 -9999 -9999 -9999 -9999 -9999 -9999 -9999 -9999 -9999 -9999 -9999 -9999
56.572 56.798 56.886 56.811 56.764 56.653 56.465 56.079 55.414 58.94 53.952 53.389 53.454 53.337 53.24 56.49 66.557 65.938 71.121 57.701 66.238 62.245 58.075 53.193 61.812 53.557 58.603 50.459 49.999 49.967 -9999 56.564 57.175 56.133 55.961 55.195 52.509 53.972 54.17 53.928 54.719 55.024 55.487 55.876 -9999 -9999 -9999 -9999 50.259 -9999 -9999 -9999 -9999 50.307 -9999 -9999 51.27 51.72 -9999 -9999 54.317 55.247 -9999 -9999 -9999 -9999 50.467 50.316 50.19 50.557 -9999 53.374 55.27 57.557 52.905 51.958 53.473 54.739 56.593 57.875 59.424 59.057 58.906 58.906 58.691 57.352 57.95 58.01 58.017 58.185 61.476 61.214 58.403 58.289 57.584 57.668 57.886 58.111 58.127 58.13 58.129 58.07 57.987 57.984 57.914 57.81 57.746 57.679 57.748 57.748 57.758 57.762 58.76 57.877 57.846 57.875 58.134 58.388 58.499 58.69 58.84 58.984 59.317 59.683 60.65 60.314 60.616 60.29 65.997 67.022 66.757 65.846 64.543 63.468 60.457 60.605 60.82 60.995 60.795 60.969 60.948 61.095 60.997 61.579 61.244 61.504 61.807 61.817 62.302 61.945 62.475 62.896 63.194 63.428 63.575 63.546 63.537 63.568 64.414 65.756 64.393 64.082 64.291 64.691 65.511 65.733 65.959 66.745 66.974 64.767 63.68 63.631 63.53 63.401 63.659 64.445 64.101 64.061 64.074 64.175 64.133 64.165 64.157 65.098 65.842 65.853 66.218 66.281 66.138 66.116 66.011 66.062 66.17 66.494 66.553 66.865 66.996 67.08 67.098 67.116 67.214 67.431 67.456 67.505 68.054 69.017 67.646 70.951 71.836 71.581 71.686 72.064 72.2 72.268 73.149 73.622 73.569 74.036 74.581 74.766 83.247 84.783 83.866 80.005 80.66 80.903 83.183 84.907 84.368 81.468 76.239 76.276 76.413 76.545 76.625 76.594 76.626 77.792 77.081 76.337 76.326 76.317 76.454 76.771 76.922 76.931 77.57 77.274 77.52 77.556 77.88 79.363 78.7 77.815 77.601 83.549 84.517 83.984 83.412 82.14 78.856 78.943 78.894 78.239 78.202 78.368 78.362 79.042 79.953 78.463 78.415 78.47 79.228 78.812 78.702 78.908 80.332 79.54 78.621 78.728 79.806 79.934 80.06 81.999 87.212 85.938 81.673 80.066 80.126 80.226 80.288 80.111 80.005 80.25 80.36 80.487 80.663 80.875 85.156 86.955 87.839 87.828 86.727 85.54 81.439 80.452 80.499 83.523 83.34 80.011 81.445 84.096 79.922 79.922 80.371 80.739 83.492 81.387 79.458 79.369 79.339 80.484 79.667 79.512 79.751 80.686 80.407 80.466 81.051 86.517 87.55 87.804 87.096 86.036 81.861 83.117 81.649 81.077 81.231 80.828 81.114 81.23 80.917 81.136 81.604 81.315 81.592 81.761 82.449 82.796 83.112 82.517 81.471 81.167 81.542 82.083 82.614 85.666 84.901 82.997 82.737 82.385 82.334 82.418 82.562 82.701 83.302 84.665 84.053 84.204 85.013 85.052 86.049 90.761 91.854 91.657 90.352 85.24 85.787 92.863 89.241 87.473 87.422 87.673 87.828 88.172 89.06 89.437 89.52 89.668 89.93 90.203 90.368 90.569 -9999 -9999 -9999 -9999 -9999 -9999 -9999 -9999 -9999 -9999 -9999 -9999 -9999 -9999 -9999 -9999 -9999 -9999 -9999 -9999 -9999 -9999 -9999 -9999 -9999 -9999 -9999 -9999 -9999 -9999 -9999 -9999 -9999 -9999 -9999 -9999 -9999 -9999 -9999 -9999 -9999 -9999 -9999 -9999 -9999 -9999 -9999 -9999 -9999 -9999 -9999 -9999 -9999 -9999 -9999 -9999 -9999 -9999 -9999 -9999 -9999 -9999 -9999 -9999
56.613 56.798 56.863 56.877 56.781 56.636 56.397 56.076 61.627 61.071 62.329 58.654 53.449 53.221 53.153 62.095 57.639 70.425 66.988 62.51 68.797 70.404 56.965 57.136 55.66 61.818 52.248 50.218 49.991 -9999 -9999 55.694 54.949 54.328 55.073 54.701 53.433 53.521 53.966 53.885 54.02 54.92 55.285 -9999 -9999 -9999 -9999 -9999 -9999 -9999 -9999 -9999 -9999 -9999 -9999 -9999 -9999 -9999 -9999 -9999 -9999 -9999 -9999 -9999 -9999 -9999 -9999 -9999 -9999 -9999 -9999 50.791 50.851 54.403 50.976 51.954 55.411 57.233 57.926 59.678 57.828 55.669 56.005 55.586 57.395 56.831 57.595 57.859 58.856 61.025 61.084 61.627 62.296 58.527 57.736 57.6 57.599 57.697 57.791 57.995 58.011 58.161 58.21 58.271 58.122 58.092 57.971 57.85 57.679 57.716 57.761 57.77 57.789 57.743 57.741 57.773 57.852 57.898 58.053 58.318 58.593 58.705 58.849 59.055 59.265 59.443 59.565 60.57 65.312 66.225 64.687 66.417 66.562 65.711 61.098 60.092 60.777 60.731 60.624 64.17 65.729 61.969 60.61 60.937 60.748 61.227 61.832 61.853 63.749 61.654 62.001 62.445 62.84 63.097 63.314 63.383 63.408 63.326 63.408 63.41 63.476 63.501 63.503 63.502 63.458 63.441 63.467 64.152 63.987 63.527 63.464 63.4 63.342 63.274 63.206 63.134 63.183 63.281 63.516 63.595 63.972 63.614 64.34 64.856 64.852 65.254 65.843 66.187 66.103 65.95 65.892 65.777 65.757 66.29 66.256 66.549 66.72 66.876 66.962 67.024 67.164 70.992 67.272 67.185 67.742 67.343 67.572 69.072 68.457 71.43 71.358 71.97 73.203 75.157 74.447 73.519 73.734 74.218 74.602 81.658 84.972 85.627 85.377 84.564 83.007 79.64 78.446 83.709 78.822 75.517 75.756 76.012 76.201 76.366 76.554 76.582 76.435 76.356 76.576 76.279 77.256 76.557 76.271 76.264 76.448 76.686 76.79 76.831 77.894 77.3 77.418 77.488 77.837 77.773 81.719 84.071 84.87 84.842 84.666 84.133 83.426 79.264 78.333 77.705 78.061 78.047 78.181 79.477 78.161 78.136 78.08 78.058 78.731 78.29 78.498 78.5 79.594 78.807 78.254 78.359 78.298 79.31 79.736 79.717 79.905 79.96 79.953 79.933 81.035 80.39 80.208 79.87 79.814 80.101 81.332 80.927 80.526 84.252 87.008 87.79 87.684 86.59 82.973 80.657 80.48 80.469 80.369 81.942 81.944 83.549 86.611 85.78 82.41 79.894 79.864 81.754 84.231 83.033 79.433 79.325 79.228 79.195 79.091 80.214 79.434 79.725 80.083 80.342 80.408 81.847 86.357 87.605 87.165 85.877 81.663 80.341 81.142 81.162 80.511 80.559 80.781 80.987 80.544 80.845 81.271 82.539 81.618 80.873 81.462 81.405 81.24 81.243 80.833 82.105 83.491 81.464 82.097 86.106 85.162 84.225 82.525 82.286 82.186 82.181 82.193 82.663 82.773 83.334 84.348 84.96 85.506 84.53 85.044 86.5 91.003 90.729 85.237 84.972 87.137 90.978 86.948 87.181 87.458 87.656 88.01 88.378 88.73 89.829 90.612 89.869 90.056 90.235 90.445 90.708 90.798 -9999 -9999 -9999 -9999 -9999 -9999 -9999 -9999 -9999 -9999 -9999 -9999 -9999 -9999 -9999 -9999 -9999 -9999 -9999 -9999 -9999 -9999 -9999 -9999 -9999 -9999 -9999 -9999 -9999 -9999 -9999 -9999 -9999 -9999 -9999 -9999 -9999 -9999 -9999 -9999 -9999 -9999 -9999 -9999 -9999 -9999 -9999 -9999 -9999 -9999 -9999 -9999 -9999 -9999 -9999 -9999 -9999 -9999 -9999 -9999 -9999 -9999 -9999
56.6 56.798 56.839 56.861 56.771 56.584 56.239 55.762 60.935 63.027 57.907 59.3 55.698 56.161 53.128 54.49 59.248 65.504 66.746 64.951 69.605 69.918 59.408 58.382 55.151 57.21 54.047 -9999 -9999 -9999 -9999 -9999 54.068 53.396 54.293 54.257 -9999 -9999 -9999 -9999 -9999 -9999 -9999 -9999 -9999 -9999 -9999 -9999 -9999 -9999 50.063 -9999 -9999 -9999 -9999 -9999 -9999 -9999 -9999 -9999 -9999 -9999 -9999 -9999 -9999 -9999 -9999 -9999 -9999 -9999 -9999 -9999 -9999 -9999 50.547 51.219 56.058 55.588 56.42 58.741 56.209 53.883 53.416 54.039 55.479 56.526 57.668 58.785 60.378 61.256 60.532 60.177 60.996 59.326 59.506 59.356 58.53 57.514 57.674 57.671 57.802 58.064 58.366 58.513 58.527 58.468 58.234 58.191 58.069 57.84 57.748 57.74 57.753 57.796 57.794 57.772 57.742 57.745 57.81 58.016 58.182 58.431 58.459 58.51 58.545 59.08 59.963 60.448 59.745 59.915 61.919 65.958 66.786 66.033 64.147 60.207 60.223 60.602 65.347 66.928 66.75 65.912 60.718 60.448 60.639 61.879 62.325 62.822 65.039 61.907 61.614 61.909 62.469 62.774 63.047 63.142 63.176 63.156 63.22 63.238 63.294 63.35 63.361 63.36 63.299 63.362 63.345 63.371 63.287 63.293 63.207 63.284 64.873 78.407 81.985 75.445 63.989 63.083 63.182 63.114 63.107 63.077 63.161 63.762 63.693 64.3 65.489 65.859 65.962 65.792 65.732 65.626 66.395 66.08 66.127 66.131 66.416 66.668 66.808 66.929 71.389 72.803 72.08 70.088 67.218 67.139 67.329 69.02 68.145 69.259 68.642 71.916 72.589 74.733 73.337 73.386 74.07 74.46 74.715 76.517 83.441 84.237 85.141 85.403 85.173 84.366 82.826 79.338 79.743 79.876 76.103 75.769 75.925 76.131 76.314 76.429 76.512 76.434 76.4 76.397 76.666 77.023 76.308 76.133 76.123 76.203 76.422 76.68 76.75 77.104 77.737 77.335 77.195 77.406 77.463 82.077 83.251 83.956 84.489 85.042 84.895 79.291 77.641 80.801 83.355 83.261 83.134 81.826 81.697 81.323 80.43 77.999 78.004 78.241 78.233 78.39 81.88 82.197 83.127 83.494 83.594 80.368 79.453 79.578 79.659 79.691 79.754 79.842 81.27 79.636 79.695 79.663 79.612 79.887 80.827 80.628 80.437 81.271 87.708 87.082 86.227 81.357 80.602 81.089 80.872 81.213 80.265 80.547 83.772 84.169 86.825 86.365 85.388 80.875 79.739 79.91 82.474 79.918 79.467 79.313 79.15 79.126 79.177 80.608 80.198 79.397 79.462 79.63 80.026 80.322 83.612 86.508 86.227 84.048 80.593 80.48 80.319 80.256 80.38 80.833 80.46 80.433 80.458 80.532 82.309 81.337 80.792 80.574 80.633 80.958 81.675 81.004 85.387 86.897 87.869 81.868 81.933 81.713 82 82.236 82.32 82.087 81.995 82.105 82.146 82.106 82.541 82.8 84.03 84.277 84.217 84.265 84.561 84.953 87.76 84.939 85.123 85.401 85.45 85.836 86.481 86.998 87.415 87.614 87.829 88.568 88.821 90.04 91.125 91.629 90.199 90.265 90.559 90.72 90.93 91.041 -9999 -9999 -9999 -9999 -9999 -9999 -9999 -9999 -9999 -9999 -9999 -9999 -9999 -9999 -9999 -9999 -9999 -9999 -9999 -9999 -9999 -9999 -9999 -9999 -9999 -9999 -9999 -9999 -9999 -9999 -9999 -9999 -9999 -9999 -9999 -9999 -9999 -9999 -9999 -9999 -9999 -9999 -9999 -9999 -9999 -9999 -9999 -9999 -9999 -9999 -9999 -9999 -9999 -9999 -9999 -9999 -9999 -9999 -9999 -9999 -9999 -9999
56.601 56.758 56.8 56.785 56.595 56.382 55.974 55.451 58.794 60.697 57.345 57.638 56.035 59.903 61.252 61.586 56.104 63.47 62.56 69.886 67.786 59.398 52.928 54.448 54.993 -9999 -9999 -9999 -9999 -9999 -9999 -9999 -9999 -9999 54.129 -9999 -9999 -9999 -9999 -9999 -9999 -9999 -9999 -9999 -9999 -9999 -9999 -9999 -9999 50.018 49.941 49.966 -9999 -9999 -9999 -9999 -9999 -9999 -9999 -9999 -9999 -9999 -9999 -9999 -9999 -9999 -9999 -9999 -9999 -9999 -9999 -9999 -9999 -9999 50.662 50.317 53.117 54.795 55.557 52.92 54.084 53.074 52.667 53.155 53.583 55.699 57.541 58.829 59.188 61.04 60.216 60.919 60.425 59.095 59.151 58.659 58.497 58.96 59.39 57.405 57.43 57.637 58.17 58.553 58.69 58.771 58.625 58.469 58.308 58.181 58.023 57.769 57.726 57.733 57.815 57.82 57.818 57.788 57.749 57.769 57.845 58.026 58.131 58.22 58.586 58.756 59.268 59.382 59.439 59.629 62.204 65.405 66.34 66.118 61.427 60.497 60.225 60.639 64.571 66.599 67.051 66.269 62.661 61.345 61.77 62.137 61.538 61.333 65.043 62.237 61.295 61.668 62.013 62.426 62.689 62.828 62.944 62.944 62.974 62.983 63.09 63.117 63.184 63.205 63.176 63.131 63.137 63.153 63.099 63.057 63.005 78.483 90.406 90.415 90.441 89.778 69.083 62.986 63.801 63.613 63.023 63.054 63.133 63.14 63.865 63.738 65.043 65.614 66.342 65.729 65.548 65.484 65.653 65.853 65.914 65.872 66.028 66.336 66.64 67.198 72.933 73.939 73.262 72.631 71.967 69.494 67.127 67.615 67.724 69.208 68.619 68.622 69.506 72.756 72.56 73.088 73.838 74.611 74.8 74.824 74.9 81.765 84.06 84.623 85.454 85.444 84.877 84.28 82.69 79.328 78.131 77.928 76.135 75.867 75.962 76.168 76.25 76.509 76.485 76.428 76.624 76.503 76.193 77.03 76.212 76.024 75.974 76.207 76.36 76.561 76.572 77.47 76.901 77.072 77.178 77.298 77.415 79.362 83.134 83.499 84.305 77.574 77.552 78.872 84.697 84.633 84.382 84.117 83.998 83.771 83.513 78.283 78.038 83.216 83.705 84.162 84.33 84.428 84.628 84.823 84.363 78.519 81.687 81.603 79.8 79.431 79.452 80.498 80.507 79.438 79.447 79.476 79.493 79.688 80.914 80.355 80.319 80.391 82.237 84.271 81.583 80.449 80.398 80.436 81.827 82.325 81.672 82.254 80.409 83.608 85.981 87.012 86.228 83.965 79.528 79.504 79.525 79.428 79.382 79.332 79.116 78.999 78.883 78.887 79.921 79.111 79.003 79.365 79.992 79.881 80.164 81.667 81.884 80.593 79.777 83.582 81.081 80.078 80.41 80.244 80.272 80.346 80.65 80.393 80.402 80.47 80.634 80.337 80.395 80.256 81.688 86.438 87.543 88.061 87.719 85.826 81.044 81.374 81.81 82.091 81.995 81.948 81.906 81.989 82.057 82.069 82.099 82.597 83.005 84.054 83.593 84.059 84.584 84.669 84.85 85.29 86.026 85.431 89.735 86.634 86.272 86.886 87.413 87.731 88.455 88.566 88.645 89.02 90.861 91.899 90.486 90.39 90.557 90.781 90.975 91.143 91.312 -9999 -9999 -9999 -9999 -9999 -9999 -9999 -9999 -9999 -9999 -9999 -9999 -9999 -9999 -9999 -9999 -9999 -9999 -9999 -9999 -9999 -9999 -9999 -9999 -9999 -9999 -9999 -9999 -9999 -9999 -9999 -9999 -9999 -9999 -9999 -9999 -9999 -9999 -9999 -9999 -9999 -9999 -9999 -9999 -9999 -9999 -9999 -9999 -9999 -9999 -9999 -9999 -9999 -9999 -9999 -9999 -9999 -9999 -9999 -9999 -9999
56.612 56.776 56.81 56.693 56.453 56.152 55.684 55 54.261 56.095 56.497 53.025 61.492 67.61 66.464 62.067 57.702 56.413 65.32 64.988 59.1 56.484 54.82 -9999 -9999 -9999 -9999 -9999 -9999 -9999 -9999 -9999 -9999 -9999 -9999 -9999 -9999 -9999 -9999 -9999 -9999 -9999 -9999 -9999 -9999 -9999 -9999 -9999 -9999 -9999 49.974 -9999 -9999 -9999 -9999 -9999 -9999 -9999 50.072 -9999 -9999 -9999 -9999 -9999 -9999 -9999 -9999 -9999 -9999 -9999 -9999 -9999 -9999 -9999 -9999 51.328 52.448 53.598 51.883 52.084 52.439 52.977 52.332 53.247 52.71 53.128 55.342 57.299 57.995 56.268 58.027 60.867 61.208 60.64 59.29 58.071 56.97 60.645 60.36 59.603 57.181 57.103 57.35 57.856 58.316 58.591 58.674 58.586 58.563 58.524 58.327 58.155 58.042 57.88 57.726 57.746 57.818 57.797 57.829 57.817 57.783 57.786 57.891 57.992 58.647 58.535 61.033 58.889 58.985 59.294 60.843 60.981 61.174 59.661 60.575 60.038 60.088 60.489 63.904 65.835 66.873 66.651 65.528 63.939 62.753 60.827 60.175 60.333 62.281 62.89 62.972 61.274 61.579 62.087 62.268 62.539 62.645 62.774 62.766 62.742 62.816 62.94 62.952 62.981 63.022 62.922 62.928 62.943 62.941 62.929 63.437 84.735 90.397 90.407 90.396 90.092 68.579 63.09 63.566 63.902 63.206 63.025 63.099 63.128 63.874 64.392 63.741 65.117 65.732 66.587 65.46 65.29 65.271 65.146 65.474 65.748 65.671 66.008 66.457 70.824 72.552 73.389 73.686 73.67 73.142 72.444 68.199 67.16 67.382 67.519 68.018 68.124 69.987 68.572 69.531 72.399 73.059 74.006 74.744 74.856 75.002 74.866 76.638 83.272 84.377 84.801 85.54 85.375 84.696 83.925 82.039 78.51 78.343 76.367 75.659 75.761 76.022 76.095 76.09 76.225 76.365 76.512 76.454 76.236 76.054 76.044 75.963 75.89 75.837 76.131 76.347 76.396 76.722 77.475 77.19 76.931 77.178 77.116 77.181 78.387 79.979 79.232 78.34 81.88 84.234 84.489 84.426 84.844 84.889 84.657 84.566 77.55 78.108 84.194 85.295 84.879 85.406 84.884 84.983 84.59 84.455 79.521 81.034 81.808 79.562 79.241 80.078 80.457 79.495 79.293 79.292 79.284 79.268 79.534 80.78 80.123 80.185 80.422 82.552 83.858 82.251 81.003 80.159 80.066 80.414 81.725 82.15 81.638 79.759 80.61 84.124 86.432 86.819 85.809 82.232 79.416 79.401 79.377 79.465 79.477 79.296 78.96 78.86 78.781 78.742 78.636 78.627 79.013 79.349 80.542 79.863 79.834 80.059 79.98 84.983 86.163 85.036 80.26 81.436 80.117 80.261 80.37 80.225 80.105 80.008 80.199 81.236 80.145 80.265 84.503 86.784 87.875 87.851 87.872 86.498 85.187 80.994 81.059 81.494 81.811 81.775 81.753 81.788 81.899 82.009 82.028 82.028 82.19 82.685 83.132 83.296 83.638 84.097 84.507 85.248 89.238 91.931 92.631 91.539 89.514 85.964 86.701 87.589 87.714 88.142 88.519 88.631 94.192 91.908 91.364 92.079 90.75 90.639 90.866 91.037 91.24 91.471 91.649 -9999 -9999 -9999 -9999 -9999 -9999 -9999 -9999 -9999 -9999 -9999 -9999 -9999 -9999 -9999 -9999 -9999 -9999 -9999 -9999 -9999 -9999 -9999 -9999 -9999 -9999 -9999 -9999 -9999 -9999 -9999 -9999 -9999 -9999 -9999 -9999 -9999 -9999 -9999 -9999 -9999 -9999 -9999 -9999 -9999 -9999 -9999 -9999 -9999 -9999 -9999 -9999 -9999 -9999 -9999 -9999 -9999 -9999 -9999 -9999
56.597 56.716 56.715 56.532 56.211 55.719 55.183 54.545 53.805 53.231 53.055 53.001 53.482 68.146 68.713 60.486 58.15 55.848 53.389 52.295 51.822 50.106 50.572 -9999 -9999 -9999 -9999 -9999 -9999 -9999 -9999 -9999 -9999 -9999 -9999 -9999 -9999 -9999 -9999 -9999 -9999 -9999 -9999 -9999 -9999 -9999 -9999 -9999 -9999 -9999 -9999 -9999 -9999 -9999 -9999 -9999 -9999 50.017 49.892 50.036 50.48 50.48 49.994 -9999 -9999 -9999 -9999 -9999 -9999 -9999 -9999 -9999 -9999 -9999 -9999 -9999 50.772 50.628 50.199 50.473 50.699 51.391 50.687 50.897 51.885 53.246 52.897 55.287 57.508 58.585 58.524 58.88 57.198 60.051 60.185 61.196 60.32 61.142 61.721 60.14 57.015 56.878 56.998 57.054 57.41 57.968 58.13 58.438 58.626 58.71 58.683 58.559 58.367 58.159 58.029 57.806 57.814 57.782 57.796 57.794 57.836 57.874 57.859 59.171 58.025 58.606 58.71 58.507 58.858 58.924 59.036 59.332 60.534 59.949 59.512 59.676 59.891 60.017 60.753 65.482 66.416 67.123 66.406 66.304 65.362 60.959 60.265 60.156 60.928 61.421 61.458 60.92 61.211 61.714 62.114 62.238 62.366 62.487 62.525 62.556 62.554 62.628 62.707 62.839 62.812 62.802 62.795 62.716 62.746 62.775 62.773 77.235 90.377 90.371 90.412 90.655 79.358 63.167 63.442 63.814 63.304 62.993 63.012 63.082 63.15 64.282 63.796 64.799 65.126 65.417 65.366 65.159 65.061 65.396 66.209 65.319 65.505 65.694 66.237 66.7 69.759 72.148 72.71 73.483 73.823 73.454 71.21 69.639 67.178 67.446 67.586 67.809 68.549 69.694 69.537 68.764 69.716 73.371 73.717 74.363 74.689 76.4 77.389 76.466 80.683 82.077 84.145 84.894 85.442 85.102 84.427 83.715 81.792 79.756 77.653 76.257 75.695 75.795 75.858 75.994 76.25 76.351 76.318 76.235 76.25 76.055 75.922 75.904 75.814 75.759 75.719 76.05 76.259 76.374 76.611 77.371 77.914 77.004 76.917 77.002 77.061 77.363 77.541 79.221 79.068 80.043 82.972 83.398 83.644 83.708 83.477 80.561 79.912 81.166 84.199 83.892 83.84 83.498 83.522 83.156 82.464 78.734 78.214 79.506 79.008 78.922 79.383 79.049 79.131 79.125 79.058 79.145 79.126 79.368 80.878 80.05 80.032 82.27 83.194 82.994 83.032 81.358 79.652 80.425 83.248 82.445 81.923 81.092 79.614 79.513 83.231 85.615 86.854 86.65 85.329 80.397 79.348 80.203 80.026 79.115 78.974 78.957 78.87 78.718 78.6 78.557 78.495 78.536 78.793 78.992 80.291 79.403 79.833 84.272 86.198 87.049 86.143 84.452 80.29 79.876 80.121 80.132 79.999 79.859 79.768 79.796 80.389 79.982 81.58 86.845 88.031 87.839 87.282 86.439 84.334 80.755 80.782 81.511 81.581 81.955 81.624 81.593 81.729 81.8 81.912 82.004 82.019 82.055 82.307 82.835 84.237 83.547 84.118 84.455 85.244 88.594 91.476 92.773 92.006 90.791 86.149 87.751 88.559 87.496 87.623 88.465 89.589 91.991 92.141 91.879 93.926 92.654 90.751 90.887 91.113 91.319 91.568 91.724 91.854 -9999 -9999 -9999 -9999 -9999 -9999 -9999 -9999 -9999 -9999 -9999 -9999 -9999 -9999 -9999 -9999 -9999 -9999 -9999 -9999 -9999 -9999 -9999 -9999 -9999 -9999 -9999 -9999 -9999 -9999 -9999 -9999 -9999 -9999 -9999 -9999 -9999 -9999 -9999 -9999 -9999 -9999 -9999 -9999 -9999 -9999 -9999 -9999 -9999 -9999 -9999 -9999 -9999 -9999 -9999 -9999 -9999 -9999 -9999
56.566 56.588 56.567 56.378 55.85 55.274 54.667 53.975 53.474 53.089 62.43 63.258 53.199 61.375 68.113 59.37 56.077 59.598 55.031 51.316 51.026 49.993 49.952 49.977 -9999 -9999 -9999 -9999 -9999 -9999 -9999 -9999 50.293 50.139 -9999 -9999 -9999 -9999 -9999 -9999 -9999 -9999 -9999 -9999 -9999 -9999 -9999 -9999 -9999 -9999 -9999 -9999 -9999 -9999 -9999 -9999 -9999 -9999 49.955 -9999 -9999 50.149 49.937 -9999 -9999 -9999 -9999 -9999 -9999 -9999 -9999 -9999 -9999 -9999 -9999 -9999 50.334 50.214 50.14 -9999 50.094 49.996 50.364 50.699 50.573 50.687 54.283 58.417 56.414 57.547 55.489 55.838 56.325 56.414 59.206 58.095 60.042 60.876 61.302 59.933 59.553 59.943 57.226 56.715 56.773 57.151 57.382 58.07 58.338 58.675 58.866 58.771 58.644 58.438 58.29 58.069 58.022 57.933 57.761 57.779 57.836 57.843 57.865 58.194 58.721 57.883 57.91 58.121 58.163 58.812 59.689 59.417 58.95 59.044 60.371 59.457 59.611 60.091 61.416 64.889 61.977 64.319 66.012 66.722 65.925 61.845 61.643 62.36 60.414 60.779 60.944 60.938 60.962 61.302 61.742 62.05 62.18 62.214 62.297 62.304 62.288 62.366 62.376 62.472 62.529 62.521 62.525 62.52 62.549 62.595 62.609 69.357 90.101 91.105 93.169 90.615 81.883 64.025 63.283 63.792 63.688 62.975 63.006 63.031 63.101 63.65 64.265 64.513 64.706 65.197 65.946 65.107 64.929 64.89 65.451 65.034 65.322 65.277 65.717 66.189 66.626 67.761 69.905 72.204 72.974 73.512 72.876 72.519 70.567 67.242 67.298 67.594 70.06 68.95 69.57 70.004 68.747 69.857 72.234 73.418 74.276 76.871 76.388 75.178 75.15 76.978 78.294 83.612 85.455 85.597 85.418 84.845 84.205 82.555 78.51 79.409 77.741 75.474 75.52 75.815 76.037 76.28 76.286 76.227 76.139 76.089 76.054 75.898 75.77 75.74 75.647 75.632 75.6 75.971 76.212 76.222 76.345 76.614 77.187 77.097 76.59 76.565 77.343 76.994 77.043 77.083 77.264 78.515 78.432 78.932 82.17 84.484 79.883 81.499 78.512 78.752 78.678 81.671 77.957 77.848 77.845 77.899 79.026 79.116 79.486 79.866 78.842 78.764 78.888 78.899 78.913 78.901 79.039 79.233 80.188 80.485 80.828 82.128 82.193 79.236 78.776 78.714 78.914 79.241 81.463 82.304 79.642 80.009 79.608 79.349 79.413 83.225 85.982 86.999 86.418 84.777 79.601 79.954 78.855 78.861 79.405 78.84 78.927 78.749 78.549 78.496 78.429 78.366 78.343 78.675 79.311 80.103 79.543 80.841 84.865 86.526 86.883 85.983 83.613 79.938 81.665 80.894 79.766 79.696 79.645 79.559 80.886 82.161 80.139 85.288 87.854 87.343 86.129 82.643 80.896 80.746 80.93 81.189 81.602 81.428 81.434 81.513 81.634 81.732 81.849 81.956 82.046 82.096 82.157 82.491 82.868 83.424 83.884 84.516 85.122 85.577 90.003 92.22 92.569 91.395 88.11 86.274 86.978 87.257 87.456 88.368 91.436 96.038 92.213 90.317 92.21 91.835 91.938 91.083 91.16 91.352 91.558 91.788 91.995 92.214 -9999 -9999 -9999 -9999 -9999 -9999 -9999 -9999 -9999 -9999 -9999 -9999 -9999 -9999 -9999 -9999 -9999 -9999 -9999 -9999 -9999 -9999 -9999 -9999 -9999 -9999 -9999 -9999 -9999 -9999 -9999 -9999 -9999 -9999 -9999 -9999 -9999 -9999 -9999 -9999 -9999 -9999 -9999 -9999 -9999 -9999 -9999 -9999 -9999 -9999 -9999 -9999 -9999 -9999 -9999 -9999 -9999 -9999
56.49 56.478 56.373 56.048 55.346 54.759 54.15 53.347 53.176 54.269 60.914 68.479 59.896 56.906 58.785 60.072 55.425 53.59 59.032 52.899 -9999 -9999 49.971 -9999 -9999 -9999 -9999 -9999 -9999 -9999 -9999 -9999 -9999 -9999 -9999 -9999 -9999 -9999 -9999 -9999 -9999 -9999 -9999 -9999 -9999 -9999 -9999 -9999 -9999 -9999 -9999 -9999 -9999 -9999 -9999 -9999 -9999 -9999 -9999 -9999 -9999 -9999 50.012 50.029 -9999 -9999 -9999 -9999 -9999 -9999 -9999 -9999 -9999 -9999 -9999 -9999 -9999 -9999 -9999 49.99 49.943 49.907 49.602 50.169 50.374 50.359 54.339 58.886 61.415 59.618 56.843 58.834 56.561 57.648 57.993 59.939 60.928 60.712 58.569 57.507 59.908 61.17 60.385 58.119 56.994 56.548 56.731 57.131 57.47 58.048 58.396 58.553 58.61 58.473 58.448 58.413 58.252 58.123 58.062 57.908 57.798 57.805 57.861 57.863 57.861 57.853 57.869 58.677 58.025 58.17 58.783 58.664 58.618 58.776 59.785 59.327 60.271 63.18 66.784 61.269 59.877 60.706 65.257 66.47 66.436 66.239 65.466 61.594 60.065 60.346 60.584 60.909 60.718 61.033 61.494 61.633 61.837 61.949 61.993 62.02 62.12 62.111 62.17 62.26 62.283 62.337 62.308 62.378 62.428 62.41 62.476 63.302 89.559 92.076 94.188 91.556 85.041 70.706 63.516 63.024 63.488 63.049 63.002 63.038 63.075 63.248 63.21 63.887 64.76 64.944 65.721 65.217 64.77 64.711 64.641 64.601 65.07 65.143 65.211 65.609 66.218 66.531 66.811 67.794 72.373 73.596 73.714 73.376 72.776 72.204 70.453 68.162 69.721 68.335 68.05 68.494 69.397 69.758 68.526 69.417 73.506 74.682 74.592 74.699 76.187 78.636 78.41 77.464 81.737 84.11 84.95 85.295 85.061 84.87 84.137 81.987 79.619 78.362 77.483 76.128 77.044 76.532 76.126 76.085 76.033 75.997 76.059 76.126 75.882 75.75 75.608 75.609 75.555 76.404 75.587 75.762 75.991 76.018 76.079 76.405 76.301 77.636 77.457 76.436 76.495 76.58 76.887 76.999 77.165 77.225 77.168 77.014 77.414 77.542 77.482 77.608 83.595 84.503 80.41 77.779 77.796 77.936 79.535 79.118 79.176 78.81 78.37 78.519 78.703 78.631 78.734 78.713 78.767 78.989 80.167 80.673 78.989 79.105 78.672 78.182 78.362 78.057 78.31 78.508 78.991 79.435 80.852 79.681 79.19 79.179 79.215 79.467 83.522 86.407 85.036 79.419 80.655 80.84 78.769 78.806 79.156 78.73 78.86 79.023 78.927 78.366 78.307 78.261 78.187 78.319 78.668 79.864 79.968 79.423 80.517 85.466 86.653 86.677 85.764 81.825 80.103 81.201 79.61 79.541 79.823 84.581 85.801 86.383 80.004 82.449 86.097 85.227 80.607 80.993 81.045 81.048 81.882 81.193 81.114 81.139 81.276 81.423 81.542 81.637 81.849 81.908 82.017 82.095 82.172 82.199 82.729 83.08 83.797 84.305 84.829 85.211 87.444 91.633 92.71 92.006 90.566 86.009 86.509 86.983 88.214 90.636 90.191 90.349 90.717 89.896 91.091 90.814 90.842 91.053 91.239 91.415 91.541 91.77 92.023 92.273 92.456 -9999 -9999 -9999 -9999 -9999 -9999 -9999 -9999 -9999 -9999 -9999 -9999 -9999 -9999 -9999 -9999 -9999 -9999 -9999 -9999 -9999 -9999 -9999 -9999 -9999 -9999 -9999 -9999 -9999 -9999 -9999 -9999 -9999 -9999 -9999 -9999 -9999 -9999 -9999 -9999 -9999 -9999 -9999 -9999 -9999 -9999 -9999 -9999 -9999 -9999 -9999 -9999 -9999 -9999 -9999 -9999 -9999
56.414 56.357 56.193 55.617 54.997 54.354 53.504 53.156 59.65 62.54 65.655 70.958 62.328 59.953 57.512 55.637 54.131 53.484 53.828 -9999 -9999 -9999 -9999 -9999 -9999 -9999 -9999 -9999 -9999 -9999 -9999 -9999 -9999 -9999 -9999 -9999 -9999 -9999 -9999 -9999 -9999 -9999 -9999 -9999 -9999 -9999 -9999 -9999 -9999 -9999 -9999 -9999 -9999 -9999 -9999 -9999 -9999 -9999 -9999 -9999 -9999 -9999 50.086 49.943 49.974 -9999 -9999 49.96 49.97 -9999 49.95 -9999 -9999 -9999 -9999 -9999 -9999 -9999 -9999 -9999 49.921 -9999 49.764 -9999 -9999 51.848 54.897 58.01 60.08 60.075 57.896 60.149 54.245 54.244 56.899 57.535 59.375 59.657 59.038 57.579 59.469 60.245 59.285 59.24 58.275 56.943 56.379 56.562 56.658 57.199 57.461 57.835 58.155 58.159 58.426 58.725 58.607 58.379 58.206 58.121 58.068 57.962 57.862 57.84 57.9 57.9 57.893 58.217 58.42 57.918 57.989 59.168 58.537 58.608 58.996 58.841 60.056 59.056 58.844 59.083 59.175 60.021 64.854 64.867 65.016 65.918 65.964 65.083 59.854 60.055 60.795 62.339 60.987 60.636 61.146 61.407 61.609 61.645 61.81 61.735 61.805 61.88 61.983 62.02 62.081 62.057 62.072 62.188 62.21 62.314 62.395 63.659 85.14 92.664 94.198 91.953 90.472 70.487 63.07 63.976 63.272 62.99 62.982 62.991 63.018 63.07 63.083 63.581 64.393 64.727 64.911 64.842 64.721 64.508 64.466 65.286 64.688 64.956 64.827 65.162 65.566 66.033 66.412 66.564 69.165 72.741 73.195 73.651 73.673 73.22 72.648 71.218 68.525 67.179 68.423 67.794 68.339 69.53 68.556 68.564 69.021 72.184 73.015 73.562 76.783 78.303 78.101 75.579 75.19 79.112 82.045 84.235 84.748 85.457 85.337 84.59 83.993 79.585 79.191 78.406 78.11 76.642 75.812 75.854 75.815 75.876 75.92 75.952 75.918 75.896 75.72 75.816 76.478 75.702 75.429 75.351 75.341 75.433 75.725 75.799 75.784 75.805 76.409 77.474 77.513 77.328 77.524 77.238 76.786 76.981 76.832 76.619 77.199 77.858 77.34 77.125 81.196 83.131 81.728 78.719 77.749 77.655 77.788 77.876 78.016 77.999 78.104 78.257 78.311 78.484 78.529 78.535 78.484 78.74 79.801 80.366 78.642 78.326 77.89 81.695 83.287 82.834 78.52 78.354 78.777 79.807 80.409 81.662 82.575 79.115 79.125 79.078 80.288 80.038 79.331 81.005 83.844 84.986 83.859 80.369 78.652 78.691 78.688 79.129 78.882 78.404 78.236 78.154 78.108 78.079 78.2 78.593 78.986 80.246 80.778 80.238 85.555 85.881 84.361 79.772 80.446 80.685 79.298 82.601 84.943 86.456 86.72 86.291 83.947 80.068 80.126 80.058 80.849 80.72 81.396 81.406 80.713 80.818 80.902 81.055 81.136 81.36 81.53 81.672 81.922 81.934 82.164 82.163 82.238 82.204 82.413 83.025 83.281 84.004 84.602 85.426 86.065 89.88 92.85 92.57 91.476 87.16 86.206 88.987 90.52 88.828 88.45 88.683 89.216 90.107 90.563 90.653 90.819 91.113 91.222 91.382 91.541 91.781 92.019 92.252 92.536 92.728 92.902 -9999 -9999 -9999 -9999 -9999 -9999 -9999 -9999 -9999 -9999 -9999 -9999 -9999 -9999 -9999 -9999 -9999 -9999 -9999 -9999 -9999 -9999 -9999 -9999 -9999 -9999 -9999 -9999 -9999 -9999 -9999 -9999 -9999 -9999 -9999 -9999 -9999 -9999 -9999 -9999 -9999 -9999 -9999 -9999 -9999 -9999 -9999 -9999 -9999 -9999 -9999 -9999 -9999 -9999 -9999
56.291 56.113 55.784 55.241 54.626 53.712 53.212 53.152 55.736 65.715 69.692 72.373 62.859 60.419 58.343 54.88 -9999 53.395 -9999 -9999 -9999 -9999 -9999 -9999 -9999 -9999 -9999 -9999 -9999 -9999 -9999 -9999 -9999 -9999 -9999 -9999 -9999 -9999 -9999 -9999 -9999 -9999 -9999 -9999 -9999 -9999 -9999 -9999 -9999 -9999 -9999 -9999 -9999 -9999 -9999 -9999 -9999 -9999 -9999 -9999 -9999 -9999 50.068 50.017 -9999 -9999 49.873 -9999 -9999 49.95 49.954 49.949 -9999 -9999 49.89 -9999 -9999 -9999 -9999 -9999 -9999 -9999 -9999 50.02 -9999 -9999 55.508 55.044 58.36 59.063 59.459 57.225 55.981 54.629 54.971 55.171 56.174 57.003 57.347 58.518 57.512 57.741 58.587 59.816 58.224 57.378 57.208 56.692 56.293 56.457 56.656 57.061 57.305 57.673 58.155 58.576 58.756 58.74 58.614 58.375 58.224 58.133 58.027 57.946 57.836 57.867 57.923 57.955 57.934 57.935 57.926 57.948 57.993 58.092 58.315 58.386 58.825 58.445 58.617 58.735 59 59.271 59.482 59.596 63.764 65.268 66.251 65.554 63.325 60 60.308 60.505 60.767 60.424 60.816 61.199 61.303 61.429 61.592 61.592 61.576 61.644 61.767 61.77 61.872 61.867 61.89 61.907 61.866 62.011 61.89 61.821 84.142 91.126 92.144 91.198 90.555 79.391 63.162 63.337 64.169 62.962 62.931 63.244 63.908 63.844 63.124 63.128 63.266 64.517 64.706 64.646 64.599 64.354 64.33 64.406 64.405 64.613 64.676 64.822 65.323 65.788 65.929 66.442 66.865 68.488 72.145 72.843 73.367 73.787 73.6 73.115 72.366 68.333 67.571 68.642 67.778 69.683 70.963 69.423 70.617 71.345 70.348 72.814 76.136 73.969 75.855 74.79 75.267 75.222 75.269 79.494 83.594 85.473 85.432 85.47 84.85 84.325 82.612 81.89 76.388 75.296 75.373 75.47 75.574 75.687 75.784 75.771 75.784 75.785 75.749 75.931 75.867 75.708 75.371 75.342 75.287 75.235 75.194 75.223 75.215 75.381 75.64 75.726 75.793 75.803 76.234 76.254 76.061 76.474 76.551 76.68 76.777 77.108 77.043 76.888 77.722 77.913 77.815 77.255 77.345 77.486 77.524 77.67 77.692 77.699 77.82 77.985 78.097 78.265 78.322 78.343 78.288 78.5 79.098 80.002 78.136 77.815 80.954 84.759 84.815 83.644 79.451 78.376 78.959 78.566 79.058 83.314 82.606 81.784 79.009 79.108 78.924 78.91 78.477 82.777 84.946 85.778 84.883 81.9 78.932 80.129 80.691 79.945 78.852 79.049 78.25 78.058 78.067 77.987 77.877 78.218 78.548 79.417 79.144 79.493 82.514 80.703 79.518 79.449 79.93 79.332 83.495 85.818 86.83 86.585 86.223 85.398 83.856 80.962 80.339 79.925 80.575 81.023 80.997 80.394 80.484 80.635 80.77 80.941 81.17 82.35 82.091 84.948 83.491 83.418 82.925 82.317 82.284 82.338 82.409 82.804 83.261 84.431 84.772 85.049 85.191 87.376 91.471 92.7 91.252 89.245 88.163 89.567 88.291 88.231 88.424 88.575 88.975 89.886 90.149 90.48 90.575 91.256 93.297 91.547 91.572 91.743 91.982 92.305 92.542 92.787 92.96 93.134 -9999 -9999 -9999 -9999 -9999 -9999 -9999 -9999 -9999 -9999 -9999 -9999 -9999 -9999 -9999 -9999 -9999 -9999 -9999 -9999 -9999 -9999 -9999 -9999 -9999 -9999 -9999 -9999 -9999 -9999 -9999 -9999 -9999 -9999 -9999 -9999 -9999 -9999 -9999 -9999 -9999 -9999 -9999 -9999 -9999 -9999 -9999 -9999 -9999 -9999 -9999 -9999 -9999 -9999
56.163 55.836 55.431 54.753 53.881 53.294 53.193 53.177 55.607 66.164 62.754 61.829 64.194 68.904 61.791 -9999 -9999 -9999 -9999 -9999 -9999 -9999 -9999 -9999 -9999 -9999 -9999 -9999 -9999 -9999 -9999 -9999 50.113 -9999 -9999 -9999 -9999 -9999 -9999 -9999 -9999 -9999 -9999 -9999 -9999 -9999 -9999 -9999 -9999 -9999 -9999 -9999 -9999 -9999 -9999 -9999 -9999 -9999 -9999 -9999 49.957 -9999 -9999 49.984 -9999 49.895 49.814 49.873 49.935 -9999 49.951 -9999 -9999 49.898 49.885 49.888 -9999 -9999 -9999 -9999 -9999 -9999 -9999 50.023 -9999 -9999 -9999 55.599 56.586 57.17 57.584 56.843 52.133 52.634 53.406 55.775 54.843 55.33 55.412 58.628 58.169 58.541 58.154 58.418 57.567 57.455 57.692 57.656 56.878 56.233 56.872 56.413 56.515 57.084 57.45 57.9 58.486 58.598 58.643 58.424 58.238 58.139 58.09 58.031 58.024 57.907 57.887 57.9 57.905 57.946 57.968 57.963 57.949 57.963 58.019 58.16 58.258 58.412 58.525 58.689 58.89 59.079 59.238 59.325 62.736 64.451 65.994 65.907 64.729 60.03 60.085 60.242 60.412 60.264 60.425 60.854 60.993 61.133 61.275 61.419 61.426 61.424 61.542 61.587 61.63 61.618 61.656 61.522 61.391 61.405 61.126 60.972 67.57 88.545 90.404 90.419 90.42 84.194 64.322 63.041 63.062 63.114 63.08 63.117 63.328 63.737 64.109 63.334 63.196 63.45 64.519 64.521 64.4 64.305 64.149 64.119 64.038 64.446 64.538 64.519 64.914 65.4 65.802 66.072 66.437 66.76 67.999 70.93 72.342 72.863 73.538 73.831 73.434 72.806 67.156 68.298 67.62 68.291 70.032 69.274 69.258 71.216 71.937 69.486 69.848 72.234 73.327 73.771 74.417 74.944 75.198 75.185 76.592 82.208 83.921 84.506 85.302 85.414 85.047 79.335 75.597 75.314 75.359 79.339 76.752 75.44 75.527 75.62 75.577 75.568 75.59 75.664 75.685 75.715 75.5 75.387 75.251 75.725 75.469 75.162 75.125 75.099 75.036 75.043 75.089 75.225 75.413 75.473 75.656 75.8 75.888 75.928 76.076 76.24 76.353 76.39 76.57 76.671 76.767 76.698 76.88 76.832 76.948 77.154 77.339 77.536 77.744 77.857 77.929 78.018 78.101 78.089 78.076 78.24 78.214 79.952 78.012 77.565 81.422 83.994 85.39 84.448 83.461 78.368 77.771 78.014 78.171 78.735 87.673 91.355 82.167 80.702 78.991 78.396 78.456 78.685 83.159 85.467 86.162 84.458 79.645 80.94 78.884 78.535 78.463 78.481 79.145 77.997 77.948 77.938 77.897 77.842 78.1 78.576 79.923 79.243 79.374 79.328 79.364 79.301 79.484 82.064 85.848 86.931 86.339 85.86 84.857 83.598 79.557 79.542 80.703 79.953 80.38 80.046 80.126 80.213 80.413 80.56 80.75 81.063 82.215 82.188 81.497 85.97 85.718 84.804 83.219 83.812 82.603 82.416 82.49 82.607 83.139 83.375 84.337 84.802 84.976 85.362 87.828 86.065 86.127 86.222 86.646 88.007 89.04 88.199 88.377 88.769 89.581 89.862 90.015 90.185 90.363 91.202 91.45 91.173 91.453 91.688 91.955 92.179 92.452 92.714 92.947 93.24 93.408 -9999 -9999 -9999 -9999 -9999 -9999 -9999 -9999 -9999 -9999 -9999 -9999 -9999 -9999 -9999 -9999 -9999 -9999 -9999 -9999 -9999 -9999 -9999 -9999 -9999 -9999 -9999 -9999 -9999 -9999 -9999 -9999 -9999 -9999 -9999 -9999 -9999 -9999 -9999 -9999 -9999 -9999 -9999 -9999 -9999 -9999 -9999 -9999 -9999 -9999 -9999 -9999 -9999
55.891 55.554 54.919 54.137 53.497 53.289 53.208 53.114 54.814 56.514 55.481 60.522 64.018 66.315 62.752 -9999 -9999 -9999 -9999 -9999 -9999 -9999 -9999 -9999 -9999 -9999 -9999 -9999 -9999 -9999 49.945 50.021 50.138 50.185 -9999 -9999 -9999 -9999 -9999 -9999 -9999 -9999 -9999 -9999 -9999 -9999 -9999 -9999 -9999 -9999 -9999 -9999 -9999 -9999 -9999 -9999 -9999 -9999 -9999 49.938 49.917 49.947 -9999 49.956 49.936 49.933 49.909 49.929 49.943 49.943 -9999 -9999 49.92 49.916 49.885 49.88 -9999 -9999 -9999 -9999 -9999 -9999 -9999 -9999 -9999 -9999 -9999 -9999 -9999 57.328 -9999 56.663 -9999 52.142 51.087 52.537 55.948 57.056 53.162 57.425 57.645 57.045 58.191 57.329 56.799 57.295 57.5 57.443 57.795 60.157 60.41 57.038 56.225 56.422 56.642 57.057 57.564 57.913 58.124 58.028 57.987 58.03 58.027 58.074 58.049 58.057 57.998 58.013 57.881 57.89 57.974 57.954 57.994 57.982 57.938 58.02 58.1 58.161 58.332 58.461 58.475 58.655 59.035 59.194 59.314 63.466 65.256 62.673 59.759 59.855 60.047 60.187 60.267 60.164 60.095 60.504 60.641 60.931 61.057 61.096 61.203 61.206 61.218 61.314 61.326 61.269 61.21 61.051 60.954 60.671 60.615 60.538 61.134 76.522 90.615 90.522 90.409 86.372 69.407 63.255 63.328 63.216 80.317 78.327 83.092 68.433 63.614 63.688 63.14 63.376 64.056 64.432 64.312 64.172 64.035 63.965 63.903 64.637 64.231 64.343 64.429 64.886 65.327 65.872 66.116 66.468 66.73 66.768 68.918 71.371 72.595 73.128 73.667 69.197 71.885 73.21 71.678 69.422 69.393 68.124 68.195 68.371 70.487 70.842 69.168 69.099 70.009 72.996 73.498 73.972 74.629 74.993 75.238 75.467 76.658 82.079 84.084 84.775 85.325 78.03 75.77 75.3 75.387 83.509 83.527 80.847 75.379 75.22 75.322 75.298 75.535 75.565 75.561 75.543 75.56 75.514 75.365 75.386 75.569 75.095 75.936 75.758 75.098 75.042 75.075 75.023 75.038 75.071 75.128 75.169 75.308 75.376 75.536 75.557 75.778 75.879 76.023 76.126 76.256 76.495 76.598 76.817 76.984 78.259 77.739 78.98 78.532 78.402 77.743 77.901 77.882 77.952 77.865 77.924 78.033 79.467 78.342 77.555 77.676 79.878 84.272 84.719 84.193 83.278 78.677 77.881 78.048 83.917 90.627 91.794 90.547 81.271 80.706 78.526 78.624 78.983 81.848 84.674 85.696 85.342 84.203 80.56 78.428 78.274 78.182 78.426 79.234 78.306 77.851 77.816 77.819 77.77 77.752 78.116 78.462 78.585 79.23 79.112 79.108 79.272 79.295 80.512 85.487 86.329 85.151 80.282 79.523 79.343 79.437 79.506 79.755 79.954 79.701 79.807 79.924 80.8 81.038 80.493 81.786 80.965 80.979 81.026 81.22 83.768 86.049 83.219 82.472 82.658 83.279 82.593 82.578 82.646 82.821 83.239 83.792 84.849 84.906 85.104 85.369 85.685 86.048 86.821 89.81 88.66 87.954 87.779 88.79 88.856 88.784 89.528 89.86 89.983 90.217 90.719 90.951 91.103 91.351 91.555 91.842 92.095 92.376 92.636 92.996 93.315 93.519 93.765 -9999 -9999 -9999 -9999 -9999 -9999 -9999 -9999 -9999 -9999 -9999 -9999 -9999 -9999 -9999 -9999 -9999 -9999 -9999 -9999 -9999 -9999 -9999 -9999 -9999 -9999 -9999 -9999 -9999 -9999 -9999 -9999 -9999 -9999 -9999 -9999 -9999 -9999 -9999 -9999 -9999 -9999 -9999 -9999 -9999 -9999 -9999 -9999 -9999 -9999 -9999 -9999
55.615 55.151 54.309 53.699 53.391 53.284 53.134 55.259 56.559 57.276 56.316 55.127 55.963 58.039 54.786 -9999 -9999 -9999 -9999 -9999 -9999 49.929 49.948 -9999 -9999 -9999 -9999 -9999 -9999 49.948 49.971 49.927 49.98 -9999 -9999 -9999 -9999 -9999 -9999 -9999 -9999 -9999 -9999 -9999 -9999 -9999 -9999 -9999 -9999 -9999 -9999 -9999 -9999 -9999 -9999 -9999 -9999 -9999 -9999 -9999 49.927 -9999 -9999 -9999 49.946 49.946 50.014 49.978 49.948 -9999 -9999 -9999 49.908 49.905 49.883 49.877 -9999 -9999 -9999 -9999 -9999 -9999 50.067 50.055 49.953 -9999 -9999 -9999 -9999 -9999 -9999 -9999 -9999 -9999 53.845 55.471 57.647 56.604 52.099 58.739 57.935 57.114 57.227 55.749 56.334 57.138 57.026 57.005 58.481 59.41 60.354 59.854 59.099 56.288 56.338 56.485 56.733 57.096 57.467 57.589 57.642 57.813 57.913 58.018 58.072 58.064 58.062 58.063 58.035 58.005 57.878 57.921 57.931 57.982 58.012 57.971 57.955 58.011 58.11 58.192 58.301 58.618 58.852 58.971 59.1 60.433 59.447 59.471 59.632 59.836 59.998 60.049 60.179 60.129 59.887 60.184 60.454 60.624 60.758 60.934 60.925 60.995 61.077 61.09 60.952 60.843 60.775 61.402 60.718 60.66 70.952 70.629 84.868 87.827 93.313 92.906 91.132 91.159 71.656 82.683 81.271 88.197 90.419 90.437 90.378 83.08 63.578 63.852 63.366 63.202 63.475 64.155 64.093 63.953 63.786 63.793 63.723 63.771 63.769 64.135 64.111 64.331 64.784 65.146 65.88 66.154 66.406 66.714 66.825 67.031 67.602 72.042 72.604 70.744 74.114 73.863 73.366 72.921 71.422 67.661 68.475 69.538 68.666 68.735 69.29 69.25 70.672 69.078 70.928 72.965 73.629 74.165 74.7 75.13 75.223 75.145 77.639 83.613 78.391 76.13 75.256 75.604 84.306 85.461 85.072 84.114 83.429 80.829 75.539 75.205 75.358 75.397 75.35 75.359 75.348 75.33 75.306 75.275 75.378 75.285 75.272 75.77 75.345 76.789 76.719 75.071 74.995 75.055 75.086 75.186 75.211 75.319 75.443 75.575 76.188 76.071 75.993 76.109 76.27 76.809 77.423 77.132 77.635 77.718 77.727 78.01 77.875 77.796 77.689 77.726 77.741 77.754 77.682 77.651 77.847 77.621 77.886 77.519 77.485 77.744 83.293 84.513 86.707 84.733 82.614 77.614 77.627 82.811 89.816 91.009 90.474 82.479 80.411 78.468 78.403 80.752 81.385 83.415 84.968 85.632 84.847 83.828 80.345 78.731 78.348 78.81 78.303 78.39 77.899 77.769 77.667 77.837 77.612 77.628 77.97 79.508 78.82 78.759 78.933 79.08 79.27 79.475 81.794 81.649 83.39 79.07 79.428 79.156 79.268 79.382 79.361 79.447 79.508 79.701 79.815 80.191 80.291 81.202 82.18 80.665 80.761 81.13 80.984 81.26 82.871 82.426 82.426 82.478 82.899 82.695 82.66 82.781 82.988 83.406 83.751 84.854 85.884 85.104 86.029 86.753 87.319 91.031 92.751 92.311 88.263 87.637 87.843 88.4 88.558 89.006 89.655 89.936 90.383 90.606 90.83 91.103 91.233 91.417 91.858 91.974 92.401 92.665 93.019 93.29 93.653 94.038 94.066 -9999 -9999 -9999 -9999 -9999 -9999 -9999 -9999 -9999 -9999 -9999 -9999 -9999 -9999 -9999 -9999 -9999 -9999 -9999 -9999 -9999 -9999 -9999 -9999 -9999 -9999 -9999 -9999 -9999 -9999 -9999 -9999 -9999 -9999 -9999 -9999 -9999 -9999 -9999 -9999 -9999 -9999 -9999 -9999 -9999 -9999 -9999 -9999 -9999 -9999 -9999
55.139 54.585 53.846 53.426 53.362 53.233 53.178 55.221 56.828 57.309 56.321 55.674 -9999 -9999 -9999 -9999 -9999 -9999 -9999 -9999 -9999 49.926 49.954 -9999 -9999 -9999 -9999 -9999 -9999 -9999 49.933 49.891 49.865 -9999 -9999 -9999 -9999 -9999 -9999 50.138 -9999 -9999 -9999 -9999 -9999 -9999 -9999 -9999 -9999 -9999 -9999 -9999 -9999 -9999 -9999 -9999 -9999 -9999 -9999 -9999 -9999 -9999 -9999 49.955 49.961 49.947 49.99 -9999 -9999 -9999 -9999 -9999 -9999 -9999 -9999 -9999 49.991 50.016 50.022 -9999 -9999 -9999 50.077 50.051 49.867 49.921 50.015 -9999 50.654 -9999 -9999 -9999 -9999 -9999 56.145 55.941 57.173 57.261 56.39 57.053 56.445 59.199 59.528 54.983 54.509 55.37 55.273 56.397 56.175 57.628 58.403 59.582 59.933 58.282 57.472 56.832 57.922 56.835 57.588 57.317 57.383 57.557 57.763 57.957 58.066 58.159 58.255 58.257 58.206 58.166 58.118 57.965 57.916 57.985 57.998 57.997 58.024 58.022 57.966 57.97 58.098 58.289 58.47 58.676 58.893 58.973 59.174 59.343 59.5 59.668 59.769 59.898 59.965 60.049 59.832 59.861 60.187 60.384 60.5 60.689 60.694 60.794 60.842 60.829 60.822 60.701 61.588 76.979 78.053 80.493 87.795 87.709 87.685 87.709 91.595 93.387 93.352 91.25 87.849 90.367 90.386 90.38 90.436 90.382 90.372 82.327 64.364 63.471 64.366 63.264 63.271 63.901 63.594 63.605 63.586 63.599 63.522 63.499 64.118 63.838 64.003 64.019 64.336 64.757 65.14 65.611 66.108 66.4 66.572 66.834 66.938 67.378 67.531 72.557 73.234 73.694 74.211 73.78 73.368 72.196 69.836 69.407 68.24 68.404 68.55 68.815 69.493 69.454 69.87 69.79 72.364 73.154 73.789 74.352 74.769 75.167 76.109 75.762 75.235 75.253 75.177 79.781 84.328 85.249 85.69 85.238 84.855 83.918 81.901 76.777 75.38 75.164 75.235 75.236 75.182 75.094 75.015 75.005 75.137 75.246 75.276 75.287 75.18 75.304 75.868 75.51 75.119 75.088 75.175 75.22 75.234 75.388 75.464 75.685 76.493 76.329 76.116 76.164 76.349 76.477 76.666 76.988 78.54 78.526 78.723 78.815 78.905 78.871 77.757 77.651 77.677 77.551 77.543 77.446 77.556 77.483 79.477 77.494 77.594 77.465 78.456 83.545 84.6 84.707 79.38 77.305 77.299 77.565 80.408 85.937 85.811 82.578 80.019 78.588 78.923 78.921 79.805 78.366 83.513 85.151 85.654 84.521 82.71 81.238 78.605 77.892 78.233 78.922 77.935 77.753 77.668 77.949 77.529 77.454 77.639 78.011 78.563 78.44 78.595 78.872 78.88 78.96 78.691 78.748 78.882 78.904 79.45 79.602 79.091 79.049 79.099 79.274 79.383 79.572 79.773 80.205 80.426 81.639 82.242 80.758 81.834 85.985 83.305 81.155 82.529 82.546 82.428 82.584 82.788 82.923 83.041 82.913 83.015 83.798 83.536 83.94 84.502 84.857 86.169 87.153 87.217 91.502 93.84 93.311 92.656 88.109 87.671 87.744 88.238 89.256 90.738 90.012 90.271 90.5 90.834 91.032 91.179 91.399 92.423 93.82 93.092 92.456 92.891 93.257 93.62 94.006 94.298 94.617 -9999 -9999 -9999 -9999 -9999 -9999 -9999 -9999 -9999 -9999 -9999 -9999 -9999 -9999 -9999 -9999 -9999 -9999 -9999 -9999 -9999 -9999 -9999 -9999 -9999 -9999 -9999 -9999 -9999 -9999 -9999 -9999 -9999 -9999 -9999 -9999 -9999 -9999 -9999 -9999 -9999 -9999 -9999 -9999 -9999 -9999 -9999 -9999 -9999 -9999
54.744 54.101 53.65 53.488 53.318 53.197 54.315 55.315 53.079 56.414 55.952 56.271 -9999 -9999 -9999 -9999 -9999 -9999 -9999 -9999 -9999 -9999 -9999 -9999 -9999 -9999 -9999 -9999 -9999 -9999 -9999 -9999 -9999 -9999 -9999 -9999 -9999 -9999 50.127 50.144 50.133 -9999 -9999 -9999 -9999 -9999 -9999 -9999 -9999 -9999 -9999 -9999 -9999 -9999 -9999 -9999 -9999 -9999 -9999 -9999 -9999 -9999 -9999 -9999 49.961 49.974 49.993 49.989 -9999 -9999 -9999 -9999 -9999 49.899 49.9 49.957 50.029 50.012 50.021 -9999 -9999 -9999 -9999 -9999 49.942 50.007 50.112 50.05 49.855 50.283 -9999 -9999 -9999 -9999 -9999 56.837 56.848 56.18 54.305 54.438 54.522 58.01 58.352 56.925 55.283 54.71 54.09 54.84 55.227 56.18 55.94 56.068 56.727 58.154 58.721 58.498 58.993 60.538 60.003 57.495 57.178 57.424 57.551 57.753 58.048 58.313 58.503 58.647 58.566 58.479 58.319 58.223 58.169 57.972 57.936 57.986 58.02 58.04 58.047 57.981 57.967 57.975 58.076 58.25 58.53 58.747 58.797 59.134 59.258 59.413 59.497 59.639 59.759 59.806 59.813 59.54 59.892 60.107 60.347 60.474 60.525 60.57 60.633 60.717 60.71 60.621 60.518 79.442 87.68 87.691 87.708 87.732 87.711 87.717 91.127 93.344 93.32 91.197 90.372 90.369 90.352 90.372 90.365 90.355 90.336 89.911 66.691 63.413 63.44 63.292 63.281 63.311 63.386 63.394 63.401 63.393 63.315 63.337 63.846 63.618 63.803 63.713 64.001 64.335 64.825 65.167 65.514 66.006 66.479 66.707 66.876 67.654 66.959 67.602 71.461 72.76 73.454 73.896 74.13 73.732 73.366 72.333 68.615 68.18 68.435 68.397 68.565 68.739 69.065 70.746 69.157 69.853 72.837 73.264 73.771 74.459 76.34 77.431 75.696 75.281 75.157 76.533 82.859 83.629 84.606 85.209 85.655 85.232 84.451 83.697 81.911 76.668 75.02 75.083 75.039 75.011 75.138 76.362 75.166 75.031 75.07 75.082 75.03 77.921 79.536 76.387 75.363 75.263 75.378 75.355 75.449 75.539 75.686 75.825 75.824 75.978 76.114 76.206 76.331 76.399 76.507 76.662 77.118 77.411 79.315 77.927 77.319 79.387 79.513 77.659 77.581 77.375 77.37 77.252 77.337 77.349 78.306 78.515 77.294 77.181 77.151 81.79 82.533 77.975 76.903 76.799 76.736 76.735 77.067 77.998 79.222 81.586 78.434 78.279 78.517 78.598 78.27 77.941 82.435 84.403 85.492 80.566 80.985 81.826 80.742 77.448 77.795 77.601 77.602 78.57 77.633 77.878 78.273 77.421 77.453 77.716 78.059 79.602 78.399 78.459 79.521 79.324 78.464 78.64 78.696 79.19 79.703 79.068 78.678 78.858 79.232 80.578 79.44 79.629 80.17 80.661 80.392 81.101 80.545 84.956 86.498 87.286 87.448 82.751 82.978 83.067 84.396 84.148 82.893 82.95 84.065 83.058 83.113 83.206 83.361 83.839 84.151 85.382 85.481 86.228 89.352 92.766 93.958 94.032 93.386 92.175 88.103 87.775 88.713 92.265 90.316 89.78 90.11 90.41 90.715 90.899 91.056 91.32 92.243 93.435 94.001 93.323 92.558 92.989 93.54 93.994 94.443 94.748 95.039 -9999 -9999 -9999 -9999 -9999 -9999 -9999 -9999 -9999 -9999 -9999 -9999 -9999 -9999 -9999 -9999 -9999 -9999 -9999 -9999 -9999 -9999 -9999 -9999 -9999 -9999 -9999 -9999 -9999 -9999 -9999 -9999 -9999 -9999 -9999 -9999 -9999 -9999 -9999 -9999 -9999 -9999 -9999 -9999 -9999 -9999 -9999 -9999 -9999
54.361 53.86 53.519 53.419 53.284 54.557 54.72 55.404 53.075 52.54 54.408 -9999 -9999 -9999 -9999 -9999 -9999 -9999 -9999 -9999 -9999 49.921 -9999 -9999 -9999 -9999 -9999 -9999 -9999 -9999 -9999 -9999 -9999 -9999 -9999 -9999 -9999 -9999 -9999 50.13 -9999 -9999 -9999 -9999 -9999 -9999 -9999 -9999 -9999 -9999 -9999 -9999 -9999 -9999 -9999 -9999 -9999 -9999 -9999 -9999 -9999 -9999 -9999 -9999 -9999 -9999 49.986 -9999 -9999 -9999 -9999 -9999 -9999 49.898 49.893 49.864 49.952 49.933 49.901 -9999 -9999 50.107 50.115 -9999 -9999 -9999 50.015 49.858 49.804 -9999 -9999 -9999 -9999 -9999 -9999 52.69 53.063 -9999 -9999 54.053 53.227 53.954 56.809 56.985 54.251 54.537 54.133 53.024 54.435 55.101 54.815 54.883 55.21 58.714 59.1 58.056 58.249 58.994 60.377 59.218 57.702 57.271 57.278 57.475 57.722 58.147 58.686 58.94 58.952 58.961 58.725 58.559 58.315 58.219 58.169 58.006 57.967 57.991 58.021 58.046 58.063 58.026 57.98 58.043 58.181 58.357 58.654 58.794 58.885 59.069 59.215 59.438 59.546 59.626 59.615 59.471 59.556 59.934 60.145 60.311 60.389 60.391 60.455 60.49 60.568 60.565 60.492 79.455 87.691 87.711 87.692 87.722 87.71 87.746 87.753 91.288 85.316 87.093 84.845 90.389 90.4 90.383 90.407 90.376 90.358 90.171 70.637 63.353 63.458 64.299 63.624 63.322 63.305 63.374 63.333 63.325 63.176 63.163 63.104 63.066 63.463 63.555 63.571 64.047 64.513 64.832 65.206 65.691 66.065 66.595 66.859 66.833 66.906 67.097 67.164 69.816 71.595 73.085 73.647 74.257 74.343 73.995 73.33 72.179 69.015 68.129 68.297 68.619 69.147 69.145 69.597 69.644 69.704 70.623 73.058 73.457 74.012 74.91 75.074 75.226 75.156 74.897 74.819 76.138 81.639 84.094 84.754 85.373 85.71 85.015 84.339 83.735 76.836 74.876 74.932 79.976 84.063 83.413 79.464 75.168 75.104 74.917 75.542 77.515 79.662 75.77 75.063 74.97 74.986 75.088 75.212 75.4 75.458 75.585 75.689 75.805 75.891 76.093 76.143 76.163 76.089 76.236 76.312 77.632 76.478 76.829 76.996 79.513 77.651 78.063 77.532 77.248 77.137 77.129 76.993 76.992 77.012 77.34 77.066 77.002 76.882 77.005 77.202 76.843 76.54 80.656 81.96 77.654 76.866 77.288 78.704 80.05 79.916 80.91 81.252 77.756 78.205 77.86 78.041 79.808 80.239 78.64 79.237 78.826 77.444 79.527 77.296 77.388 77.483 77.872 78.616 77.483 77.431 77.38 77.309 77.338 77.597 78.483 78.343 78.518 78.58 78.27 78.64 78.368 78.976 78.674 78.257 78.411 78.55 78.68 79.05 79.262 79.293 80.073 82.381 81.007 80.095 81.477 85.53 86.555 87.453 88.59 87.929 86.468 83.185 87.367 84.85 84.836 83.106 82.911 83.206 83.878 83.256 83.321 83.418 83.587 84.26 84.629 85.515 86.023 86.815 87.766 92.743 93.969 94.325 93.418 92.299 88.88 89.693 90.368 89.128 89.7 89.915 90.244 90.517 90.73 90.919 91.155 91.379 92.289 93.311 92.745 92.543 92.639 92.972 93.622 94.347 94.84 95.259 95.393 -9999 -9999 -9999 -9999 -9999 -9999 -9999 -9999 -9999 -9999 -9999 -9999 -9999 -9999 -9999 -9999 -9999 -9999 -9999 -9999 -9999 -9999 -9999 -9999 -9999 -9999 -9999 -9999 -9999 -9999 -9999 -9999 -9999 -9999 -9999 -9999 -9999 -9999 -9999 -9999 -9999 -9999 -9999 -9999 -9999 -9999 -9999 -9999
54.076 53.623 53.457 53.301 53.213 54.979 55.437 54.814 52.585 50.431 49.969 -9999 -9999 -9999 -9999 -9999 -9999 -9999 -9999 -9999 49.942 49.886 49.936 -9999 -9999 -9999 -9999 -9999 -9999 -9999 -9999 -9999 -9999 49.922 -9999 -9999 -9999 -9999 -9999 -9999 -9999 -9999 -9999 -9999 -9999 -9999 -9999 -9999 -9999 -9999 -9999 -9999 -9999 -9999 -9999 -9999 -9999 -9999 -9999 -9999 -9999 -9999 -9999 -9999 -9999 -9999 -9999 -9999 -9999 -9999 -9999 -9999 -9999 -9999 49.816 49.745 49.83 49.9 49.833 49.884 49.919 50.141 50.16 50.065 -9999 -9999 -9999 -9999 -9999 -9999 -9999 -9999 -9999 50.704 50.465 50.98 50.604 -9999 51.752 -9999 -9999 55.064 55.273 55.214 54.163 53.09 52.366 52.978 52.561 53.167 53.444 53.326 53.658 56.431 57.913 57.382 57.585 58.522 58.583 59.051 59.509 59.345 59.134 59.101 57.372 57.85 58.473 58.866 59.12 59.172 59.093 58.979 58.853 58.628 58.402 58.261 58.19 57.994 57.947 57.955 58.026 58.061 58.081 58.025 58.012 58.059 58.213 58.353 58.586 58.741 58.873 59.121 59.365 59.399 59.453 59.443 59.249 59.543 59.972 60.155 60.157 60.136 60.264 60.337 60.4 60.407 60.449 62.367 87.372 87.685 87.668 87.696 87.738 87.214 86.716 68.437 61.086 61.492 62.963 90.107 90.428 89.917 89.905 72.333 69.663 72.619 63.265 63.089 63.156 63.365 63.52 63.488 63.491 63.546 63.403 63.205 63.104 62.967 62.974 63.22 63.256 63.405 63.391 63.764 64.051 64.397 64.818 65.254 65.672 66.277 66.678 66.827 66.907 66.942 67.649 67.698 67.3 71.132 72.604 73.398 74.5 74.708 74.592 74.048 73.32 71.537 68.969 69.091 68.64 68.766 68.971 69.619 69.889 70.561 70.339 72.821 72.67 73.781 74.344 74.643 75.022 75.023 74.649 74.264 75.303 75.938 83.081 84.108 84.996 85.512 85.505 84.867 76.747 74.693 74.852 82.285 85.408 84.657 83.96 83.307 81.256 75.781 74.87 78.732 77.549 76.311 74.854 74.845 75.954 76.024 74.877 75.062 75.108 75.228 75.335 75.35 75.715 75.816 75.82 75.818 75.713 75.692 75.804 76.699 77.401 76.739 76.568 80.677 78.098 77.189 77.769 77.087 76.933 76.902 76.818 76.858 76.964 76.989 76.798 76.725 76.859 77.117 78.035 78.865 81.686 83.603 82.73 81.541 81.51 79.274 79.32 78.498 81.52 81.57 81.843 78.348 77.808 77.788 78.002 78.442 79.918 80.589 78.297 80.389 83.371 82.935 80.01 77.37 77.378 78.716 78.652 77.78 78.334 77.606 77.332 77.237 77.31 77.408 77.448 77.58 78.304 77.923 78.329 78.111 77.985 77.95 78.108 78.214 78.422 78.997 79.207 79.143 79.22 79.53 80.695 80.605 80.933 86.198 87.306 87.54 87.927 87.708 86.678 84.878 83.503 83.411 83.101 82.788 83.95 83.312 83.213 84.537 83.621 83.483 83.604 83.641 83.937 84.563 85.243 85.823 86.227 86.984 88.799 91.356 94 93.602 91.24 89.208 89.794 90.327 89.475 89.333 89.764 90.096 90.707 90.624 90.784 91.02 91.149 91.471 92.293 92.584 92.592 92.742 92.844 93.058 93.654 94.355 95.12 95.466 95.599 -9999 -9999 -9999 -9999 -9999 -9999 -9999 -9999 -9999 -9999 -9999 -9999 -9999 -9999 -9999 -9999 -9999 -9999 -9999 -9999 -9999 -9999 -9999 -9999 -9999 -9999 -9999 -9999 -9999 -9999 -9999 -9999 -9999 -9999 -9999 -9999 -9999 -9999 -9999 -9999 -9999 -9999 -9999 -9999 -9999 -9999 -9999
53.857 53.533 53.393 53.208 53.259 55.007 54.82 54.572 51.353 50.049 -9999 -9999 -9999 -9999 -9999 -9999 -9999 -9999 -9999 -9999 49.961 49.963 49.991 -9999 -9999 -9999 -9999 -9999 -9999 -9999 -9999 -9999 -9999 49.923 -9999 -9999 -9999 -9999 -9999 -9999 -9999 -9999 -9999 -9999 -9999 -9999 -9999 -9999 -9999 -9999 -9999 -9999 -9999 -9999 -9999 -9999 -9999 -9999 -9999 -9999 -9999 -9999 -9999 -9999 -9999 -9999 -9999 -9999 -9999 -9999 -9999 -9999 -9999 -9999 -9999 49.799 -9999 49.932 49.949 49.982 49.887 50.155 50.269 -9999 -9999 49.998 -9999 -9999 -9999 -9999 -9999 -9999 -9999 -9999 -9999 -9999 -9999 50.886 50.068 51.29 -9999 -9999 54.782 54.788 -9999 50.933 51.454 51.448 51.603 53.027 52.109 53.12 53.212 53.293 53.774 56.588 58.142 58.763 58.94 59.103 60.081 60.32 61.104 58.856 57.526 57.266 57.701 58.18 58.751 59.034 59.162 59.121 59.108 59.08 59.029 58.674 58.478 58.275 58.207 58.007 57.987 57.997 58.058 58.037 58.063 58.052 58.006 58.084 58.217 58.363 58.635 58.839 58.981 59.1 59.251 59.287 59.245 59.272 59.633 59.822 59.955 60.018 60.054 60.114 60.25 60.298 60.357 65.165 86.449 84.635 87.205 73.089 66.306 63.34 60.692 60.774 61.053 61.958 62.762 69.902 65.669 62.343 62.402 62.481 62.573 62.689 62.728 62.79 63 63.231 63.216 63.4 63.415 63.401 63.408 63.305 63.084 62.855 62.823 62.823 63.765 63.048 63.293 63.494 63.69 64.015 64.375 64.776 65.284 65.826 66.134 66.647 66.89 66.938 67.162 67.585 67.609 67.459 68.932 71.993 73.274 73.873 74.453 74.856 74.416 73.761 73.33 73.218 69.642 68.741 69.318 69.273 69.153 69.304 70.532 71.02 70.587 72.85 73.254 73.73 74.267 74.612 74.631 73.98 73.455 73.082 73.059 79.64 83.281 84.425 85.289 80.64 75.49 74.623 79.243 84.126 84.775 85.223 85.459 84.476 84.04 82.865 76.445 77.633 75.75 74.819 74.727 76.354 76.625 82.162 77.951 74.76 74.7 74.845 75.055 75.102 75.319 75.501 75.494 75.462 75.369 75.463 75.529 76.485 76.166 78.056 78.294 80.47 77.838 76.821 77.431 76.98 76.755 76.725 76.633 76.572 76.731 76.562 76.639 76.707 76.708 76.657 76.372 79.161 82.07 83.541 83.299 82.453 84.023 81.633 76.901 76.787 77.383 80.192 80.203 77.846 77.092 78.98 77.967 80.091 78.859 77.428 81.198 82.75 84.304 83.975 82.525 79.133 78.792 78.056 77.697 77.816 77.408 77.354 77.268 77.219 77.172 77.279 77.353 77.425 77.508 77.585 77.658 77.654 77.705 77.84 78.023 78.128 79.286 79.686 79.236 79.358 79.064 79.013 79.361 81.264 81.039 87.059 88.062 87.941 87.023 86.625 82.507 81.492 83.064 82.679 82.455 88.595 89.211 87.923 84.024 85.094 84.781 83.715 83.746 83.827 83.979 84.273 84.794 85.145 86.258 86.649 86.946 88.412 92.25 92.307 89.947 88.627 89.813 89.361 88.531 89.041 89.573 89.944 90.669 90.624 90.598 90.831 91.844 91.842 92.114 92.803 92.369 92.549 93.318 93.506 93.441 93.758 94.538 95.147 95.592 95.545 -9999 -9999 -9999 -9999 -9999 -9999 -9999 -9999 -9999 -9999 -9999 -9999 -9999 -9999 -9999 -9999 -9999 -9999 -9999 -9999 -9999 -9999 -9999 -9999 -9999 -9999 -9999 -9999 -9999 -9999 -9999 -9999 -9999 -9999 -9999 -9999 -9999 -9999 -9999 -9999 -9999 -9999 -9999 -9999 -9999 -9999
53.643 53.477 54.061 54.277 52.632 55.38 57.059 53.905 52.135 51.783 -9999 -9999 -9999 -9999 -9999 -9999 -9999 -9999 -9999 -9999 50.006 50.019 50.037 50.055 -9999 -9999 -9999 -9999 -9999 -9999 -9999 -9999 -9999 -9999 -9999 -9999 -9999 -9999 -9999 -9999 -9999 -9999 -9999 -9999 49.931 -9999 -9999 -9999 -9999 -9999 -9999 -9999 -9999 -9999 -9999 -9999 -9999 -9999 -9999 -9999 -9999 -9999 -9999 -9999 -9999 49.979 49.953 49.94 49.887 -9999 -9999 50.07 -9999 -9999 -9999 -9999 49.932 49.948 49.971 49.969 -9999 -9999 -9999 -9999 50.019 50.004 49.952 -9999 -9999 -9999 -9999 -9999 -9999 -9999 -9999 -9999 -9999 -9999 50.408 -9999 -9999 -9999 -9999 -9999 -9999 50.486 50.291 50.547 50.874 51.544 52.71 53.077 54.939 53.274 53.755 55.928 58.043 59.39 59.898 59.681 59.531 59.564 59.844 60.057 59.821 57.779 56.96 57.417 57.915 58.485 58.627 58.877 59.077 59.162 59.213 59.151 59.012 58.823 58.56 58.358 58.208 58.014 57.983 58.056 58.084 58.119 58.099 58.065 58.058 58.162 58.243 58.508 58.733 58.875 59.035 59.107 59.141 58.909 59.237 59.617 59.672 61.37 61.427 60.01 60.018 60.089 60.183 60.919 70.58 60.482 60.547 60.564 60.617 60.676 60.715 60.769 61.785 62.569 62.172 62.143 62.069 62.282 62.381 62.413 62.447 62.469 62.566 62.771 62.871 62.973 62.949 63.072 63.099 63.184 63.17 63.165 63.032 62.783 62.673 62.666 62.609 62.712 63.121 63.111 63.337 63.6 63.847 64.22 64.657 65.342 65.772 66.061 66.293 66.523 66.845 67.005 67.161 67.929 67.751 67.533 68.703 72.761 73.609 74.087 74.644 74.67 75.245 74.902 74.487 73.091 69.751 69.129 69.018 69.059 69.613 71.304 69.972 70.391 70.583 72.137 73.397 73.72 73.968 73.899 73.621 73.245 73.121 72.971 74.854 82.855 83.646 75.723 74.673 74.468 75.948 81.187 83.575 84.073 84.929 85.414 85.204 84.368 83.663 81.688 76.971 74.776 74.408 75.796 83.877 84.347 83.47 82.479 77.816 74.642 74.658 74.812 75.011 75.172 75.22 75.211 75.142 75.296 79.793 81.395 80.724 77.268 78.846 76.939 76.288 76.536 76.899 77.152 76.568 76.494 76.437 76.399 76.415 76.489 76.369 76.712 76.546 76.475 76.242 76.257 81.112 82.688 83.645 83.107 82.247 78.64 76.313 76.686 76.592 79.075 80.453 79.602 79.166 80.076 80.396 77.688 77.012 77.014 77.017 80.415 83.72 84.43 83.554 82.368 78.319 77.187 77.444 77.615 78.128 77.226 77.173 77.203 77.196 77.182 77.214 77.244 77.261 77.443 77.455 77.519 77.647 77.721 78.066 79.146 78.632 78.678 78.841 79.304 79.019 80.122 84.364 84.046 80.165 83.583 87.642 86.707 85.398 82.774 81.429 81.712 83.462 83.328 87.629 89.817 89.942 89.151 86.605 84.538 84.573 84.081 84.042 83.987 84.151 84.183 84.454 85.03 85.443 86.444 86.708 86.961 88.018 87.33 88.044 89.73 93.628 93.036 88.671 89.043 89.369 89.584 89.851 90.184 90.441 90.911 91.404 92.084 92.054 92.281 92.36 92.871 94.463 94.48 94.276 93.552 93.904 94.453 95.281 95.512 95.762 -9999 -9999 -9999 -9999 -9999 -9999 -9999 -9999 -9999 -9999 -9999 -9999 -9999 -9999 -9999 -9999 -9999 -9999 -9999 -9999 -9999 -9999 -9999 -9999 -9999 -9999 -9999 -9999 -9999 -9999 -9999 -9999 -9999 -9999 -9999 -9999 -9999 -9999 -9999 -9999 -9999 -9999 -9999 -9999 -9999
53.697 54.247 54.385 53.855 52.856 56.316 57.514 55.781 54.195 -9999 -9999 -9999 -9999 -9999 -9999 -9999 -9999 -9999 -9999 -9999 50.021 50.101 -9999 -9999 -9999 -9999 -9999 -9999 -9999 -9999 -9999 -9999 -9999 -9999 -9999 -9999 49.937 -9999 -9999 -9999 -9999 -9999 -9999 49.938 49.94 49.912 -9999 -9999 -9999 -9999 -9999 -9999 -9999 -9999 -9999 -9999 -9999 -9999 -9999 -9999 -9999 49.964 49.965 49.916 49.969 50.022 49.962 49.942 49.903 49.926 50.029 50.117 50.111 -9999 50.219 -9999 49.967 49.939 49.932 49.922 49.913 -9999 -9999 -9999 49.969 49.976 49.933 -9999 -9999 -9999 -9999 -9999 -9999 -9999 -9999 -9999 -9999 -9999 -9999 -9999 -9999 -9999 -9999 -9999 -9999 -9999 -9999 -9999 -9999 50.412 50.503 52.154 53.061 56.017 53.102 55.069 55.603 56.089 59.125 59.404 58.525 59.036 59.628 59.555 59.936 60.223 59.087 57.046 56.92 57.673 57.91 58.158 58.69 58.97 59.166 59.248 59.315 59.21 59.037 58.799 58.445 58.265 58.209 58.054 58.05 58.074 58.116 58.104 58.12 58.119 58.088 58.149 58.257 58.439 58.726 58.866 59.02 58.795 58.939 59.243 65.274 68.385 67.437 68.035 65.519 60.313 60.034 60.072 60.002 60.118 60.389 60.509 60.57 60.603 60.656 60.677 60.955 62.087 62.437 62.109 62.033 62.055 62.15 62.262 62.361 62.429 62.504 62.601 62.609 62.71 62.758 62.825 62.874 62.992 63.027 62.993 62.969 62.726 62.499 62.502 62.481 62.367 62.978 63.017 63.22 63.497 63.689 63.802 64.017 64.517 65.114 65.504 65.947 66.088 66.352 66.731 67.069 67.402 67.324 67.481 67.525 67.814 69.399 73.128 73.825 74.49 74.909 75.502 75.356 74.684 74.198 73.76 70.425 69.159 69.364 70.163 69.797 70.288 71.767 70.882 72.154 72.569 73.537 73.681 73.454 73.472 73.413 73.101 73.054 73.463 75.28 74.026 74.139 74.335 74.338 74.466 79.325 82.824 83.655 84.305 84.965 85.392 84.878 84.083 83.332 80.984 74.474 80.095 84.428 85.029 84.465 83.691 83.373 82.174 75.237 74.55 74.715 74.79 74.885 74.954 75.097 77.748 81.539 82.302 81.858 80.374 79.586 75.766 75.747 76.078 76.362 77.283 76.689 76.362 76.288 76.226 76.028 76.337 76.316 77.044 76.363 76.117 76.135 76.133 76.281 80.943 82.827 84.112 82.934 81.801 76.551 78.634 78.865 79.284 80.661 81.015 81.283 79.388 77.104 76.961 76.994 76.94 76.918 77.184 81.074 83.989 84.429 83.113 80.97 77.091 77.103 78.037 78.579 77.435 77.116 77.143 77.16 77.155 77.14 77.19 77.273 77.29 77.367 77.462 77.472 78.711 79.824 79.268 79.36 78.914 78.9 80.393 83.431 84.891 85.688 85.891 82.882 80.471 84.997 81.547 80.428 80.957 82.247 83.412 83.825 82.14 82.676 88.723 89.821 89.575 88.952 85.053 83.205 83.802 84.203 84.169 84.282 84.333 84.461 84.966 85.422 86 86.52 86.769 87.071 88.633 89.51 94.223 95.474 94.741 93.579 89.687 89.085 89.262 89.545 90.081 90.31 90.818 91.035 91.367 92.023 93.427 93.823 93.587 93.895 93.875 94.473 95.152 93.9 93.672 94.437 95.266 95.853 95.813 -9999 -9999 -9999 -9999 -9999 -9999 -9999 -9999 -9999 -9999 -9999 -9999 -9999 -9999 -9999 -9999 -9999 -9999 -9999 -9999 -9999 -9999 -9999 -9999 -9999 -9999 -9999 -9999 -9999 -9999 -9999 -9999 -9999 -9999 -9999 -9999 -9999 -9999 -9999 -9999 -9999 -9999 -9999 -9999
56.998 63.729 57.537 59.565 53.217 54.636 54.33 54.616 -9999 -9999 -9999 -9999 -9999 -9999 -9999 -9999 -9999 -9999 -9999 -9999 -9999 -9999 -9999 -9999 -9999 -9999 -9999 -9999 -9999 -9999 -9999 -9999 -9999 -9999 -9999 -9999 49.936 -9999 -9999 -9999 -9999 -9999 -9999 -9999 49.931 -9999 -9999 -9999 -9999 -9999 -9999 -9999 -9999 -9999 -9999 -9999 -9999 -9999 -9999 -9999 -9999 49.95 49.945 49.854 49.912 49.974 -9999 -9999 49.936 49.971 49.984 50.061 -9999 -9999 50.255 -9999 -9999 49.947 49.945 49.949 49.917 49.869 49.9 49.918 49.982 49.968 -9999 -9999 -9999 -9999 -9999 -9999 -9999 -9999 -9999 -9999 -9999 -9999 -9999 -9999 -9999 -9999 -9999 -9999 -9999 50.145 -9999 -9999 -9999 -9999 50.559 51.366 52.5 50.599 54.617 54.301 54.655 56.203 55.498 57.156 57.369 58.859 59.104 58.98 59.316 59.409 59.695 57.695 57.003 56.64 56.999 57.418 57.8 58.216 58.726 59.003 59.168 59.151 59.126 58.914 58.667 58.478 58.313 58.253 58.194 58.177 58.036 58.085 58.096 58.138 58.11 58.105 58.1 58.157 58.272 58.543 58.803 58.84 58.65 59.099 68.152 68.087 68.236 62.528 69.787 61.044 59.799 59.888 59.832 60.065 60.25 60.351 60.419 60.488 60.476 60.363 60.863 61.38 61.865 62.089 62.01 61.913 62.002 62.183 62.262 62.299 62.333 62.355 62.488 62.529 62.617 62.616 62.7 62.833 62.855 62.835 62.761 62.647 62.375 62.319 62.304 62.252 62.656 62.901 63.073 63.385 63.69 63.873 64.03 64.085 64.349 64.758 65.155 65.521 65.91 66.233 66.535 66.851 67.234 67.393 67.488 67.683 67.803 68.246 69.821 70.901 71.496 74.333 74.996 75.555 75.338 74.609 73.205 74.746 70.74 69.454 69.452 70.071 70.482 70.203 70.555 70.382 70.799 73.096 73.311 73.349 73.271 73.531 73.307 73.229 73.297 73.503 73.825 74.041 74.124 74.05 73.79 73.225 78.854 82.759 83.702 84.478 85.073 85.293 83.82 74.065 74.112 81.731 83.145 84.127 84.666 85.009 84.539 83.779 83.003 80.298 75.725 74.666 74.667 74.729 75.494 80.487 82.042 82.931 82.837 82.377 81.624 80.177 76.805 75.669 75.978 76.489 76.465 77.306 76.111 76.024 75.91 75.905 76 75.852 76.199 76.118 76.163 76.146 76.186 77.119 81.2 83.151 83.735 82.579 79.894 81.29 79.74 77.869 80.327 81.636 82.875 79.361 76.781 76.72 76.922 76.884 76.888 76.879 77.946 82.746 83.374 84.104 82.717 79.27 77.826 78.035 77.162 77.186 77.173 78.692 77.179 77.131 77.153 77.203 77.201 77.26 77.266 77.33 77.492 77.919 78.481 80.09 80.008 78.976 80.175 84.057 85.266 85.826 85.906 85.734 84.647 80.369 80.248 80.427 80.838 81.249 82.26 83.767 82.792 81.874 82.134 86.207 89.017 89.913 89.351 85.999 83.384 84.186 84.355 84.433 84.414 84.476 84.66 85.605 85.557 85.63 86.546 86.497 86.957 87.743 89.859 94.09 94.991 95.415 94.433 92.884 89.145 89.393 91.044 90.068 90.493 90.404 90.891 92.997 92.617 93.974 92.645 92.899 92.842 93.329 94.109 93.853 93.457 93.534 93.808 94.315 95.241 95.812 95.662 -9999 -9999 -9999 -9999 -9999 -9999 -9999 -9999 -9999 -9999 -9999 -9999 -9999 -9999 -9999 -9999 -9999 -9999 -9999 -9999 -9999 -9999 -9999 -9999 -9999 -9999 -9999 -9999 -9999 -9999 -9999 -9999 -9999 -9999 -9999 -9999 -9999 -9999 -9999 -9999 -9999 -9999 -9999
62.272 69.084 58.389 67.571 55.739 57.521 52.864 -9999 -9999 -9999 -9999 -9999 -9999 -9999 -9999 -9999 -9999 -9999 -9999 -9999 -9999 -9999 -9999 -9999 50.15 50.01 -9999 -9999 -9999 -9999 -9999 -9999 -9999 -9999 -9999 -9999 -9999 -9999 -9999 49.99 49.992 -9999 -9999 -9999 -9999 -9999 -9999 -9999 -9999 -9999 -9999 -9999 -9999 -9999 -9999 -9999 -9999 -9999 -9999 -9999 -9999 -9999 49.935 49.899 49.914 49.974 49.922 -9999 -9999 49.978 49.964 50.051 -9999 -9999 -9999 -9999 49.988 49.967 49.957 49.959 49.961 49.896 49.868 -9999 49.935 -9999 -9999 -9999 -9999 -9999 -9999 -9999 -9999 -9999 -9999 -9999 50.046 49.999 -9999 -9999 -9999 49.913 -9999 -9999 50.054 49.985 49.995 49.936 -9999 -9999 -9999 -9999 50.234 49.973 51.214 52.254 52.399 52.827 53.781 56.123 56.22 57.86 57.804 58.061 58.642 58.421 59.059 59.281 59.774 57.981 56.671 56.658 56.948 57.296 57.618 58.243 58.46 58.584 58.724 58.756 58.643 58.539 58.421 58.347 58.294 58.25 58.187 58.125 58.088 58.134 58.123 58.23 58.213 58.127 58.123 58.163 58.322 58.538 58.515 58.704 67.377 68.374 62.327 69.051 70.908 65.486 69.4 59.985 59.66 59.867 60.145 60.205 60.289 60.221 60.064 60 60.409 60.899 61.289 61.823 61.95 61.834 61.768 61.803 62.031 62.085 62.142 62.201 62.24 62.342 62.455 62.465 62.538 62.592 62.685 62.678 62.623 62.582 62.292 62.161 62.137 62.113 62.431 62.829 62.882 63.238 63.553 63.958 64.039 64.212 64.521 64.658 64.664 64.951 65.213 65.671 66.171 66.406 66.698 67.138 67.405 67.564 67.623 67.704 67.919 68.681 69.254 72.582 73.872 74.472 75.028 75.455 75.719 75.719 75.327 74.538 73.247 69.701 69.445 69.704 70.238 70.052 70.503 72.817 72.967 73.094 73.225 73.366 73.31 73.279 73.471 73.579 73.739 73.833 73.85 73.808 73.634 73.173 72.791 72.678 80.657 83.038 83.938 84.557 82.693 73.675 73.896 73.956 79.619 81.109 83.62 84.437 84.926 84.968 84.303 83.572 82.816 76.099 74.764 74.683 74.89 80.774 81.537 82.125 82.842 83.083 82.494 81.458 77.552 75.338 75.694 76.006 76.212 76.762 76.476 75.8 75.698 75.571 75.692 75.788 75.84 76.307 75.99 75.927 75.806 75.99 80.601 82.239 79.234 76.498 77.346 79.59 78.44 76.162 76.682 80.257 82.666 81.554 77.455 76.584 76.741 76.653 76.459 77.235 77.715 80.502 83.515 84.33 82.224 76.899 77.218 76.88 76.865 78.049 78.506 78.533 77.555 77.113 77.141 77.127 77.147 77.19 77.237 77.377 77.553 78.897 78.312 78.383 78.526 82.317 84.776 85.755 85.947 85.893 84.904 84.562 81.482 79.415 80.928 80.753 81.053 81.352 82.864 82.327 81.954 82.249 82.319 83.543 87.028 89.197 84.846 83.897 83.859 84.31 84.464 84.627 84.694 84.656 84.685 85.423 85.819 85.664 85.92 86.088 86.709 87.479 88.159 89.34 94.309 95.243 95.322 94.498 93.397 89.153 91.11 90.855 90.219 90.191 90.669 93.627 94.022 92.579 92.119 92.335 92.421 92.767 92.986 93.064 93.09 93.328 93.539 93.867 94.828 95.189 95.92 95.666 -9999 -9999 -9999 -9999 -9999 -9999 -9999 -9999 -9999 -9999 -9999 -9999 -9999 -9999 -9999 -9999 -9999 -9999 -9999 -9999 -9999 -9999 -9999 -9999 -9999 -9999 -9999 -9999 -9999 -9999 -9999 -9999 -9999 -9999 -9999 -9999 -9999 -9999 -9999 -9999 -9999 -9999
