ncols 425
nrows 31
xllcorner    425042
yllcorner    432588
cellsize     2
NODATA_value -9999
97.106 92.947 90.715 90.641 90.607 90.506 90.619 89.99 90.011 89.086 89.392 88.944 89.027 88.991 88.886 89.239 90.384 93.473 88.984 88.623 91.55 89.567 93.348 94.496 94.805 95.096 95.473 95.656 95.605 95.341 95.266 94.16 94.581 93.545 89.406 89.111 88.802 89.689 89.561 88.487 88.391 88.385 88.437 88.394 88.32 88.29 88.312 88.276 88.297 88.313 88.333 88.32 88.505 88.525 88.167 88.203 88.221 87.993 87.516 87.517 86.638 90.436 91.055 91.556 91.498 91.489 91.473 91.493 91.461 91.484 91.537 90.318 88.705 86.757 87.063 87.434 86.48 88.809 87.032 85.464 85.48 85.598 85.533 85.916 85.26 85.223 85.204 85.433 86.684 86.701 84.891 84.541 84.076 83.921 88.169 89.777 89.794 86.474 83.97 87.77 86.868 90.423 84.602 82.786 81.85 81.315 80.604 79.789 78.424 77.725 77.563 76.793 75.827 76.262 75.764 79.414 80.558 83.76 82.886 81.164 79.372 78.149 78.151 78.423 81.342 84.425 84.952 79.066 78.348 81.188 81.344 79.082 78.576 78.568 78.439 78.149 77.86 77.807 77.92 79.897 78.13 80.024 79.633 82.408 82.657 82.982 83.127 83.242 82.23 80.675 83.017 83.784 80.686 77.627 77.616 79.05 80.046 77.277 77.575 77.149 76.802 76.538 77.677 82.628 81.803 80.405 76.087 75.879 76.55 75.64 76.422 75.739 75.662 75.622 75.665 75.444 75.43 75.207 80.119 80.994 80.414 74.881 74.783 74.724 74.752 74.689 76.295 74.359 74.479 74.365 74.251 73.966 73.718 73.43 72.963 72.703 72.598 72.371 72.204 72.211 72.218 73.363 72.44 72.601 72.305 71.94 71.459 71.276 75.276 76.72 76.549 76.331 75.941 75.842 75.369 73.928 70.469 72.757 70.639 69.596 69.352 69.06 69.248 71.265 72.054 73.384 70.889 69.37 71.5 73.033 72.554 72.199 68.226 66.717 67.126 66.109 65.802 65.224 65.013 65.072 64.846 64.521 64.34 64.031 64.007 64.106 63.541 61.491 61.461 61.494 61.505 61.584 61.589 61.732 61.883 61.941 61.584 61.269 60.98 60.616 60.292 60.045 59.854 59.133 58.828 58.786 58.702 58.602 58.323 57.921 57.691 57.379 56.857 56.923 56.807 57.8 57.784 56.553 55.031 54.872 54.047 53.843 59.018 60.213 59.457 55.284 56.212 54.259 53.352 53.241 53.211 53.049 55.485 59.853 60.675 57.744 59.002 55.595 52.562 57.731 60.787 62.167 61.035 52.782 50.797 51.03 50.768 50.602 50.51 50.581 50.977 50.705 50.677 53.258 56.119 51.255 56.326 59.405 57.655 61.677 55.217 60.005 58.577 67.566 65.895 62.663 63.839 64.114 69.141 65.341 68.317 65.569 67.526 63.118 53.135 50.575 50.226 49.996 50.03 50.041 50.052 50.043 50.171 50.142 50.165 50.232 50.317 50.442 56.05 54.06 53.687 52.837 50.288 50.22 50.149 50.077 50.045 49.948 49.925 50.021 50.012 50.061 50.109 50.128 50.192 50.496 52.255 51.56 50.423 61.313 54.277 66.082 60.513 58.521 59.056 59.339 58.834 58.73 58.177 52.377 54.59 50.477 52.947 54.488 54.276 52.416 50.459 49.464 49.223 48.993 49.21 52.424 53.687 48.139 46.791 46.949 48.003 48.287 48.256 48.247 48.395 48.431 48.464 48.601 48.714 48.938 49.153 51.309 50.938 52.809 51.98 50.734 51.224 51.328 51.86 52.194 52.328 52.968 53.332 53.758 54.176 56.366 55.635 55.46 55.854
97.833 92.659 91.335 91.34 94.436 97.313 95.92 91.992 90.893 90.731 90.571 90.031 89.458 89.095 89.159 89.16 89.34 91.734 90.687 89.287 89.135 89.269 91.324 89.047 92.732 94.393 94.68 94.98 95.347 95.447 95.541 95.633 95.443 95.001 94.775 93.188 92.435 90.172 89.143 88.774 88.449 88.405 88.438 88.441 88.351 88.337 88.349 88.434 88.429 88.427 88.362 88.365 89.039 88.529 88.456 88.656 88.608 88.397 87.662 87.28 87.58 87.019 88.899 89.638 90.505 91.232 91.39 91.447 91.472 91.504 91.486 91.472 91.497 90.605 87.953 86.743 88.633 87.564 85.838 85.525 85.401 85.41 85.725 85.722 85.331 85.242 85.228 85.282 85.561 85.442 85.563 85.707 86.231 84.671 83.904 88.124 89.198 84.081 87.387 92.876 92.137 92.273 87.74 88.088 82.245 81.563 81.378 80.725 79.522 78.025 77.647 76.437 76.056 77.391 83.042 86.1 84.08 80.998 83.54 80.918 78.298 78.403 78.518 79.025 83.815 84.749 85.26 78.752 78.64 78.614 80.258 79.084 78.568 78.812 78.744 78.668 78.561 78.429 78.366 78.682 77.95 77.689 77.42 77.824 80.097 79.652 82.23 82.411 78.625 80.431 83.072 84.095 79.074 77.627 77.636 78.302 79.707 78.142 77.591 77.595 77.261 76.666 81.008 82.525 81.512 76.53 76.11 76.035 76.072 76.004 75.876 75.727 75.846 75.966 75.873 75.657 75.72 75.99 81.543 82.215 78.99 75.066 74.86 75.134 74.85 75.116 75.946 81.268 81.318 74.767 74.463 74.282 74.075 73.697 73.19 74.398 72.769 72.485 72.243 72.252 72.207 72.224 72.227 72.258 72.382 72.379 71.917 71.623 71.982 71.491 75.583 75.761 76.691 76.542 76.256 76.075 75.698 74.961 71.265 70.934 69.626 69.443 69.123 71.814 73.423 73.942 72.795 68.032 67.182 67.939 71.904 72.757 72.137 69.002 66.606 67.655 66.128 65.946 65.379 65.369 65.264 64.983 64.765 64.461 64.152 64.049 64.111 63.454 61.555 61.539 61.556 61.607 61.637 61.694 61.781 61.924 61.971 61.806 61.509 61.119 60.821 60.891 60.369 63.615 60.848 58.822 58.686 58.65 58.51 58.452 58.261 57.753 57.013 57.114 56.979 58.038 58.578 55.953 55.247 54.947 54.919 55.835 56.265 60.516 60.087 59.523 57.228 54.465 54.216 53.508 53.536 53.268 53.098 61.547 62.858 60.364 59.813 56.937 56.185 56.549 59.587 61.158 60.319 57.456 51.116 51.007 51.174 50.953 50.904 51.17 51.228 51.17 50.633 51.561 53.062 53.908 55.573 53.591 55.403 60.81 56.452 53.738 63.603 66.536 67.443 62.802 61.016 66.604 65.902 64.959 68.726 68.737 68.326 64.143 55.259 58.796 55.102 51.783 50.07 49.987 50.033 49.985 50.033 50.029 50.113 50.068 50.125 50.24 50.198 50.91 53.982 51.126 50.384 53.375 50.374 50.191 50.141 50.082 49.996 49.909 49.903 49.975 49.995 50.017 50.072 50.237 57.94 55.441 61.945 62.448 57.503 54.756 52.077 51.485 56.809 57.857 56.658 53.826 52.462 51.903 51.794 50.445 54.503 56.909 56.326 54.205 50.593 49.642 49.471 49.247 50.529 52.693 53.084 48.764 47.285 46.952 47.089 47.589 47.768 48.214 48.266 48.351 48.41 48.426 48.457 48.685 48.942 49.175 49.907 50.135 50.938 50.654 50.808 51.1 51.531 51.933 52.152 52.587 52.96 53.393 53.839 56.76 54.931 55.151 55.435
93.191 91.704 91.78 91.756 93.245 96.663 93.134 91.697 91.516 91.318 91.084 91.02 90.741 90.501 90.649 90.214 89.94 90.213 90.084 89.374 89.169 90.267 89.836 89.134 90.925 91.908 92.417 92.201 94.374 94.682 94.957 95.218 95.379 95.625 95.551 95.368 95.024 94.487 89.599 88.811 88.538 88.475 88.402 88.378 88.364 88.379 88.447 88.543 88.605 88.788 88.795 88.511 89.181 88.686 88.869 88.994 88.95 88.802 88.563 87.731 87.547 87.047 86.854 90.767 88.671 86.53 87.291 89.183 91.464 91.533 91.482 91.499 91.467 91.522 91.416 87.285 89.53 88.06 87.131 86.015 85.552 86.93 86.125 85.5 85.48 85.458 85.315 85.326 85.3 85.334 85.425 85.514 85.748 84.768 84.122 84.1 83.927 84.431 85.886 85.97 93.844 92.588 94.972 90.174 82.417 81.58 81.64 80.416 79.179 78.435 77.381 76.563 76.329 82.605 86.84 81.393 85.223 86.491 86.588 83.875 79.885 79.715 79.151 81.272 84.083 84.912 81.766 78.649 78.702 78.8 79.194 78.791 78.725 78.847 79.002 79.054 78.976 78.912 79.928 78.605 78.38 78.129 78.179 77.908 77.549 77.519 77.702 78.482 78.552 78.393 79.77 79.664 78.325 77.929 79 78.376 78.194 77.803 77.81 77.698 77.505 77.42 77.65 83.545 80.94 76.781 76.221 76.222 76.187 76.193 76.21 76.221 76.101 76.081 76.037 75.827 76.04 80.117 81.995 82.646 76.07 75.593 75.43 75.39 75.461 75.27 75.135 79.914 81.45 75.548 74.495 74.55 74.407 73.914 73.427 75.766 74.858 72.612 72.387 72.292 72.265 72.266 72.289 72.264 72.286 72.36 72.262 72.669 73.351 71.354 70.789 70.327 71.572 72.111 75.68 76.703 76.492 76.28 75.923 72.272 69.972 69.86 69.303 70.859 72.808 72.978 72.217 68.378 67.904 67.086 67.025 73.061 72.782 72.251 71.163 68.081 66.974 66.506 65.633 65.441 65.674 65.493 65.299 64.929 64.614 64.278 64.146 64.169 63.609 61.967 61.629 61.684 61.689 61.779 61.776 61.788 62.007 62.083 62.019 61.693 61.542 61.373 64.694 67.612 67.091 66.229 60.152 58.72 58.741 58.785 58.778 58.023 57.645 57.4 57.076 57.97 57.382 56.167 55.745 56.066 55.452 55.357 55.939 57.242 60.517 60.032 58.793 55.083 53.843 53.68 54.055 54.356 53.552 57.881 62.657 60.868 58.222 57.247 57.561 56.984 58.245 57.585 56.366 55.648 51.486 51.205 51.303 52.113 51.025 51.031 51.172 51.144 51.083 50.735 50.235 51.468 56.624 57.044 56.442 55.825 62.377 58.09 60.326 62.352 56.077 62.394 58.752 66.233 66.466 67.899 69.26 67.829 64.107 66.055 65.899 65.765 64.423 59.736 52.926 50.164 50.029 49.929 49.934 49.981 50.044 50.023 50.039 50.021 50.095 50.195 50.223 50.29 50.958 51.059 51.322 51.126 50.268 50.108 50.153 50.05 49.888 49.88 49.852 49.95 49.94 50.186 58.655 55.116 53.232 55.253 59.964 56.801 50.393 50.284 51.465 51.894 50.878 50.331 50.74 50.43 50.421 50.509 54.412 56.34 56.491 55.33 53.116 50.228 49.789 49.42 49.121 49.598 49.533 47.919 47.22 47.262 47.374 47.092 48.778 49.749 48.322 48.301 48.332 48.331 48.35 48.454 48.661 49.329 49.482 49.658 49.87 50.403 50.647 50.923 51.21 51.535 51.902 52.151 52.665 53.108 53.442 53.881 54.364 54.873 55.255
91.818 91.869 91.819 91.839 91.881 92.735 91.935 91.924 91.919 91.943 91.714 91.604 91.147 91.338 91.363 91.238 91.109 91.056 90.905 90.654 90.436 90.178 89.491 89.474 89.785 89.407 90.017 89.217 89.131 90.429 94.116 94.411 94.731 94.954 95.257 95.489 95.257 94.352 89.065 88.751 88.568 88.613 88.502 88.423 88.396 88.437 88.557 90.006 91.145 89.552 89.981 88.953 89.065 88.92 89.478 89.166 89.239 89.244 88.901 88.686 88.366 87.566 87.266 90.112 87.636 86.984 86.613 88.502 89.686 91.284 90.76 91.475 91.487 91.499 90.947 86.929 87.656 89.504 87.741 86.549 87.116 86.753 85.753 85.41 85.511 86.001 85.418 85.831 85.542 85.397 85.328 85.477 85.58 86.348 85.33 84.61 84.588 84.87 84.903 93.26 94.769 95.629 95.648 88.881 84.231 81.745 81.567 80.322 79.228 78.512 77.816 76.675 76.578 84.25 87.059 87.352 84.26 80.964 86.948 83.31 80.597 80.096 81.567 84.032 85.475 85.9 81.299 79.292 79.914 80.196 79.557 79.318 79.897 79.903 79.154 79.317 79.359 79.403 80.49 79.747 79.162 78.943 80.042 78.402 78.045 77.98 77.975 78.494 78.306 78.354 78.206 78.226 78.154 78.559 78.24 79.143 78.683 78.116 78.072 77.942 77.723 77.551 81.364 83.491 78.199 76.206 76.698 76.815 76.627 76.432 80.485 79.398 76.263 76.187 76.119 76.08 76.209 79.89 82.084 82.727 76.094 75.955 75.846 75.747 75.756 75.787 75.175 75.529 74.994 74.938 76.24 74.869 74.568 74.431 74.432 75.366 73.369 72.633 72.545 72.379 72.358 72.323 72.324 72.346 72.54 73.294 72.735 73.339 73.027 72.438 71.909 71.543 71.332 70.611 70.825 71.586 72.447 76.7 76.544 71.032 70.305 69.983 69.673 69.583 71.965 73.166 71.908 68.701 68.245 67.893 70.198 68.042 72.04 72.681 72.338 71.4 67.851 66.405 65.999 65.695 65.852 65.859 65.558 65.36 64.925 64.747 64.485 64.255 64.243 63.671 62.033 61.7 61.749 61.832 61.827 61.88 61.908 62.086 62.232 62.136 61.938 61.659 61.911 63.329 67.564 67.207 65.476 60.659 58.89 58.707 58.744 58.574 58.141 57.837 57.186 57.028 57.743 57.098 56.281 56.119 55.669 55.158 54.776 54.554 57.472 60.387 60.01 59.158 54.194 54.401 53.989 53.987 55.848 57.626 57.326 56.982 55.876 57.469 57.689 57.485 56.727 55.163 53.655 51.861 51.735 51.552 51.69 51.539 51.652 51.273 51.354 51.206 50.989 51.019 50.877 56.52 57.924 56.424 59.532 64.934 64.575 59.516 59.615 58.803 53.658 65.176 63.922 66.926 66.822 66.277 67.731 68.894 68.118 65.081 64.341 66.096 67.339 61.401 56.648 50.254 50.051 50.157 50.014 49.91 49.888 49.903 49.94 49.955 50.014 49.978 50.089 50.192 50.206 50.689 52.489 53.105 51.291 52.486 50.596 50.097 50.069 50 49.94 49.935 49.841 49.829 49.858 51.853 49.878 51.885 52.463 53.534 51.625 50.299 50.29 50.277 50.476 50.391 50.38 50.369 50.645 50.354 54.309 55.857 55.859 54.638 51.17 49.943 49.742 49.62 49.313 48.955 49.07 50.217 52.775 49.954 47.236 47.112 48.151 48.448 48.011 48.205 48.225 48.277 48.253 48.292 48.48 48.772 49.062 49.376 49.653 49.89 50.374 50.532 50.845 51.247 51.701 51.925 52.278 52.562 53.06 53.471 53.933 54.539 55.036
93.037 92.732 91.935 92.103 91.826 91.925 92.001 91.941 91.96 91.935 92.053 91.958 91.916 91.925 91.779 91.865 91.824 91.629 91.591 91.463 91.393 91.245 90.982 90.89 90.414 89.595 89.382 89.272 89.205 89.297 91.57 91.821 91.027 93.265 94.354 94.722 94.868 90.728 89.005 88.745 88.56 88.578 88.484 88.424 88.525 88.532 88.619 89.285 91.788 90.728 90.453 90.02 89.078 91.24 91.962 90.024 89.518 89.313 89.329 89.19 88.823 88.599 88.18 87.478 88.066 87.28 87.169 86.906 87.4 86.967 86.552 87.083 91.242 91.489 88.923 87.414 89.515 91.826 91.268 86.992 87.468 87.618 85.694 85.566 85.988 85.953 85.496 85.521 85.828 85.394 85.392 85.434 85.493 85.548 85.783 85.101 85.089 85.053 90.834 94.405 94.588 96.639 94.248 82.419 82.122 81.55 81.412 80.219 79.042 78.619 77.31 76.922 77.072 82.614 86.179 84.917 84.065 87.614 87.024 84.843 80.086 79.553 79.968 84.729 85.878 86.603 80.215 80.239 79.687 80.981 80.179 80.522 82.987 82.384 79.522 79.441 79.54 81.331 83.362 80.823 80.403 81.751 82.159 79.273 78.962 78.687 78.788 78.415 79.043 78.733 78.569 78.549 78.542 78.543 78.472 78.607 78.349 78.576 78.472 78.055 77.872 77.821 83.929 84.034 82.778 79.028 79.747 77.441 77.252 77.178 82.141 79.465 76.561 76.47 76.268 76.429 76.572 81.77 82.445 78.596 76.023 76.06 76.296 75.91 75.84 75.587 76.796 75.922 75.231 75.15 76.123 76.022 74.779 74.618 74.418 73.963 73.576 77.392 77.527 72.608 72.451 72.37 72.329 72.328 72.402 72.63 72.353 72.456 72.965 72.62 72.282 72.333 71.964 71.818 71.377 71.002 70.914 70.599 73.027 70.61 70.6 70.307 70.197 69.886 70.707 72.746 72.305 69.678 68.692 71.152 75.535 69.771 67.708 71.479 73.083 72.377 71.083 66.956 66.375 66.238 65.982 66.096 65.922 65.597 65.389 65.172 64.918 67.925 68.145 65.352 62.925 61.883 61.78 61.813 61.889 61.9 61.964 61.974 62.093 62.219 62.136 62.031 61.801 61.296 66.763 67.814 67.137 65.694 59.653 58.709 58.771 58.778 58.565 58.092 57.763 57.481 57.387 57.687 57.241 56.496 56.116 55.843 55.186 56.42 54.659 55.335 60.171 59.815 58.942 56.974 54.053 56.193 59.51 58.81 59.048 58.789 56.464 53.752 56.924 57.967 57.242 54.404 53.407 52.91 52.242 51.947 52.025 51.496 51.16 51.309 51.107 51.007 50.865 51.027 50.411 55.583 57.843 56.355 57.581 66.184 64.924 67.168 62.476 59.308 61.945 57.55 54.461 59.852 67.631 67.86 68.223 66.725 67.527 64.765 67.823 64.342 67.077 62.585 60.563 56.955 52.865 53.344 50.557 50.006 49.948 49.926 49.848 49.893 49.949 49.94 49.943 49.955 50.01 50.195 50.23 51.12 55.057 56.056 51.358 50.117 50.086 50.026 50.011 50.018 49.906 49.893 49.826 49.851 49.849 49.922 49.964 50.028 50.045 50.247 50.354 50.365 50.275 50.284 50.261 50.212 50.169 50.091 50.198 53.659 56.083 53.944 50.238 49.825 49.814 49.585 49.45 49.212 49.062 52.712 54.014 50.844 47.419 47.185 47.695 47.609 47.799 48.208 48.131 48.195 48.113 48.173 48.337 48.56 48.78 49.059 49.363 49.651 49.866 50.208 50.596 51.084 51.395 51.727 51.892 52.252 52.715 52.825 53.419 53.8 54.578
93.961 93.652 92.63 92.682 92.539 93.165 92.809 92.531 92.356 93.112 92.932 92.233 92.131 92.098 92.049 92.092 92.165 92.16 92.074 92.074 91.914 91.736 91.624 91.535 91.301 91.202 90.615 89.86 89.476 91.148 91.868 89.772 89.392 89.259 89.098 92.301 94.063 89.624 88.948 88.937 88.714 88.612 88.502 88.546 88.603 88.668 88.732 88.776 89.845 93.548 93.239 91.07 90.559 91.587 91.888 90.341 89.953 89.513 89.409 89.372 89.37 89.186 88.82 88.558 88.586 88.425 87.175 87.227 87.086 87.184 86.855 87.123 86.955 87.739 87.466 89.888 91.825 91.826 91.832 91.466 89.677 86.81 86.312 86.177 86.852 86.009 85.456 85.664 85.837 85.548 86.108 85.599 85.452 85.568 86.466 85.635 85.333 85.292 90.151 95.216 95.905 95.737 88.165 82.323 82.213 81.535 81.865 79.749 79.096 78.255 77.466 77.199 77.33 85.655 86.225 86.807 88.15 86.578 83.179 86.989 82.297 79.801 80.406 85.344 86.119 82.383 79.839 79.996 81.961 82.238 80.256 81.245 80.387 80.163 79.86 83.694 84.829 83.375 80.482 80.352 79.892 81.154 81.968 81.39 80 79.52 79.351 79.464 80.981 79.276 79.122 79.17 79.05 79.021 78.947 78.923 78.615 78.65 78.437 78.518 78.996 81.39 83.198 83.274 83.617 83.758 83.312 83.605 82.43 79.899 83.884 78.557 77.362 77.359 76.984 76.952 79.882 83.174 83.926 79.188 76.294 76.328 76.128 77.534 76.073 77.311 76.688 75.679 75.516 75.404 75.281 75.477 77.437 76.034 74.555 74.445 75.649 78.069 78.608 75.125 72.667 72.439 72.421 72.363 72.367 72.402 72.444 72.399 72.505 72.718 72.581 72.535 72.434 72.012 71.832 71.637 73.627 74.012 71.592 71.015 70.862 70.718 70.416 70.143 69.902 71.471 72.947 71.787 72.371 74.634 74.134 68.221 67.774 66.759 69.162 72.877 72.364 67.259 66.668 66.49 66.194 66.245 66.261 66.023 65.743 65.505 68.171 69.731 69.492 68.398 64.251 62.056 63.133 61.875 61.928 61.994 62.025 62.028 62.072 62.162 62.307 62.219 62.047 61.936 61.408 63.194 67.831 67.351 66.736 63.379 59.001 58.813 58.788 58.901 58.255 57.504 57.374 57.491 57.602 57.312 56.529 56.106 56.954 55.42 55.088 54.187 57.708 60.219 59.707 57.774 55.579 58.439 61.07 60.177 60.162 59.592 58.342 55.547 55.909 57.33 57.085 54.812 53.745 53.282 52.808 53.578 52.998 51.96 51.546 51.493 51.161 50.925 50.912 50.946 52.946 54.17 57.516 57.896 60.098 65.121 58.818 63.843 61.34 66.367 66.166 59.414 61.342 55.444 53.346 64.217 67.21 66.282 66.81 63.383 64.21 64.177 61.882 56.562 57.57 57.478 56.589 54.395 50.431 49.983 49.971 49.942 49.872 49.811 49.817 49.829 49.866 49.891 49.929 49.911 49.994 50.135 50.179 50.595 50.11 50.106 50.189 53.223 50.11 50.017 50.025 49.956 49.937 49.817 49.757 49.837 49.91 49.921 49.93 49.986 50.05 50.261 50.703 50.305 50.337 50.243 50.203 50.091 50.059 49.939 50.997 50.264 49.829 49.747 49.741 49.619 49.536 49.492 49.181 48.891 49.856 47.772 47.341 47.133 46.733 47.27 47.999 47.888 48.146 48.071 48.109 48.175 48.294 48.327 48.587 48.778 49.153 49.226 49.783 50.08 50.366 50.699 51.07 51.515 51.8 51.872 52.319 52.65 53.104 53.348 54
95.732 96.505 92.804 92.875 93.476 94.546 94.763 93.174 92.662 92.9 95.057 93.913 93.288 92.608 92.345 92.277 92.172 92.233 92.205 92.273 92.227 92.123 92.132 92.135 91.866 91.749 91.471 91.371 91.142 90.841 90.01 89.567 90.537 90.402 89.345 89.725 90.331 89.312 89.725 89.967 88.964 88.655 88.541 88.644 88.63 88.744 88.799 88.826 89.358 93.967 93.589 90.648 91.651 90.688 93.114 90.901 90.156 89.939 89.785 89.534 89.416 89.446 89.31 89.058 88.919 88.543 88.368 88.268 87.969 87.11 87.117 87.26 88.482 88.519 87.064 87.205 91.688 91.807 91.811 91.833 91.209 87.861 87.461 87.17 85.53 85.447 85.47 85.76 85.661 85.612 85.981 86.041 85.514 85.54 85.65 85.688 85.627 85.453 85.762 91.579 93.162 92.75 94.083 83.897 81.954 83.165 84.267 86.08 80.258 78.483 77.607 77.555 77.609 86.335 88.516 83.605 86.771 87.824 87.232 85.204 82.589 81.633 82.412 85.509 86.315 82.333 80.937 81.496 83.648 83.276 81.687 80.061 79.826 80.004 80.454 85.816 86.448 85.592 80.185 79.926 79.945 80.552 79.818 79.967 80.775 79.814 80.029 81.533 80.676 79.678 79.693 79.623 79.581 79.444 79.322 79.051 79.092 78.904 78.826 78.62 78.365 78.85 79.094 85.136 83.479 82.941 83.31 83.309 83.537 83.835 83.954 84.163 82.378 78.421 78.009 77.502 82.155 83.416 83.776 77.197 77.038 76.953 77.065 77.913 76.459 77.87 76.518 76.121 75.637 75.669 75.392 75.649 81.209 80.152 75.966 74.566 75.26 77.028 78.07 78.578 77.857 73.9 72.485 72.452 72.412 72.377 72.437 72.408 72.457 72.519 72.903 72.747 72.858 72.548 72.461 72.286 74.966 75.098 71.482 71.275 71.137 70.967 70.68 70.411 70.214 70.324 72.393 73.548 75.12 74.319 69.541 68.28 68.086 67.763 67.275 69.656 71.963 67.379 67.057 66.818 66.461 66.384 66.488 66.342 66.122 65.925 69.823 69.899 69.182 66.528 66.219 64.538 64.391 64.06 62.078 62.001 62.052 62.086 62.117 62.135 62.232 62.34 62.351 62.179 62.037 62.128 63.025 67.727 67.472 66.88 62.772 59.416 58.761 60.437 58.897 58.068 57.831 57.348 57.587 57.419 56.996 56.919 56.112 55.93 55.51 54.938 54.197 59.463 60.215 59.612 56.452 58.048 60.413 60.465 60.265 59.781 59.57 58.501 54.696 54.617 54.72 56.351 57.07 55.722 54.574 54.523 54.136 54.103 53.05 51.629 51.357 51.101 53.094 54.164 53.174 53.742 56.893 59.148 60.289 64.264 66.058 62.828 64.818 66.317 62.352 65.894 55.604 51.855 59.164 58.88 63.531 61.703 60.525 67.415 67.652 64.538 62.719 57.947 54.243 57.909 56.602 55.832 51.285 50.201 49.874 49.891 49.914 49.924 49.864 49.781 49.793 49.792 49.826 49.853 49.875 49.882 49.948 50.165 50.114 50.134 50.285 56.219 53.063 50.077 49.996 49.966 49.957 49.967 49.861 49.843 49.77 49.801 49.82 49.951 49.976 49.967 50.129 50.283 50.3 50.297 50.257 50.193 50.178 50.039 49.948 49.897 49.902 49.86 49.834 49.696 49.608 49.369 49.158 49.024 48.867 48.203 47.772 47.378 46.9 46.929 47.568 47.542 48.159 48.197 48.146 48.183 48.254 48.219 48.448 48.597 48.773 49.088 49.665 49.864 50.189 50.65 50.9 51.226 51.527 51.706 51.94 52.205 52.61 52.917 53.459
97.696 97.721 97.724 97.044 97.72 97.115 97.326 97.422 96.042 95.032 95.278 96.072 96.948 95.45 93.788 92.761 92.521 92.461 92.304 92.302 92.293 92.304 92.308 92.298 92.317 92.218 92.068 92.094 92.002 91.824 91.715 91.291 90.961 90.521 89.751 89.705 89.378 89.344 89.193 88.994 88.768 88.645 88.616 88.686 88.694 88.829 88.921 88.881 88.85 92.221 91.018 91.151 92.105 92.841 94.678 95.195 93.96 90.568 90.1 90.196 89.892 89.671 89.507 89.51 89.464 89.196 88.884 88.582 88.296 88.204 87.829 87.867 87.129 87.951 87.017 86.783 88.05 91.757 91.871 91.824 91.795 91.867 90.473 87.336 86.867 86.411 86.346 85.415 85.467 85.921 85.962 85.547 85.588 85.603 85.604 85.744 85.781 85.624 85.385 85.479 87.743 85.389 87.629 82.787 85.762 85.946 89.094 87.549 85.507 78.605 77.838 77.829 84.174 88.369 87.319 84.428 86.01 84.084 84.43 84.281 81.627 81.926 85.615 85.907 86.599 80.955 80.098 80.984 83.487 83.371 81.54 80.082 80.148 80.282 81.677 86.779 86.118 84.219 80.754 80.299 80.112 81.238 80.648 80.714 80.127 79.925 80.092 80.138 79.948 79.878 79.773 79.703 79.567 79.493 79.256 79.244 79.338 79.153 79.12 78.857 78.833 78.352 78.071 88.377 81.255 78.62 78.966 81.786 82.595 82.969 83.322 83.328 83.65 84.031 82.565 78.07 82.325 83.611 79.295 77.167 77.094 77.069 77.295 76.747 76.684 76.665 76.408 77.357 76.858 75.509 76.794 82.123 81.357 80.848 75.696 74.723 74.673 74.794 77.466 77.894 78.39 78.672 73.735 72.519 72.496 72.445 72.437 72.48 72.501 72.465 72.513 72.856 72.723 72.694 72.466 72.462 74.278 74.198 72.623 71.476 71.465 71.175 70.868 70.684 70.45 70.188 70.321 73.915 74.593 71.593 69.027 68.667 68.334 68.168 72.047 68.367 73.683 68.182 67.436 67.248 66.88 66.565 66.673 66.634 68.168 70.49 70.479 68.374 66.334 65.696 67.356 67.371 65.21 64.486 62.751 62.068 62.013 62.14 62.219 62.198 62.226 62.289 62.412 62.44 62.338 62.236 61.601 61.441 66.523 67.569 67.037 64.561 59.069 59.215 58.726 58.798 58.217 58.014 57.511 57.873 58.065 57.123 56.751 56.409 55.821 55.138 54.964 54.172 56.277 56.27 56.295 56.395 57.558 58.794 59.109 59.438 59.895 58.98 57.115 53.794 55.001 58.764 57.915 56.797 56.118 54.745 53.953 53.962 53.812 52.072 51.563 51.344 52.113 50.83 55.371 58.621 61.359 62.182 59.706 62.859 63.67 64.111 61.983 63.72 67.321 60.195 56.091 52.31 55.761 64.848 68.59 68.772 68.142 62.074 67.005 60.411 60.687 62.009 59.186 59.968 58.13 57.128 54.443 50.389 50.295 50.006 49.871 49.829 49.84 49.897 49.846 49.755 49.73 49.758 49.792 49.782 49.828 49.906 50.017 50.088 51.166 52.482 50.562 50.065 51.758 52.767 50.051 49.956 49.955 49.898 49.851 49.719 49.752 49.747 49.814 49.84 49.917 49.967 50.208 50.24 50.267 50.279 50.263 50.157 50.042 49.978 49.947 49.911 49.898 49.8 49.675 49.546 49.343 49.059 48.802 48.551 48.145 47.37 47.096 46.871 46.708 47.312 47.686 49.585 48.184 48.095 48.163 48.247 48.215 48.391 48.561 48.951 49.24 49.648 50.031 50.356 50.78 50.873 51.185 51.452 51.623 52.039 52.245 52.749 53.055
97.726 97.673 97.658 97.699 97.702 97.688 97.701 97.706 97.7 95.562 93.596 96.314 97.874 97.933 97.087 96.731 94.146 95.179 93.021 92.752 92.496 92.426 92.3 92.339 92.388 92.384 92.449 92.43 92.375 92.391 92.261 92.228 92.062 91.691 91.537 91.426 90.267 89.981 89.641 89.616 89.474 88.952 88.745 88.78 88.803 88.907 88.933 88.935 89.258 92.633 91.309 92.481 90.389 93.741 95.239 95.195 95.165 95.21 93.776 92.829 91.923 90.064 89.724 89.962 89.57 89.528 89.382 89.133 88.746 88.495 88.218 88.039 87.707 87.113 87.387 87.26 88.598 89.79 91.777 91.838 91.841 91.785 91.785 87.857 87.021 87.67 86.098 85.48 85.718 86.284 85.871 85.748 85.632 85.642 85.69 85.649 85.81 85.744 85.598 85.366 84.655 87.744 89.874 91.149 89.559 88.5 90.223 84.833 87.382 79.907 78.165 78.073 84.529 87.55 88.258 87.237 84.417 84.108 81 80.506 80.927 81.018 86.647 87.317 88.049 81.451 80.946 80.853 82.136 81.563 82.619 80.808 80.63 81.384 82.915 86.596 85.868 81.736 80.353 80.345 80.406 80.915 80.569 80.539 80.485 84.062 85.767 83.086 81.715 83.54 80.599 80.887 80.101 80.085 79.851 83.461 81.511 80.75 79.337 79.15 79.092 78.945 84.685 86.79 87.249 78.503 78.059 77.77 77.6 78.099 81.489 81.759 82.798 83.036 82.594 81.168 83.01 83.887 80.661 77.404 77.288 77.148 77.987 77.1 76.859 76.696 76.655 76.945 78.086 76.526 81.423 81.569 80.94 78.733 75.84 74.88 74.785 74.648 74.792 76.003 77.866 78.313 79.025 77.476 72.587 72.493 72.477 72.487 72.492 72.494 73.094 73.241 72.661 72.975 72.616 72.525 78.194 74.4 71.97 71.996 71.658 71.391 71.106 70.949 70.698 70.466 70.189 70.936 71.815 70.248 69.455 68.99 68.755 72.468 69.918 68.62 69.096 68.199 68.082 67.741 67.39 67.027 66.726 68.575 70.29 70.706 70.368 67.838 68.602 66.492 65.837 68.45 67.463 64.636 64.64 64.103 62.633 62.137 62.204 62.287 62.237 62.313 62.4 62.501 62.55 62.547 62.152 61.904 61.526 67.925 67.555 67.169 65.339 61.204 58.887 58.808 58.684 58.166 57.865 57.501 58.275 58.382 57.198 56.861 56.307 55.919 55.495 57.366 55.238 57.364 56.666 57.934 56.08 55.762 58.095 59.573 59.457 59.81 58.594 54.467 54.048 57.463 57.1 55.806 55.954 55.609 55.271 54.691 54.223 52.076 51.639 52.411 52.18 55.466 57.361 60.334 63.326 63.542 61.463 58.985 62.676 63.766 63.939 63.095 63.24 65.971 63.314 56.72 67.657 69.269 69.05 69.563 61.276 62.78 65.297 62.246 61.683 61.76 60.196 61.618 59.854 58.515 56.503 50.6 50.885 50.668 50.067 53.879 50.024 49.863 49.849 49.846 49.736 49.695 49.693 49.712 49.764 49.787 49.798 49.899 50.043 50.042 50.024 50.011 53.268 53.797 50.959 49.934 49.936 49.963 49.946 49.934 49.772 49.677 49.69 49.744 49.768 49.866 49.904 50.035 50.166 50.277 50.269 50.247 50.172 50.081 50.03 49.972 49.914 49.839 49.752 49.591 49.416 49.264 49.035 48.721 48.504 48.147 47.6 47.158 46.569 46.627 51.576 52.309 49.415 48.122 48.043 48.031 48.176 48.322 48.495 48.786 49.2 49.46 49.786 50.099 50.431 50.576 51.119 51.17 51.559 51.603 52.072 52.375 52.758
97.601 97.726 97.698 97.721 97.732 97.699 97.672 97.663 97.684 96.515 93.391 97.207 98.046 98.069 98.031 97.878 97.913 97.529 97.288 96.216 93.166 92.898 92.745 92.612 92.996 92.392 92.429 92.414 92.494 92.861 92.518 92.537 92.437 92.283 92.029 91.904 91.732 90.768 90.32 90.167 90.195 89.847 89.583 89.167 89.014 88.966 88.966 89.018 89.522 90.418 90.259 93.417 90.756 95.037 95.199 95.153 95.173 95.166 95.178 95.183 94.138 90.338 90.146 89.932 89.826 89.569 89.597 89.577 89.298 88.883 88.551 88.282 87.985 87.743 87.193 87.088 87.027 87.559 87.989 91.658 91.848 91.811 91.83 91.814 88.891 87.077 86.661 87.626 86.918 85.617 85.622 86.693 85.846 85.747 85.769 85.689 85.801 85.823 85.674 85.399 84.866 90.981 92.403 83.433 84.573 87.59 90.021 89.259 86.064 81.034 78.588 78.38 83.329 87.607 87.925 85.956 84.311 81.019 80.635 80.813 81.066 82.701 86.73 87.624 83.445 81.287 81.178 81.369 81.868 81.277 83.206 80.95 81.125 81.214 86.1 87.331 85.807 80.707 80.657 80.699 81.007 81.143 80.729 80.658 80.758 87.172 86.556 84.788 80.782 82.765 80.416 80.283 80.202 80.096 79.947 83.721 86.011 85.052 80.239 79.456 79.262 79.26 79.81 84.562 79.11 78.973 78.624 78.774 78.477 79.374 78.11 77.843 78.371 79.135 80.527 79.322 79.22 82.813 78.742 77.614 77.751 77.998 78.939 80.576 77.73 76.999 76.84 76.804 76.707 80.81 82.193 80.996 77.882 76.118 75.473 75.292 75.188 74.797 74.687 74.792 75.423 77.625 78.41 78.753 74.3 72.657 72.534 72.521 72.489 72.471 72.534 72.825 72.935 72.653 73.544 75.496 76.84 78.131 72.439 72.183 71.81 71.523 71.325 71.134 70.9 70.688 70.472 71.809 73.106 72.388 71.367 69.453 71.338 74.493 74.47 71.331 70.921 68.589 68.265 68.21 67.874 67.504 67.11 70.885 71.091 70.488 67.818 69.544 71.469 70.797 68.4 66.185 65.988 66.361 65.128 64.656 64.502 62.331 62.306 62.311 62.352 62.369 62.386 62.464 62.785 62.675 62.573 62.342 62.11 62.01 66.745 67.607 67.132 65.695 60.437 58.768 58.852 58.653 58.253 58.126 58.091 58.899 57.977 57.352 56.89 58.098 59.87 62.259 59.575 57.721 57.338 58.805 57.898 58.43 54.383 58.583 59.749 59.086 58.781 56.402 53.498 53.893 54.69 55.934 56.451 55.997 53.576 52.556 52.385 52.087 52.05 52.033 52.836 53.366 55.64 61.667 63.566 63.997 62.176 59.177 60.761 64.069 57.287 65.229 65.465 66.326 64.911 66.398 54.856 65.413 70.34 70.843 69.073 64.352 66.25 59.521 63.326 61.921 61.73 61.882 60.961 56.809 50.61 50.132 50.536 51.828 57.184 56.513 53.016 49.847 49.824 49.807 49.784 49.734 49.683 49.652 49.673 49.735 49.768 49.776 49.848 49.964 50.006 49.972 51.537 52.894 50.864 49.974 49.982 49.965 49.959 49.968 49.948 49.859 49.785 49.677 49.649 49.78 49.809 49.905 49.944 50.067 50.274 50.261 50.212 50.175 50.097 50.023 49.948 49.917 49.841 49.762 49.594 49.406 49.233 48.889 48.628 48.369 47.793 48.016 47.059 49.12 51.075 51.896 48.28 48.201 48.04 47.971 48.176 48.33 50.016 52.904 49.751 49.095 49.549 49.79 50.112 50.441 50.736 51.093 51.312 51.534 51.66 52.283 52.539
94.396 94.158 94.906 96.759 95.639 97.533 96.822 97.59 97.689 96.795 92.955 97.74 98.122 98.073 97.999 98.02 98.063 98.038 98.092 97.924 97.59 96.197 95.066 93.56 93.541 92.906 92.826 93.068 93.053 94.491 93.233 92.721 92.546 92.525 92.432 92.286 92.112 91.828 91.152 91.426 90.732 90.751 90.259 89.891 89.484 89.212 89.127 89.126 90.334 90.437 91.587 91.09 91.503 91.108 91.63 95.021 95.228 95.187 95.206 95.15 95.2 93.705 90.414 90.249 91.303 89.974 89.658 89.652 89.629 89.243 88.885 88.606 88.272 88.044 87.726 87.559 87.182 86.963 86.86 86.831 90.798 91.791 91.764 91.791 91.884 89.664 86.948 86.667 85.841 86.401 85.685 86.391 85.935 85.872 85.848 85.818 85.799 85.946 85.81 85.441 84.997 90.625 87.545 86.968 88.439 91.034 90.076 90.843 90.591 81.009 79.565 78.661 84 87.109 89.684 89.052 85.993 81.999 80.912 81.147 81.402 84.562 87.041 87.703 82.827 81.357 81.372 81.388 82.224 84.391 81.897 81.056 81.26 81.459 88.086 87.267 83.4 81.287 81.101 80.942 83.01 83.32 80.892 80.872 85.135 87.087 86.141 81.921 80.669 81.402 81.936 80.711 80.291 80.208 80.19 86.564 85.806 84.112 79.916 79.626 79.414 79.373 79.36 79.479 79.808 79.513 79.209 78.792 79.083 78.867 78.434 78.384 78.192 80.195 80.616 81.204 77.916 77.861 78.09 77.933 78.013 78.256 79.072 80.147 77.561 77.246 76.966 76.941 82.14 83.08 82.522 80.831 75.723 75.76 75.632 75.69 75.415 75.138 74.922 74.687 74.766 76.145 77.138 78.18 78.719 78.01 73.849 72.555 72.533 72.524 72.52 72.554 72.563 72.593 72.678 73.77 76.97 74.922 72.67 72.365 72.048 71.813 71.56 71.372 71.164 70.986 70.795 70.586 73.768 72.713 69.99 71.526 72.94 75.202 74.81 74.389 73.003 69.093 68.635 68.296 68.231 67.877 69.416 71.677 71.435 69.903 66.433 71.212 71.906 71.667 71.004 67.381 65.669 66.201 66.11 64.795 64.783 64.315 63.133 62.354 62.386 62.453 62.469 63.013 62.854 62.801 62.791 62.76 62.493 62.084 61.544 66.044 67.78 67.259 66.652 64.29 59.005 58.919 58.557 58.468 58.323 58.961 58.722 57.666 60.244 61.845 60.811 59.708 59.359 57.447 58.971 57.115 60.764 61.385 57.536 55.88 57.749 58.635 57.761 54.599 53.427 53.622 53.669 54.102 54.759 55.633 53.332 53.255 55.83 52.686 52.5 52.957 52.568 54.831 55.983 58.973 61.503 62.8 60.303 58.198 60.419 60.795 60.925 64.102 64.252 61.473 60.691 68.1 69.038 59.414 70.471 70.264 59.154 64.386 66.562 63.611 63.117 61.799 63.23 62.716 60.74 54.191 52.612 51.805 54.603 56.776 58.511 58.487 55.037 50.498 49.758 49.744 49.772 49.743 49.728 49.66 49.618 49.661 49.65 49.703 49.733 49.729 49.813 49.935 49.967 49.957 49.944 49.971 50.01 49.973 49.968 49.994 49.946 49.938 49.872 49.827 49.745 49.669 49.644 49.731 49.816 49.926 50.018 50.268 51.22 50.243 50.147 50.087 50.014 49.983 49.912 49.833 49.686 49.554 49.363 49.074 48.82 48.527 48.194 47.68 47.077 46.659 46.48 47.961 47.978 48.318 48.208 48.068 48.011 48.124 51.92 54.661 52.467 49.078 49.049 49.6 49.835 50.295 50.638 50.817 51.101 51.179 51.441 51.946 52.247
92.787 92.626 92.673 92.656 92.632 92.733 92.847 93.497 94.174 93.112 96.106 97.418 97.966 98.008 98.033 98.074 98.024 98.081 98.012 98.017 98.063 98.033 97.851 97.698 96.644 94.205 93.506 93.226 93.165 95.216 93.521 93.171 93.124 92.73 92.58 92.407 92.36 92.306 92.33 91.831 91.83 91.348 91.102 90.449 90.093 89.796 89.568 89.94 90.608 90.704 93.06 92.614 92.633 90.665 90.339 91.213 91.745 95.097 95.205 95.176 95.184 95.131 95.171 94.235 92.525 92.414 90.07 89.813 89.71 89.551 89.123 88.798 88.621 88.417 88.11 87.698 87.238 87.207 87.191 86.938 88.095 90.02 91.77 91.802 91.876 91.841 91.278 87.181 87.092 86.047 86.696 85.947 86.068 86.002 85.876 85.902 85.974 86.62 86.034 85.753 85.213 84.905 85.059 83.57 88.806 89.927 91.863 93.93 92.352 89.087 79.872 79.015 87.576 90.561 91.225 91.288 86.82 83.391 81.383 81.524 81.602 86.464 87.381 86.899 82.149 81.46 81.442 81.493 82.733 84.637 81.76 81.923 81.464 85.089 87.939 87.088 85.235 81.467 81.245 81.017 82.907 84.047 82.038 81.374 85.787 86.78 85.973 81.465 80.795 80.652 82.882 80.864 80.491 80.259 84.21 86.451 85.592 82.06 79.919 79.871 79.76 79.966 79.707 79.541 79.62 80.666 79.683 79.628 79.85 79.2 78.985 78.747 78.714 81.998 83.426 80.678 78.282 78.217 78.13 78.158 78.079 77.937 78.58 78.012 77.887 77.602 77.076 76.988 83.185 82.62 81.765 76.879 76.075 75.963 75.917 75.862 75.662 75.551 75.244 74.98 74.715 74.747 75.355 77.62 78.123 78.5 73.059 72.595 72.558 72.549 72.544 72.534 72.586 72.572 72.584 72.661 72.766 72.93 72.817 72.608 72.238 71.967 71.777 71.555 71.445 71.15 70.955 70.725 72.145 73.824 72.472 72.886 69.919 70.473 73.519 75.093 74.508 73.193 68.818 68.617 68.401 68.196 67.926 70.243 72.296 71.887 67.233 66.312 68.881 71.492 71.647 71.256 69.815 65.757 65.487 65.413 65.037 64.828 64.766 62.99 62.438 62.44 62.531 62.547 62.638 62.584 62.703 62.949 63.105 62.354 62.08 61.46 63.316 67.626 67.406 66.482 63.329 58.948 58.733 58.748 58.474 58.153 60.405 60.035 61.742 62.507 60.191 58.76 57.984 60.178 63.816 63.245 62.45 62.313 60.033 55.979 55.017 54.411 56.695 58.075 56.568 58.883 57.411 56.48 54.342 53.654 56.198 58.347 54.872 56.238 53.261 53.376 53.257 53.036 54.674 54.057 54.071 58.14 53.275 52.892 53.393 53.252 60.819 54.755 57.39 62.454 65.673 68.655 69.736 69.896 64.7 67.734 60.357 69.49 68.021 60.97 61.932 57.282 55.164 62.35 61.605 60.783 59.173 59.188 59.419 58.528 57.051 57.013 53.716 50.028 49.849 50.435 49.743 49.712 49.716 49.695 49.694 49.557 49.61 49.642 49.668 49.688 49.708 49.748 49.904 49.977 49.955 49.98 49.96 49.935 49.959 49.937 49.939 49.891 49.866 49.881 49.849 49.74 49.545 49.608 49.695 49.743 49.896 49.896 50.027 50.193 50.212 50.17 50.1 50.002 49.959 49.895 49.762 49.632 49.457 49.285 49.07 48.855 48.491 48.079 47.365 46.806 46.712 46.976 47.18 47.925 48.295 48.132 48.012 48.017 50.739 52.402 50.716 48.927 48.869 49.326 49.644 49.928 50.191 50.633 50.729 51.244 51.207 51.412 51.71
93.911 93.007 93.095 92.942 93.257 94.032 94.023 93.125 92.807 93.485 93.571 93.801 96.559 97.528 98.014 98.062 98.027 98.076 98.009 97.994 98.029 98.021 98.087 98.061 97.956 97.894 96.89 95.282 95.801 97.771 97.758 95.617 93.261 93.147 93.132 92.653 92.675 92.537 92.339 92.186 92.251 92.044 91.837 91.371 90.888 91.285 90.15 91.69 90.975 91.09 91.104 91.646 92.691 93.028 92.648 90.269 90.217 91.537 94.174 95.083 95.201 95.146 95.211 95.155 95.192 92.634 90.543 90.026 89.831 89.807 89.5 89.187 88.984 88.723 88.267 87.899 87.725 87.375 87.275 87.244 86.85 89.197 91.311 91.748 91.818 91.824 91.834 91.103 87.806 87.026 86.375 86.03 86.114 86.115 86.006 86.012 86.032 86.096 86.119 85.9 85.243 85.459 86.774 84.943 88.738 88.033 91.475 92.224 92.631 88.012 81.588 80.55 87.91 90.181 92.195 91.975 87.417 85.319 82.153 82.047 82.091 88.081 88.424 87.764 82.718 81.565 81.872 83.365 81.706 84.096 83.669 83.518 81.7 85.515 87.745 86.804 82.16 81.418 81.386 81.759 81.664 81.499 81.53 81.702 87.77 87.605 83.739 82.136 81.734 80.982 81.416 81.376 81.172 81.011 84.65 86.144 85.27 80.708 80.221 80.088 80.44 80.181 80.044 79.886 79.644 79.647 82.013 81.48 81.377 80.164 79.263 79.218 79.153 78.898 80.48 79.173 78.707 78.579 78.474 78.346 78.101 79.257 79.923 78.193 78.106 78.185 77.714 82.577 82.663 82.062 77.522 76.484 76.246 76.102 75.916 75.936 75.852 75.926 80.174 76.535 74.996 74.796 74.7 75.33 77.305 74.36 73.51 73.068 72.595 72.527 73.242 72.759 72.54 72.61 72.642 72.64 72.715 72.849 72.938 72.762 72.535 72.198 71.998 71.827 71.599 71.389 71.159 70.98 70.894 74.948 74.751 71.315 70.047 69.73 69.152 74.169 75.093 74.645 73.242 69.995 68.754 68.375 68.12 68.348 71.523 73.968 68.701 66.869 66.485 67.39 72.108 71.818 71.208 68.502 65.974 66.366 66.722 64.943 64.905 64.846 63.263 62.6 62.536 62.622 62.669 62.687 62.671 62.796 62.863 62.858 62.565 62.374 61.896 63.578 66.651 67.615 67.011 65.145 59.533 58.885 58.587 58.419 58.813 62.082 62.155 62.095 58.959 58.135 61.97 64.011 66.183 65.645 62.68 63.181 62.286 59.617 54.504 54.157 57.634 59.339 58.805 60.245 62.288 60.366 57.023 60.275 62.016 58.816 56.795 55.566 53.202 53.341 53.624 53.307 53.013 52.934 54.671 55.98 52.292 54.858 54.182 53.46 56.8 50.534 56.643 55.888 58.433 64.349 68.655 68.858 58.886 67.176 69.187 69.156 64.844 58.113 63.307 55.467 61.909 61.766 60.371 62.294 62.754 52.298 61.115 55.772 56.168 55.729 51.076 50.014 49.959 49.979 49.858 49.835 49.67 49.696 49.711 49.705 49.632 49.559 49.575 49.624 49.62 49.656 49.682 49.757 49.893 49.93 49.945 49.933 49.955 49.904 49.907 49.872 49.825 49.846 49.867 49.819 50.032 50.173 49.588 49.685 49.744 49.805 49.866 49.867 50.161 50.214 50.171 50.09 49.978 49.982 49.913 49.7 49.569 49.393 49.166 48.939 48.681 48.477 48.08 47.457 46.739 46.468 47.526 47.963 48.215 48.235 48.077 47.968 48.014 48.15 48.256 48.326 48.561 49 49.326 49.757 49.953 50.179 50.445 50.669 50.933 51.115 51.448
94.022 94.221 93.875 94.317 95.018 94.95 94.361 96.06 95.874 94.625 95.24 93.447 93.168 93.159 94.779 96.468 97.469 97.586 98.056 98.138 98.07 98.081 98.092 98.058 98.031 98.084 96.842 93.122 96.756 98.184 98.202 98.202 98.261 97.297 96.231 95.064 93.137 92.903 92.866 92.58 92.4 92.263 92.204 92.067 91.568 91.043 91.683 91.403 91.754 91.349 91.168 91.263 91.185 91.341 92.26 91.056 92.049 90.487 90.141 91.101 94.158 95.14 95.225 95.156 95.191 95.168 94.905 94.151 90.435 89.892 89.834 89.578 89.316 89.142 88.473 88.485 88.213 87.801 87.465 87.316 87.319 86.948 87.012 88.913 91.73 91.853 91.887 91.78 90.871 86.917 86.523 86.262 86.262 86.254 86.123 86.093 86.116 86.258 86.293 86.176 85.474 84.822 85.219 86.77 83.659 83.367 88.275 89.998 89.933 81.978 79.778 83.361 90.198 90.676 92.113 91.074 87.303 84.73 82.248 82.44 82.616 88.327 89.008 85.197 83.309 82.856 82.549 84.014 86.32 83.066 82.169 82.245 82.391 87.218 88.237 86.782 81.85 81.725 81.645 83.656 81.755 81.797 81.773 81.861 88.216 87.584 83.382 83.28 82.341 82.007 81.353 81.331 81.379 81.333 86.183 87.258 86.098 80.649 80.447 80.261 80.383 80.421 80.274 80.163 81.674 83.482 79.909 79.703 80.238 80.963 79.773 79.58 79.402 79.66 79.912 79.269 79.099 78.951 78.78 78.678 78.354 78.886 81.961 79.183 78.331 78.336 78.547 83.714 82.202 77.457 76.67 76.498 76.446 76.239 76.017 75.91 77.939 80.543 81.415 80.487 76.366 75.174 74.737 74.741 74.809 74.629 74.226 73.654 73.1 72.713 73.591 72.737 72.689 72.613 72.623 72.674 72.685 72.738 72.796 72.913 72.728 72.495 72.212 72.062 71.891 71.665 71.398 71.256 71.131 72.875 76.034 70.723 70.062 69.955 69.621 68.815 74.026 75.142 74.649 74.096 72.738 71.319 69.049 68.146 72.311 75.916 73.966 68.374 66.699 66.335 68.57 72.366 71.885 71.299 70.086 68.68 67.636 65.319 65.026 64.961 64.911 65.005 63.085 62.638 62.703 62.744 62.689 62.755 62.879 62.965 63.329 63.14 62.315 61.844 62.513 66.56 67.553 67.151 65.869 62.894 59.498 58.734 58.681 61.679 62.566 61.386 60.707 57.916 64 66.469 65.096 63.571 62.186 62.751 63.201 57.253 54.637 57.411 60.12 60 59.82 62.468 63.164 63.116 60.881 61.542 58.397 58.248 57.109 56.392 54.353 53.152 53.294 53.316 53.279 55.984 59.708 60.392 53.652 56.345 55.717 58.864 56.69 52.909 52.733 56.132 59.886 57.182 63.665 68.678 68.279 58.57 52.005 67.357 59.462 67.043 57.787 64.567 63.67 64.432 63.1 63.778 52.84 51.638 57.435 60.616 57.651 51.544 50.21 49.94 49.858 49.879 50.591 50.026 49.795 49.717 49.652 49.613 49.62 49.655 49.555 49.555 49.525 49.583 49.668 49.633 49.732 49.845 49.895 49.913 49.905 49.908 49.876 49.845 49.844 49.809 49.785 49.762 49.745 49.6 49.546 49.551 49.625 49.674 49.726 49.857 49.916 50.104 50.143 50.1 50.05 50.057 49.954 49.847 49.709 49.56 49.357 49.108 48.801 48.868 48.452 47.781 47.416 46.723 46.592 47.746 47.759 48.115 48.181 48.031 47.938 48.01 48.103 48.224 48.211 48.72 49.084 49.447 49.711 49.818 50.257 50.468 50.771 50.934 51.196
94.096 94.993 93.955 93.873 93.928 93.983 94.319 94.805 96.061 94.421 94.833 94.327 93.948 93.502 94.466 93.412 93.977 94.147 94.156 96.508 97.566 98.032 98.065 98.048 98.117 98.027 96.645 93.436 98.18 98.207 98.198 98.179 98.235 98.18 98.224 97.46 96.148 93.264 93.179 93.548 93.031 92.611 92.332 92.145 92.026 91.741 91.64 91.486 92.293 91.184 91.121 91.062 91.389 91.081 91.303 91.098 92.296 91.913 90.282 90.268 91.237 94.013 94.357 95.203 95.194 95.183 95.205 91.838 90.488 90.061 90.005 89.948 89.667 89.167 88.997 88.826 91.384 88.231 87.82 87.495 87.341 87.354 87.177 87.17 87.774 90.827 91.848 89.209 87.255 86.723 86.594 86.502 86.437 86.416 86.228 86.211 86.212 86.326 86.381 86.248 85.421 86.427 88.095 89.038 83.786 89.966 90.308 83.626 80.992 79.855 79.749 86.278 89.612 91.776 92.361 90.952 85.38 82.283 82.326 82.634 87.178 88.455 89.296 85.083 82.938 82.882 82.774 83.756 87.401 84.717 82.396 82.429 82.804 89.062 88.357 84.156 82.261 82.05 82.079 84.525 82.005 82.013 81.843 86.855 88.085 87.282 84.372 81.955 81.649 81.654 81.636 81.496 81.467 81.44 87.864 87.149 85.531 81.102 80.694 80.621 80.767 80.398 80.333 80.304 85.096 86.52 85.704 80.715 87.722 85.161 80.288 79.843 79.553 79.542 79.391 79.225 79.18 79.129 79.066 78.718 78.719 79.463 81.683 78.821 78.556 82.245 83.81 83.536 77.559 76.84 76.759 76.685 76.664 76.432 76.149 75.916 79.587 78.338 80.239 81.496 80.57 75.413 75.158 74.976 75.992 74.824 74.711 74.274 73.908 73.356 73.089 73.089 73.061 72.905 72.728 72.632 72.674 72.715 72.72 72.828 72.999 72.92 72.612 72.438 72.129 71.924 71.657 71.517 71.307 71.115 71.325 70.99 70.785 70.622 70.323 69.567 68.947 70.01 75.068 74.848 74.21 73.095 68.689 68.373 73.088 75.95 73.476 68.889 67.181 66.728 66.418 66.925 71.081 72.055 71.457 70.98 66.867 65.456 65.314 65.058 65.049 65.103 64.63 63.152 62.666 62.768 62.803 62.866 62.859 62.878 63.359 63.378 62.632 62.405 61.978 61.558 67.795 67.554 67.164 66.317 60.278 58.995 58.949 60.822 63.174 62.573 61.61 58.575 64.027 68.83 66.974 58.742 62.628 62.027 58.446 57.035 55.002 59.124 57.498 60.821 60.198 62.506 62.93 66.332 65.394 57.057 60.271 57.749 54.46 56.111 58.071 53.674 54.956 53.361 54.957 57.512 58.878 60.328 56.101 55.507 59.353 59.641 61.606 59.422 59.403 56.41 60.08 52.866 64.991 70.114 68.391 55.769 67.966 68.459 69.889 68.018 59.738 65.148 66.677 65.649 63.067 62.192 50.368 51.133 59.068 62.076 59.303 50.321 49.938 49.639 49.547 51.521 50.968 50.049 49.996 49.838 49.799 49.638 49.646 49.66 49.603 49.605 49.493 49.509 49.528 49.591 49.675 49.589 49.792 49.912 49.938 49.957 49.9 49.836 49.805 49.785 49.745 49.768 49.636 49.509 49.493 49.494 49.486 49.577 49.648 49.685 49.79 49.902 50.09 50.115 50.112 50.063 50.033 49.938 49.784 49.654 49.448 49.263 48.946 48.963 48.591 48.401 47.603 47.722 47.318 47.279 47.691 48.089 48.222 48.048 47.929 47.977 48.027 48.081 48.253 48.507 48.735 49.08 49.363 49.579 50.264 53.411 51.482 51.416 51.099
93.69 93.701 93.775 93.802 93.832 93.964 94.38 94.354 93.976 94.017 94.133 94.159 94.148 94.814 94.664 95.006 94.351 93.332 93.135 93.154 94.207 96.427 96.646 97.574 98.002 97.915 95.567 93.559 94.591 98.084 98.141 98.177 98.192 98.175 98.228 98.218 98.225 97.815 96.516 96.161 95.172 93.2 92.805 92.228 92.123 91.954 91.742 92.034 91.598 91.22 91.191 91.191 91.055 91.977 91.491 91.119 91.076 92.445 90.684 91.213 90.315 90.134 91.568 94.142 95.186 95.208 92.437 90.508 90.212 90.574 90.076 90.134 89.792 89.673 93.322 98.024 96.639 91.151 88.267 87.874 87.619 87.444 87.426 87.021 86.934 89.472 91.777 87.734 86.78 86.787 86.68 86.713 86.657 86.574 86.328 86.343 86.317 86.492 86.47 86.341 85.776 84.989 85.431 92.481 93.997 94.851 92.729 88.485 80.879 80.176 80.18 89.861 90.899 90.888 90.546 89.194 84.377 82.354 82.561 83.001 87.626 88.723 87.139 83.4 82.705 82.943 83.21 83.063 86.748 88.668 82.672 82.602 84.503 88.888 88.134 84.268 82.477 82.352 86.446 85.887 82.342 82.313 82.524 87.899 87.921 86.924 82.045 81.984 81.762 84.162 82.061 81.626 81.49 82.858 87.65 86.8 82.432 81.271 80.98 82.395 85.162 81.391 80.438 80.417 86.381 86.421 84.227 80.269 80.751 82.967 81.474 79.922 79.813 79.794 81.471 84.125 79.36 79.14 79.108 79.035 79.009 78.821 78.652 78.486 81.193 84.177 84.699 84.472 76.931 77.199 77.059 76.799 76.764 76.536 76.236 76.044 76.883 77.276 81.124 81.464 80.206 75.63 77.658 80.115 80.51 75.014 74.885 74.697 74.355 74.04 73.649 73.588 73.269 73.013 73.074 72.739 72.734 72.764 72.772 72.959 72.872 72.972 72.967 72.72 72.473 72.286 72.004 71.725 71.497 71.342 71.33 71.413 71.065 70.859 70.53 70.045 69.582 68.903 70.052 75.162 74.937 73.422 70.084 68.552 68.537 73.213 72.739 71.507 69.49 68.865 67.597 66.673 65.861 68.83 71.882 71.618 70.911 65.689 65.573 65.325 65.279 65.106 65.16 65.277 63.025 62.83 62.842 62.879 62.939 62.881 62.953 63.151 63.131 63.115 62.627 62.256 62.901 66.298 67.748 67.168 65.876 60.206 59.906 60.907 61.603 63.895 61.341 60.954 64.259 67.43 65.622 63.325 63.825 60.543 59.111 58.07 56.64 57.738 60.419 61.538 61.391 61.396 65.29 64.841 59.802 65.719 56.171 59.464 63.314 60.675 54.53 56.161 56.035 53.615 52.835 56.787 58.387 59.298 59.514 58.379 59.307 61.253 61.297 57.651 54.048 59.149 52.685 51.753 64.994 58.743 62.776 60.174 67.536 62.118 68.488 63.68 56.281 56.441 67.415 67.648 65.259 63.745 63.453 58.995 61.847 62.008 53.636 51.009 50.382 49.623 49.882 50.32 50.955 51.994 50.024 51.04 49.924 49.919 49.735 49.592 49.599 49.605 49.582 49.462 49.471 49.484 49.559 49.582 49.597 49.666 49.872 50 49.836 49.817 49.749 49.75 49.714 49.703 49.464 49.479 49.472 49.436 49.425 49.465 49.529 49.557 49.685 49.771 49.816 50.02 50.119 50.091 50.043 49.988 49.905 49.772 49.631 49.401 49.186 48.932 48.839 48.496 47.937 47.368 47.131 46.732 47.32 47.897 48.286 48.142 48.035 47.905 47.964 48.005 48.063 48.174 48.342 48.637 48.883 49.358 50.472 55.082 52.634 50.636 50.731
94.149 94.126 93.988 93.826 93.864 93.906 93.929 94.007 94.025 93.991 94.026 94.066 94.046 94.193 94.182 94.476 94.577 94.25 93.994 93.745 93.417 93.182 93.826 93.47 94.129 97.193 95.258 93.798 93.158 93.169 94.664 97.176 98.156 98.226 98.262 98.209 98.218 98.219 98.224 98.289 97.789 94.302 94.768 92.953 92.774 92.122 91.934 92.062 91.795 92.241 91.549 91.225 91.162 92.008 91.126 92.29 91.168 92.549 91.312 90.548 90.229 90.225 90.173 90.191 91.506 94.168 91.895 90.43 90.911 90.273 90.157 90.022 90.054 89.923 96.231 99.43 99.513 93.722 88.585 88.351 87.916 87.648 87.446 87.546 87.262 88.522 87.11 86.837 86.832 86.773 86.771 86.747 86.824 86.726 86.43 86.447 86.449 86.662 86.438 86.197 85.514 84.941 89.516 94.823 96.01 96.048 95.635 89.119 82.152 80.415 80.449 89.097 88.334 90.109 87.193 86.816 83.428 82.514 82.787 83.021 87.711 88.805 89.376 82.938 88.889 86.104 84.23 83.359 88.033 87.665 83.428 82.898 87.519 88.775 88.039 84.371 82.554 82.389 83.497 83.159 82.503 82.519 83.065 89.414 88.568 87.627 82.394 82.19 82.032 83.726 84.092 82.671 81.809 86.164 87.437 86.61 82.913 81.427 81.051 81.903 83.396 82.541 80.718 80.526 86.869 86.099 82.874 80.33 80.443 85.44 85.904 83.282 80.142 80.085 85.927 86.163 85.28 79.951 79.493 79.145 79.264 79.031 78.846 78.59 79.22 83.411 84.111 84.513 80.026 78.005 77.503 77.314 76.846 76.777 76.625 76.418 76.481 76.425 76.278 76.285 75.798 75.508 78.191 80.988 81.648 77.239 74.884 74.886 74.801 74.585 74.295 74.069 73.303 73.396 73.339 73.161 72.923 72.762 72.815 73.09 73.277 72.855 72.973 73.01 72.829 72.622 72.351 72.05 71.816 71.602 71.33 71.478 71.159 70.942 70.794 70.268 70.108 70.667 69.678 68.867 75.118 74.865 69.005 68.733 68.646 68.549 71.654 71.33 70.707 68.444 67.058 66.862 66.704 66.197 70.9 72.16 66.443 65.943 65.803 65.55 65.393 65.39 65.211 65.22 64.532 63.682 62.928 62.921 62.992 63.026 63.038 63.045 63.212 63.304 63.245 62.958 62.14 61.596 65.186 67.746 67.348 66.757 62.347 59.913 59.609 63.488 63.58 64.691 62.535 62.953 62.758 60.189 62.569 62.058 59.298 55.789 55.52 61.684 61.358 62.831 61.878 61.577 63.181 66.202 66.522 65.696 58.232 62.96 63.904 59.907 54.998 56.643 56.483 53.193 53.344 55.911 56.875 57.875 58.778 55.685 56.053 53.685 57.594 58.253 56.152 53.008 50.433 50.15 54.545 67.479 60.101 70.481 63.026 68.739 68.066 51.385 50.008 54.481 64.954 67.007 63.209 63.444 64.06 63.051 61.064 54.235 51.461 51.929 50.246 50.002 50.468 50.139 49.626 50.58 50.221 50.12 50.103 49.873 49.749 49.737 49.577 49.561 49.565 49.562 49.465 49.421 49.461 49.505 49.535 49.544 49.594 49.81 49.79 49.783 49.783 49.726 49.581 49.432 49.459 49.394 49.417 49.405 49.412 49.402 49.422 49.476 49.542 49.611 49.747 49.829 49.929 50.098 50.085 50.039 49.953 49.856 49.791 49.571 49.313 49.12 48.852 48.663 48.347 47.558 47.016 46.684 47.654 47.235 48.081 48.102 48.05 47.895 47.826 47.947 48.019 48.069 48.123 48.387 48.686 49.098 50.028 53.66 50.838 50.355 50.58
94.249 93.922 93.924 93.93 93.975 93.937 93.956 93.946 93.978 94.017 94.062 94.056 94.1 94.106 94.121 94.155 94.189 94.283 94.321 94.35 93.753 95.107 93.863 94.743 93.468 94.153 95.084 93.568 93.644 93.175 93.148 93.152 94.201 94.49 97.18 98.122 98.249 98.24 98.301 98.278 98.225 98.241 97.255 93.334 92.968 92.3 92.576 91.476 91.575 92.073 91.32 91.27 91.228 91.211 91.198 91.153 91.221 91.622 90.994 90.266 90.301 90.891 90.245 90.335 90.304 90.25 90.346 93.419 93.98 90.516 90.47 90.23 90.044 90.01 96.364 98.576 99.497 94.793 88.944 88.709 88.342 88.04 87.706 87.594 87.494 87.129 86.986 86.926 86.907 86.886 86.943 86.969 86.97 86.714 86.581 86.595 86.621 86.716 86.582 86.397 86.019 89.818 93.484 95.277 94.042 97.08 96.153 91.335 81.642 80.645 87.942 89.84 89.813 87.364 90.079 87.705 82.724 84.023 84.378 84.106 82.983 83.803 84.32 84.691 88.031 83.596 84.033 83.158 84.689 83.433 83.483 83.562 89.624 89.498 86.742 82.908 82.851 83.845 83.415 82.666 82.789 82.86 87.635 89.436 88.436 83.526 82.767 82.28 82.76 82.561 82.928 82.78 82.504 87.058 88.29 86.449 81.855 81.669 81.465 83.139 81.651 81.657 81.6 85.261 87.531 86.087 81.163 80.657 81.328 84.441 85.478 81.129 80.318 80.418 85.953 85.901 82.71 80.11 79.953 79.365 79.335 79.37 79.169 78.742 78.502 79.174 83.261 84.042 84.51 81.397 79.458 77.746 77.231 76.905 76.858 76.778 76.727 76.569 76.368 76.163 75.855 78.323 80.992 81.521 78.436 75.441 75.816 75.04 74.985 74.929 74.701 74.3 74.13 73.925 73.711 73.402 73.155 73.044 72.815 72.83 72.846 72.84 72.894 72.981 73.137 72.908 72.645 72.337 72.063 71.826 71.578 71.547 71.441 71.242 70.866 70.681 70.499 70.087 70.958 69.686 70.182 70.715 69.686 69.204 68.919 68.678 68.963 71.688 72.131 68.155 67.372 67.117 66.986 66.684 65.932 67.953 68.059 66.455 66.137 65.87 65.596 65.634 65.491 65.314 65.241 65.24 65.135 63.028 62.998 63.049 63.108 63.601 63.289 63.263 63.415 63.288 62.71 62.187 61.708 62.638 67.55 62.117 60.668 60.131 59.898 62.897 66.012 65.188 65.303 59.507 59.038 59.547 57.877 59.323 58.084 57.996 56.888 60.155 62.042 61.21 61.715 60.618 58.703 65.386 66.085 66.136 64.294 64.459 65.413 61.113 56.894 57.59 56.083 53.696 53.056 52.798 55.771 58.39 53.527 56.579 52.923 52.612 57.118 62.033 64.326 50.935 52.105 50.003 62.656 65.659 69.992 70.803 59.927 57.128 53.576 52.979 56.475 59.168 64.864 65.239 63.217 62.782 61.518 60.34 57.248 50.669 51.15 51.435 52.145 52.548 51.818 49.873 50.863 50.856 51.009 51.096 50.887 50.099 49.906 49.659 49.768 49.64 49.524 49.572 49.575 49.462 49.428 49.421 49.461 49.483 49.528 49.52 49.572 49.62 49.57 49.514 49.479 49.443 49.418 49.425 49.36 49.345 49.369 49.486 49.517 49.369 49.44 49.551 49.647 49.659 49.797 49.88 50.079 50.084 50.068 49.996 49.87 49.71 49.515 49.287 48.913 48.755 48.464 48.216 47.411 46.705 46.738 47.357 47.467 47.959 48.074 48.146 47.876 47.854 47.908 47.945 48.101 48.286 48.485 48.867 49.086 49.584 49.803 51.625 51.984
99.475 94.481 94.16 94.797 94.335 94.394 94.1 94.062 94.095 94.14 94.146 94.071 94.12 94.081 94.125 94.14 94.149 94.194 94.22 94.221 94.294 94.521 95.494 95.36 95.113 94.441 93.972 93.698 93.935 93.547 93.79 93.266 93.42 93.21 93.107 94.122 97.29 98.151 98.264 98.225 98.24 98.215 97.269 93.125 93.403 92.44 92.245 91.816 92.01 91.489 91.364 91.276 91.317 91.285 91.19 91.208 91.298 91.677 91.787 90.385 90.371 90.404 90.308 90.379 90.407 90.393 90.673 96.151 95.871 91.534 90.629 90.597 90.138 90.825 91.724 97.56 97.212 90.33 89.238 88.979 88.709 88.468 88.134 87.814 87.618 87.574 87.34 87.086 86.991 87.074 87.118 87.271 87.052 86.789 86.794 86.694 86.742 86.811 86.779 86.392 85.992 89.011 92.824 95.297 95.705 97.125 95.523 88.658 81.957 85.826 91.09 92.857 93.147 91.007 88.261 86.977 83.612 84.345 84.654 84.642 84.451 84.398 83.593 83.195 84.195 83.572 83.742 83.545 83.484 83.506 83.573 84.686 90.192 89.484 85.408 83.399 83.029 85.372 84.673 82.961 82.938 82.899 86.9 89.062 88.265 84.369 82.865 82.498 84.349 82.645 82.543 82.627 82.745 89.16 88.451 84.361 82.678 84.095 82.724 81.641 81.628 81.654 81.614 86.422 87.788 86.877 81.305 81.008 81.029 82.856 80.909 80.769 80.358 80.316 86.237 85.511 81.787 80.371 80.11 79.749 79.405 79.509 79.379 79.082 78.904 83.739 79.436 83.236 83.831 84.384 83.514 78.498 77.833 78.301 77.604 76.907 76.83 76.689 76.392 76.55 76.411 81.824 81.462 82.014 76.569 75.544 75.672 75.483 75.123 75.008 74.881 74.771 74.679 74.399 74.118 73.755 73.477 73.363 73.115 72.914 72.923 72.905 72.901 72.852 73.005 73.151 73.013 72.687 72.407 72.043 71.896 71.653 72.424 71.623 71.125 71.128 70.819 70.602 70.981 70.484 70.038 70.03 69.82 69.595 69.303 68.971 69.105 69.622 68.476 68.212 67.965 67.681 67.165 67.025 67.59 67.216 68.969 67.445 66.519 66.095 65.855 65.739 65.718 65.581 65.364 65.27 65.301 64.791 63.146 63.049 63.118 63.187 63.21 63.189 63.323 63.452 63.44 62.906 62.286 62.067 61.648 61.542 61.142 60.854 60.237 62.775 63.958 60.315 62.148 59.226 58.411 57.801 57.784 58.279 58.392 58.289 57.903 60.609 62.183 60.931 60.709 58.237 60.758 62.084 63.944 63.457 64.858 67.496 68.026 66.86 61.161 57.973 60.264 57.166 54.33 52.925 56.843 58.93 58.305 59.502 53.462 54.579 57.194 63.942 59.875 55.932 58.858 51.06 56.439 66.659 68.381 67.727 60.362 66.104 55.537 55.897 54.141 61.652 63.978 62.476 55.461 53.528 53.352 52.112 51.352 52.696 52.653 51.463 52.125 51.309 53.317 50.881 50.086 50.671 51.251 50.995 51.862 51.521 50.594 49.735 49.82 49.731 49.635 49.531 49.538 49.523 49.476 49.384 49.412 49.402 49.444 49.519 49.568 49.546 49.508 49.475 49.452 49.422 49.397 49.342 49.332 49.368 49.573 49.612 49.923 49.605 49.546 49.448 49.519 49.6 49.729 49.758 49.876 50.081 50.098 50.084 49.985 49.817 49.687 49.469 49.179 48.878 48.678 48.33 47.979 47.438 46.678 46.584 47.349 47.543 47.955 48.12 47.918 47.857 47.885 47.978 48.041 48.135 48.37 48.674 48.997 49.245 50.497 53.744 53.91
99.761 94.02 94.102 94.117 94.055 94.073 94.138 94.185 95.17 95.171 95.176 94.216 94.172 94.221 94.168 94.126 94.15 94.248 94.22 94.274 94.273 94.281 94.297 94.356 94.71 94.493 94.488 94.249 94.25 94.582 93.87 95.215 94.47 93.899 93.626 93.497 93.277 94.004 94.927 98.094 98.264 98.159 94.823 94.056 92.86 92.623 92.38 92.41 92.333 91.624 91.406 91.312 91.303 91.268 91.294 91.234 91.314 91.426 92.03 92.339 91.568 90.339 90.528 90.49 90.53 90.705 95.528 96.59 96.705 96.285 92.55 90.485 90.532 90.186 89.97 90.821 90.437 89.708 89.482 89.346 94.677 89.038 88.565 88.141 87.876 87.775 87.725 87.642 87.372 87.383 87.349 87.326 87.172 87.024 86.919 86.864 87.001 86.97 86.901 86.927 86.039 87.774 91.229 93.829 93.803 94.271 90.785 85.743 81.354 89.364 92.767 94.939 95.053 92.623 88.744 84.264 86.779 88.272 85.363 84.922 84.803 84.908 84.519 84.395 84.178 84.198 83.796 83.669 83.629 83.656 83.64 87.761 89.927 89.122 85.481 83.537 83.286 90.178 86.677 83.594 83.841 84.037 89.7 88.957 88.095 83.156 82.891 82.724 85.551 83.423 82.896 82.792 86.253 89.087 88.236 85.137 82.998 82.365 83.68 82.628 81.913 81.841 82.122 88.386 87.555 85.156 81.677 81.37 81.07 82.344 81.583 81.36 81.15 85.007 86.303 85.426 81.03 80.281 80.092 79.85 79.572 79.581 79.624 84.65 84.733 78.739 78.761 79.752 80.948 83.679 84.318 84.605 80.893 77.896 77.479 77.683 76.996 76.659 76.645 78.08 81.597 82.736 83.325 78.837 75.805 75.647 75.732 76.496 75.914 75.306 75.018 75.06 74.999 74.722 74.508 74.104 73.872 73.612 73.377 73.032 72.933 72.928 72.91 72.911 72.881 73 73.106 73.058 72.75 72.374 72.12 71.982 71.777 71.691 71.521 71.413 71.05 70.917 71.071 75.172 73.557 70.432 70.21 69.934 69.754 69.368 69.107 68.739 69.514 68.931 68.241 67.904 67.573 72.041 69.294 68.309 67.351 68.692 68.503 66.553 66.191 65.864 65.888 65.832 65.659 65.426 65.385 65.405 64.96 63.282 63.116 63.226 63.257 63.304 64.046 63.536 63.539 63.46 63.127 62.593 62.623 62.389 61.852 61.299 60.731 60.371 60.495 65.538 66.581 63.169 62.006 58.382 57.909 58.205 58.234 57.932 58.055 59.49 61.388 59.585 58.837 60.707 59.086 60.125 61.163 65.073 66.329 69.678 68.639 67.472 63.248 66.54 64.988 62.015 58.461 56.289 58.075 58.853 57.116 63.81 55.422 55.545 62.499 62.491 64.458 64.533 53.234 60.653 64.122 65.918 67.211 67.837 58.412 57.049 57.643 61.169 58.797 60.181 62.49 52.01 51.279 51.589 52.072 51.859 52.853 53.321 53.258 52.616 52.416 50.498 52.258 49.919 51.863 51.81 51.458 53.22 53.379 52.291 51.491 52.513 50.809 50.707 50.364 49.706 49.526 49.532 49.533 49.472 49.324 49.338 49.377 49.422 49.488 49.567 49.525 49.475 49.446 49.4 49.407 49.389 49.327 49.561 49.619 49.66 49.709 49.697 49.611 49.45 49.4 49.463 49.556 49.637 49.714 49.855 50.072 50.06 49.989 49.902 49.765 49.607 49.348 49.047 48.806 48.63 48.398 47.596 46.918 46.53 46.684 47.679 48.158 48.035 47.949 47.837 47.84 47.89 48.034 47.983 48.238 48.505 48.773 49.126 49.456 53.283 53.296
96.705 93.951 94.082 94.119 94.078 94.099 94.153 94.134 94.192 94.191 94.262 94.368 94.381 94.501 94.337 94.276 94.262 94.205 94.214 94.247 94.276 94.269 94.342 94.281 94.349 94.761 94.445 94.567 94.484 94.479 94.442 94.805 94.628 94.499 94.047 93.881 93.35 94.003 93.445 93.205 94.638 95.913 95.731 95.053 92.998 92.683 92.523 92.126 91.934 91.551 91.477 91.337 91.245 91.284 91.39 91.262 91.282 91.253 91.288 91.677 91.393 90.795 90.625 90.492 91.397 94.558 96.194 96.653 97.161 96.933 96.32 94.35 93.814 92.465 90.183 89.957 89.897 89.873 89.641 94.254 98.444 97.813 92.982 88.558 88.287 88.053 87.89 87.869 87.831 87.744 87.602 87.377 87.224 87.116 87.079 87.084 87.133 86.946 86.805 86.444 86.233 85.565 90.393 90.983 91.53 92.191 83.071 82.336 87.873 92.182 93.898 91.458 94.572 91.2 85.193 84.064 88.429 89.498 87.409 84.988 85.24 84.87 84.889 85.387 85.265 84.852 84.867 84.388 83.746 83.721 84.143 89.742 89.733 86.428 83.762 83.578 83.302 86.735 84.764 83.624 83.945 87.745 90.643 89.69 86.203 83.605 83.115 83.924 86.27 84.481 84.969 83.598 88.824 88.8 87.839 83.301 82.629 82.345 83.183 82.743 82.501 82.16 82.728 88.266 87.342 83.642 81.699 81.52 82.441 82.893 81.444 81.382 81.464 87.302 87.233 84.384 80.524 80.452 80.3 80.113 79.996 79.667 79.666 81.129 82.497 85.499 81.23 78.725 79.056 82.308 83.641 84.168 83.981 79.861 78.59 77.487 77.032 76.826 76.951 81.348 82.691 83.055 78.683 76.833 76.652 78.338 79.916 75.804 76.344 76.384 76.744 75.076 75.157 75.038 74.757 74.492 74.22 73.962 73.547 73.115 73.033 72.979 72.96 72.957 72.942 72.942 73.049 73.112 73.07 72.782 72.43 72.226 71.973 72.066 72.237 71.614 71.484 71.091 76.098 76.399 76.029 72.878 70.62 70.205 69.971 69.844 69.383 69.051 69.023 68.844 68.564 68.151 67.948 73.592 73.14 71.829 68.964 67.408 68.562 68.985 67.115 66.127 65.983 66.01 65.983 65.772 65.524 65.433 65.417 65.102 63.621 63.22 63.317 63.371 63.423 63.512 63.453 63.63 63.679 63.52 63.376 63.035 62.561 62.073 61.385 61.039 62.907 69.014 68.463 67.198 64.608 63.635 62.409 58.846 57.893 58.456 58.459 58.008 59.904 59.619 62.091 62.197 60.638 58.672 62.023 65.514 67.398 69.861 70.288 65.44 69.21 68.207 66.802 63.62 61.493 65.553 66.95 71.365 67.401 61.48 60.494 58.836 61.021 63.864 64.475 63.332 64.446 60.6 63.989 65.649 66.345 65.965 63.75 57.429 63.627 60.105 57.34 54.267 51.174 51.493 51.685 51.238 51.758 51.505 50.77 53.06 51.355 50.257 49.681 50.13 52.951 51.564 51.916 51.679 52.4 53.055 53.311 50.969 49.358 53.208 52.704 51.532 50.16 50.225 49.641 49.568 49.5 49.519 49.425 49.31 49.326 49.386 49.339 49.419 49.505 49.531 49.49 49.439 49.434 49.384 49.408 49.581 49.646 49.662 49.702 49.673 49.658 49.56 49.386 49.414 49.442 49.521 49.592 49.719 49.861 50.024 50.016 49.954 49.821 49.781 49.487 49.224 48.946 48.806 48.448 48.104 47.872 46.814 46.668 47.804 47.348 47.783 47.909 47.829 47.804 47.815 47.853 47.958 48.246 48.574 48.675 48.841 49.2 49.51 51.464
95.25 94.216 94.245 94.174 94.128 94.278 94.484 94.14 94.293 94.174 94.207 94.286 94.453 94.394 94.422 94.608 94.285 94.342 94.363 94.308 94.342 94.253 94.259 94.289 94.363 94.633 95.406 94.4 94.375 94.504 95.205 94.724 94.484 94.402 94.464 94.455 94.291 95.234 93.672 93.236 93.254 93.412 94.625 93.553 93.097 92.902 92.23 91.842 91.706 91.435 91.903 91.567 91.425 91.614 92.504 91.891 91.278 91.206 91.184 91.212 91.456 91.728 90.968 90.743 90.957 90.717 93.473 96.022 96.475 97.065 96.992 96.456 95.671 93.695 90.808 90.267 89.956 89.835 89.909 97.138 98.753 98.068 91.917 88.763 88.47 88.376 88.159 88.08 87.901 87.822 87.587 87.469 87.382 87.211 87.277 87.279 87.245 87.11 86.659 87.295 87.716 88.276 88.122 85.099 84.3 83.693 82.098 81.96 88.454 94.101 93.117 94.453 94.744 92.027 86.159 84.159 84.852 86.683 85.39 85.103 84.859 84.896 84.896 85.116 85.304 84.906 84.963 84.963 84.544 84.146 83.795 86.333 89.235 86.077 83.914 83.849 84.932 84.314 83.833 83.89 83.974 86.838 90.277 89.541 85.823 84.884 83.587 84.527 85.503 86.2 86.895 86.059 89.293 88.554 87.741 82.958 82.839 83.398 82.871 82.91 83.005 82.927 86.606 88.977 88.084 82.167 82.015 81.747 82.028 82.591 81.911 81.622 81.545 87.804 87.168 86.457 80.992 80.623 80.391 80.362 80.149 79.995 79.734 79.801 80.257 80.215 79.511 79.057 78.763 78.485 81.883 83.501 84.089 84.485 80.365 78.451 77.796 78.55 81.83 82.785 83.136 81.193 77.731 76.762 76.794 79.036 80.219 77.086 75.581 75.75 76.024 75.589 75.077 75.14 75.108 74.919 74.661 74.314 73.602 73.48 73.112 73.034 73.007 72.997 72.994 72.944 72.97 73.041 73.201 73.136 72.758 72.53 72.35 74.068 73.746 72.037 73.225 71.442 72.607 76.961 76.467 75.972 72.475 70.458 70.184 69.93 69.747 69.459 69.114 69.039 68.805 68.353 68.238 72.93 73.797 73.28 70.644 68.398 67.321 67.51 68.044 66.83 66.148 66.196 66.109 65.961 65.851 65.751 65.492 65.361 65.156 63.722 63.308 63.376 63.468 63.496 63.514 63.536 63.645 63.683 63.723 63.597 63.097 62.71 62.15 61.528 61.939 68.774 70.296 69.561 70.411 64.654 59.701 59.773 58.666 59.091 58.755 60.43 62.314 62.833 61.649 61.544 59.758 59.817 58.301 64.343 68.173 69.756 68.367 67.751 68.005 62.954 69.544 61.587 64.7 67.929 62.246 70.951 61.646 66.3 65.764 69.117 55.587 54.4 57.237 58.833 60.231 58.261 57.548 63.378 57.664 64.321 62.354 60.333 56.921 57.027 53.658 52.522 51.405 51.608 51.809 52.143 51.919 51.137 50.986 52.264 51.175 51.009 49.531 49.628 52.627 52.087 52.505 51.758 53.038 52.934 53.4 50.766 52.226 53.079 50.784 51.229 49.888 50.214 49.595 49.728 49.566 49.478 49.457 49.329 49.257 49.254 49.337 49.346 49.417 49.49 49.515 49.49 49.41 49.369 49.389 49.521 49.598 49.648 49.679 49.743 50.2 50.553 49.586 49.403 49.368 49.468 49.51 49.573 49.73 49.904 50.005 49.999 49.937 49.828 49.618 49.452 49.107 48.912 48.452 48.297 48.087 47.475 47.161 46.394 46.923 47.366 47.811 48.027 47.812 47.823 47.873 47.971 48.075 48.414 48.491 48.716 49.117 49.454 49.985
95.542 95.321 95.282 95.375 94.867 96.105 95.585 94.447 94.55 94.205 94.156 94.59 94.454 94.426 94.335 94.293 94.279 94.382 95.428 94.672 95.392 94.435 94.343 94.292 94.293 94.337 94.41 94.385 94.421 94.433 94.436 94.602 94.433 94.393 94.436 94.455 94.478 94.774 94.364 93.959 93.589 93.388 94.394 93.485 94.096 92.932 92.532 92.345 91.691 91.943 92.644 92.143 92.688 92.023 91.504 91.374 91.185 91.23 91.147 91.109 91.638 91.223 91.304 92.909 91.219 91.039 90.522 90.872 95.711 96.513 96.917 97.179 96.626 95.154 91.603 90.832 90.289 89.943 89.822 90.525 98.127 93.598 89.996 88.926 88.711 88.525 88.398 88.325 88.126 87.821 87.734 87.661 87.524 87.474 87.5 87.377 87.286 87.373 87.75 89.744 90.36 88.804 89.556 86.201 83.174 82.511 82.349 82.218 86.47 87.986 87.599 87.577 91.052 86.878 85.118 84.315 84.594 84.875 85.207 85.206 84.885 84.889 84.913 84.931 84.937 84.957 84.972 84.999 85.032 84.766 84.423 84.124 84.041 83.899 83.876 83.911 85.371 84.455 84.073 84.186 84.15 88.807 90.16 89.27 84.403 83.91 83.661 84.552 83.839 84.271 84.451 85.672 90.557 89.554 84.302 83.041 82.994 82.963 83.485 83.033 82.953 83.137 89.138 89.131 88.337 83.137 82.318 82.058 82.95 82.345 81.893 81.492 81.592 87.732 86.928 82.861 81.145 80.909 80.673 80.678 80.442 80.25 80.101 79.876 80.294 80.069 79.744 79.305 79.275 78.878 78.62 79.542 83.048 83.923 84.472 82.919 78.503 81.083 83.734 84.454 84.36 80.244 78.645 77.105 76.809 77.174 78.035 76.046 76.709 76.034 75.907 75.866 75.741 75.407 75.166 75.151 74.925 74.474 76.805 78.96 73.374 73.101 73.082 73.045 73.025 73.001 73.011 72.998 73.051 73.164 73.146 72.861 72.594 73.997 74.322 75.053 74.452 72.659 70.996 71.867 77.004 76.694 76.073 74.221 70.691 70.22 69.949 69.743 69.365 69.442 69.316 71.141 69.312 67.716 72.916 73.9 73.312 72.184 68.728 67.6 67.506 68.244 66.474 66.302 66.341 66.179 66.078 65.966 65.761 65.528 68.073 64.512 63.535 63.436 63.474 63.541 63.589 63.606 63.639 63.702 63.753 63.878 63.804 63.331 62.816 62.003 61.708 64.735 63.354 71.334 65.417 68.676 63.343 59.757 59.306 59.594 61.589 63.38 62.468 61.446 61.075 59.866 57.894 56.271 55.993 58.397 64.001 67.782 66.703 60.886 65.257 67.935 59.255 68.931 67.672 70.151 70.301 69.738 69.14 63.659 71.021 58.015 55.013 52.497 62.614 58.037 52.607 52.814 56.132 58.764 59.676 61.38 60.1 57.032 53.437 52.552 52.457 51.901 51.768 51.687 51.444 51.074 51.327 52.005 50.554 50.249 50.177 50.521 49.723 49.511 50.986 51.754 50.665 53.122 53.447 53.51 52.859 50.774 50.846 52.214 50.978 52.512 49.986 49.941 50.186 49.902 49.495 49.62 49.398 49.418 49.215 49.202 49.24 49.3 49.368 49.436 49.453 49.465 49.458 49.412 49.344 49.514 49.635 49.654 49.709 49.768 52.238 52.557 49.704 49.401 49.337 49.365 49.424 49.487 49.596 49.678 49.802 50.044 49.949 49.887 49.885 51.959 49.946 49.062 48.843 48.546 48.085 47.739 47.097 46.561 46.375 47.132 47.637 47.89 47.904 47.762 47.855 47.907 47.933 48.134 48.363 48.747 49.053 49.424 49.561
99.483 98.588 96.607 96.379 95.799 95.569 95.282 95.636 95.219 95.289 95.325 95.24 94.911 95.074 94.769 94.433 94.38 94.445 94.979 94.902 95.39 94.854 94.457 95.455 94.429 94.416 94.423 94.35 94.48 94.462 94.435 94.476 94.515 94.532 94.48 94.41 94.49 94.45 94.41 94.512 94.297 94.023 93.72 95.539 94.448 93.083 92.869 93.321 93.59 93.346 91.724 92.629 91.737 91.658 91.541 91.922 91.354 91.186 91.694 91.349 91.133 91.092 91.187 91.372 93.026 92.412 91.016 90.681 91.513 95.706 96.316 96.918 97.104 96.758 96.35 94.429 92.019 91.797 90.036 89.754 90.49 89.615 89.741 89.119 88.964 88.765 88.566 88.358 88.208 87.977 87.878 87.729 87.674 87.761 87.627 87.474 87.354 87.666 90.03 90.399 91.346 91.406 87.703 83.969 82.971 82.763 82.63 82.436 87.273 89.615 89.262 86.405 85.277 85.132 84.898 84.725 84.889 84.9 84.902 84.89 84.931 84.927 84.969 84.985 84.951 84.923 84.897 84.922 84.944 84.921 84.952 84.926 84.786 84.532 84.62 84.37 84.083 84.143 84.042 84.114 84.634 89.893 89.935 88.971 84.2 84.032 85.502 85.976 84.191 83.976 84.03 87.606 90.362 89.364 84.848 83.578 84.593 86.535 86.059 83.196 83.054 83.178 89.505 88.785 88.136 83.444 82.617 83.138 83.012 82.278 82.065 81.532 85.137 87.567 86.462 82.047 81.315 81.053 80.953 80.945 80.613 80.505 80.307 80.103 80.388 80.703 81.555 80.875 80.393 79.761 79.383 78.559 79.37 83.105 83.837 82.939 82.484 83.808 84.258 84.625 79.58 79.926 79.78 77.444 76.9 77.075 76.568 77.966 77.283 76.338 76.131 75.951 75.858 77.28 76.899 75.291 75.152 76.607 78.696 79.306 78.91 74.595 73.154 73.116 73.08 73.051 73.062 73.039 73.017 73.081 73.161 73.148 72.897 72.614 73.058 73.753 72.816 72.197 71.535 70.847 70.984 77.136 76.782 76.271 73.44 72.098 73.095 70.445 69.568 69.379 70.217 70.861 69.328 68.406 68.139 69.85 73.806 73.44 72.949 69.823 68.87 69.435 67.99 66.811 66.497 66.455 66.314 66.324 66.008 65.801 65.929 65.272 63.976 63.56 63.508 63.522 63.572 63.644 63.657 63.753 63.752 63.839 63.961 63.84 63.381 62.808 62.243 61.444 65.845 71.461 71.687 69.643 68.6 60.673 59.769 59.314 60.526 63.193 61.602 60.966 62.422 61.529 58.163 56.709 56.259 59.412 65.342 66.328 65.06 61.45 69.741 63.791 64.237 68.743 68.606 69.799 60.238 58.761 73.886 69.693 72.453 65.509 54.735 61.96 54.136 52.598 52.302 54.885 56.353 54.864 57.391 57.438 57.031 52.543 53.149 52.399 52.613 52.343 52.034 51.623 51.757 52.268 51.523 52.678 51.174 50.34 51.108 50.946 50.578 49.578 49.819 50.237 49.674 51.313 51.378 53.3 51.262 51.804 50.806 52.387 51.01 53.283 50.302 52.452 52.249 50.058 49.246 49.401 49.428 49.392 49.224 49.145 49.22 49.249 49.297 49.343 49.37 49.429 49.448 49.378 49.34 49.347 49.537 49.624 49.652 49.704 51.814 53.03 50.627 49.578 49.478 49.277 49.328 49.39 49.506 49.57 49.691 49.83 50.009 49.927 52.945 54.333 53.125 50.323 52.928 51.199 48.814 48.276 48.059 46.631 46.444 46.978 47.419 47.945 47.903 47.829 47.825 47.834 47.83 48.226 48.294 48.635 48.945 49.195 49.418
100.378 100.389 100.371 100.383 100.396 99.995 99.977 99.03 98.613 97.716 96.288 95.437 95.347 95.912 95.502 95.409 94.526 95.994 94.52 95.3 94.567 94.372 94.408 95.272 94.735 97.51 97.77 94.974 94.435 94.442 94.529 94.546 94.551 94.558 94.536 94.617 95.706 95.174 94.488 94.489 95.215 94.307 93.972 94.406 93.051 98.398 96.926 93.049 93.377 93.293 92.542 93.157 91.483 91.436 91.761 91.378 91.556 92.047 91.612 92.171 91.49 91.115 91.066 91.064 91.502 91.662 91.762 91.439 90.557 90.535 93.598 96.209 96.598 97.216 96.851 96.436 95.273 93.642 90.918 89.94 89.718 89.596 89.504 89.273 89.105 89.783 88.621 88.34 88.186 88.08 88.029 87.963 87.977 87.961 87.732 87.539 87.87 88.871 90.793 93.296 94.085 92.996 91.748 85.168 83.13 82.935 82.875 82.821 92.879 95.168 89.579 88.061 85.692 85.411 85.122 84.977 85.025 85.284 85.269 84.961 84.936 84.958 84.949 84.977 84.985 84.968 84.938 84.942 84.946 84.927 84.939 84.997 84.969 85.045 85.066 85.137 85.03 84.706 84.564 84.362 84.182 84.536 85.196 85.603 84.251 84.07 85.597 85.177 84.247 84.178 84.351 90.171 90.166 89.405 85.082 83.891 86.527 87.096 86.781 85.242 83.883 83.61 89.499 88.709 84.646 82.967 82.702 83.348 83.006 82.912 82.799 82.615 87.952 87.574 86.48 82.044 81.575 81.293 81.294 81.192 80.961 80.769 80.554 80.413 80.193 80.485 82.809 85.02 83.755 80.5 79.788 78.859 78.582 78.473 80.207 80.831 83.508 84.176 84.749 78.471 78.316 78.584 77.748 78.073 78.406 77.144 76.927 78.507 77.53 77.363 76.249 76.225 80.853 82.628 81.794 77.056 76.189 76.787 77.719 78.645 79.105 79.497 73.762 73.2 73.144 73.099 73.099 73.095 73.076 73.045 73.094 73.204 73.264 72.927 72.54 73.084 72.953 74.55 73.529 71.551 71.125 71.765 75.954 76.879 76.334 75.446 74.239 71.275 69.832 69.562 70.708 71.048 69.343 68.486 68.488 67.71 69.067 73.752 73.581 73.077 70.533 70.012 67.203 66.725 66.543 66.648 66.628 66.454 66.309 66.083 65.951 65.753 65.607 65.399 65.116 63.675 63.606 63.694 63.72 63.767 63.805 63.845 63.896 64.017 63.952 63.649 62.847 62.132 64.903 69.12 70.887 71.345 70.854 68.805 63.688 62.799 61.819 66.266 65.306 65.838 65.236 64.44 63.304 62.077 61.567 60.946 66.622 67.158 68.755 69.803 68.869 68.168 68.557 69.908 67.474 65.917 64.663 68.416 71.645 66.567 73.1 54.359 52.171 54.077 51.758 53.513 54.33 59.476 59.005 56.284 56.98 55.231 52.823 52.259 52.164 52.563 53.264 52.871 52.303 51.866 51.706 51.728 51.762 52.136 51.927 50.957 49.868 50.879 50.454 49.577 49.474 50.494 50.02 50.186 50.168 53.165 50.652 52.92 52.168 53.192 50.867 51.114 50.281 50.589 50.444 50.073 49.362 49.282 49.324 49.395 49.274 49.181 49.143 49.115 49.209 49.274 49.299 49.385 49.461 49.451 49.35 49.299 49.343 49.535 49.56 49.593 49.633 51.758 50.466 49.634 49.577 49.326 49.274 49.315 49.382 49.487 49.557 49.697 49.917 49.949 51.238 54.793 50.377 53.901 50.735 48.782 49.284 49.435 48.617 47.484 46.586 46.402 47.543 47.319 47.829 47.995 47.881 47.805 47.818 48.144 48.195 48.663 48.9 49.105 49.374
100.379 100.397 100.351 100.349 100.361 100.363 100.345 100.374 100.362 100.34 100.327 95.889 95.986 100.056 98.704 95.984 95.986 96.59 95.891 95.699 94.785 94.409 94.617 94.924 94.697 97.059 97.173 95.237 94.51 94.51 94.5 94.514 94.569 94.619 94.58 94.591 94.578 94.597 94.606 95.095 94.37 94.186 93.867 95.661 97.785 99.119 99.086 98.514 96.727 93.29 92.772 92.666 92.032 91.543 91.609 91.349 91.388 92.098 91.563 91.316 91.135 91.082 91.07 91.054 91.054 91.235 91.124 91.129 92.656 90.749 90.527 94.666 96.05 96.639 97.054 97.01 96.519 95.809 90.865 90.297 89.916 89.616 89.45 89.382 89.191 88.851 88.676 88.423 88.34 88.175 88.192 88.161 88.18 88.044 87.894 87.619 87.691 89.014 90.148 91.949 94.586 89.594 94.346 87.288 83.587 83.23 83.23 87.119 93.392 90.225 95.014 92.641 86.609 85.69 85.331 85.139 86.698 93.996 93.43 85.201 85.063 85.007 85.01 85.006 85.015 85.004 85.001 84.922 84.941 84.936 84.966 85.007 85.037 85.015 85.059 85.123 85.136 85.379 85.217 85.134 85.053 84.871 84.536 84.455 84.206 84.205 84.606 87.275 86.861 85.221 84.69 90.65 89.897 85.956 84.128 84.013 86.408 86.708 85.552 84.359 84.327 89.287 90.222 89.226 84.086 83.245 83.097 83.302 82.856 82.917 82.627 82.71 89.29 88.375 84.145 81.793 81.92 81.601 81.642 81.437 81.207 81.016 80.893 80.752 80.421 80.279 80.666 83.459 81.829 81.124 79.502 80.18 80.701 79.489 78.893 78.502 83.082 84.419 79.065 78.229 78.161 78.205 79.484 79.201 77.961 77.311 77.11 80.145 79.779 76.781 76.24 76.917 81.864 82.09 78.763 75.716 75.364 75.371 77.988 76.381 78.515 79.089 79.637 76.434 73.34 73.169 73.121 73.103 73.096 73.105 73.113 73.092 73.257 73.284 72.97 73.006 73.264 73.102 73.811 72.083 71.99 71.231 70.514 73.419 76.85 76.515 75.713 70.751 70.027 69.867 69.796 70.999 69.537 68.992 69.407 68.856 68.338 72.205 73.252 73.64 73.077 71.72 70.439 67.115 66.709 66.795 66.849 66.704 66.522 66.404 67.085 66.057 66.408 65.787 65.681 65.27 63.779 63.699 63.771 63.803 63.881 63.933 63.966 63.995 64.128 64.052 63.644 62.786 62.202 63.619 66.835 70.281 69.954 68.368 65.977 65.385 60.417 66.089 66.629 66.869 67.492 66.096 66.2 66.755 64.201 62.875 66.25 65.903 70.247 67.263 68.286 69.524 70.405 69.775 67.56 59.735 57.444 60.896 69.827 63.42 62.185 55.875 55.042 64.141 55.567 59.156 60.935 60.157 60.364 58.26 54.742 52.676 52.555 52.353 52.371 52.353 53.35 53.343 52.912 52.565 52.387 51.68 51.905 51.981 52.106 52.476 50.316 50.839 51.355 49.691 49.489 49.479 50.761 49.939 52.109 53.282 52.336 53.066 51.919 50.546 49.847 49.73 49.581 50.385 49.165 49.27 49.221 49.37 49.243 49.251 49.277 49.265 49.152 49.122 49.147 49.18 49.264 49.279 49.333 49.409 49.412 49.348 49.303 49.444 49.535 49.535 49.586 50.518 50.205 49.639 49.639 49.533 49.273 49.272 49.308 49.343 49.464 49.552 49.688 49.89 50.442 50.193 51.39 54.443 50.408 49.239 51.606 54.98 50.765 48.158 47.231 46.522 46.759 47.033 47.563 47.886 47.934 47.881 47.801 47.998 48.154 48.482 48.676 48.965 49.056
100.323 100.33 100.384 100.396 100.377 100.332 100.345 100.341 100.342 100.361 97.867 95.386 95.942 101.412 101.573 101.29 100.365 95.858 95.785 95.633 95.369 95.524 95.613 96.018 95.216 95.54 95.124 94.93 94.617 94.535 94.531 94.576 94.597 94.575 94.656 94.682 94.621 94.699 95.18 94.557 95.076 95.657 94.934 95.991 98.654 98.986 99.349 99.388 98.83 98.436 96.675 93.785 92.883 93.761 93.213 91.67 91.543 91.665 91.424 91.42 91.733 91.282 91.011 91.067 91.046 91.289 91.449 91.18 91.742 90.793 90.591 90.599 91.861 95.842 96.423 96.83 97.054 96.606 95.148 94.213 90.351 89.892 89.542 89.391 89.155 88.923 88.689 88.603 88.501 88.402 88.461 88.352 88.247 88.115 87.963 87.691 88.182 88.37 92.541 92.46 93.66 96.322 96.03 92.812 86.5 88.621 90.432 89.457 94.57 95.536 95.772 87.356 86.218 86.164 86.155 85.683 90.091 95.143 93.376 85.593 85.372 85.287 85.274 85.176 85.083 85.075 85.238 85.559 85.162 85.108 85.086 85.057 85.067 85.125 85.074 85.111 85.105 85.555 86.641 85.941 85.257 85.311 85.252 85.231 85.083 84.803 84.503 84.856 84.718 84.405 84.823 90.213 89.569 86.535 84.266 84.258 85.407 85.492 84.906 84.264 85.046 91.047 90.503 86.956 84.044 83.516 83.265 83.548 83.427 83.177 82.728 86.254 89.096 88.078 83.374 82.526 82.186 81.842 81.892 81.681 81.536 81.338 81.21 81.057 80.7 80.652 80.446 80.752 80.99 80.574 80.108 79.902 80.745 81.032 79.372 78.947 78.668 80.363 79.354 78.835 78.293 78.281 79.776 79.379 77.929 77.679 77.597 80.846 80.485 79.192 76.8 81.218 82.188 81.338 77.482 75.967 75.693 75.452 75.309 75.606 76.149 78.419 78.834 77.507 75.124 73.315 73.152 73.134 73.13 73.111 73.156 74.331 74.481 73.285 73.281 73.139 73.533 72.999 73.187 72.979 71.865 71.495 71.602 71.477 74.198 76.909 76.53 72.151 70.347 70.245 69.832 70.475 70.325 71.042 69.573 69.398 68.822 68.015 68.939 73.942 73.797 73.065 70.144 67.888 67.126 66.883 66.978 66.953 66.71 69.699 71.722 69.909 68.943 67.87 65.8 65.732 65.386 64.141 63.817 63.816 63.894 63.914 64.019 64.067 64.039 64.299 64.169 63.599 62.98 62.142 63.496 69.832 70.604 65.506 68.915 68.661 70.616 67.621 62.28 69.967 69.345 66.924 66.605 67.92 66.948 66.091 66.626 69.658 70.208 69.925 71.057 71.679 70.434 68.534 58.614 60.425 56.432 62.536 66.634 63.678 61.001 70.801 66.606 59.38 62.094 63.367 64.159 61.462 60.231 55.885 53.472 52.381 52.371 53.06 52.891 52.328 52.527 53.904 53.108 52.348 51.689 52.003 51.517 51.522 52.54 52.024 51.026 52.999 53.258 52.53 50.284 49.451 49.453 49.448 52.755 50.816 53.508 52.865 52.42 51.396 49.34 50.28 50.236 49.708 49.212 49.039 49.16 49.143 49.15 49.214 49.228 49.279 49.317 49.233 49.203 49.134 49.165 49.201 49.279 49.368 49.396 49.408 49.332 49.253 49.431 49.484 49.986 52.923 52.277 49.691 49.656 49.613 49.476 49.271 49.26 49.266 49.341 49.476 49.541 49.672 49.905 49.944 49.856 52.045 53.375 54.141 52.888 55.454 49.531 48.183 47.741 46.676 46.357 46.731 47.153 47.7 47.937 47.916 47.816 47.903 48.01 48.256 48.531 48.762 48.977
96.271 96.346 95.976 97.991 98.626 100.299 100.328 100.302 100.345 100.403 100.219 95.52 99.636 101.719 102.21 101.988 101.798 101.506 100.289 99.447 95.877 96.017 96.259 95.245 95.072 95.176 95.872 96.689 96.522 94.785 94.706 94.707 94.705 94.779 94.666 94.692 94.835 95.219 94.75 95.43 95.437 94.125 93.188 92.928 97.36 98.349 98.779 99.067 99.46 99.205 98.753 97.754 96.192 93.552 93.238 92.16 91.873 92.562 92.411 91.718 92.123 91.437 91.207 91.062 91.045 91.005 91.078 90.99 91.104 91.025 90.794 91.059 90.897 90.638 94.837 96.152 96.704 96.844 96.173 92.034 90.311 90.016 89.651 89.381 89.182 88.966 88.826 88.723 88.622 88.669 88.598 88.492 88.382 88.231 87.957 87.873 88.171 88.248 89.323 88.197 93.633 96.37 95.713 92.215 89.238 95.444 92.273 95.638 96.832 97.232 97.846 91.736 92.469 86.553 86.318 86.363 86.192 93.405 90.449 86.132 85.895 85.907 85.673 85.75 86.32 85.867 92.732 89.387 93.212 85.547 85.359 85.237 85.124 85.152 85.176 85.175 85.176 85.19 85.208 85.219 85.252 85.279 85.276 85.367 85.351 85.495 85.398 85.081 84.985 84.693 84.503 84.361 84.233 84.301 84.315 84.202 86.163 84.616 85.527 85.121 84.531 90.877 90.206 87.334 84.349 83.821 83.763 84.848 83.705 83.158 82.672 87.587 88.791 87.849 83.338 82.57 82.295 82.106 82.08 81.946 81.777 81.595 81.391 81.102 80.889 80.907 80.815 81.669 81.424 80.499 81.012 80.289 80.68 80.503 79.631 79.362 79.194 81.558 81.162 80.279 81.945 78.727 79.91 78.137 79.782 78.852 78.599 77.472 79.197 79.472 83.498 83.383 81.719 78.595 76.235 76.111 75.975 75.9 75.515 75.36 75.413 76.06 78.356 78.785 79.444 78.503 73.392 73.294 73.148 73.112 73.161 73.16 73.436 73.258 73.226 73.314 73.414 73.614 73.006 72.787 72.519 72.122 71.512 71.442 71.711 73.755 76.872 70.826 70.744 70.424 70.213 70.247 70.357 71.59 69.984 69.827 68.687 68.467 68.09 67.85 73.058 68.52 67.74 67.64 67.437 67.007 67.073 67.062 70.088 72.764 72.264 71.912 71.374 67.118 65.882 65.801 65.764 65.833 64.583 63.843 63.867 63.978 64.011 64.13 64.119 64.151 64.17 64.212 63.929 62.994 63.377 68.04 67.338 63.76 67.367 71.745 70.866 67.48 62.35 64.2 61.98 64.737 66.996 68.76 66.683 65.77 60.889 66.458 68.437 68.233 67.441 71.153 69.567 66.25 65.784 65.46 60.355 60.777 66.203 64.991 60.789 65.054 69.475 66.804 67.395 60.357 64.835 62.128 55.06 52.472 53.265 53.726 52.4 52.32 52.327 52.27 52.54 52.962 52.514 52.408 51.962 51.651 51.049 51.975 51.521 51.836 52.817 53.468 52.843 52.563 51.047 49.464 49.42 49.405 49.445 52.047 52.334 50.634 51.166 50.765 50.161 49.826 49.656 50.076 49.754 49.899 49.111 49.112 49.151 49.162 49.172 49.206 49.294 49.31 49.254 49.256 49.116 49.171 49.23 49.267 49.323 49.399 49.351 49.288 49.252 49.446 49.995 50.212 49.871 49.62 49.642 49.61 49.54 49.41 49.24 49.216 49.274 49.386 49.501 49.616 49.709 49.954 49.914 52.065 55.07 55.094 56.08 54.427 48.95 48.36 47.982 47.342 47.117 46.412 47.18 47.372 47.825 47.921 47.886 47.873 48.025 48.26 48.329 48.607 48.836
97.286 96.153 95.629 95.776 97.32 95.602 95.433 95.463 95.691 98.073 97.664 95.854 100.917 101.709 101.965 102.224 102.405 102.38 102.022 101.745 101.263 100.573 98.84 98.493 96.083 96.696 96.052 95.022 96.796 95.365 95.149 95.211 95.063 95.148 95.451 95.146 95.136 95.094 95.691 96.49 95.724 94.906 94.013 94.683 94.756 96.255 97.747 98.525 98.922 99.366 99.418 99.051 98.651 96.857 95.617 93.069 93.45 91.758 92.669 93.073 91.942 92.436 92.447 91.205 91.097 90.982 90.992 90.975 90.938 91.053 91.169 91.533 90.74 91.572 90.88 91.459 95.666 96.323 92.967 90.425 90.257 89.961 89.698 89.434 89.2 89.024 88.955 88.817 88.912 88.886 88.778 88.671 88.535 88.341 88.016 87.926 90.16 91.902 94.452 92.354 90.876 90.174 87.951 85.2 93.615 96.118 96.796 96.179 96.791 98.179 98.415 98.026 89.632 87.122 86.539 86.445 86.492 87.973 86.574 86.613 86.586 86.535 86.366 86.118 94.92 99.278 95.531 99.854 97.649 88.073 85.586 85.311 85.199 85.183 85.219 85.182 85.197 85.236 85.269 85.231 85.305 85.299 85.314 85.357 85.357 85.375 85.977 86.301 85.903 85.498 85.408 85.111 84.952 84.668 84.537 84.344 84.737 84.541 85.004 85.028 84.593 90.735 89.811 85.364 84.33 83.994 84.333 84.451 83.945 83.597 84.06 89.144 88.449 86.965 82.97 82.882 82.501 82.474 82.351 82.24 82.063 81.793 81.45 81.346 81.12 80.973 83.777 86.681 85.451 80.386 80.457 80.382 80.3 80.012 80.017 79.857 79.941 84.037 85.32 82.893 83.001 79.921 78.35 78.635 80.163 81.748 79.99 77.592 77.415 81.047 83.759 83.216 79.323 76.472 76.417 76.384 76.262 76.14 75.904 75.589 75.401 75.343 76.99 78.267 78.73 79.315 79.726 73.886 73.179 73.18 73.159 73.162 73.186 73.205 73.232 73.253 73.366 73.894 74.752 73.104 73.91 73.748 72.147 71.526 71.644 72.666 71.329 71.257 71.003 70.716 70.596 70.207 70.856 70.396 70.057 69.228 68.877 69.141 69.196 70.075 69.047 68.619 68.287 68.077 67.829 67.422 67.46 68.543 67.029 67.775 71.503 72.52 72.007 70.486 66.907 66.101 66.398 65.749 65.751 64.461 64.067 64.045 64.049 64.108 64.215 64.225 64.201 64.315 64.335 63.727 62.832 62.236 68.002 68.834 69.552 71.342 72.405 64.691 65.266 65.147 64.162 58.626 64.553 67.111 65.946 59.372 57.461 57.204 64.828 68.065 69.701 69.563 67.608 67.542 59.796 58.016 62.982 58.9 54.97 64.175 64.387 71.005 71.883 67.364 65.545 60.163 62.991 56.519 52.779 52.695 53.046 53.156 53.264 52.409 52.38 52.614 52.229 52.191 52.434 52.517 52.27 51.648 51.426 51.317 51.167 52.168 51.401 51.425 53.065 51.263 49.726 49.479 49.433 49.346 49.354 49.928 49.405 49.734 51.4 49.058 48.984 49.348 50.078 49.958 49.059 49.07 49.073 49.125 49.071 49.092 49.064 49.111 51.327 50.109 49.296 49.284 49.246 49.119 49.171 49.17 49.277 49.308 49.384 49.343 49.264 49.385 49.465 49.484 49.52 49.578 49.595 49.621 49.557 49.486 49.279 49.219 49.195 49.27 49.379 49.519 49.603 49.744 50.019 53.759 55.125 52.448 52.008 49.957 48.957 48.598 48.189 47.525 47.008 47.474 47.073 46.822 47.567 47.854 47.967 47.943 47.957 48.078 48.284 48.451 48.759
96.041 95.96 95.936 96 95.861 95.757 95.773 95.67 95.511 96.046 95.603 95.691 95.694 98.814 101.105 101.436 101.684 102.096 102.35 102.351 102.259 101.903 101.738 101.313 100.753 99.921 96.864 96.662 96.413 95.321 95.636 95.392 95.286 95.322 95.256 95.179 95.11 95.069 95.608 96.508 96.413 94.841 94.509 94.137 93.574 94.392 95.5 94.068 94.773 98.421 98.937 99.375 99.358 98.97 98.455 97.327 93.32 93.231 93.577 92.631 91.57 91.868 93.265 93.052 91.639 91.073 90.954 90.979 90.954 91.81 91.302 91.002 92.25 92.429 90.541 90.483 92.038 92.858 90.447 90.346 90.144 89.985 89.688 89.457 89.315 89.216 89.142 89.091 90.851 91 89.046 88.863 88.669 88.378 88.161 87.924 92.997 95.897 96.46 97.107 91.473 91.706 86.513 84.386 92.468 95.695 91.617 87.421 92.951 94.939 98.004 97.308 89.279 86.768 87.172 87.262 91.223 93.723 92.095 87.15 86.841 86.879 86.929 86.838 96.039 98.888 99.462 100.912 91.094 86.056 85.937 85.529 87.971 85.407 85.343 85.243 85.243 85.248 85.259 85.259 85.292 85.267 85.293 85.382 85.366 85.413 85.389 85.564 85.476 86.5 86.352 85.559 86.114 85.566 85.48 85.203 84.979 84.622 84.397 84.461 86.709 86.214 88.592 84.619 84.547 84.23 85.464 84.13 84.011 83.955 87.728 90.441 89.346 84.401 83.161 83.019 82.648 82.736 82.667 82.46 82.291 81.997 81.783 81.5 81.212 84.726 86.647 87.202 87.712 81.285 80.579 80.253 80.289 80.016 79.926 79.996 80.134 86.938 86.802 83.948 79.977 79.595 79.145 78.898 79.245 79.95 80.735 78.157 79.711 83.909 83.196 79.739 77.007 76.823 76.553 76.572 76.456 76.274 76.069 75.921 75.781 76.557 76.224 75.767 77.704 78.68 79.129 73.93 73.297 73.217 73.201 73.201 73.185 73.178 73.291 73.248 73.292 73.445 73.759 73.186 73.136 73.509 73.286 72.147 71.874 71.795 71.752 71.679 71.129 71.237 70.914 70.494 70.852 71.377 69.88 69.561 69.316 70.811 69.953 72.427 69.838 68.828 68.655 68.478 68.071 67.685 67.399 67.293 67.118 66.817 67.75 72.517 72.715 72.137 71.494 69.413 68.76 66.128 65.808 65.73 64.661 64.412 64.666 64.129 64.204 64.253 64.295 64.284 64.402 64.188 63.579 63.09 62.359 62.227 63.69 68.398 68.938 61.201 60.739 61.515 60.067 58.672 58.513 60.269 58.302 58.452 57.995 57.486 57.232 59.516 65.964 67.109 59.487 57.123 56.289 62.67 64.769 59.466 60.544 58.365 61.817 68.106 70.034 69.742 66.239 59.036 53.328 53.078 52.777 53.453 53.172 53.039 52.437 52.459 52.47 52.474 52.256 52.208 52.56 52.326 52.352 51.884 51.304 50.902 50.976 50.204 50.816 50.177 50.581 49.512 50.347 49.886 49.434 50.911 50.283 50.471 49.846 50.132 49.608 50.408 49.529 49.528 49.616 49.642 49.041 49.096 49.103 49.244 49.048 49.094 49.024 49.01 49.109 49.329 49.246 49.213 49.248 49.16 49.05 49.151 49.192 49.253 49.321 49.326 49.311 49.26 49.308 49.433 49.463 49.5 49.524 49.549 49.54 49.533 49.447 49.327 49.209 49.236 49.274 49.399 49.498 49.582 49.795 49.904 51.85 50.3 49.495 49.31 49.009 48.804 48.647 48.25 47.35 47.067 47.052 46.787 46.971 47.625 47.958 47.989 47.905 47.987 48.114 48.358 48.635
96.772 96.215 96.193 96.147 96.096 96.052 96.065 96.073 96.081 95.987 95.845 95.886 95.861 95.783 98.609 99.364 100.925 101.057 101.608 101.868 102.025 102.336 102.262 102.116 101.916 101.633 100.421 96.94 95.685 95.764 95.688 95.621 95.578 95.483 95.354 95.313 95.253 95.056 94.884 94.818 94.717 94.664 94.498 94.223 94.055 95.18 97.175 94.457 93.973 93.692 97.247 98.722 99.095 99.416 99.252 98.818 98.425 94.22 93.042 92.527 91.886 93.182 93.296 93.274 92.047 91.132 90.986 90.979 90.948 90.916 91.575 91.147 91.304 91.307 90.715 90.698 90.941 90.545 90.472 90.327 90.182 90.015 89.702 89.549 89.447 89.305 89.399 91.566 91.779 91.687 89.775 88.91 88.795 88.641 88.684 88.038 94.919 96.085 92.017 96.776 94.751 88.679 84.792 84.651 88.447 93.294 91.993 91.746 90.383 94.433 95.248 93.921 88.023 87.174 87.352 88.956 92.994 93.908 93.156 87.667 87.619 87.24 87.125 87.006 91.164 89.999 97.776 100.71 89.68 86.661 86.373 86.59 91.521 91.332 90.081 87.764 85.459 85.286 85.264 85.279 85.275 85.273 85.342 85.375 85.413 85.413 85.411 85.418 85.451 85.455 85.507 85.477 86.422 86.383 85.669 85.717 85.651 85.391 84.927 84.793 84.493 84.545 84.594 84.644 84.631 84.445 86.437 84.447 84.298 84.137 87.669 90.255 89.548 84.82 83.435 83.086 82.926 83.007 82.872 82.705 82.368 82.155 82.152 81.84 83.928 86.381 87.067 85.31 81.629 80.945 80.889 80.685 80.517 80.535 80.3 79.967 80.734 82.027 85.068 80.657 79.291 79.212 79.4 79.332 78.762 78.706 79.073 78.627 83.866 83.345 82.707 77.712 77.021 76.87 76.813 76.617 76.613 78.882 79.053 80.858 76.815 75.89 75.606 75.43 75.455 76.804 75.989 74.497 73.991 73.416 73.199 73.216 73.199 73.227 73.218 73.291 73.553 73.483 73.443 73.622 73.287 73.197 74.862 72.744 72.439 72.28 72.236 71.817 71.795 71.477 71.138 70.835 70.508 71.245 70.498 69.993 69.737 70.065 73.76 74.088 70.579 69.083 68.855 68.68 68.369 68.181 67.688 67.445 67.414 67.166 67.108 66.644 69.101 72.544 72.262 71.708 67.967 66.238 65.86 65.794 65.759 65.358 64.597 64.737 64.398 64.268 64.364 64.409 64.395 64.419 64.89 63.953 62.703 62.117 65.89 65.471 61.55 60.801 60.402 59.9 59.46 58.753 58.446 58.333 58.367 58.46 58.304 58.148 58.754 61.622 62.43 62.334 60.269 58.825 61.641 62.315 64.672 65.817 64.516 65.153 65.137 66.138 65.641 63.868 64.707 53.984 53.345 52.912 52.85 52.709 52.926 52.599 52.516 53.732 52.641 52.318 52.509 52.556 52.181 52.432 52.803 52.575 51.637 51.124 50.989 51.108 50.903 50.815 51.116 51.688 50.93 51.888 52.315 51.551 50.18 50.365 50.159 49.288 49.221 49.184 49.448 49.417 49.135 49.103 49.081 49.052 49.067 49.049 49.013 48.965 48.996 48.992 48.992 49.149 49.092 49.341 49.209 49.28 49.145 49.032 49.14 49.198 49.261 49.321 49.332 49.331 49.251 49.382 49.43 49.498 49.541 49.505 49.54 49.506 49.498 49.438 49.22 49.163 49.21 49.322 49.411 49.468 49.683 49.854 49.867 49.746 49.623 52.349 49.221 48.976 48.883 48.285 48.054 49.492 49.335 46.869 46.575 47.153 47.889 47.997 47.988 47.932 48.08 48.305 48.515
