ncols 412
nrows 32
xllcorner    425144
yllcorner    437824
cellsize     2
NODATA_value -9999
-9999 -9999 -9999 -9999 -9999 80.512 80.468 80.422 80.382 80.359 80.304 80.253 80.289 80.361 80.256 80.237 80.21 80.159 80.158 80.199 80.19 80.062 79.92 79.743 79.583 79.481 79.441 79.356 79.301 79.275 79.309 79.25 79.104 79.126 79.17 79.034 79.254 79.889 82.376 81.987 80.396 79.267 79.852 78.87 78.467 78.45 78.512 78.658 79.043 78.451 78.39 78.328 78.337 78.397 78.641 78.863 78.583 78.154 77.99 77.984 77.941 77.955 77.917 77.816 77.768 -9999 -9999 -9999 -9999 -9999 -9999 -9999 77.468 77.454 77.491 77.537 77.612 77.601 77.619 77.64 77.656 77.604 77.555 77.541 77.497 77.528 77.554 77.628 77.673 77.701 77.701 77.753 77.783 77.707 77.789 77.603 77.636 78.08 78.873 80.762 81.594 79.3 77.921 77.413 77.53 77.469 77.508 77.685 77.641 76.726 76.605 76.87 77.482 77.747 78.027 78.05 78.017 78.057 78.107 78.249 78.251 78.187 78.103 78.056 78.065 78.053 77.996 77.955 77.963 77.972 77.971 77.941 77.984 77.968 77.922 77.885 77.901 77.934 78.033 78.225 78.561 78.847 78.826 78.983 79.31 79.174 78.903 79.332 79.322 78.959 78.789 78.72 78.909 79.024 79.305 80.09 81.224 81.439 81.589 81.582 81.759 81.131 81.386 88.247 89.607 88.547 83.77 83.061 84.455 85.591 86.945 87.952 89.839 90.969 91.635 92.03 92.387 92.788 92.687 92.449 92.418 92.234 88.902 87.17 85.696 85.096 83.711 83.035 83.009 83.027 82.709 83.149 83.094 83.205 83.388 83.386 83.604 83.826 84.013 83.879 84.055 84.874 89.575 92.028 91.116 87.146 84.707 84.981 85.454 85.782 85.982 85.972 85.975 86.082 86.454 86.595 86.675 87.11 87.344 87.778 89.222 91.274 96.889 99.82 107.663 104.544 96.955 96.532 93.298 89.747 88.541 88.46 88.608 88.754 88.77 88.77 88.892 89.385 89.538 89.899 90.539 91.38 91.812 92.49 93.094 93.493 93.995 94.215 94.499 94.701 94.894 95.198 95.49 95.743 96.367 96.75 96.96 97.298 97.567 98.314 99.122 99.363 99.418 99.799 100.073 100.564 101.103 101.464 101.998 102.347 102.855 103.006 103.383 103.66 104.102 106.244 107.97 107.122 106.566 106.58 106.796 106.952 106.95 107.048 107.134 107.234 107.165 107.244 107.62 107.711 107.61 107.821 109.819 112.354 113.988 114.084 110.898 108.973 108.218 108.087 108.122 108.216 108.406 109.354 109.745 108.985 108.441 109.511 109.381 109.549 109.183 110.133 109.036 109.186 110.568 109.008 108.781 108.817 108.859 109.112 110.632 109.772 109.51 110.251 109.365 109.282 108.779 108.738 108.937 109.041 -9999 -9999 108.903 108.918 109.036 109.295 109.753 109.375 111.194 114.942 116.286 116.57 114.908 112.852 111.163 109.905 109.942 110.013 110.087 110.239 110.303 109.731 109.656 109.987 110.359 111.277 111.322 110.472 110.084 110.021 110.047 110.127 110.263 110.427 110.437 113.117 116.528 117.918 118.299 117.582 115.827 111.345 110.805 111.076 111.422 110.606 111.133 112.815 111.828 110.942 110.832 111.307 111.792 111.433 111.063 111.195 111.45 111.352 111.433 111.313 111.428 111.832 113.323 114.077 112.044 112.008 112.546 111.955 112.178 112.199 112.423 112.947 112.857 113.407 113.067 112.307 112.515 112.414 112.381 112.326 112.405 112.546
-9999 -9999 -9999 -9999 -9999 -9999 80.45 80.401 80.349 80.348 80.236 80.279 80.388 80.387 80.394 80.216 80.092 80.092 80.063 79.929 79.889 79.879 79.805 79.68 79.467 79.442 79.417 79.36 79.322 79.238 79.317 79.324 79.079 79.06 79.07 79.014 78.991 79.299 80.178 79.319 78.89 78.807 78.907 78.65 78.552 78.679 78.578 79.235 79.845 78.436 78.235 78.401 78.286 78.021 78.186 78.225 78.157 78.172 77.98 77.968 -9999 -9999 -9999 -9999 -9999 -9999 -9999 77.76 -9999 77.647 77.538 77.478 77.448 77.437 77.508 77.577 77.622 77.612 77.577 77.611 77.619 77.568 77.519 77.56 77.558 77.541 77.568 77.662 77.778 77.686 77.642 77.69 77.731 77.645 77.595 77.59 77.848 78.096 79.997 81.79 80.995 79.23 77.17 76.612 76.464 76.26 76.536 78.171 77.349 75.789 75.985 76.472 77.053 77.399 77.847 77.939 77.972 78.036 78.073 78.172 78.179 78.059 78.031 78.02 77.988 77.965 77.943 77.918 77.917 77.93 77.915 77.926 77.951 77.956 77.935 77.907 77.852 77.91 77.997 78.025 78.034 78.029 78.154 78.389 78.848 78.704 78.649 79.266 79.461 79.044 78.803 78.866 78.881 78.996 79.17 79.497 80.803 81.35 80.32 80.625 80.218 80.473 83.503 90.881 90.552 84.178 83.215 82.618 84.668 85.321 86.577 87.413 89.191 90.215 91.268 91.787 92.233 92.616 92.615 92.527 92.424 91.951 89.409 87.874 86.437 85.208 84.231 83.287 83.07 82.993 82.874 82.988 83.18 83.314 83.32 83.423 83.514 83.519 83.603 83.748 84.719 88.676 90.339 90.373 89.421 86.227 84.907 85.175 85.517 85.784 85.952 86.181 86.102 86.235 86.574 86.827 86.892 87.094 87.491 87.781 88.276 88.542 89.646 93.118 107.491 108.526 107.491 100.94 94.516 89.516 88.709 88.663 88.807 88.911 89.051 89.294 89.299 89.697 89.873 89.744 90.058 90.791 91.56 92.622 93.191 93.564 94.004 94.249 94.461 94.782 95.03 95.195 95.599 95.884 96.34 96.649 97.151 97.587 97.779 98.364 99.286 99.577 99.605 99.924 100.283 100.77 101.136 101.523 102.032 102.464 102.759 102.999 103.363 103.527 103.991 105.203 106.555 107.246 106.544 106.728 106.771 106.83 106.906 107.03 106.982 107.093 107.059 107.109 107.395 107.456 107.43 107.92 110.421 112.459 115.197 114.224 112.619 108.404 108.003 108.029 108.144 108.288 108.306 108.674 108.729 108.503 108.537 109.578 109.767 109.287 109.601 111.005 109.331 109.172 109.509 108.915 108.678 108.748 108.808 108.734 108.892 109.442 109.925 112.824 108.954 108.694 108.712 108.68 108.612 108.64 -9999 -9999 108.846 108.874 108.943 109.474 109.59 109.367 113.065 115.421 116.941 115.419 111.507 110.077 109.594 109.474 109.548 110.211 109.754 109.705 109.349 109.257 109.169 109.167 110.217 110.733 110.771 110.024 109.876 109.908 110.013 110.162 110.328 110.384 111.226 115.912 117.45 118.462 118.472 117.196 115.724 111.239 110.573 110.614 110.693 110.295 110.641 111.771 111.384 110.541 110.729 111.469 111.874 112.145 111.217 111.204 111.234 111.303 111.422 111.442 111.476 111.782 113.03 112.448 112.712 112.28 112.044 111.899 112.245 112.083 112.009 112.112 112.826 114.134 112.418 112.884 113.225 112.687 112.488 112.439 112.976 113.006
-9999 -9999 -9999 -9999 -9999 -9999 -9999 -9999 80.342 80.329 80.295 80.453 80.442 80.552 80.488 80.158 80.009 80.012 79.962 79.873 79.753 79.759 79.713 79.666 79.536 79.449 79.39 79.351 79.429 79.314 79.27 79.432 79.243 79.068 79.069 79.066 79.174 79.536 79.069 78.861 78.764 78.716 78.607 78.497 78.466 78.422 78.563 78.615 78.698 78.397 78.321 78.396 78.267 78.1 78.025 78.191 78.111 -9999 -9999 -9999 -9999 -9999 -9999 -9999 -9999 -9999 77.861 77.851 77.789 77.666 77.552 77.549 77.473 77.476 77.566 77.606 77.651 77.657 77.556 77.623 77.597 77.516 77.494 77.59 77.576 77.543 77.45 77.564 77.663 77.579 77.57 77.581 77.624 77.432 77.32 77.534 78.632 78.085 78.555 79.268 78.222 76.714 76.086 75.717 75.147 75.013 75.17 76.792 76.476 76.01 76.089 76.502 76.803 77.234 77.733 77.704 77.842 78.056 78.082 78.101 78.128 78.072 77.988 77.927 77.902 77.915 77.907 77.845 77.855 77.848 77.816 77.798 78.029 78.146 78.088 77.9 77.884 77.888 77.861 77.899 77.921 78 78.093 78.038 78.289 78.474 78.788 80.075 81.178 79.571 78.674 78.723 78.72 78.889 79.01 79.23 79.896 80.26 79.847 79.761 79.583 79.857 83.72 89.521 91.331 88.628 85.094 84.972 86.368 85.199 85.985 87.425 88.743 90.072 91.191 91.755 91.993 92.288 92.427 92.46 92.209 91.633 89.942 88.031 87.014 85.878 84.578 83.622 83.02 82.949 82.998 83.183 83.311 83.322 83.263 83.394 83.569 83.6 83.679 83.942 84.438 87.735 88.455 85.535 84.705 85.251 85.662 85.814 86.111 85.985 86.123 86.338 86.43 86.481 86.708 86.913 86.949 87.218 87.423 87.824 88.045 88.28 88.663 92.262 101.017 102.112 100.004 92.4 89.898 88.78 88.881 88.822 88.912 89.059 89.124 90.169 90.249 90.218 89.993 89.941 90.187 91.112 91.801 92.75 93.22 93.854 94.01 94.386 94.671 94.855 94.909 95.282 95.712 95.987 96.42 97.041 97.237 97.544 97.869 98.669 99.414 99.649 99.795 100.025 100.347 100.812 101.175 101.705 102.021 102.326 102.707 102.941 103.347 103.665 103.977 104.375 105.593 106.625 106.526 106.63 106.649 106.797 106.907 106.968 106.962 106.921 106.755 106.859 107.229 107.291 107.208 108.002 111.833 114.53 115.352 113.912 109.01 107.747 107.853 108 108.167 108.203 108.456 109.177 109.248 109.123 109.186 109.482 108.878 109.433 108.815 109.201 109.341 109.053 108.964 108.878 109.084 109.113 108.833 108.774 109.387 109.586 112.72 113.393 112.29 110.04 108.621 108.507 108.44 108.548 -9999 108.772 108.797 108.845 108.912 109.516 109.103 109.258 110.122 111.518 116.32 115.028 110.758 109.266 109.355 109.332 109.353 109.532 109.993 109.563 109.077 109.054 108.966 109.573 111.001 110.898 110.552 109.909 109.821 109.973 110.032 110.153 110.305 110.79 114.092 116.961 118.142 118.653 117.637 115.833 112.841 110.528 110.537 110.494 110.519 110.408 110.355 110.595 110.453 110.309 110.768 111.384 111.303 111.754 111.584 111.593 111.377 111.587 111.83 111.949 112.726 113.348 112.272 112.172 112.938 115.113 113.802 112.332 112.171 112.177 112.08 112.018 113.185 113.529 112.392 112.769 113.576 112.877 112.608 112.791 113.384 113.519
-9999 -9999 -9999 -9999 -9999 -9999 -9999 -9999 -9999 -9999 80.378 80.461 80.487 80.476 80.303 80.102 80.035 79.996 80.041 79.833 79.814 79.671 79.627 79.663 79.585 79.482 79.381 79.406 79.337 79.113 79.131 79.193 79.158 79.029 79.061 79.104 79.009 79.799 79.085 78.632 78.702 78.673 78.558 78.505 78.753 79.637 78.854 78.573 78.478 78.434 78.317 78.333 78.274 78.186 -9999 -9999 -9999 -9999 -9999 -9999 -9999 77.965 77.932 77.837 77.816 77.838 77.858 77.842 77.825 77.694 77.57 77.637 77.676 77.636 77.612 77.79 77.71 77.715 77.701 77.61 77.57 77.467 77.494 77.571 77.621 77.532 77.389 77.469 77.602 77.679 77.608 77.486 77.552 77.169 76.971 77.356 79.644 78.458 77.432 77.193 77.728 76.018 75.091 74.367 74.425 74.157 74.515 75.383 76.645 77.146 77.693 77.143 76.839 77.883 78.608 77.667 77.625 77.935 78.021 78.048 78.049 78.035 77.874 77.869 77.874 77.91 77.901 77.795 77.822 77.852 77.938 78.043 78.595 80.299 79.114 78.826 78.107 77.831 77.771 77.73 77.789 78.02 78.193 78.064 78.176 78.347 79.269 80.689 81.392 81.154 78.785 78.587 78.655 78.78 78.942 79.112 79.316 79.262 79.303 79.104 79.208 79.257 81.059 84.018 85.394 84.591 82.936 86.559 90.713 86.128 85.838 87.331 88.585 89.722 90.814 91.665 92.004 92.1 92.333 92.333 92.016 91.304 90.296 88.741 87.425 86.22 85.279 84.047 83.399 83.55 83.447 83.287 83.421 83.423 83.383 83.572 83.596 84.305 85.179 84.047 84.686 86.544 85.457 85.947 84.918 85.126 87.204 86.675 86.28 86.322 86.429 86.527 86.608 86.776 87.258 87.353 87.2 87.48 87.831 87.96 88.114 88.267 88.516 88.626 89.424 89.463 89.543 88.905 88.583 88.884 88.862 88.74 88.93 88.97 89.234 90.269 90.307 90.066 90.046 90.086 90.243 90.873 92.146 92.919 93.444 93.857 94.102 94.523 94.657 94.759 95.154 95.448 95.712 96.069 96.459 97.036 97.279 97.781 98.028 98.497 99.536 99.686 99.714 100.044 100.311 100.852 101.331 101.598 102.136 102.626 102.842 103.15 103.45 103.614 104.02 104.611 105.538 106.227 106.481 106.564 106.586 106.644 106.774 106.901 106.88 106.785 106.741 106.796 107.094 107.361 107.621 110.614 112.638 115.244 114.844 110.173 107.867 107.887 107.712 107.773 108.021 108.237 108.559 108.881 109.472 110.198 109.525 108.88 108.425 108.4 108.245 108.296 109.144 109.235 109.344 109.727 109.921 110.268 109.424 109.305 109.258 109.131 114.088 115.537 115.007 112.099 108.513 108.535 108.545 -9999 108.568 108.66 108.724 108.777 108.931 109.117 109.176 109.422 109.484 109.246 110.304 110.416 109.09 109.226 109.256 109.299 109.402 110.08 110.298 109.39 109.014 108.978 108.978 109.646 110.975 110.618 109.753 109.726 109.849 109.916 109.99 110.056 110.154 110.944 113.429 116.575 117.845 117.82 116.18 111.582 110.616 110.463 110.355 110.514 111.228 110.855 110.536 110.251 110.519 110.448 110.652 110.627 110.862 111.519 112.495 112.322 113.665 114.376 115.434 115.465 116.939 117.014 114.786 112.235 112.45 114.955 117.206 116.348 115.887 115.55 114.418 112.227 112.798 112.721 113.778 112.987 112.739 112.715 112.621 112.792 113.346 113.169
-9999 -9999 -9999 -9999 -9999 -9999 -9999 -9999 -9999 -9999 -9999 80.462 80.442 80.369 80.271 80.108 80.039 80 79.871 79.889 79.975 79.763 79.539 79.481 79.455 79.458 79.566 79.668 79.206 79.15 79.067 79.061 79.189 79.093 78.983 78.898 78.854 78.859 78.806 78.69 78.763 78.686 78.432 78.515 78.96 79.548 78.993 78.611 78.329 78.278 78.331 78.335 78.261 -9999 -9999 -9999 78.063 78.034 78.035 -9999 78.077 78.032 77.936 77.853 77.82 77.827 77.851 77.902 77.857 77.742 77.747 77.744 77.726 77.785 77.702 77.712 77.744 77.747 77.681 77.55 77.533 77.488 77.477 77.484 77.503 77.404 77.156 77.192 77.477 77.902 78.17 77.408 76.991 76.063 75.877 76.233 76.642 76.092 74.524 75.017 75.288 74.971 73.941 74.08 74.038 74.075 74.436 75.185 77.848 79.806 79.901 78.729 76.854 78.691 79.615 78.289 77.596 77.746 77.956 78.011 77.945 77.892 77.853 77.863 77.92 77.973 78.021 77.943 78.498 79.366 79.281 79.005 81.134 82.505 82.156 81.375 79.256 77.925 77.734 77.662 77.686 77.875 78.025 78.077 78.169 78.261 78.895 80.301 81.079 80.671 79.021 78.65 78.672 78.775 78.908 79.005 79.067 79.083 79.112 79.021 79.083 79.174 79.386 79.861 80.963 80.861 81.871 84.446 86.994 84.844 85.808 87.164 88.196 89.321 90.514 91.555 91.916 92.119 92.245 92.256 91.936 91.565 90.556 89.158 87.895 86.837 85.41 84.762 83.771 84.38 83.774 83.237 83.475 83.66 83.503 83.648 84.292 85.091 85.649 84.535 85.568 90.078 91.875 89.817 86.489 85.46 86.304 86.309 86.356 86.488 86.39 86.59 86.761 87.089 88.139 88.285 87.611 87.653 87.774 88.081 88.287 88.471 88.57 88.72 88.767 88.672 88.768 88.961 89.05 89.137 88.892 88.835 88.852 88.951 89.097 90.105 90.249 90.049 89.925 90.022 90.433 91.589 92.516 93.047 93.614 94.076 94.228 94.475 94.7 94.925 95.237 95.567 95.862 96.233 96.591 97.187 97.716 98.196 98.017 98.99 99.784 99.675 99.86 100.14 100.511 100.879 101.36 101.873 102.321 102.558 103.056 103.35 103.583 103.885 104.433 105.284 105.657 105.961 106.217 106.389 106.488 106.535 106.583 106.804 106.697 106.716 106.695 106.771 106.961 107.218 107.548 108.144 108.959 112.617 112.812 111.042 107.835 107.647 107.633 107.584 107.872 108.133 108.548 108.8 110.247 110.368 109.364 108.336 108.13 108.121 108.157 108.172 109.209 109.49 108.809 108.658 108.702 109.071 109.007 109.074 109.312 111.222 114.494 115.555 114.187 110.797 108.719 108.77 108.756 108.746 108.583 108.619 108.671 108.704 108.994 108.921 109.826 112.464 111.947 111.462 109.567 109.968 109.885 109.209 109.497 109.343 109.218 109.378 109.098 108.97 108.989 108.918 109.131 110.093 111.296 109.974 109.64 109.68 109.762 109.772 109.795 109.934 110.027 110.317 111.868 114.415 116.895 116.668 111.994 110.465 110.41 110.377 110.352 110.851 111.047 110.848 110.717 110.991 111.444 110.583 110.507 110.502 110.852 111.038 111.772 113.226 116.535 117.757 118.096 118.785 119.041 118.845 116.746 112.665 112.643 118.026 118.869 119.228 119.284 119.394 117.731 113.126 112.482 114.475 116.862 113.413 114.103 114.52 113.371 113.023 112.792 113.298
-9999 -9999 -9999 -9999 -9999 -9999 -9999 -9999 -9999 -9999 -9999 -9999 80.401 80.346 80.237 80.136 80.034 79.96 79.824 79.787 79.975 79.862 79.432 79.32 79.377 79.32 79.39 81.338 80.168 79.108 79.011 79.091 79.31 79.093 78.865 78.85 78.875 78.78 78.57 78.421 78.665 78.655 78.576 78.603 -9999 79.024 78.728 78.364 78.236 78.25 78.328 78.355 78.255 -9999 78.164 78.142 78.079 78.01 77.994 78.098 78.13 78.103 77.924 77.811 77.82 77.769 77.826 77.856 77.817 77.756 77.754 77.782 77.722 77.797 77.814 77.814 77.615 77.6 77.48 77.397 77.381 77.566 77.432 77.419 77.417 77.291 77.115 77.003 76.977 77.829 78.546 77.012 75.877 74.692 74.504 74.828 74.686 73.691 73.585 73.822 74.003 73.847 73.611 73.893 74.003 74.049 74.975 76.752 79.792 81.497 80.68 80.176 78.028 78.005 78.784 78.177 77.441 77.669 77.985 77.916 77.821 77.834 77.836 77.87 77.914 78.14 79.307 80.521 79.224 81.369 81.587 81.94 82.525 82.766 82.615 82.459 80.169 77.999 77.992 77.548 77.659 77.771 77.914 77.976 78.052 78.193 78.475 79.523 80.14 79.41 78.801 78.672 78.721 78.794 78.917 78.964 79.043 79.004 79.136 79.144 79.192 79.281 79.34 79.72 79.979 80.384 81.313 82.206 83.537 84.505 85.696 86.452 87.917 89.243 90.242 91.384 91.994 92.313 92.256 92.209 92.078 91.723 90.871 89.674 88.133 87.141 85.97 85.588 83.87 83.698 83.611 83.348 83.472 83.574 83.733 84.541 85.286 83.797 84.328 84.097 87.752 91.326 92.158 92.071 87.745 86.408 85.64 85.652 86.321 86.657 86.558 86.786 87.017 87.962 90.423 88.548 88.014 87.801 87.758 88.131 88.38 88.491 88.647 88.851 88.786 88.699 88.935 89.001 89.228 89.054 88.947 88.784 88.89 88.939 89.141 89.408 89.992 90.248 90.081 90.215 91.242 92.632 92.802 93.128 93.735 94.043 94.159 94.516 94.917 95.17 95.253 95.66 96.026 96.28 96.741 97.261 97.648 98.622 99.628 99.233 99.809 99.721 100.033 100.215 100.506 100.938 101.46 101.857 102.276 102.681 103.223 103.388 103.785 104.047 104.682 105.442 105.899 106.111 106.253 106.34 106.562 106.554 106.528 106.654 106.715 106.65 106.569 106.434 106.823 107.47 107.182 107.911 107.791 107.444 108.212 110.099 109.004 107.686 107.462 107.652 107.839 107.994 108.293 109.084 110.393 110.516 109.711 108.138 108.033 108.109 108.179 108.114 108.667 109.737 108.575 109.339 108.512 108.484 108.52 108.507 108.658 111.861 115.1 115.82 112.864 109.677 108.923 109.02 108.953 -9999 108.505 108.457 108.445 108.675 109.165 108.883 110.117 113.914 115.332 114.933 112.617 110.881 110.98 110.425 110.125 109.276 109.713 109.136 108.749 108.849 108.809 109.125 110.111 111.089 112.794 111.373 109.736 109.697 109.707 109.754 109.763 109.887 109.928 109.999 110.17 110.691 113.509 113.655 110.556 110.386 110.254 110.262 110.36 110.592 110.574 110.316 110.349 111.096 112.695 111.109 110.644 110.553 112.101 113.877 113.765 112.541 114.928 118.64 118.991 119.12 117.926 116.312 113.512 112.597 112.752 116.864 117.174 118.179 118.37 119.128 117.496 114.811 114.086 118.089 118.638 118.192 118.13 118.32 117.569 113.887 112.704 112.886
-9999 -9999 -9999 80.919 80.861 80.8 80.574 80.406 80.315 80.293 -9999 -9999 -9999 -9999 -9999 -9999 -9999 79.88 79.803 79.861 79.834 79.696 79.41 79.428 79.369 79.285 79.466 80.3 79.456 79.128 79.085 79.059 79.187 78.983 78.933 78.821 78.866 78.75 78.536 78.427 78.571 78.583 -9999 -9999 -9999 -9999 78.458 78.161 78.165 78.24 78.282 78.265 78.164 78.131 78.181 78.185 78.128 78.033 77.989 78.154 78.242 78.045 77.892 77.77 77.807 77.86 77.872 77.8 77.776 77.719 77.756 77.728 77.757 77.938 77.883 77.755 77.605 77.465 77.299 77.216 77.141 77.696 77.553 78.006 77.757 77.555 77.529 77.78 76.762 76.616 76.153 75.511 74.868 74.969 74.479 73.995 73.729 73.447 73.408 73.442 73.514 73.571 73.643 73.857 73.979 73.94 74.654 77.368 79.412 79.866 78.926 78.98 76.92 75.967 76.684 76.692 77.275 77.689 77.723 77.751 77.766 77.795 77.825 78.071 78.186 79.548 81.711 82.377 82.024 81.98 82.455 82.542 82.509 82.305 82.392 81.572 80.485 79.4 79.497 77.698 77.673 77.606 77.767 77.863 77.982 78.105 78.535 79.31 79.762 78.856 78.669 78.639 78.723 78.788 78.851 78.933 78.891 78.874 79.086 79.25 79.379 79.486 79.884 79.825 79.787 80.213 80.81 81.701 82.738 83.843 84.681 85.689 87.567 88.854 90.412 91.35 91.853 92.171 92.222 92.292 92.201 92.018 91.463 89.933 88.512 87.559 87.045 87.435 85.143 83.922 83.788 83.579 83.474 83.516 83.961 84.165 83.961 83.868 83.97 84.112 86.771 90.074 92.272 92.632 90.939 86.637 85.628 86.105 86.497 86.62 86.804 86.939 87.048 87.531 88.447 87.323 87.704 87.873 88.13 88.149 88.312 88.676 88.726 88.513 88.821 89.061 89.008 88.983 89.111 89.165 89.052 88.931 89.101 89.085 89.095 89.046 90.132 91.031 90.91 90.688 91.637 92.706 92.701 93.408 93.858 93.987 94.369 94.738 94.937 95.06 95.305 95.705 95.91 96.573 97.205 97.378 97.681 101.218 105.261 103.155 101.752 100.264 100.274 100.405 100.734 101.14 101.343 101.767 102.211 102.84 103.112 103.385 103.714 104.018 104.742 105.627 106.04 106.163 106.222 106.296 106.31 106.473 106.574 106.577 106.588 106.573 106.559 106.663 106.801 106.852 107.475 111.721 112.964 108.322 108.78 109.14 109.29 108.736 107.541 107.612 107.792 107.926 108.387 108.898 110.066 110.354 109.995 108.342 107.986 107.99 107.967 107.91 108.234 109.397 109.571 109.967 108.716 108.461 108.506 108.641 108.843 111.131 114.953 115.551 113.429 109.13 108.832 109.152 108.886 -9999 108.41 108.447 108.434 108.779 108.918 109.463 113.204 115.128 116.293 114.256 109.902 109.319 109.982 110.924 110.765 109.781 109.375 108.928 108.729 108.868 108.856 109.151 110.512 111.253 113.821 114.375 110.12 109.61 109.643 109.684 109.759 110.744 111.026 111.533 110.733 110.38 110.247 110.5 110.394 110.274 110.107 110.16 110.291 110.475 110.268 110.085 110.387 110.474 110.98 111.145 110.751 111.205 115.027 115.043 113.787 114.608 115.418 116.227 115.338 114.78 113.985 112.576 111.901 111.869 112.48 112.902 113.042 113.709 113.582 115.784 115.726 112.849 114.665 118.336 117.622 119.076 119.909 119.85 118.998 115.332 113.254 113.633
-9999 -9999 -9999 80.961 80.853 80.767 80.611 80.418 80.193 80.202 -9999 -9999 -9999 -9999 -9999 -9999 -9999 -9999 79.821 79.884 79.769 79.677 79.575 79.439 79.299 79.313 79.294 79.65 79.585 79.259 79.16 79.12 79.1 79.013 78.936 78.846 78.857 -9999 -9999 -9999 -9999 -9999 -9999 -9999 -9999 78.317 78.281 78.183 78.225 78.269 78.258 78.131 78.065 78.036 78.204 78.222 78.188 78.149 78.086 78.122 78.136 78.034 77.896 77.81 77.837 77.884 77.91 77.89 77.814 77.763 78.159 78.037 77.994 78.326 77.639 77.517 77.012 77.443 78.188 78.079 78.061 78.297 80.458 80.428 78.311 79.08 80.557 78.97 77.955 76.385 75.083 74.471 74.098 74.313 73.814 73.581 73.518 73.513 73.457 73.352 73.483 73.714 73.751 73.801 73.899 73.92 74.003 75.275 77.252 76.202 74.626 76.009 75.227 75.526 75.876 76.507 77.052 77.5 77.644 77.672 77.704 77.754 77.918 78.404 80.696 81.933 82.538 82.578 82.364 82.408 82.225 82.095 81.838 81.439 81.306 81.022 80.798 79.97 79.163 77.854 77.508 77.592 77.672 77.76 77.918 78.137 78.51 78.639 78.552 78.554 78.566 78.691 78.723 78.711 78.778 78.769 78.855 78.975 79.135 79.252 79.476 79.64 79.681 79.732 79.779 79.907 80.454 81.392 82.145 83.276 84.261 85.002 86.475 88.758 90.636 91.181 91.558 91.956 92.174 92.366 92.478 92.267 92.081 90.146 89.289 87.664 87.397 86.45 85.024 83.893 83.813 83.667 83.546 83.65 83.826 83.942 83.869 84.14 84.129 84.077 85.667 88.604 92.338 92.696 90.442 85.612 85.24 85.701 86.375 86.81 86.9 87.093 87.236 87.362 87.367 87.339 87.614 87.988 88.212 88.344 88.554 88.464 88.508 88.69 89.146 89.093 89.116 89.219 89.89 90.745 90.305 89.5 89.323 89.043 89.061 89.209 90.381 91.235 90.799 90.81 91.626 92.616 93.148 93.504 93.783 94.125 94.464 94.583 94.893 95.281 95.407 95.713 96.122 96.826 97.338 97.509 98.168 103.468 105.675 103.559 101.523 100.099 100.129 100.537 100.935 101.04 101.351 101.796 102.376 102.82 103.181 103.557 103.86 103.989 104.971 105.811 106.145 106.163 106.179 106.253 106.372 106.357 106.393 106.425 106.487 106.489 106.756 106.918 107.042 107.006 109.405 113.039 114.269 113.266 111.413 108.044 108.911 107.793 107.513 107.582 107.654 107.811 108.037 108.874 110.124 110.37 109.779 108.149 107.936 107.921 107.79 107.873 108.052 108.797 109.46 109.903 108.74 109.225 110.013 109.106 109.468 112.927 114.878 114.132 111.503 108.598 108.562 108.652 108.762 -9999 108.346 108.407 108.549 109.099 108.84 110.554 114.649 115.631 115.373 112.088 109.771 109.203 109.169 109.517 110.162 109.602 108.871 108.654 108.716 108.816 108.821 109.073 110.01 110.933 110.638 109.738 109.606 109.519 109.472 109.66 109.971 113.603 115.813 115.637 115 113.405 110.222 110.176 110.18 110.212 110.13 110.391 110.895 111.297 110.842 110.395 110.418 110.349 110.469 110.517 110.881 114.318 118.119 117.048 116.06 114.005 112.772 113.126 111.964 111.738 112.08 111.908 112.65 112.653 111.755 111.61 111.684 112.108 111.953 112.481 112.289 112.376 113.433 114.685 113.253 116.078 118.515 118.612 117.562 114.223 113.188 114.046
-9999 81.098 81.079 81.028 80.882 80.805 80.654 80.615 80.212 80.235 80.367 80.388 -9999 -9999 -9999 -9999 -9999 -9999 -9999 79.787 79.74 79.737 79.651 79.445 79.242 79.241 79.254 79.272 79.466 79.224 79.152 -9999 -9999 -9999 -9999 -9999 -9999 -9999 -9999 -9999 -9999 -9999 -9999 -9999 78.496 78.402 78.262 78.142 78.288 78.36 78.329 78.132 78.104 78.197 78.331 78.233 78.277 78.198 78.118 78.104 78.085 77.989 77.973 77.958 77.844 77.825 77.937 77.998 78.125 79.742 80.071 78.465 78.082 77.526 76.939 77.002 77.034 79.508 82.133 80.926 83.256 85.556 85.08 83.226 79.273 79.409 82.134 77.672 76.705 74.651 74.887 74.474 73.82 73.452 73.142 73.253 73.511 73.61 73.581 73.388 73.544 73.879 73.837 73.793 73.863 73.904 74.012 74.333 74.305 74.421 74.303 74.821 75.069 75.344 75.724 76.359 76.823 77.297 77.522 77.605 77.65 77.656 77.864 78.955 81.941 82.45 82.136 82.111 82 81.479 81.649 81.28 81.171 80.984 80.587 80.536 78.857 78.676 78.042 77.679 77.557 77.601 77.592 77.641 77.78 78.083 78.209 78.244 78.397 78.474 78.678 78.673 78.538 78.638 78.777 78.867 79.001 79.052 79.124 79.26 79.476 79.516 79.916 80.006 80.176 80.052 80.283 80.842 81.983 83.209 83.819 84.713 85.766 -9999 91.574 91.04 91.398 91.768 91.969 92.268 92.319 92.13 91.947 91.146 92.112 90.963 88.057 85.383 84.383 83.759 83.828 83.717 83.558 83.635 83.694 83.763 83.89 84.096 84.1 84.306 85.284 89.615 91.642 92.384 91.422 87.623 85.707 85.706 86.494 86.906 87.146 87.397 87.326 87.417 87.347 87.69 87.989 88.152 88.337 88.483 88.509 88.429 88.891 89.097 89.278 89.344 89.376 90.581 91.577 91.574 91.195 90.128 90.475 89.673 89.143 89.559 90.25 90.88 90.524 91.128 92.265 92.873 93.102 93.507 93.962 94.233 94.421 94.672 95.096 95.336 95.493 95.909 96.251 96.45 96.994 97.729 98.396 99.341 101.992 103.548 103.413 100.816 100.36 100.676 100.928 101.183 101.608 102.056 102.312 102.839 103.39 103.654 103.936 104.466 105.072 105.483 105.984 106.253 106.352 106.432 106.37 106.285 106.395 106.341 106.411 106.436 106.788 107.146 107.065 106.909 108.954 113.409 114.195 113.618 111.602 108.965 107.404 107.454 107.624 107.643 107.666 107.679 107.918 108.596 110.185 110.2 109.129 107.951 107.879 107.806 107.723 107.854 108.046 108.567 109.038 108.495 108.559 109.071 110.177 109.208 108.711 108.784 109.489 110.033 108.694 108.473 108.504 108.662 108.744 -9999 108.397 108.336 108.483 108.781 108.927 111.042 114.471 115.871 115.354 111.395 109.073 109.062 109.093 109.035 109.156 109.006 108.741 108.765 108.719 108.745 108.806 109.099 110.771 111.166 109.947 109.321 109.4 109.388 109.606 109.777 110.12 112.355 116.193 117.341 116.955 115.765 111.191 110.093 110.201 110.083 110.28 111.074 111.599 111.649 111.695 111.09 110.574 110.502 111.158 112.956 114.854 117.547 117.409 115.265 112.707 111.567 111.248 111.766 111.433 111.619 113.005 112.391 113.253 113.26 112.221 111.631 112.043 113.402 112.282 112.674 113.481 113.632 113.498 112.494 112.202 112.563 114.322 115.442 113.056 112.908 113.173 114.704
81.066 81.076 81.129 81.127 81.149 80.978 80.919 80.87 80.618 80.469 80.514 80.47 -9999 -9999 -9999 -9999 -9999 -9999 -9999 -9999 79.745 79.698 79.605 79.451 79.335 79.292 -9999 -9999 -9999 -9999 -9999 -9999 -9999 -9999 -9999 -9999 -9999 -9999 -9999 78.895 78.906 -9999 -9999 -9999 78.537 78.499 78.486 78.325 78.346 78.372 78.461 78.323 78.236 78.3 78.289 78.31 78.248 78.191 78.17 78.142 78.052 78.028 78.034 78.284 79.697 79.239 78.479 77.802 79.001 82.292 82.329 78.881 76.59 75.855 76.214 76.616 76.999 79.337 81.017 83.471 85.676 89.112 85.922 80.5 76.521 77.039 77.711 75.683 73.759 73.881 74.327 74.253 73.66 73.354 73.189 73.172 73.614 73.596 73.505 73.515 73.609 73.671 73.765 73.824 73.87 73.963 74.081 74.181 74.236 74.289 74.569 74.8 74.974 75.166 75.628 76.204 76.776 77.158 77.469 77.57 77.576 77.626 77.786 78.726 81.301 81.854 81.366 81.299 81.126 80.834 80.868 80.901 80.4 79.34 78.412 78.938 78.191 77.753 77.614 77.547 77.559 77.524 77.468 77.481 77.565 77.866 78.106 78.226 78.36 78.583 78.644 78.652 78.555 78.548 78.74 78.869 78.986 79.043 79.103 79.287 79.534 79.64 80.389 84.089 82.724 80.337 80.33 80.834 81.842 82.612 83.58 84.923 85.629 88.685 92.488 93.285 91.784 91.615 91.884 92.196 92.168 92.011 91.594 91.262 92.713 93.286 89.342 85.74 84.495 83.728 83.826 83.844 83.726 83.706 83.713 83.737 83.87 84.057 84.338 84.551 84.849 86.121 91.06 93.012 90.573 88.774 86.334 86.502 86.44 87.189 87.181 87.195 87.272 87.495 87.776 87.941 88.209 88.276 88.392 88.568 88.52 88.688 88.884 89.098 89.433 89.588 89.648 91.693 91.793 91.626 91.524 91.478 91.368 90.597 89.835 89.717 90.168 90.475 90.841 91.97 92.551 92.778 93.268 93.75 93.878 94.168 94.544 94.965 95.16 95.344 95.577 95.969 96.193 96.549 97.097 97.523 98.089 98.904 99.83 101.786 102.102 100.855 100.421 100.687 101.085 101.407 101.77 101.841 102.398 102.926 103.157 103.614 104.059 104.368 104.823 105.402 105.949 106.678 108.722 107.449 106.811 106.188 106.241 106.266 106.216 106.425 106.866 106.81 106.692 107.025 110.925 113.648 114.546 113.569 111.239 108.118 107.389 107.393 107.435 107.57 107.697 107.662 107.77 107.782 108.943 110.154 108.657 107.682 107.669 107.624 107.581 107.766 108.239 108.434 108.153 108.191 108.22 108.868 109.759 108.652 108.43 108.606 109.377 109.104 108.94 108.459 108.523 108.72 -9999 108.562 108.493 108.351 108.592 108.719 108.855 111.498 114.576 116.277 115.016 110.497 108.863 108.904 108.89 108.963 108.957 108.693 108.571 108.595 108.603 108.657 108.789 109.703 111.194 111.367 110.484 109.604 109.505 109.591 109.78 109.858 110.226 113.873 117.381 118.03 117.376 115.703 111.714 110.102 110.097 110.085 110.498 111.326 111.596 111.408 111.41 111.372 111.294 111.008 112.786 116.749 118.103 117.504 115.498 111.084 110.883 110.999 112.22 112.629 112.42 111.444 111.967 111.638 112.3 112.816 111.961 111.61 113.165 113.567 112.259 114.566 116.266 113.746 113.015 112.31 112.268 112.554 112.43 112.844 113.428 112.849 113.582 115.844
81.043 80.98 81.189 81.156 81.069 80.95 80.954 80.961 80.847 80.68 80.477 80.464 80.437 -9999 -9999 -9999 -9999 -9999 -9999 -9999 -9999 -9999 -9999 -9999 -9999 -9999 -9999 -9999 -9999 -9999 79.237 -9999 -9999 -9999 -9999 -9999 -9999 78.945 78.945 78.931 78.957 78.965 -9999 78.687 78.625 78.57 78.517 78.41 78.371 78.456 78.497 78.452 78.373 78.375 78.401 78.353 78.293 78.272 78.256 78.163 78.107 78.135 78.026 78.476 81.055 82.142 79.875 77.196 76.981 80.573 80.676 76.206 75.375 75.308 74.715 74.142 74.231 75.235 75.701 79.295 83.57 85.827 81.465 76.164 76.698 76.164 75.337 74.125 73.397 73.43 74.309 74.179 73.671 73.243 73.082 73.013 73.31 73.436 73.354 73.432 73.463 73.555 73.699 73.806 73.884 74.048 74.148 74.279 74.334 74.577 74.81 75.028 75.099 75.261 75.609 76.107 76.748 77.153 77.523 77.678 77.611 77.68 77.648 79.069 80.846 81.26 81.092 80.635 80.502 80.399 79.022 79.603 78.461 77.926 77.698 77.719 77.646 77.551 77.491 77.421 77.468 77.48 77.306 77.368 77.458 77.714 78.095 78.297 78.453 78.52 78.604 78.561 78.581 78.733 78.75 78.766 78.967 79.035 79.211 79.43 79.614 79.75 81.22 88.691 86.191 81.835 80.474 80.794 81.623 82.498 83.443 84.47 85.472 87.96 91.482 94.577 91.619 91.633 92.084 92.156 92.106 91.989 91.556 91.363 92.465 90.91 87.829 87.425 86.71 84.093 83.869 84.056 83.853 83.785 83.764 83.735 83.817 83.896 84.28 84.342 84.689 87.292 90.71 90.599 86.054 85.703 86.318 86.716 86.741 87.074 87.231 87.32 87.445 87.812 87.87 88.138 88.21 88.379 88.578 88.659 88.705 88.731 88.969 89.33 89.566 89.61 89.641 90.215 90.407 90.619 91.403 91.78 91.598 91.394 90.093 90.01 90.068 90.928 91.762 92.169 92.554 93.119 93.538 93.712 93.857 94.459 94.689 94.921 95.14 95.51 95.584 95.91 96.302 96.769 96.932 97.631 98.187 98.787 99.574 100.374 100.42 100.479 100.47 100.841 101.294 101.476 101.549 102.041 102.505 102.615 103.016 103.743 103.967 104.228 104.561 105.318 105.583 106.93 111.006 109.476 109.724 106.982 106.099 106.111 106.155 106.39 106.779 106.875 106.696 107.411 111.88 114.359 114.477 112.673 109.18 107.585 107.416 107.513 107.365 107.39 107.614 107.651 107.615 107.823 109.259 110.277 109.621 108.067 107.679 107.535 107.474 107.777 108.757 108.919 108.176 108.13 108.161 108.255 108.314 108.461 111.794 112.956 113.575 111.437 108.929 108.539 109.048 108.83 -9999 -9999 108.595 108.763 109.458 109.006 108.744 110.127 112.38 112.558 111.293 109.177 108.621 108.76 108.829 108.97 109.009 108.517 108.44 108.524 108.541 108.693 108.865 109.889 111.18 110.724 109.746 109.506 109.61 109.821 109.774 109.968 113.357 116.219 118.03 118.336 116.455 112.947 109.934 109.948 110.038 110.07 110.523 110.999 111.158 111.282 110.219 110.327 110.661 110.693 113.011 116.342 117.414 115.562 112.947 110.605 110.766 110.839 112.181 112.064 112.619 111.441 111.445 112.714 113.144 112.776 111.707 111.524 111.619 111.91 111.909 114.198 113.84 113.247 112.365 112.096 112.3 112.904 112.315 113.297 114.427 113.44 113.396 115.4
81.031 81.051 81.191 81.043 80.927 81.082 81.031 80.955 80.909 80.842 80.526 80.358 80.446 -9999 -9999 -9999 -9999 -9999 -9999 -9999 -9999 -9999 -9999 -9999 -9999 -9999 -9999 -9999 -9999 79.221 79.23 79.211 79.139 79.053 79.005 -9999 -9999 78.946 78.975 78.922 78.99 78.995 78.902 78.796 78.738 78.66 78.514 78.576 78.529 78.468 78.493 78.512 78.364 78.437 78.482 78.484 78.38 78.38 78.191 78.042 77.987 78.046 77.245 76.82 77.977 79.347 77.058 75.932 75.973 76.253 75.231 74.284 74.872 74.775 73.84 73.274 73.247 72.951 73.078 75.177 80.752 79.426 77.562 75.411 75.351 74.705 73.527 73.801 73.929 73.499 74.709 74.434 73.553 73.154 73.115 73.197 73.273 73.378 73.387 73.454 73.478 73.534 73.718 73.89 74.092 74.314 74.482 74.615 74.755 74.85 74.961 75.09 75.177 75.315 75.623 76.063 76.654 77.082 77.392 77.614 77.606 77.613 77.825 79.39 80.962 80.776 80.103 78.689 78.987 79.03 78.221 77.861 77.658 77.485 77.465 77.428 77.444 77.48 77.421 77.383 77.39 77.36 77.306 77.326 77.493 77.577 78.031 78.23 78.344 78.427 78.573 78.565 78.594 78.773 78.824 78.882 79.037 79.134 79.303 79.529 79.632 79.678 80.184 82.242 82.373 80.735 80.661 81.276 81.602 82.327 83.366 84.505 85.556 87.374 88.457 91.393 91.585 91.678 92.016 92.146 92.162 91.995 91.609 91.191 90.463 89.376 90.943 92.039 92.037 84.742 84.04 84.166 83.966 83.893 83.797 83.85 83.928 84.178 84.717 85.103 84.92 85.842 85.603 86.076 86.476 86.168 86.583 86.949 87.006 87.191 87.085 87.438 87.674 87.944 88.065 88.217 88.346 88.504 88.744 88.807 88.886 88.952 89.188 89.426 89.609 89.72 89.947 89.874 89.944 89.752 89.9 91.077 91.646 90.909 89.941 90.141 90.664 91.552 92.141 92.386 92.953 93.305 93.58 93.753 94.072 94.423 94.657 94.972 95.324 95.619 95.704 96.118 96.459 96.738 97.13 98.053 98.336 98.816 100.315 101.136 102.242 100.71 100.763 101.049 101.153 101.474 101.785 101.949 102.229 102.71 103.052 103.346 103.749 104.213 104.467 105.005 106.901 110.094 109.957 110.544 107.917 106.606 105.917 105.949 105.958 106.147 106.401 106.751 106.531 107.034 111.814 115.03 114.001 108.579 108.916 107.326 107.352 107.345 107.372 107.412 107.457 107.531 107.698 108.467 109.711 110.155 108.985 107.691 107.525 107.455 107.472 107.776 108.698 108.817 108.008 108.111 108.333 108.223 108.181 108.406 113.287 114.881 114.986 111.12 108.312 108.394 108.974 108.853 -9999 108.639 108.892 109.328 109.713 109.46 108.518 108.47 108.798 109.913 109.388 109.882 109.295 108.953 108.937 108.893 108.701 108.371 108.348 108.649 109.655 109.369 109.869 110.678 110.906 110.574 109.895 109.556 109.555 109.593 109.689 110.36 113.927 117.162 117.75 117.935 115.711 114 110.169 109.978 109.986 109.992 110.549 110.74 111.27 112.43 110.428 110.707 110.261 110.662 112.131 114.831 114.709 111.614 110.525 110.58 110.698 110.799 111.292 112.046 113.723 111.91 112.299 114.479 114.432 114.003 112.341 111.535 111.675 112.072 112.371 112.426 112.617 112.196 112.287 112.092 112.209 112.226 112.254 112.632 113.172 113.253 113.425 113.802
81.047 81.068 81.017 81.061 81.148 81.093 80.991 80.922 80.926 80.886 80.648 80.49 80.486 -9999 -9999 -9999 -9999 -9999 -9999 -9999 -9999 79.592 -9999 79.539 79.526 79.467 79.37 79.248 79.206 79.2 79.311 79.201 79.121 79.002 78.967 78.999 -9999 78.944 78.957 78.933 78.961 78.972 78.903 78.824 78.797 78.677 78.625 78.629 78.597 78.456 78.707 78.813 78.746 78.923 78.781 79.009 78.4 77.934 77.635 77.294 77.149 76.671 76.244 76.224 75.911 75.298 74.703 75.019 74.409 73.83 74.213 74.636 74.569 76.36 76.342 74.413 73.837 73.185 73.07 73.115 79.376 83.441 76.678 73.347 73.76 73.358 72.902 74.871 77.459 74.325 73.514 73.537 73.167 73.165 73.112 73.279 73.324 73.33 73.404 73.47 73.576 73.796 74.064 74.28 74.354 74.768 74.851 75.018 75.16 75.181 75.066 75.121 75.23 75.379 75.664 76.051 76.534 76.995 77.371 77.549 77.587 77.558 77.672 78.453 79.538 79.174 78.083 77.994 77.913 77.864 77.658 77.488 77.371 77.461 77.336 77.27 77.204 77.302 77.267 77.271 77.332 77.185 77.184 77.278 77.427 77.576 77.883 78.161 78.192 78.197 78.488 78.58 78.686 78.845 78.884 78.973 79.092 79.19 79.214 79.466 79.623 79.686 79.84 80.145 80.021 80.442 81.896 83.428 82.946 82.643 83.3 84.516 85.903 86.965 87.869 89.98 91.061 91.545 91.968 92.111 92.244 92.065 91.693 91.14 90.823 91.187 93.81 93.354 90.712 85.38 84.258 84.312 84.103 83.949 83.969 84.008 84.111 84.527 85.335 85.987 85.2 85.231 85.6 86.394 86.597 86.793 87.014 87.179 87.186 87.168 87.753 87.753 87.832 88.171 88.393 88.346 88.343 88.653 88.748 88.916 89.134 89.182 89.359 89.562 89.806 89.895 90.046 90.201 90.342 90.387 90.108 90.314 90.43 90.145 90.126 90.73 91.622 91.915 92.213 92.754 93.206 93.327 93.562 93.898 94.155 94.348 94.739 95.143 95.251 95.497 95.927 96.098 96.4 96.667 97.608 98.085 98.279 99.837 104.772 103.765 101.307 100.911 100.872 101.055 101.247 101.803 102.092 102.021 102.407 102.704 103.086 103.202 103.71 104.092 104.232 104.648 108.531 111.849 111.041 111.143 108.465 107.235 106.38 105.948 105.764 105.845 105.951 106.105 106.321 107.105 112.047 114.656 113.934 111.346 107.853 107.14 107.674 107.588 107.921 107.553 107.455 107.483 107.59 107.787 109.531 109.838 108.593 107.596 107.475 107.423 107.404 107.667 108.351 108.658 108.225 108.662 108.661 108.198 108.235 108.683 111.68 114.769 114.589 110.071 108.487 108.363 108.656 108.718 -9999 108.469 108.574 109.029 109.853 109.663 108.531 108.532 109.297 109.272 109.302 109.928 109.02 108.845 109.125 108.632 108.406 108.359 108.423 108.561 109.407 110.658 111.818 110.302 110.57 111.154 109.869 109.469 109.487 109.597 109.747 109.802 114.58 116.192 116.553 116.595 113.749 110.651 110.094 109.987 109.963 110.152 110.342 110.414 112.331 113.075 110.289 110.242 112.375 112.458 111.19 111.624 111.393 110.5 110.734 110.591 110.667 110.75 110.924 112.623 113.518 112.616 113.25 114.19 115.205 115.08 112.167 111.526 111.86 112.124 112.485 112.204 112.847 112.394 112.757 112.6 112.255 112.238 112.22 112.262 112.105 112.145 112.344 112.81
80.99 81.023 81.07 81.089 81.127 80.965 81.109 80.957 80.934 80.9 80.784 80.672 80.484 -9999 -9999 -9999 -9999 -9999 -9999 -9999 79.64 79.611 79.582 79.546 79.53 79.469 79.412 79.279 79.188 79.124 79.194 79.163 79.118 79.066 78.986 79.004 78.986 78.961 78.944 78.942 78.955 78.963 -9999 78.81 78.774 78.749 78.617 78.706 78.72 78.722 79.163 79.189 79.874 79.868 79.7 78.973 77.381 76.575 76.422 75.993 75.513 75.371 75.66 75.333 74.784 74.827 74.484 74.232 75.203 73.903 75.987 75.65 74.956 77.764 80.334 75.617 76.313 77.292 73.928 72.922 75.315 76.091 76.238 75.485 73.424 73.984 73.029 74.331 80.866 74.911 73.815 73.032 73.023 73.494 73.531 73.457 73.333 73.398 73.49 73.49 73.605 74.428 74.931 74.525 74.639 75.103 75.225 75.207 75.215 75.201 75.126 75.113 75.319 75.455 75.617 75.959 76.427 76.972 77.278 77.455 77.471 77.361 77.471 77.558 77.772 77.656 77.55 77.664 77.565 77.46 77.471 77.413 77.367 77.564 77.43 77.276 77.215 77.149 77.024 77.124 77.172 77.161 77.148 77.25 77.35 77.476 77.654 78.054 78.176 78.319 78.459 78.587 78.764 79.023 78.954 79.038 79.138 79.144 79.116 79.444 79.603 79.669 79.777 79.899 80.155 80.635 83.988 85.41 83.472 82.174 83.591 84.363 86.904 87.072 87.52 89.014 90.37 91.373 91.825 92.103 92.188 92.062 92.053 91.627 91.054 90.039 94.411 92.791 87.47 85.146 84.694 86.175 85.204 83.931 84.055 84.251 84.398 84.809 85.24 85.424 85.538 85.581 85.823 86.396 86.851 87.09 87.169 87.04 87.295 87.979 88.066 88.213 88.23 89.021 88.783 88.371 88.484 88.599 88.855 89.03 89.285 89.339 89.605 89.763 89.875 90.041 90.259 90.598 90.694 90.646 90.759 90.584 90.35 90.305 90.703 91.552 91.789 92.116 92.633 93.039 93.238 93.4 93.79 93.854 94.108 94.59 94.878 94.985 95.234 95.664 95.887 96.057 96.364 96.969 97.43 97.865 98.778 100.445 102.383 103.744 101.18 100.769 100.799 101.085 101.398 101.645 101.911 102.275 102.565 102.696 102.916 103.421 103.597 103.769 104.229 104.601 105.524 109.774 111.452 112.083 110.227 107.956 106.951 105.822 105.672 105.572 105.824 106.168 106.283 107.366 108.216 110.515 111.297 109.322 107.201 107.341 108.664 108.209 109.045 108.157 107.589 107.527 107.609 107.753 108.984 109.794 108.815 107.699 107.438 107.463 107.469 107.453 108.066 109.096 108.122 108.083 108.054 108.118 108.304 109.917 111.866 115.449 114.73 112.59 108.968 108.388 108.621 108.616 108.588 108.399 108.26 108.629 109.729 109.534 109.967 109.503 110.031 110.538 109.933 109.748 109.166 108.502 108.614 108.48 108.301 108.473 108.503 108.51 108.712 110.297 111.079 110.378 110.657 110.691 109.769 109.389 109.485 109.582 109.62 109.738 110.901 112.361 115.23 115.312 113.632 110.153 109.842 109.943 109.919 110.1 110.737 111.327 112.015 112.19 110.557 111.12 115.375 117.308 115.473 113.043 111.364 111.386 111.437 110.718 110.606 110.648 110.922 112.501 111.787 111.358 112.619 114.452 113.633 112.594 111.37 111.29 111.308 111.488 111.462 111.574 111.454 111.964 111.915 111.775 112.006 112.284 112.138 111.844 111.894 112.053 112.317 112.835
80.903 81.182 81.072 81.13 81.247 81.1 81.042 81.023 80.99 80.88 80.698 80.413 80.377 -9999 -9999 -9999 -9999 79.712 79.701 79.685 79.647 79.646 79.591 79.544 79.548 79.46 79.385 79.333 79.295 79.202 79.153 79.117 79.13 79.095 79.055 79.021 78.973 78.948 78.978 79.059 79.127 79.021 -9999 78.829 78.804 78.673 78.773 78.65 78.874 78.346 78.498 79.725 80.631 80.667 78.757 76.532 76.261 75.931 74.852 74.511 75.009 75.226 75.223 74.321 76.363 75.092 75.205 75.697 79.866 77.187 78.348 80.143 76.505 77.604 77.76 79.292 77.748 76.017 73.747 73.319 73.211 74.099 76.827 76.685 73.193 76.46 72.989 72.928 73.2 73.941 73.373 73.326 73.803 75.443 74.583 73.774 73.483 73.511 73.52 73.521 73.794 74.859 75.177 74.481 74.619 75.328 75.318 75.251 75.197 75.166 75.157 75.271 75.503 75.631 75.696 75.914 76.328 76.767 77.231 77.336 77.342 77.284 77.305 77.342 77.385 77.411 77.394 77.445 77.355 77.273 77.308 77.301 77.271 77.426 77.386 77.371 77.234 77.09 77.117 77.177 77.172 77.214 77.242 77.226 77.171 77.332 77.634 78.067 78.353 78.445 78.559 78.563 78.714 78.934 78.985 79.067 79.184 79.267 79.466 79.511 79.657 79.708 79.798 79.962 80.223 81.698 86.67 85.171 82.407 82.36 83.657 83.953 86.036 86.477 87.826 88.819 89.484 91.165 91.594 91.968 92.105 92.115 91.972 91.662 91.055 90.132 90.385 88.712 85.717 86.459 89.591 93.345 89.938 85.472 84.542 84.914 84.991 85.146 85.444 85.644 85.799 86.076 86.268 86.63 86.882 87.086 87.271 87.544 87.812 88.103 88.473 88.563 88.746 88.785 88.727 89.498 89.149 89.5 89.425 89.31 89.305 89.517 89.763 89.857 90.151 90.344 90.536 90.659 90.742 90.99 91.325 91.06 91.028 91.224 91.487 91.749 92.078 92.494 92.723 93.085 93.307 93.577 93.676 93.951 94.346 94.706 94.73 95.065 95.441 95.775 95.862 96.247 96.679 97.067 97.411 98.237 99.191 100.462 101.322 101.066 101.612 100.732 100.901 101.198 101.443 101.724 102.063 102.357 102.429 102.77 103.233 103.268 103.366 103.896 104.242 104.466 104.864 106.232 107.318 108.398 107.272 105.834 105.872 105.652 105.726 105.758 105.997 106.141 106.509 107.864 109.669 107.631 108.005 107.097 107.794 108.238 107.379 107.185 107.841 107.671 107.431 107.494 107.602 107.62 109.549 109.939 109.009 107.67 107.292 107.295 107.376 107.327 107.761 107.93 107.848 107.882 107.938 108.019 108.421 111.618 113.932 115.672 114.815 110.145 108.175 107.945 108.347 108.833 108.704 108.38 108.179 108.366 109.274 109.273 111.254 111.276 113.263 110.448 109.777 110.018 109.747 108.88 108.741 108.398 108.379 108.372 108.398 108.47 108.744 109.632 110.996 114.15 112.084 110.122 109.466 109.379 109.414 109.531 109.564 109.578 109.675 110.084 110.848 112.571 111.674 109.958 109.864 109.884 109.874 110.076 110.359 111.508 111.408 110.459 110.365 113.062 116.398 117.192 114.695 110.612 110.898 111.999 111.788 110.829 110.495 110.619 111.345 111.848 111.937 110.728 110.822 111.382 111.359 111.007 111.46 110.918 110.996 110.997 111.096 111.106 111.172 111.343 111.401 111.37 111.672 111.661 111.831 111.644 111.639 112.126 114.828 113.542
80.893 81.013 80.981 81.036 81.143 81.104 80.911 81.035 80.986 80.721 80.547 80.209 80.215 -9999 -9999 -9999 -9999 79.724 79.732 79.695 79.62 79.59 79.527 79.496 79.578 79.472 79.402 79.336 79.259 79.241 79.172 79.167 79.113 79.058 79.056 79.01 78.932 78.939 78.95 78.996 79.023 78.933 -9999 78.873 78.946 78.761 78.394 78.526 78.519 79.281 78.882 79.513 80.761 79.778 77.829 76.016 75.347 74.932 75.401 74.541 74.972 75.161 75.208 75.057 75.304 75.031 76.307 78.61 75.404 74.972 75.95 75.05 76.4 79.459 78.475 78.984 76.195 74.152 73.584 75.229 75.802 75.881 75.379 74.463 74.002 78.743 73.258 73.114 73.448 73.517 74.066 73.859 74.43 75.568 75.004 73.997 73.643 73.546 73.57 73.69 73.9 74.224 74.39 74.356 74.456 74.83 75.137 75.177 75.147 75.145 75.209 75.461 75.726 75.795 75.824 75.972 76.256 76.672 77.166 77.282 77.279 77.224 77.211 77.219 77.31 77.347 77.348 77.368 77.284 77.231 77.204 77.256 77.308 77.248 77.168 77.234 77.231 77.15 77.109 77.074 77.126 77.156 77.26 77.378 77.459 77.287 77.685 77.978 78.285 78.513 78.646 78.602 78.691 78.856 78.976 79.117 79.221 79.339 79.479 79.554 79.7 79.758 79.848 79.977 80.185 80.746 82.037 81.769 81.052 81.539 82.512 84.007 85.66 89.189 89.912 89.976 89.935 90.707 91.321 92.134 92.166 92.046 91.893 91.725 91.44 89.998 89.445 87.592 86.316 86.424 93.067 96.267 92.69 86.024 85.085 85.185 85.242 85.353 85.678 85.824 86.069 86.361 86.749 86.953 87.081 87.419 87.568 87.704 87.807 88.669 89.244 89.27 89.183 89.326 89.255 89.293 90.015 92.298 91.689 89.44 89.472 89.814 89.89 90.05 90.402 90.459 90.521 90.785 90.996 91.034 91.201 91.389 91.755 91.683 91.745 92.131 92.564 92.694 92.792 93.216 93.318 93.487 93.808 94.213 94.367 94.606 94.889 95.202 95.497 95.704 96.167 96.466 96.808 97.158 97.914 98.375 98.627 99.747 100.375 100.652 100.725 100.858 101.077 101.218 101.455 101.905 102.224 102.234 102.619 103.054 103.149 103.291 103.636 103.91 104.021 104.454 104.741 104.996 105.319 105.492 105.668 105.639 105.656 105.594 105.686 105.893 105.967 106.043 106.241 108.076 111.998 113.326 111.566 108.362 107.423 107.61 106.925 106.865 106.931 107.055 107.096 107.28 107.422 108.001 109.737 109.797 108.861 107.665 107.219 107.284 107.159 107.25 107.364 107.806 107.857 107.971 107.796 107.79 108.598 109.886 113.743 114.697 113.728 111.423 108.517 108.15 108.194 108.595 108.528 108.196 107.955 108.368 108.542 109.311 113.034 114.146 114.685 111.327 110.751 109.284 108.789 108.942 108.851 108.534 108.461 108.162 108.288 108.388 108.52 109.268 110.797 112.386 111.67 109.632 109.177 109.327 109.374 109.523 109.496 109.519 110.344 110.714 110.362 109.734 109.891 109.773 109.859 109.854 109.972 110.084 109.728 109.967 110.214 110.07 110.603 114.738 116.681 116.718 114.795 110.773 110.575 111.488 111.3 110.522 110.849 110.788 111.146 112.152 111.655 110.707 110.465 110.461 110.639 110.652 110.726 110.883 111.075 110.876 110.93 111.049 111.066 111.184 111.252 111.428 111.443 111.406 111.454 111.566 111.632 112.142 113.881 113.676
80.821 80.924 81.092 81.056 81.063 81.018 81.051 81.051 80.852 80.641 80.533 80.33 80.289 -9999 -9999 -9999 79.702 79.722 79.749 79.73 79.575 79.534 79.522 79.495 79.531 79.552 79.412 79.347 79.303 79.227 79.303 79.16 79.081 79.126 79.072 78.992 78.936 78.9 78.865 78.778 78.746 78.759 78.84 78.855 78.861 78.573 77.91 79.767 80.947 81.341 78.885 78.837 80.418 80.929 78.356 75.981 74.557 74.47 74.988 74.962 75.053 74.953 74.783 74.744 74.811 74.88 75.366 76.529 74.972 74.559 75.458 76.914 75.834 77.809 78.507 78.926 76.141 76.678 75.241 74.606 76.12 76.055 75.015 73.334 73.053 73.737 73.55 73.586 73.68 73.822 74.444 74.282 73.888 74.532 74.366 73.911 73.968 73.79 73.803 73.878 74.043 74.157 74.144 74.294 74.516 74.764 74.926 75.053 75.1 75.15 75.253 75.587 76.033 75.808 75.824 75.961 76.157 76.564 77.042 77.225 77.246 77.225 77.197 77.124 77.25 77.303 77.248 77.197 77.236 77.181 77.167 77.201 77.288 77.293 77.147 77.201 77.349 77.265 77.197 77.154 77.191 77.163 78.003 80.046 78.904 77.249 77.516 77.817 78.196 78.443 78.544 78.615 78.685 78.792 78.958 79.145 79.235 79.359 79.485 79.613 79.756 79.865 79.867 79.984 80.14 80.404 80.432 80.105 80.963 81.525 82.256 83.738 87.179 92.677 92.151 90.51 89.951 90.733 91.459 91.862 92.018 92.046 91.97 91.874 91.726 90.753 89.672 87.913 86.336 86.559 93.773 88.511 89.114 85.274 84.964 85.363 85.567 85.701 86.07 86.509 86.608 86.79 86.977 87.088 87.325 87.731 87.928 87.786 88.204 89.673 90.401 91.419 89.531 90.75 89.772 89.39 91.215 94.456 93.344 90.181 89.668 89.797 89.854 90.271 90.502 90.37 90.456 90.789 91.151 91.252 91.28 91.492 91.84 91.72 92.123 92.345 92.463 92.708 93.152 93.114 93.252 93.541 93.969 94.067 94.253 94.737 95.057 95.214 95.496 95.729 96.19 96.457 96.785 97.581 97.866 98.368 99.023 99.828 100.234 100.633 100.791 100.798 101.025 101.228 101.649 101.848 101.99 102.199 102.658 102.951 103.07 103.313 103.548 103.774 104.137 104.468 104.821 104.861 105.146 105.356 105.508 105.521 105.534 105.552 105.52 105.803 106.031 106.199 106.581 110.502 112.779 113.579 112.592 109.067 106.754 106.752 106.585 106.76 106.899 107.031 107.086 107.155 107.343 107.857 109.558 109.768 109.211 107.461 107.228 107.148 107.095 107.211 107.36 107.971 108.139 108.41 108.239 108.834 109.354 109.419 111.297 112.031 112.096 109.096 108.402 108.452 107.923 108.063 108.003 107.884 108.041 108.505 108.616 108.311 111.297 114.646 115.632 114.514 111.884 108.798 109.484 109.992 108.866 108.326 108.257 108.268 108.322 108.401 108.567 109.715 110.577 111.207 112.484 110.217 109.21 109.287 109.361 109.464 109.606 110.379 113.21 114.032 113.428 110.712 109.645 109.66 109.773 109.828 110.152 110.383 110.375 110.445 109.845 109.774 111.295 115.669 117.291 116.208 113.624 110.419 110.488 110.522 110.58 110.595 110.698 110.672 110.836 113.041 111.532 110.723 110.641 110.754 110.68 110.789 110.822 110.881 110.922 111.051 111.149 111.127 111.188 111.368 111.391 111.635 111.607 111.526 111.566 111.689 111.741 111.821 114.172 116.416
80.659 80.875 80.983 80.926 80.971 81.072 80.911 80.978 80.85 80.506 80.248 80.333 -9999 -9999 -9999 79.632 79.668 79.694 79.72 79.592 79.513 79.468 79.455 79.42 79.471 79.557 79.536 79.474 79.351 79.284 79.223 79.148 79.148 79.173 79.208 79.158 79.107 78.951 78.757 78.575 78.64 78.688 78.743 78.788 78.877 78.545 77.769 80.297 81.805 81.79 80.058 77.834 77.95 80.605 78.159 74.677 74.261 74.449 74.614 74.48 74.686 74.771 74.802 74.78 74.648 74.589 74.925 74.842 74.638 74.488 74.662 75.298 73.777 74.54 75.689 78.101 78.431 77.207 73.885 72.895 73 73.427 73.056 72.721 72.872 73.263 73.383 73.398 73.726 74.234 74.498 74.038 73.901 73.715 73.801 74.03 74.272 73.996 73.973 74.138 74.165 74.186 74.285 74.406 74.67 74.898 74.961 75.031 75.138 75.21 75.282 75.419 75.667 75.748 75.763 75.966 76.235 76.442 76.907 77.115 77.199 77.243 77.254 77.257 77.324 77.157 77.223 77.569 77.494 77.364 77.246 77.17 77.276 77.343 77.223 77.246 77.311 77.267 77.26 77.265 77.278 77.278 78.382 82.419 79.845 77.776 77.423 77.683 78.163 78.496 78.61 78.699 78.761 78.817 78.968 79.067 79.238 79.43 79.553 79.657 79.733 79.839 79.868 79.895 80.084 80.216 80.233 81.575 81.93 81.224 82.032 83.049 84.542 89.811 92.3 88.323 89.512 90.012 91.3 91.647 91.943 92.073 91.986 91.897 91.642 91.038 89.787 88.118 86.51 86.125 86.967 86.756 88.395 86.608 85.455 86.152 85.873 85.999 86.366 86.781 86.837 87.012 87.085 87.254 87.759 88.272 88.395 88.136 89.576 91.458 94.178 95.251 95.867 94.589 93.055 89.996 89.873 91.336 91.827 90.309 90.106 90.01 90.188 90.361 90.344 90.273 90.65 90.649 91.357 91.401 91.363 91.604 91.841 91.936 92.36 92.529 92.603 93.027 93.026 93.123 93.448 93.711 93.923 94.186 94.453 94.829 95.031 95.307 95.742 95.993 96.206 96.522 97.131 97.418 97.945 98.86 99.356 99.706 100.214 100.622 100.922 100.797 101.05 101.223 101.553 101.795 102.142 102.308 102.329 102.787 103.066 103.304 103.507 103.851 104.129 104.304 104.631 104.77 105.029 105.341 105.369 105.433 105.528 105.496 105.461 105.665 106.001 106.445 106.68 109.114 112.764 113.467 112.424 109.765 106.823 106.704 106.794 106.93 106.937 107.303 107.137 107.298 107.444 107.506 108.826 109.757 108.904 107.337 107.152 106.928 106.964 107.089 107.427 107.909 108.003 108.189 108.469 109.105 108.742 108.277 107.982 109.714 108.969 108.153 107.971 107.966 107.812 107.57 107.528 107.724 107.858 108.182 109.084 109.087 110.906 114.6 115.478 113.046 108.985 108.786 109.053 109.206 108.972 108.488 108.299 108.276 108.213 108.325 108.651 109.758 111.692 114.362 114.897 112.139 109.907 109.205 109.301 109.359 111.017 113.445 115.542 116.358 116.129 113.614 109.96 109.664 109.703 109.864 110.387 110.41 110.95 110.387 109.845 109.72 110.437 116.099 117.417 115.466 111.419 110.234 110.178 110.52 110.583 110.613 110.526 110.741 110.884 111.577 110.914 111.789 112.025 111.364 111.017 111.115 112.054 111.769 112.335 112.49 113.005 112.035 112.316 112.273 112.497 112.933 112.461 111.697 111.832 111.855 112.079 112.116 114.246 116.11
80.41 80.541 80.55 80.75 80.897 80.91 80.858 80.828 80.368 80.389 80.244 80.287 -9999 -9999 -9999 79.592 79.625 79.637 79.479 79.543 79.52 79.506 79.424 79.361 79.455 79.346 79.448 79.473 79.314 79.196 79.17 79.167 79.17 79.15 79.145 79.095 79.114 78.956 78.71 78.439 78.525 78.667 78.732 78.744 78.792 77.744 76.72 78.889 81.085 80.376 78.014 75.927 76.064 76.465 76.085 74.92 74.41 74.704 74.895 74.702 74.715 74.826 74.841 74.794 74.734 74.69 74.813 74.621 74.764 74.312 73.953 74.156 73.452 73.293 73.634 72.616 74.237 73.392 72.733 72.749 72.544 72.591 72.639 72.797 73.152 73.468 73.487 73.666 73.833 73.877 73.885 73.83 74.264 73.661 73.808 73.79 73.854 73.874 73.943 74.047 74.12 74.278 74.457 74.553 74.741 74.936 74.979 74.964 75.113 75.258 75.327 75.424 75.543 75.68 75.822 76.004 76.231 76.484 76.842 77.079 77.139 77.205 77.279 77.3 77.191 77.202 77.269 78.221 79.222 78.063 77.527 77.323 77.622 77.506 77.249 77.325 77.322 77.23 77.258 77.248 77.253 77.214 77.404 78.278 77.939 78.033 77.559 77.758 78.001 78.302 78.558 78.753 78.898 79.024 78.954 78.989 79.307 79.524 79.616 79.67 79.736 79.835 79.992 79.986 80.207 80.219 80.988 83.892 84.65 82.082 81.883 82.605 83.782 86.271 88.298 88.356 89.582 90.311 91.246 91.701 92.035 92.079 92.051 92.066 91.834 91.574 90.051 88.53 86.966 85.4 85.33 85.77 92.914 89.876 86.492 86.271 86.32 86.401 86.698 86.761 86.97 87.157 87.23 87.509 88.268 89.595 88.886 88.128 89.536 95.338 96.445 96.643 97.241 96.665 95.721 93.806 90.4 89.896 90.173 90.327 90.505 90.615 90.578 90.516 90.47 90.615 90.812 91.134 91.461 91.395 91.383 92.214 92.514 92.505 92.43 92.413 92.986 93.208 93.093 93.378 93.609 93.845 93.993 94.266 94.561 94.775 94.975 95.598 95.766 95.963 96.33 96.618 97.151 97.454 98.342 98.853 99.261 99.805 100.317 100.523 100.855 101.076 101.341 101.451 101.576 101.896 102.07 102.11 102.43 102.92 102.936 103.254 103.629 103.82 103.942 104.109 104.555 104.768 105.062 105.543 105.437 105.387 105.522 105.493 105.458 105.506 106.674 106.074 106.534 110.947 113.126 113.527 111.435 108.526 106.843 106.682 106.797 107.154 107.074 107.11 107.099 107.19 107.416 107.066 108.407 109.736 108.61 107.342 107.07 106.868 106.839 107.056 107.403 107.788 107.602 107.655 107.704 107.76 107.95 109.678 109.694 112.987 112.011 108.377 107.949 107.84 107.53 107.504 107.525 107.69 107.768 107.921 108.427 108.153 112.269 114.405 114.96 111.93 109.449 108.589 108.589 108.458 108.573 108.986 108.98 108.254 108.346 108.425 108.395 109.614 113.786 115.45 112.059 113.099 110.899 110.555 109.519 109.324 110.051 113.016 116.765 117.684 116.844 113.213 109.666 109.634 109.723 109.958 110.541 110.654 111.222 110.545 110.002 109.806 109.997 112.478 112.633 113.515 110.283 110.132 110.613 110.785 110.774 110.606 110.75 110.966 110.798 112.091 111.486 112.686 113.206 113.058 113.048 113.102 113.207 113.08 113.374 113.514 113.548 113.588 113.876 113.595 113.691 113.929 114.08 113.432 113.611 113.891 113.994 113.759 113.088 113.632
80.462 80.392 80.219 80.313 80.665 80.64 80.627 80.724 80.483 80.358 -9999 -9999 -9999 -9999 -9999 79.593 79.559 79.529 79.424 79.536 79.624 79.632 79.556 79.506 79.503 79.422 79.373 79.237 79.158 79.133 79.105 78.922 78.932 78.921 79.02 79.039 79.066 -9999 78.719 78.559 78.608 -9999 78.808 78.82 78.678 77.565 76.497 76.646 77.275 77.226 76.407 75.614 75.084 74.917 75.397 75.353 75.009 74.878 74.777 74.663 74.84 75.091 75.026 74.88 74.867 74.905 74.822 74.751 74.725 74.701 74.303 73.858 73.681 74.385 75.777 76.399 75.923 73.246 72.823 72.663 72.584 72.607 72.656 72.808 73.159 73.467 73.541 73.889 73.741 73.611 73.512 73.543 73.811 73.682 73.769 73.767 73.864 73.831 73.927 74.017 74.183 74.324 74.525 74.649 74.784 74.901 74.991 75.028 75.146 75.148 75.279 75.379 75.439 75.694 75.848 75.89 76.183 76.747 76.935 76.967 77.091 77.218 77.27 77.306 77.278 77.489 77.354 78.195 79.666 79.403 77.755 78.089 79.349 78.397 77.353 77.439 77.466 77.202 77.193 77.237 77.306 77.287 77.252 77.604 77.999 79.887 78.701 77.822 77.871 78.268 78.589 78.749 78.867 78.91 78.945 79.08 79.331 79.368 79.587 79.665 79.735 79.864 80.002 80.075 80.233 80.242 80.751 83.701 86.371 81.809 81.783 82.464 83.849 85.081 87.267 88.182 89.898 91.345 91.49 91.616 92.117 92.102 92.024 92.011 91.849 91.485 90.239 88.919 87.365 86.476 87.303 88.907 90.071 88.207 86.173 86.5 86.576 86.665 86.732 86.832 87.149 87.333 87.403 88.028 88.46 90.176 88.959 88.547 88.815 92.818 95.9 96.097 96.795 97.244 96.214 92.994 90.839 90.139 90.371 91.189 90.823 91.151 90.771 91.032 91.261 91.104 91.545 92.459 91.681 91.264 91.732 92.548 92.806 92.792 92.577 92.637 93.044 93.188 93.226 93.417 93.681 93.955 94.237 94.437 94.667 95.015 95.388 95.454 95.742 96.21 96.494 96.796 97.241 97.687 98.214 98.643 99.252 99.83 100.211 100.437 100.772 101.151 101.208 101.4 101.701 101.862 102.027 102.293 102.591 102.695 102.945 103.337 103.682 103.789 103.952 104.272 104.452 104.987 107.015 106.999 105.847 105.411 105.412 105.385 105.48 105.676 106.523 106.04 107.569 111.217 112.871 113.873 112.359 108.833 106.631 106.527 106.699 107.045 108.488 109.029 107.251 107.002 106.996 107.083 109 109.588 108.374 107.38 106.993 106.912 106.894 107.012 107.067 107.425 107.423 107.591 107.597 107.536 107.558 109.221 112.72 114.23 113.73 112.11 108.654 108.216 108.107 107.79 107.624 107.704 107.743 107.876 107.999 107.997 110.461 114.068 115.687 113.73 109.332 108.535 108.455 108.573 108.582 109.384 110.1 108.206 108.078 108.21 108.267 110.056 112.055 114.811 115.4 113.194 111.366 112.487 109.467 109.269 109.759 114.461 117.487 118.128 115.908 111.528 109.791 109.645 109.7 109.906 110.464 110.467 110.484 110.705 112.304 112.071 111.077 111.269 111.351 110.514 110.661 111.297 111.374 112.374 110.945 111.031 111.371 111.391 111.538 115.571 114.147 113.325 113.273 113.074 113.314 113.134 112.92 112.729 113.421 112.743 112.747 113.53 113.772 113.548 113.721 113.947 114.126 113.993 114.187 113.978 113.781 114.299 113.527 112.957
-9999 80.321 80.238 80.313 80.462 80.371 80.197 80.492 80.495 -9999 -9999 -9999 -9999 -9999 79.627 79.635 79.614 79.513 79.443 79.532 79.631 79.71 79.538 79.481 79.472 79.429 79.258 79.064 79.025 79.088 79.055 78.892 78.772 78.656 78.802 78.826 78.848 78.757 -9999 -9999 -9999 79.015 78.997 79.035 78.781 78.03 76.561 75.76 75.509 75.901 76.149 75.802 75.079 75.085 75.381 75.586 75.213 74.589 74.314 74.357 74.856 75.258 75.201 74.964 74.861 74.886 74.569 74.638 74.588 74.518 74.081 73.747 74.188 74.939 78.417 80.199 78.55 74.191 72.997 72.723 72.716 72.474 72.55 72.689 73.14 73.47 73.533 73.635 73.552 73.588 73.875 73.643 73.644 73.623 73.721 73.824 73.997 74.046 74.038 74.034 74.148 74.308 74.555 74.732 74.709 74.876 74.981 74.97 75.005 75.05 75.203 75.308 75.442 75.711 75.993 76.107 77.148 77.347 77.699 77.01 77.168 77.178 77.256 77.281 77.258 77.305 77.311 77.719 79.626 80.663 79.068 80.164 81.231 80.186 78.055 77.608 77.637 77.258 77.235 77.397 77.375 77.409 77.34 77.557 79.539 82.326 78.122 78.073 78.039 78.245 78.621 78.814 78.858 78.885 78.965 79.075 79.203 79.343 79.573 79.637 79.741 79.908 80.03 80.118 80.267 80.357 80.346 80.798 81.837 81.668 81.594 82.303 83.58 84.551 86.307 88.074 91.698 92.139 91.592 91.713 91.948 92.045 92.019 91.983 91.825 91.602 90.6 89.369 87.772 87.236 87.214 92.195 87.25 87.947 88.24 87.261 86.943 86.83 86.907 87.039 87.308 87.582 87.776 88.265 90.827 92.751 90.049 88.719 89.341 92.572 91.428 92.54 93.081 93.847 93.91 90.413 90.616 90.279 93.627 94.651 91.73 91.391 92.541 91.182 91.958 92.18 92.288 92.255 91.941 92.047 92.011 92.125 92.534 92.484 92.605 92.678 92.994 93.184 93.289 93.444 93.769 94.272 94.294 94.441 94.822 95.105 95.276 95.581 95.946 96.275 96.352 96.922 97.254 97.71 97.963 98.546 99.412 99.806 100.164 100.439 100.887 101.065 101.27 101.467 101.649 101.888 102.124 102.291 102.594 102.639 102.916 103.217 103.459 103.801 104.012 104.014 105.147 107.501 108.252 107.678 105.888 105.376 105.396 105.398 105.44 105.458 105.866 105.914 106.263 110.137 113.04 113.822 112.509 108.424 106.374 106.38 106.496 108.369 108.677 108.845 106.906 106.782 106.848 107.035 109.013 109.63 108.838 107.243 106.913 106.927 106.751 106.935 107.307 107.389 107.349 107.41 107.411 107.512 107.511 108.531 111.287 115.146 114.586 111.622 108.236 107.946 108.087 107.899 107.866 107.718 107.747 107.845 108.427 108.102 109.096 111.407 113.678 111.99 108.912 109.423 109.116 109.229 108.997 109.374 109.622 108.274 108.122 108.104 108.363 110.241 111.478 115.464 115.956 110.709 110.725 109.577 109.173 109.212 110.748 115.501 116.898 117.92 115.599 112.137 110.064 109.652 109.668 109.989 110.32 110.142 109.686 110.315 111.014 112.373 112.457 111.073 112.112 111.376 110.339 111.549 111.007 112.201 111.28 111.439 111.321 111.486 111.344 111.932 112.705 111.797 111.572 111.175 111.687 111.636 111.442 111.778 112 111.242 111.478 112.948 112.848 112.805 112.629 112.877 113.078 112.917 113.179 113.071 112.202 113.047 112.611 112.199
-9999 -9999 80.35 80.373 -9999 80.403 80.392 -9999 -9999 -9999 -9999 -9999 -9999 -9999 79.644 79.679 79.679 79.569 79.555 79.512 79.698 79.447 79.358 79.344 79.384 79.399 79.257 79.099 79.03 79.066 78.973 78.85 78.666 78.595 78.609 78.631 78.655 78.662 78.644 -9999 -9999 78.965 78.984 79.205 79.428 77.752 76.715 75.766 75.366 75.426 75.818 75.551 74.899 75.096 75.413 75.532 75.24 74.605 74.682 74.475 74.771 75.349 75.399 74.981 74.589 74.402 74.163 74.151 74.316 74.233 74.21 74.068 74.142 74.858 76.773 78.243 76.637 73.754 73.238 72.778 72.599 72.226 72.442 72.751 73.255 73.72 74.221 73.629 73.373 73.78 73.628 73.79 73.605 73.677 73.78 73.788 73.874 74.003 74.067 74.121 74.195 74.273 74.418 74.545 74.603 74.773 74.829 74.824 74.935 75.012 75.201 75.471 75.415 75.477 75.838 76.052 78.859 81.751 78.103 77.211 77.107 77.183 77.38 77.299 77.198 77.287 77.348 77.324 78.316 79.281 79.84 81.203 81.489 81.187 78.524 77.678 77.374 77.241 77.187 77.283 77.33 77.322 77.288 77.344 78.207 78.099 78 78.947 78.584 78.281 78.663 78.983 78.91 78.922 79.004 79.116 79.221 79.325 79.487 79.621 79.76 79.94 80.064 80.156 80.373 80.473 80.417 80.493 80.74 81.394 82.073 82.269 83.136 84.279 85.639 87.623 92.655 90.896 90.799 91.465 91.894 92.086 92.069 92.004 91.85 91.772 90.927 89.937 88.283 88.143 90.549 94.146 88.961 89.875 91.897 88.441 87.446 87.197 87.058 87.274 87.44 87.567 88.548 90.98 92.111 91.854 90.304 89.514 89.126 89.83 89.878 89.608 90.013 90.344 90.382 90.246 90.605 94.445 98.26 97.615 96.395 96.633 95.837 95.142 92.791 92.587 91.837 91.57 92.263 92.963 92.341 92.151 92.335 92.403 92.523 92.82 93.16 93.253 93.415 93.621 93.963 94.223 94.238 94.587 94.772 95.013 95.286 95.649 95.826 96.102 96.536 96.862 97.285 97.578 98.056 98.59 99.206 99.705 100.247 100.418 100.764 101.146 101.296 101.508 101.622 101.978 102.169 102.248 102.441 102.72 102.893 102.972 103.457 103.747 103.805 104.101 105.185 108.176 107.745 106.583 105.138 105.259 105.329 105.339 105.369 105.401 106.19 105.872 105.919 108.488 110.106 109.963 109.903 106.731 107.158 107.521 106.654 107.137 107.976 107.212 106.829 106.802 107.228 107.552 109.494 109.549 108.583 107.076 106.808 106.867 106.707 106.807 106.979 107.303 107.437 107.427 107.574 107.483 107.58 108.618 112.816 114.615 113.644 109.762 107.742 107.684 107.468 107.968 107.911 107.723 107.682 107.872 109.524 108.433 108.038 108.16 108.703 108.294 109.029 109.164 108.975 109.921 109.735 109.505 108.326 108.121 108.166 108.113 108.054 109.801 110.983 112.187 115.155 110.596 110.449 109.206 109.103 109.087 109.968 112.528 116.532 117.821 116.258 113.331 109.8 109.613 109.613 110.019 110.221 110.378 109.63 109.709 109.678 111.125 115.121 116.471 115.359 111.079 109.901 110.032 110.58 110.985 111.169 110.71 110.574 110.771 110.767 110.747 110.694 110.507 110.526 110.742 110.814 110.913 111.174 111.518 111.251 111.225 111.332 111.549 111.805 111.951 112.114 112.153 112.174 112.409 112.263 112.445 111.998 112.021 112.27 112.556
-9999 -9999 -9999 -9999 -9999 -9999 -9999 -9999 -9999 -9999 -9999 -9999 -9999 -9999 79.741 79.692 79.613 79.571 79.749 79.699 79.513 79.378 79.315 79.259 79.306 79.336 -9999 -9999 -9999 -9999 -9999 78.632 78.546 78.478 78.46 78.572 78.677 78.645 78.71 78.645 -9999 78.857 78.808 79.211 79.535 78.337 77.32 76.238 75.107 75.107 75.929 75.844 75.21 75.092 75.258 75.444 75.261 75.116 75.387 75.163 75.167 75.54 75.609 74.994 74.118 74.425 74.338 74.515 74.59 74.222 74.243 74.202 74.156 74.229 75.395 75.922 74.699 73.252 73.933 72.957 72.812 72.602 72.421 72.495 72.972 74.258 73.565 73.165 73.312 73.372 73.171 73.673 73.9 73.656 73.768 73.85 73.894 73.951 74.091 74.16 74.183 74.288 74.426 74.485 74.587 74.685 74.697 74.713 74.854 75.012 75.18 76.244 76.009 75.664 75.794 75.966 77.808 78.004 77.292 77.183 77.862 77.242 77.325 77.318 77.228 77.395 77.629 77.45 77.651 78.008 79.983 81.202 81.548 81.623 79.855 77.597 77.312 77.236 77.188 77.229 77.347 77.305 77.25 77.249 77.223 77.367 77.399 78.048 77.954 77.929 78.445 78.852 78.913 78.994 79.058 79.203 79.302 79.351 79.491 79.618 79.777 80.033 80.121 80.264 80.403 80.519 80.559 80.575 80.844 81.278 81.636 82.027 82.883 83.839 85.221 86.773 88.503 89.621 90.46 91.505 91.981 92.193 92.105 92.052 91.898 91.696 90.981 89.897 88.694 87.755 87.512 86.26 86.666 87.093 89.621 88.343 87.601 87.438 87.561 87.504 87.566 87.712 88.273 90.633 91.917 91.301 90.363 90.573 89.793 89.422 89.408 89.499 89.699 89.902 90.125 90.467 92.344 96.122 96.988 97.566 97.596 98.527 98.277 95.759 92.814 92.23 92.194 91.901 92.612 92.989 92.645 92.269 92.456 92.716 92.695 93.004 93.208 93.435 93.625 93.849 94.039 94.236 94.395 94.549 94.587 94.983 95.25 95.524 95.867 96.164 96.683 96.819 97.169 97.588 98.21 98.572 99.089 99.686 100.063 100.38 100.906 101.063 101.312 101.445 101.649 101.849 102.045 102.358 102.544 102.635 102.799 102.97 103.256 103.58 103.762 103.943 104.524 105.852 105.836 105.738 105.106 105.178 105.231 105.313 105.409 105.425 106.973 105.986 105.95 106.62 106.672 107.569 109.186 108.269 107.447 107.547 107.865 107.497 107.899 106.884 106.86 107.044 108.283 108.166 110.357 109.525 108.221 106.911 106.598 106.734 106.662 106.471 106.744 107.19 107.285 107.223 107.363 107.328 107.406 108.23 112.522 115.092 114.407 110.984 108.21 107.411 107.678 108.373 107.897 107.718 107.601 107.805 108.443 108.012 108.351 109.511 111.872 110.248 109.953 108.716 108.416 108.685 108.726 108.576 107.998 107.891 107.973 108.079 108.345 109.689 110.979 112.764 112.362 109.916 109.475 109.163 108.981 109.116 109.73 114.108 115.869 116.234 113.373 110.18 109.397 109.679 109.666 109.862 110.114 109.908 109.629 109.668 109.598 110.215 114.628 116.458 115.501 112.576 110.338 110.202 112.498 113.304 111.559 110.575 110.438 110.384 110.561 110.618 110.571 110.501 110.643 110.71 110.758 110.813 111.044 111.864 111.642 111.227 111.322 111.754 111.795 112.083 112.377 112.07 112.496 112.365 112.291 112.102 112.003 111.959 112.353 113.488
84.395 -9999 82.312 -9999 -9999 -9999 -9999 -9999 -9999 -9999 -9999 -9999 -9999 -9999 79.841 79.746 79.668 79.716 79.724 79.915 79.446 79.353 79.213 79.065 79.123 -9999 -9999 -9999 -9999 -9999 79.379 78.712 78.459 78.506 78.562 78.778 78.98 78.988 79.039 -9999 78.603 78.699 78.785 78.904 79.492 78.701 77.288 78.24 78.123 76.638 76.958 75.789 74.948 74.877 75.053 75.139 75.147 75.288 75.345 75.226 74.952 75.225 75.359 74.988 74.713 74.514 74.558 74.673 74.636 74.33 74.271 74.296 74.161 74.266 74.562 74.894 73.921 73.13 72.633 72.862 73.034 72.709 72.264 72.517 72.745 73.145 73.593 73.409 73.36 73.489 73.553 73.61 74.416 73.938 73.893 74.069 73.967 74.051 74.137 74.123 74.151 74.311 74.443 74.438 74.441 74.595 74.661 74.736 74.851 74.956 75.148 75.897 75.883 75.717 75.613 75.75 76.206 76.401 76.787 78.746 80.744 77.791 77.31 77.286 77.254 77.339 78.082 77.658 77.42 78.751 80.675 80.741 81.539 81.552 80.764 77.74 77.293 77.146 77.156 77.153 77.245 77.191 77.28 77.229 77.156 77.169 77.213 77.168 77.279 77.751 78.272 78.732 78.883 78.989 79.099 79.195 79.293 79.383 79.486 79.84 80.384 80.312 80.151 80.327 80.493 80.642 80.696 80.768 80.878 81.19 81.531 81.946 82.604 83.69 84.673 86.537 88.38 89.225 90.474 91.702 92.019 92.109 92.08 92.056 91.872 91.754 91.509 90.012 88.566 87.549 85.744 86.155 86.052 86.188 86.863 87.451 87.685 87.843 87.898 87.808 87.665 87.785 88.793 90.507 89.938 90.252 89.926 90.21 89.554 89.845 89.583 89.675 89.838 90.016 90.248 90.561 90.944 91.627 92.675 93.56 96.742 97.53 95.717 93.063 93.017 92.949 94.906 93.571 92.695 93.459 92.668 92.296 93.3 93.667 93.458 93.167 93.318 93.602 93.684 93.948 94.045 94.151 94.391 94.54 94.661 95.061 95.191 95.366 95.835 96.153 96.343 96.693 97.098 97.422 97.902 98.554 99.067 99.571 99.962 100.327 100.603 100.909 101.169 101.419 101.607 101.702 102.027 102.276 102.443 102.615 102.808 103.117 103.257 103.437 103.729 104.004 104.18 104.273 104.485 104.829 104.963 104.999 105.159 105.273 105.297 105.51 108.754 107.99 106.495 105.964 106.263 107.988 108.033 108.121 106.201 106.238 106.821 107.745 106.67 106.548 106.625 106.742 106.878 108.275 112.075 110.476 108.803 106.998 106.731 106.512 106.375 106.616 106.879 107.176 108.078 107.505 107.188 107.159 107.34 107.632 111.649 114.794 114.317 111.483 107.699 107.357 107.507 107.592 107.553 107.563 107.592 107.664 107.829 107.856 109.009 112.805 114.729 114.084 111.953 108.778 108.15 108.396 108.442 108.374 108.148 107.957 108.01 108.086 108.141 109.557 110.902 110.934 109.178 108.983 108.876 108.828 109.021 109.138 109.473 109.931 113.207 111.465 109.718 111.044 109.682 109.654 109.62 109.679 -9999 110.019 110.324 109.836 109.608 109.674 112.599 116.648 116.466 114.783 111.053 111.537 113.431 113.161 112.665 110.854 110.301 110.584 111.637 111.251 110.615 110.488 110.754 111.182 110.837 110.855 110.808 112.54 112.68 111.331 111.289 111.392 111.634 111.966 112.227 112.481 112.884 111.974 111.959 111.823 111.918 112.101 113.373 114.171
84.702 83.476 82.01 81.526 -9999 -9999 -9999 -9999 -9999 -9999 -9999 -9999 -9999 79.833 79.857 79.965 79.837 79.668 79.775 81.64 79.753 79.061 79.042 78.937 78.899 -9999 -9999 -9999 -9999 -9999 -9999 79.557 78.745 78.782 78.968 79.418 80.109 79.806 79.219 78.784 78.576 78.629 78.754 78.899 78.923 78.224 77.433 78.363 79.288 77.249 78.658 75.512 74.663 74.672 74.641 74.929 75.24 75.155 75.242 75.182 74.904 74.95 75.019 74.786 74.801 74.671 74.693 74.687 74.604 74.295 74.263 74.418 74.088 73.748 73.789 73.723 73.222 72.462 73.195 74.127 74.195 72.572 72.658 72.685 72.654 72.984 73.837 74.005 73.499 73.622 73.724 73.796 73.921 73.956 73.853 73.955 73.982 74.017 74.006 74.132 74.116 74.215 74.304 74.34 74.284 74.533 74.618 74.77 74.817 74.898 75.032 75.215 75.337 75.474 75.607 75.773 75.833 75.914 76.486 78.105 78.853 77.489 77.212 77.217 77.202 77.25 77.403 77.287 77.275 78.067 77.789 78.677 81.043 81.293 79.834 77.682 77.2 77.218 77.255 77.234 77.233 77.251 77.329 77.202 77.174 77.196 77.199 77.272 77.295 77.741 78.174 78.577 78.852 78.961 79.104 79.187 79.35 79.448 79.717 80.302 81.802 80.882 80.167 80.337 80.616 80.849 80.866 80.929 81.052 81.144 81.581 82.073 82.608 83.283 84.598 85.812 87.274 88.796 90.521 91.5 91.977 91.987 92.014 -9999 91.792 91.698 91.286 90.021 88.889 87.483 86.228 85.997 86.048 86.141 86.601 87.05 87.727 88.003 87.959 87.833 87.837 87.706 88.467 89.52 88.92 89.314 89.583 89.523 89.887 90.42 89.85 89.915 90.005 90.286 90.731 91.017 90.391 90.713 91.001 91.599 94.406 94.549 93.817 92.347 94.144 95.97 98.037 98.248 97.065 97.465 95.747 92.662 93.226 93.972 93.461 93.379 93.679 93.805 93.955 94.068 94.082 93.953 94.333 94.687 94.821 95.121 95.314 95.609 95.852 95.973 96.245 96.808 97.023 97.285 97.912 98.362 98.884 99.352 99.893 100.285 100.426 100.745 101.109 101.347 101.565 101.728 102.009 102.171 102.378 102.488 102.759 103.003 103.175 103.454 103.653 103.925 104.047 104.269 104.533 104.654 104.925 105.009 105.064 105.121 105.267 107.453 109.678 110.319 107.046 106.082 106.584 105.956 106.173 106.096 105.999 106.267 106.259 106.3 106.355 106.447 106.561 106.626 108.077 109.412 109.388 109.458 108.368 107.29 106.56 106.394 106.37 106.563 106.571 107.045 107.697 108.147 108 107.44 108.115 108.815 110.095 110.287 111.322 108.991 107.678 107.613 107.678 107.441 107.467 107.428 107.393 107.537 107.704 107.776 108.113 112.649 114.608 114.662 111.752 108.822 108.308 108.593 108.403 108.391 108.317 108.245 108.128 107.885 108.234 109.774 111.344 111.274 110.042 109.507 108.95 108.837 108.971 109.105 109.116 109.188 109.525 109.148 109.367 109.618 109.363 109.542 109.552 109.561 109.633 110.243 110.034 109.556 109.625 109.966 111.895 115.818 116.684 114.842 110.333 110.574 112.53 112.231 111.386 110.47 110.332 110.794 112.534 112.478 110.895 110.579 110.589 111 110.849 110.742 110.78 113.477 114.43 111.567 111.202 111.257 111.414 111.907 112.038 111.761 112.032 112.058 111.763 111.856 111.877 112.813 113.47 113.533
85.305 82.83 81.571 81.355 81.118 80.871 -9999 -9999 -9999 -9999 -9999 -9999 -9999 79.825 79.848 79.865 79.717 79.538 79.605 80.089 79.564 78.983 78.894 78.774 78.779 -9999 -9999 83.914 83.844 83.535 83.072 -9999 79.541 79.422 79.134 80.153 81.054 80.54 79.173 78.839 78.497 78.554 78.641 78.735 78.682 78.461 77.968 78.451 77.53 77.998 78.759 76.809 74.691 74.282 74.477 74.822 75.01 74.916 75.05 75.115 74.943 74.9 74.878 74.746 74.659 74.648 74.663 74.469 74.155 74.262 74.21 74.466 73.456 73.417 73.497 73.13 72.87 72.825 74.316 77.084 75.666 73.492 74.109 74.988 73.607 72.784 73.263 73.463 73.308 73.391 73.568 73.744 73.723 73.714 73.765 73.776 73.959 73.981 74.049 74.152 74.18 74.1 74.061 74.29 74.33 74.506 74.576 74.73 74.796 74.913 75.016 75.003 75.055 75.209 75.433 75.639 75.721 76.172 76.773 77.38 77.173 77.6 77.328 77.049 77.143 77.28 77.327 77.303 77.603 78.78 77.932 77.519 79.65 81.051 79.154 77.678 77.18 77.16 77.094 77.179 77.248 77.305 77.27 77.268 77.254 77.285 77.286 77.285 77.307 77.523 78.084 78.585 78.855 79.01 79.113 79.181 79.455 79.503 79.866 81.311 82.487 80.543 80.371 80.392 80.653 80.851 80.998 81.095 81.185 81.282 81.607 82.08 82.318 83.176 84.213 85.743 86.501 88.086 90.38 91.235 91.763 91.919 91.946 91.946 91.825 91.667 91.598 89.76 88.639 87.643 86.11 86 86.07 86.173 86.707 86.96 87.328 87.798 88.164 88.78 88.246 88.421 90 94.163 90.831 89.171 89.498 89.691 89.836 89.878 89.771 89.938 90.205 90.561 92.047 93.19 90.971 90.696 90.821 91.146 91.903 92.12 92.346 92.685 95.361 99.234 99.586 99.453 99.449 99.182 98.026 94.067 94.068 94.053 93.638 93.763 93.768 93.97 94.192 94.382 94.143 94.273 94.647 94.891 95.139 95.308 95.514 95.639 95.85 95.979 96.24 96.429 96.934 97.376 97.581 98.058 98.686 99.285 99.555 99.951 100.197 100.676 101.069 101.387 101.577 101.737 101.912 102.086 102.285 102.518 102.741 102.966 103.225 103.414 103.637 103.809 104.061 104.213 104.389 104.612 104.798 104.88 104.868 104.999 105.019 106.187 106.73 107.288 106.058 105.631 106.271 105.627 106.644 108.263 107.639 106.172 105.947 106.131 106.324 106.327 106.382 106.448 107.021 107.35 108.544 109.273 107.808 107.232 106.865 106.387 106.351 106.344 106.607 106.729 107.117 108.316 108.905 108.637 109.121 108.297 107.974 108.502 109.242 108.255 107.762 108.022 108.641 108.093 107.935 107.47 107.425 107.564 107.841 107.987 108.051 111.006 114.032 114.992 112.34 111.193 108.238 108.066 108.198 108.184 108.445 108.839 108.16 108.024 108.417 109.975 112.296 112.055 110.666 111.304 109.696 108.885 108.956 109.013 109.066 109.363 109.686 109.49 111.61 109.647 109.244 109.427 109.503 109.556 109.63 110.321 110.303 110.596 110.251 110.805 113.395 115.444 116.679 115.144 111.362 111.018 111.796 110.562 110.292 110.218 110.253 110.352 112.136 111.998 110.839 110.618 110.734 111.288 111.225 110.94 112.47 115.224 113.85 113.259 113.881 112.9 112.703 114.432 114.019 111.844 113.803 116.082 113.71 113.147 113.062 112.014 112.493 112.239
84.527 82.366 81.733 81.225 80.94 80.738 80.454 -9999 -9999 -9999 -9999 -9999 -9999 79.748 79.76 79.687 79.574 79.497 79.33 79.25 78.949 78.727 78.609 78.46 78.893 80.407 83.012 83.943 83.812 83.621 83.63 -9999 -9999 80.563 80.943 81.389 81.598 81.735 79.896 79.052 78.491 78.594 78.594 78.402 78.658 78.452 78.178 78.731 76.779 78.47 78.461 76.618 75.126 75.16 74.934 74.981 75.109 74.994 74.992 75.068 75.028 74.894 74.675 74.605 74.656 74.481 74.618 74.494 74.181 74.081 73.812 74.062 73.626 73.532 73.582 73.145 72.438 72.507 73.585 74.551 73.947 74.765 75.401 77.33 77.273 73.462 72.944 72.96 73.111 73.348 73.496 74.02 73.677 73.562 73.708 73.781 73.892 73.914 74.044 74.136 74.183 74.136 74.105 74.264 74.393 74.499 74.587 74.718 74.751 74.869 74.925 74.881 74.984 75.126 75.304 75.496 75.686 76.03 78.345 78.414 77.915 77.748 77.273 77.215 77.312 77.352 77.367 77.272 77.373 77.671 77.665 77.46 78.071 78.191 78.01 77.44 77.156 77.068 77.131 77.199 77.293 77.326 77.308 77.349 77.296 77.289 77.27 77.258 77.246 77.383 78.03 78.484 78.901 79.026 79.105 79.147 79.493 79.756 79.818 80.126 80.614 80.487 80.391 80.541 80.789 81.017 81.086 81.269 81.332 81.368 81.692 82.549 82.38 83.062 84.296 85.888 86.063 87.563 90.022 91.532 91.754 91.907 91.982 91.911 91.8 91.557 91.348 90.286 88.913 87.461 86.628 86.237 86.231 86.611 86.885 87.083 87.164 87.54 89.584 91.884 89.256 88.575 93.681 100.864 90.718 89.634 89.892 89.866 89.834 89.979 90.15 90.495 90.645 92.183 93.19 93.737 91.521 90.928 90.979 91.149 91.293 91.61 92.589 93.602 92.928 96.734 98.513 99.022 99.628 100.396 99.788 97.202 94.404 94.346 93.583 93.695 93.741 94.007 94.108 94.497 94.799 94.506 94.934 94.979 95.099 95.333 95.433 95.6 95.909 96.117 96.272 96.427 96.909 97.037 97.422 97.962 98.356 98.898 99.123 99.58 100.03 100.455 100.876 101.337 101.573 101.633 101.801 101.994 102.105 102.439 102.688 102.864 103.268 103.367 103.517 103.781 103.908 104.058 104.336 104.491 104.652 104.786 104.802 104.867 104.788 105.105 105.67 105.376 105.334 105.373 105.446 105.74 110.872 112.122 109.483 108.571 105.998 105.902 106.129 106.153 106.268 106.386 106.503 107.059 108.449 109.289 107.449 109.628 108.415 106.677 106.485 106.466 107.335 107.431 106.893 107.126 108.265 108.994 108.995 108.116 109.589 109.603 112.077 111.177 108.326 107.402 107.799 108.393 108.264 107.646 107.521 107.543 107.726 107.892 107.869 109.525 113.44 114.986 113.724 110.113 108.228 108.03 108.909 108.305 108.528 108.551 108.458 108.413 108.787 110.912 111.521 110.848 109.54 110.107 109.766 108.967 108.938 108.967 109.252 111.586 113.058 114.563 115.293 114.148 110.206 109.418 109.434 109.451 109.541 110.262 110.422 110.166 110.159 111.421 113.137 115.446 116.502 115.39 112.663 111.316 111.09 110.219 110.268 110.358 110.244 110.309 110.71 110.622 110.706 112.722 113.433 112.263 114.42 115.214 115.651 113.897 112.959 114.626 118.106 117.836 118.115 118.076 117.27 116.344 117.893 118.122 117.723 117.552 116.93 114.071 111.847 112.142
85.031 83.357 81.837 81.302 80.821 80.326 80.271 79.913 -9999 -9999 -9999 -9999 -9999 -9999 79.574 79.522 79.526 79.474 79.305 79.088 79.051 78.812 78.732 78.689 78.886 81.105 83.575 84.039 83.991 83.833 83.835 -9999 -9999 81.509 81.655 81.829 82.009 81.553 80.839 79.023 78.379 78.513 78.54 78.577 78.75 78.523 78.551 78.025 77.647 77.533 76.515 75.254 75.167 75.203 75.129 75.062 75.087 75.017 74.94 75.055 75.048 74.776 74.639 74.531 74.681 74.713 74.817 74.584 74.033 73.637 73.466 73.789 73.745 73.697 73.76 73.572 72.808 72.527 72.674 73.147 73.503 73.408 73.336 75.971 75.445 73.174 72.977 72.945 73.25 73.252 73.424 73.714 73.601 73.504 73.588 73.748 73.82 74.046 74.068 74.04 74.138 74.134 74.158 74.301 74.397 74.534 74.583 74.727 74.695 74.8 74.864 74.896 74.929 75.116 75.287 75.482 75.648 76.058 77.641 78.55 77.629 76.946 77.172 77.228 77.332 77.362 77.359 77.306 77.266 77.276 77.298 77.187 77.224 77.302 77.349 77.268 77.135 77.089 77.218 77.249 77.328 77.365 77.357 77.34 77.254 77.223 77.211 77.157 77.079 77.085 77.746 78.408 78.78 79.03 79.183 79.384 79.731 80.007 79.982 80.049 80.178 80.344 80.528 80.707 80.986 81.175 81.284 81.377 81.569 82.626 84.673 83.463 82.742 82.856 84.194 85.124 85.821 87.254 90.158 91.502 91.764 91.884 92.035 91.925 91.824 91.672 91.304 90.004 89.225 87.787 86.742 86.581 86.663 87.063 87.167 87.204 87.264 87.601 88.637 90.6 89.197 89.454 92.217 99.055 92.662 89.836 89.705 89.784 90.312 90.913 91.901 91.706 92.156 93.485 94.233 93.98 91.35 91.061 91.119 91.245 91.417 91.47 92.757 93.588 92.297 93.487 96.826 97.307 96.413 95.974 96.164 95.085 94.435 96.163 98.545 95.888 94.281 95.201 96.221 94.624 94.391 94.657 95.264 95.243 95.308 95.45 95.531 95.885 96.041 96.33 96.507 96.605 96.805 96.937 97.175 97.574 98.06 98.499 98.776 99.379 99.751 100.148 100.799 100.987 101.385 101.645 101.753 101.956 102.021 102.258 102.577 102.765 102.952 103.291 103.549 103.531 103.741 103.94 104.22 104.366 104.526 104.63 104.657 104.76 104.737 104.82 105.579 105.285 105.302 105.472 105.482 106.377 110.122 114.402 113.445 111.908 107.036 106.103 106.19 106.023 106.299 106.392 106.768 108.415 110.296 109.383 106.983 110.936 110.84 107.185 106.665 106.84 108.572 108.273 107.1 106.934 107.132 107.584 107.29 107.181 109.147 112.811 114.515 112.934 109.454 107.641 107.894 108.532 108.208 -9999 107.495 107.423 107.417 107.352 107.574 108.663 112.244 114.696 114.343 111.391 108.544 109.224 109.209 108.45 108.64 108.624 108.396 108.692 109.831 112.824 112.221 113.062 110.169 109.124 109.413 109.014 108.938 109.041 109.249 112.639 115.321 116.544 116.672 112.893 109.307 109.39 109.385 109.323 109.393 109.899 110.159 110.601 109.976 110.474 112.109 111.937 113.223 111.621 112.96 113.689 110.11 111.203 112.122 112.845 113.452 112.743 110.868 110.473 110.725 114.977 116.983 117.395 117.559 117.817 116.826 112.724 113.881 115.932 117.514 118.75 119.297 119.647 119.277 119.405 119.239 118.794 119.077 119.468 118.421 116.837 112.286 112.519
84.939 83.324 80.785 80.803 80.591 80.601 79.922 79.788 79.829 -9999 -9999 -9999 -9999 79.453 79.475 79.448 79.474 79.35 79.242 79.094 78.841 78.942 78.92 78.848 79.539 82.589 83.937 84.2 84.034 83.868 83.94 -9999 82.732 82.075 81.997 82.119 82.014 81.385 80.526 78.543 78.143 78.431 78.49 78.364 78.504 79.015 80.277 79.075 77.89 76.451 76.219 75.593 75.033 75.17 75.231 75.198 75.099 74.986 74.868 74.876 74.841 74.742 74.475 74.926 75.098 74.883 74.75 74.347 73.863 73.498 73.442 73.644 -9999 73.724 73.815 73.763 73.222 72.849 72.729 73.174 73.658 73.441 73.775 74.183 72.807 72.75 72.981 72.99 73.159 73.419 73.308 73.212 73.576 73.678 73.673 73.771 73.983 74.134 73.857 73.959 74.05 74.074 74.249 74.38 74.51 74.642 74.619 74.603 74.611 74.747 74.845 74.901 74.972 75.116 75.313 75.42 75.603 76.7 77.81 76.638 76.737 76.822 77.016 77.353 77.378 77.393 77.361 77.339 77.278 77.237 77.11 77.087 77.139 77.193 77.085 77.139 77.101 77.08 77.144 77.263 77.377 77.435 77.405 77.396 77.298 77.195 77.194 77.223 77.105 77.158 77.516 78.22 78.763 79.102 79.305 79.531 79.744 79.865 80.036 80.19 80.377 80.492 80.675 80.812 81.017 81.235 81.399 81.507 81.704 83.907 89.522 84.716 83.776 83.757 83.86 85.418 87.4 88.286 89.987 91.532 91.734 91.765 91.804 91.895 91.906 91.764 91.738 90.53 89.198 88.02 87.359 87.107 87.161 87.598 87.149 87.289 87.386 88.145 89.214 89.698 88.684 89.036 93.225 99.958 93.733 89.864 89.436 90.335 91.974 96.349 92.826 91.119 92.089 94.183 94.454 92.132 92.781 92.497 91.921 91.703 91.887 92.916 93.224 93.77 92.649 92.323 93.106 93.618 93.504 92.935 93.302 95.364 93.163 97.575 100.87 100.593 99.309 99.231 99.247 96.22 94.656 94.423 94.936 95.238 95.401 95.677 95.842 95.809 96.167 96.35 96.657 96.611 96.75 97.011 97.187 97.257 97.549 98.072 98.511 98.899 99.408 99.847 100.375 100.702 101.086 101.393 101.606 101.717 102.042 102.25 102.43 102.693 102.942 103.152 103.306 103.488 103.646 103.78 103.95 104.244 104.385 104.529 104.578 104.556 104.734 104.697 104.92 105.079 105.319 105.834 105.973 110.807 114.937 115.709 114.977 113.515 109.747 108.366 106.462 106.054 106.196 106.288 106.717 107.943 107.367 107.035 107.013 109.771 107.8 106.94 106.85 107.29 108.454 108.092 107.045 106.797 107.063 107.146 106.935 107.057 108.132 110.36 113.884 113.981 109.81 107.661 107.523 107.922 107.964 -9999 107.43 107.369 107.349 107.407 107.624 107.959 111.353 113.908 113.087 109.566 108.605 108.251 108.167 108.03 108.258 108.425 108.43 108.563 109.48 111.94 111.79 109.824 109.111 108.919 109.262 109.059 108.848 108.933 109.095 112.025 115.607 116.528 117.271 114.663 110.392 109.502 109.451 109.393 109.363 109.596 109.983 110.096 110.558 111.206 110.365 110.22 110.216 111.587 112.285 111.384 112.921 115.618 116.406 116.662 116.415 116.245 112.759 111.041 112.014 116.661 117.637 117.266 117.572 116.728 114.951 112.295 113.57 114.822 116.017 117.453 117.658 117.389 117.685 117.096 115.615 117.42 117.147 116.19 115.887 115.85 112.469 113.515
81.913 82.35 81.944 81.475 80.292 79.728 79.583 79.747 79.797 79.816 -9999 -9999 -9999 -9999 79.421 79.398 79.331 79.232 79.186 79.147 78.968 78.975 78.984 79.016 80.218 83.598 84.171 84.037 83.964 84.03 84.032 83.887 -9999 82.473 82.48 82.641 81.979 81.395 80.639 79.21 78.519 78.503 78.231 78.327 78.623 78.889 79.833 79.437 77.747 78.816 75.879 76.933 -9999 76.212 75.413 75.122 75.14 75.107 75.061 74.793 74.855 74.757 74.917 75.002 75.073 74.811 74.243 73.698 73.507 73.359 73.395 -9999 -9999 -9999 73.893 74.001 73.605 73.168 73.51 73.702 73.642 73.761 76.07 77.912 73.812 72.764 73.003 72.973 73.042 73.345 73.71 73.352 73.498 73.44 73.469 73.77 73.895 73.821 73.863 73.956 74.037 74.121 74.344 74.414 74.416 74.551 74.616 74.623 74.689 74.763 74.86 74.89 75.003 75.121 75.276 75.42 75.654 76.125 76.314 76.39 76.318 76.711 76.885 77.247 77.325 77.281 77.313 77.308 77.267 77.219 77.148 77.192 77.193 77.035 77.054 77.074 77.095 77.117 77.141 77.37 77.329 77.395 77.402 77.379 77.234 77.111 77.224 77.295 77.124 77.147 77.589 78.149 78.743 79.161 79.432 79.592 79.727 79.885 80.075 80.264 80.593 80.732 80.874 80.986 81.115 81.317 81.465 81.575 81.777 85.584 93.787 89.822 85.608 84.074 84.45 85.353 91.185 89.273 89.929 91.66 91.751 91.726 91.938 91.961 91.947 91.888 91.746 90.955 89.896 88.434 87.936 87.876 87.877 87.744 87.679 87.983 88.397 89.647 92.993 89.848 89.134 89.742 90.693 95.067 93.317 90.07 89.917 90.481 93.406 97.718 93.242 91.521 91.555 93.373 94.859 94.164 97.222 100.335 93.459 92.079 93.008 93.219 93.38 93.036 92.397 92.335 92.98 93.539 93.201 92.921 93.147 94.271 95.021 99.412 101.185 100.972 101.203 101.375 100.711 98.369 95.154 94.605 94.931 95.358 95.572 96.024 96.286 96.429 96.211 96.233 96.652 96.86 96.893 97.2 97.398 97.457 97.7 98.082 98.255 98.434 99.006 99.471 99.728 100.235 100.888 101.164 101.421 101.689 101.918 101.951 102.224 102.673 102.977 103.018 103.228 103.454 103.602 103.74 103.901 104.082 104.222 104.374 104.267 104.279 104.668 104.748 104.902 105.226 105.413 106.9 106.165 109.295 113.557 114.684 115.133 114.611 112.423 109.246 105.865 106 105.865 106.123 106.017 106.26 106.675 106.655 108.178 110.169 106.979 106.65 106.882 107.386 108.044 108.182 107.293 107.213 107.731 107.99 106.882 106.897 107.5 111.299 113.814 114.206 112.653 108.172 107.313 107.657 107.868 107.812 107.423 107.303 107.301 107.244 107.507 107.743 108.62 108.393 110.392 109.971 110.746 108.664 108.199 108.032 108.154 107.993 108.58 108.552 108.597 109.682 109.322 108.738 109.265 109.248 110.46 110.89 109.359 108.962 108.987 109.452 113.648 116.734 117.67 116.38 113.508 109.638 109.457 109.477 109.335 109.417 110.258 110.704 110.402 109.925 109.831 110.11 110.414 111.262 111.885 110.38 114.562 117.145 118.189 117.499 116.235 113.897 112.674 111.716 113.605 113.051 114.079 115.23 115.341 113.324 111.246 111.881 111.805 111.62 112.615 112.594 112.206 113.495 112.877 112.658 112.301 112.544 111.995 111.649 111.943 112.935 111.842 113.322
81.281 82.878 83.008 82.93 80.366 79.948 79.854 79.899 79.936 -9999 -9999 -9999 -9999 -9999 79.4 79.392 79.377 79.293 79.173 78.985 78.934 78.926 78.884 78.92 79.75 83.208 83.95 83.889 83.867 84.006 84.027 -9999 -9999 82.212 82.882 83.129 81.967 81.673 81.07 79.221 78.538 78.505 78.436 78.467 78.671 78.906 79.888 80.677 79.099 76.88 76.706 78.033 77.587 76.51 75.422 75.132 75.111 75.189 75.326 75.294 75.238 75.413 75.166 75.109 75.002 74.421 73.758 73.413 73.389 73.274 73.249 -9999 -9999 -9999 73.959 73.883 74.038 74.357 74.96 74.535 73.935 74.124 75.076 77.072 73.894 72.779 72.789 72.971 72.859 73.059 73.641 73.292 73.277 73.39 73.546 73.625 73.838 73.82 73.839 73.932 74.031 74.162 74.267 74.352 74.434 74.549 74.63 74.633 74.672 74.768 74.851 74.908 74.948 75.166 75.283 75.511 75.506 75.668 75.803 76.018 77.315 77.098 76.854 77.091 77.291 77.307 77.353 77.286 77.364 77.227 77.258 77.311 77.195 77.085 77.066 77.04 77.122 77.208 77.29 77.313 77.18 77.316 77.335 77.287 77.253 77.216 77.246 77.12 77.093 77.082 77.378 77.814 78.673 79.281 79.52 79.644 79.828 80.009 80.104 80.305 80.63 80.829 81.121 81.125 81.224 81.405 81.539 81.727 82.155 83.806 86.484 85.852 84.924 84.069 84.462 86.075 94.726 92.515 90.237 90.715 91.529 91.551 91.805 91.903 92 91.943 91.829 91.196 89.77 89.165 88.487 88.533 88.224 88.026 88.166 88.324 89.194 93.115 97.082 90.003 89.771 90.512 93.232 96.712 93.255 90.526 90.484 91.001 91.173 93.525 94.745 94.767 92.649 93.68 95.361 92.547 94.852 97.853 93.846 92.475 92.881 93.425 93.667 92.576 92.34 92.283 92.665 93.01 92.968 92.905 92.983 93.543 95.792 98.911 99.609 99.981 100.44 101.618 97.36 95.126 95.013 95.561 96.785 95.718 95.475 96 96.068 96.12 96.478 97.086 96.927 96.898 97.159 97.396 97.647 97.655 97.686 97.871 98.231 98.48 98.581 98.9 99.393 99.882 100.24 100.838 101.234 101.555 101.56 101.742 102.119 102.54 102.699 102.989 103.228 103.178 103.41 103.511 103.769 103.965 104.092 104.131 104.055 104.146 104.652 104.784 104.881 105.142 105.218 105.455 105.415 105.565 109.102 111.357 114.952 115.146 114.165 111.003 108.317 107.059 105.746 105.882 106.019 106.22 106.451 106.439 107.045 107.733 106.646 106.654 106.783 106.564 106.856 108.26 108.368 108.005 108.563 107.757 106.838 106.844 107.11 109.08 110.44 114.36 112.507 108.05 107.389 108.057 107.849 107.756 107.554 107.381 107.29 107.312 107.447 107.555 107.771 108.248 110.427 114.709 113.633 111.321 108.407 108.367 108.143 108.153 108.286 109.32 108.664 109.008 108.803 108.723 109.07 109.288 111.048 111.383 109.841 108.983 108.971 109.327 112.249 116.467 117.533 116.48 113.676 110.277 109.387 109.408 109.239 109.318 110.33 111.176 111.343 110.159 109.755 110.085 110.522 109.953 110.325 110.349 111.591 114.421 115.387 114.524 111.724 110.681 110.714 110.456 110.857 110.534 110.648 111.693 112.413 112.592 110.717 110.875 111.178 111.157 111.074 111.125 111.319 111.422 111.609 112.179 111.887 111.771 111.73 111.593 111.515 111.602 111.82 112.459
82.073 80.508 80.37 81.174 79.948 80.803 81.296 80.629 80.044 79.766 79.738 -9999 -9999 -9999 79.372 79.416 79.377 79.22 79.008 78.841 78.924 78.867 78.716 78.778 79.909 82.644 83.869 83.856 83.799 83.923 83.962 83.629 -9999 81.011 81.479 81.936 81.893 81.505 80.095 79.678 78.895 78.683 78.649 78.557 78.73 79.096 79.599 80.539 79.064 76.542 76.187 78.913 78.221 77.159 74.941 74.834 74.959 75.115 75.092 75.347 75.38 75.437 75.217 75.164 -9999 -9999 73.715 73.579 73.437 73.276 73.221 -9999 -9999 -9999 74.078 74.042 73.978 74.057 75.292 74.483 74.028 74.103 74.511 73.608 73.066 72.94 72.821 72.937 72.921 73.04 73.108 72.996 73.253 73.398 73.511 73.627 73.698 73.827 73.876 73.941 74.015 74.161 74.25 74.359 74.357 74.466 74.605 74.619 74.63 74.719 74.861 75.062 74.983 75.111 75.226 75.328 75.425 75.541 75.644 75.903 77.093 77.434 77.104 76.857 77.165 77.319 77.377 77.327 77.359 77.257 77.301 77.292 77.276 77.246 77.119 77.006 77.18 77.288 77.353 77.365 77.25 77.285 77.311 77.361 77.308 77.244 77.195 77.144 77.116 77.059 77.234 77.762 78.289 79.152 79.757 79.854 79.925 80.095 80.271 80.521 80.618 80.738 81.066 81.134 81.307 81.495 81.664 81.882 82.028 82.18 82.627 83.47 83.818 83.632 84 84.692 87.955 88.459 87.957 89.753 90.98 91.399 91.564 91.79 92.058 92.063 91.845 91.59 90.686 89.796 88.831 88.375 87.737 87.979 88.382 88.776 89.25 89.763 90.366 89.756 90.294 93.891 98.928 93.42 90.712 90.562 91.644 92.988 91.636 94.237 95.033 100.582 96.198 92.362 92.925 92.348 92.055 92.895 92.562 92.494 92.607 93.224 94.153 93.522 92.809 92.649 92.724 92.994 92.937 92.993 93.717 93.873 93.482 93.7 94.133 96.641 99.508 98.294 96.531 98.222 97.044 97.922 100.901 99.142 99.726 98.264 96.362 96.339 96.57 97.337 96.915 96.905 97.458 97.509 97.773 97.876 97.89 98.064 98.353 98.484 98.614 98.907 99.214 99.375 99.785 100.433 100.858 101.124 101.337 101.608 101.872 102.171 102.532 102.802 102.969 103.083 103.269 103.53 103.71 103.804 103.915 103.886 103.858 104.019 104.499 104.736 104.566 104.817 105.129 105.333 105.361 105.345 106.258 111.093 113.698 115.457 115.666 114.23 111.87 109.557 106.11 105.987 105.819 106.06 106.25 106.368 106.489 107.42 106.814 106.529 106.54 106.363 106.649 107.07 107.215 108.068 107.691 108.599 108.272 107.007 106.784 107.399 111.227 114.436 113.717 109.575 107.298 107.238 107.496 107.664 -9999 107.534 107.586 107.484 107.436 107.438 107.521 107.964 112.981 114.818 114.634 112.067 109.601 108.147 108.211 108.135 108.388 109.238 108.812 108.821 109.159 109.586 109.409 108.78 109.679 109.659 108.986 108.84 108.921 109.195 112.637 115.825 116.564 115.814 115.07 111.835 109.513 109.367 109.445 109.249 109.839 111.111 111.137 111.198 111.001 110.2 110.517 109.789 109.828 109.956 110.029 111.001 110.784 110.366 110.082 110.114 110.416 110.531 110.56 110.283 110.318 111.498 111.776 111.015 110.545 110.868 111.223 111.14 110.994 111.418 111.996 112.307 112.017 111.824 111.411 111.386 111.411 111.534 111.555 111.619 111.835 112.057
