ncols 469
nrows 30
xllcorner    425062
yllcorner    431928
cellsize     2
NODATA_value -9999
-9999 -9999 -9999 -9999 -9999 -9999 -9999 -9999 -9999 -9999 -9999 -9999 -9999 -9999 -9999 -9999 -9999 -9999 -9999 -9999 -9999 -9999 -9999 -9999 -9999 -9999 -9999 -9999 -9999 -9999 -9999 -9999 -9999 -9999 -9999 -9999 -9999 -9999 -9999 -9999 -9999 -9999 -9999 -9999 -9999 -9999 -9999 -9999 -9999 -9999 -9999 -9999 -9999 -9999 -9999 -9999 -9999 -9999 -9999 -9999 -9999 -9999 -9999 -9999 -9999 -9999 -9999 -9999 -9999 -9999 -9999 -9999 -9999 -9999 -9999 -9999 -9999 -9999 -9999 -9999 -9999 -9999 -9999 -9999 -9999 -9999 -9999 -9999 -9999 -9999 -9999 -9999 -9999 -9999 -9999 -9999 -9999 -9999 -9999 -9999 -9999 -9999 -9999 -9999 -9999 -9999 -9999 -9999 100.594 100.6 100.588 100.568 100.54 100.539 100.516 100.56 100.564 100.545 100.54 100.51 100.522 100.482 100.462 100.438 100.43 100.41 100.393 100.37 100.343 100.337 100.312 100.299 100.262 100.236 100.247 100.247 100.179 100.18 100.165 100.119 100.064 100.038 99.995 99.997 99.936 99.892 99.92 99.973 99.951 103.797 104.862 103.159 100.034 99.766 99.761 100.346 100.404 101.282 101.251 101.185 100.326 99.62 100.314 99.416 99.152 98.799 98.795 98.709 98.371 100.319 99.414 99.882 97.963 97.53 97.38 97.637 97.308 97.259 97.17 96.915 96.791 96.611 96.438 96.312 96.162 96.011 95.767 95.568 95.358 95.121 94.895 94.772 94.542 94.356 94.049 93.917 93.613 93.306 93.094 92.851 92.69 92.368 92.132 91.991 91.626 91.41 91.075 90.777 90.139 89.937 89.655 89.422 89.338 89.415 89.331 89.298 89.146 88.668 88.084 87.521 87.188 86.84 86.651 86.273 85.976 85.672 85.368 85.248 84.926 84.649 84.497 84.148 83.889 83.733 83.511 83.406 83.348 83.161 83.12 82.975 82.775 82.587 82.474 82.323 82.107 81.948 81.791 81.568 81.245 81.035 80.84 80.62 80.505 80.346 80.321 79.964 79.782 79.655 79.421 79.254 79.233 78.914 78.709 78.434 78.276 78.15 77.85 77.547 77.404 77.05 77.006 76.879 76.558 76.281 76.044 75.796 75.607 75.603 75.556 75.321 76.31 77.553 75.93 74.861 74.832 74.65 74.542 74.342 74.25 74.251 74.591 74.863 76.521 73.644 73.118 74.371 74.9 75.549 72.572 79.609 78.887 73.906 75.894 71.914 71.748 71.728 71.565 71.529 71.352 71.157 71.686 73.472 71 70.85 71.551 71.23 70.743 71.227 74.858 73.531 70.178 70.109 69.743 70.663 69.255 69.257 69.089 70.489 69.908 68.766 73.237 74.66 74.96 75.447 75.905 76.009 70.376 68.82 68.624 75.445 74.995 74.295 71.449 69.58 68.564 68.435 68.304 68.757 67.729 67.296 67.301 67.277 66.879 66.723 66.596 66.42 66.248 66.09 65.905 65.753 65.641 65.372 65.186 64.98 64.87 64.796 64.673 64.606 64.502 64.38 64.307 64.395 64.502 64.417 63.953 63.856 63.594 63.727 63.797 63.881 63.463 63.818 62.503 62.355 67.672 68.661 68.776 68.307 67.634 66.901 62.526 64.887 62.512 60.432 60.43 60.421 60.486 60.503 60.288 60.12 60.127 60.28 59.784 59.782 68.272 67.992 70.817 59.251 62.004 64.551 65.141 63.558 59.786 60.242 61.6 58.805 58.695 58.283 57.616 57.925 56.658 55.998 55.642 55.506 55.48 59.503 61.344 62.262 62.841 61.836 59.734 55.562 54.74 54.774 54.664 55.305 54.434 54.376 54.308 54.441 56.395 61.288 62.774 63.104 62.62 61.709 58.787 53.119 53.97 52.813 52.74 52.692 52.619 53.429 53.103 53.475 53.342 54.415 60.545 61.666 62.518 58.021 53.658 53.504 55.959 50.831 52.664 52.733 51.192
-9999 -9999 -9999 -9999 -9999 -9999 -9999 -9999 -9999 -9999 -9999 -9999 -9999 -9999 -9999 -9999 -9999 -9999 -9999 -9999 -9999 -9999 -9999 -9999 -9999 -9999 -9999 -9999 -9999 -9999 -9999 -9999 -9999 -9999 -9999 -9999 -9999 -9999 -9999 -9999 -9999 -9999 -9999 -9999 -9999 -9999 -9999 -9999 -9999 -9999 -9999 -9999 -9999 -9999 -9999 -9999 -9999 -9999 -9999 -9999 -9999 -9999 -9999 -9999 -9999 -9999 -9999 -9999 -9999 -9999 -9999 -9999 -9999 -9999 -9999 -9999 -9999 -9999 -9999 -9999 -9999 -9999 -9999 -9999 -9999 -9999 -9999 -9999 -9999 -9999 -9999 -9999 -9999 -9999 -9999 -9999 -9999 -9999 -9999 -9999 -9999 -9999 -9999 -9999 -9999 -9999 -9999 -9999 -9999 100.592 100.622 100.574 100.557 100.544 100.543 100.545 100.572 100.559 100.54 100.527 100.517 100.489 100.481 100.417 100.429 100.412 100.395 100.369 100.363 100.347 100.313 100.299 100.278 100.266 100.236 100.231 100.215 100.19 100.155 100.119 100.049 100.045 100.002 99.969 99.955 99.93 99.962 99.922 100.563 103.667 105.236 101.259 99.97 99.823 99.756 99.77 100.763 102.167 100.115 101.069 101.115 101.784 101.514 102.064 101.978 101.062 100.064 99.005 99.076 101.172 101.5 100.073 97.752 97.649 97.515 97.389 97.322 97.416 97.265 97.124 96.952 96.77 96.633 96.511 96.387 96.251 96.16 95.968 95.692 95.476 95.325 95.061 94.808 94.702 94.436 94.191 93.993 93.677 93.418 93.133 92.996 92.716 92.497 92.306 92.046 91.803 91.552 91.191 90.77 90.419 90.086 89.903 89.755 89.644 89.576 89.612 89.387 88.948 88.313 87.958 87.616 87.352 87.046 86.622 86.298 86.066 85.661 85.576 85.24 85.027 84.682 84.548 84.098 84.02 83.847 83.652 83.553 83.506 83.472 83.3 83.051 82.979 82.899 82.824 82.691 82.449 82.245 81.968 81.717 81.358 81.079 80.888 80.832 80.748 80.631 80.368 80.104 80.031 79.894 79.666 79.745 79.388 79.178 78.884 78.723 78.58 78.221 77.952 77.762 77.562 77.288 77.123 76.977 76.648 76.415 76.139 76.099 75.896 75.734 75.69 75.662 75.437 75.35 75.318 75.143 75.04 74.868 74.674 74.51 74.345 74.132 73.938 73.848 73.98 73.936 74.938 75.408 75.939 73.002 80.604 80.78 79.158 74.577 72.117 71.993 71.878 71.785 71.678 71.604 72.16 73.248 74.626 74.604 74.295 74.027 71.773 70.917 70.809 72.442 71.322 70.675 70.153 69.957 72.53 69.984 69.978 69.331 71.098 70.028 69.324 69.817 69.869 72.917 73.723 74.088 74.655 70.449 68.549 68.593 75.844 76.213 76.122 75.334 74.859 74.272 70.385 68.289 68.391 67.702 67.522 67.539 67.585 68.422 66.868 66.725 66.565 66.377 66.243 66.038 65.834 65.692 65.402 65.169 64.983 64.979 64.94 64.863 64.887 64.747 64.66 64.547 64.507 64.348 65.099 64.708 64.091 64.116 63.547 66.066 63.643 64.087 63.98 63.8 62.22 67.29 68.178 67.628 66.95 66.164 61.945 61.943 63.867 63.163 60.966 60.554 60.668 60.692 60.825 60.566 60.474 60.199 60.519 65.907 59.985 71.984 72.211 70.651 63.82 59.621 58.934 63.321 63.379 60.041 60.106 58.354 58.73 57.473 57.33 57.198 57.566 56.927 56.311 55.972 55.636 55.487 55.182 59.028 61.581 62.752 62.889 62.039 60.123 55.05 54.692 54.684 54.572 54.811 54.431 54.333 54.295 54.323 59.092 62.493 62.937 63.2 63.64 61.86 55.676 52.902 52.995 52.724 52.737 52.644 52.65 54.542 53.196 52.856 52.982 57.727 60.392 55.142 53.489 53.918 59.283 59.895 55.133 52.992 51.311 50.706
-9999 -9999 -9999 -9999 -9999 -9999 -9999 -9999 -9999 -9999 -9999 -9999 -9999 -9999 -9999 -9999 -9999 -9999 -9999 -9999 -9999 -9999 -9999 -9999 -9999 -9999 -9999 -9999 -9999 -9999 -9999 -9999 -9999 -9999 -9999 -9999 -9999 -9999 -9999 -9999 -9999 -9999 -9999 -9999 -9999 -9999 -9999 -9999 -9999 -9999 -9999 -9999 -9999 -9999 -9999 -9999 -9999 -9999 -9999 -9999 -9999 -9999 -9999 -9999 -9999 -9999 -9999 -9999 -9999 -9999 -9999 -9999 -9999 -9999 -9999 -9999 -9999 -9999 -9999 -9999 -9999 -9999 -9999 -9999 -9999 -9999 -9999 -9999 -9999 -9999 -9999 -9999 -9999 -9999 -9999 -9999 -9999 -9999 -9999 -9999 -9999 -9999 -9999 -9999 -9999 -9999 -9999 -9999 -9999 -9999 100.597 100.581 100.577 100.535 100.549 100.564 100.567 100.58 100.576 100.568 100.536 100.483 100.459 100.438 100.44 100.431 100.416 100.402 100.374 100.299 100.325 100.323 100.312 100.299 100.291 100.267 100.224 100.221 100.209 100.175 100.106 100.066 100.018 99.978 99.97 99.955 99.965 99.994 99.958 103.788 104.491 102.785 100.097 100.052 100.251 100.072 101.394 102.98 102.059 100.076 99.74 99.699 100.734 101.715 103.867 101.54 101.968 101.621 100.557 100.516 101.8 103.055 98.346 97.622 97.612 97.538 97.442 97.487 97.423 97.223 97.109 96.953 96.815 96.691 96.562 96.442 96.392 96.194 95.942 95.745 95.55 95.385 95.166 94.979 94.727 94.446 94.268 93.923 93.773 93.555 93.277 93.119 92.914 92.652 92.403 92.204 91.972 91.634 91.27 90.827 90.617 90.356 90.079 90.01 89.954 89.844 89.774 89.447 88.77 88.22 87.958 87.764 87.452 86.987 86.669 86.324 86.134 85.85 85.643 85.349 85.096 84.868 84.514 84.358 84.079 83.952 84.003 83.863 83.791 83.747 83.501 83.388 83.355 83.284 83.123 82.87 82.783 82.411 82.061 81.786 81.442 81.258 81.122 81.144 81.117 80.676 80.453 80.38 80.268 80.329 80.062 79.916 79.552 79.355 79.152 78.968 78.685 78.306 77.97 77.765 77.692 77.412 77.284 77.12 76.852 76.524 76.481 76.266 76.513 76.491 76.036 75.915 75.797 75.656 75.505 75.421 75.251 75.04 74.842 74.663 74.432 74.233 74.135 74.003 73.915 74.302 74.339 73.622 76.92 76.005 80.477 77.657 73.279 72.508 72.657 72.07 71.859 71.777 71.738 72.104 73.561 73.591 74.853 77.224 76.865 71.922 71.185 74.23 76.004 75.583 71.112 70.408 71.736 72.998 70.799 70.547 70.495 71.75 71.143 69.419 69.125 69.091 69.15 69.168 70.562 69.841 68.687 68.482 72.198 74.397 75.079 75.467 76.146 77.249 75.914 68.516 68.307 67.961 67.856 67.716 67.621 67.989 67.376 67.216 67.895 66.633 66.44 66.303 66.137 65.943 65.761 65.566 65.278 65.053 65.1 65.025 65.043 65.108 65.78 64.942 64.649 64.537 64.37 64.251 64.645 64.186 64.249 63.729 68.634 66.49 65.28 64.769 64.014 62.428 65.316 66.455 63.012 62.419 61.826 61.687 61.309 62.471 62.358 61.852 61.195 60.956 60.973 60.99 60.755 60.681 64.311 71.387 69.589 65.547 69.313 72.382 68.652 63.692 59.131 57.97 59.076 59.964 60.135 60.003 58.197 57.877 57.66 57.487 57.192 56.892 57.367 57.91 56.766 55.865 55.587 55.385 55.092 59.856 62.905 62.995 62.528 61.651 59.32 55.02 54.908 55.273 55.349 54.997 54.417 54.335 54.341 54.287 58.81 63.422 63.108 62.945 62.323 61.602 54.586 52.748 52.725 52.737 52.716 52.608 52.885 56.565 56.401 52.931 52.54 52.309 52.03 52.202 62.424 62.394 56.032 56.253 52.999 50.799 50.349
-9999 -9999 -9999 -9999 -9999 -9999 -9999 -9999 -9999 -9999 -9999 -9999 -9999 -9999 -9999 -9999 -9999 -9999 -9999 -9999 -9999 -9999 -9999 -9999 -9999 -9999 -9999 -9999 -9999 -9999 -9999 -9999 -9999 -9999 -9999 -9999 -9999 -9999 -9999 -9999 -9999 -9999 -9999 -9999 -9999 -9999 -9999 -9999 -9999 -9999 -9999 -9999 -9999 -9999 -9999 -9999 -9999 -9999 -9999 -9999 -9999 -9999 -9999 -9999 -9999 -9999 -9999 -9999 -9999 -9999 -9999 -9999 -9999 -9999 -9999 -9999 -9999 -9999 -9999 -9999 -9999 -9999 -9999 -9999 -9999 -9999 -9999 -9999 -9999 -9999 -9999 -9999 -9999 -9999 -9999 -9999 -9999 -9999 -9999 -9999 -9999 -9999 -9999 -9999 -9999 -9999 -9999 -9999 -9999 -9999 100.581 100.574 100.562 100.578 100.554 100.59 100.602 100.597 100.565 100.541 100.535 100.513 100.49 100.469 100.442 100.422 100.412 100.406 100.338 100.338 100.337 100.353 100.382 100.377 100.307 100.297 100.296 100.25 100.213 100.198 100.152 100.094 100.061 100.016 100.01 99.974 99.979 99.97 101.013 103.794 104.523 101.12 100.11 100.325 100.779 99.968 99.833 100.95 100.129 100.496 99.981 99.792 99.482 103.032 104.878 104.908 100.991 101.718 101.127 100.99 103.251 103.453 101.953 98.088 99.598 97.544 97.497 97.549 97.438 97.265 97.166 97.035 96.98 96.915 96.742 96.561 96.482 96.389 96.193 95.989 95.839 95.612 95.395 95.195 95.001 94.812 94.571 94.316 94.091 93.862 93.648 93.444 93.14 92.951 92.755 92.568 92.284 92.018 91.586 91.242 90.986 90.712 90.462 90.327 90.214 90.171 90.162 89.857 89.181 88.703 88.486 88.135 87.835 87.497 87.123 86.781 86.452 86.248 86.107 85.695 85.382 85.2 84.913 84.626 84.527 84.301 84.288 84.293 84.104 84.075 83.948 83.841 83.746 83.645 83.495 83.373 83.115 82.905 82.623 82.168 81.816 81.57 81.486 81.489 81.424 81.082 80.748 80.739 80.717 80.562 80.481 80.25 80.052 79.835 79.778 79.445 79.14 78.869 78.461 78.196 78.04 77.784 77.627 77.474 77.19 76.951 76.933 76.712 76.859 76.627 76.379 76.26 76.092 76.007 75.875 75.661 75.524 75.378 75.239 74.996 74.746 74.586 74.402 74.297 74.143 73.991 74.091 73.617 77.45 75.194 77.386 78.561 75.364 74.015 72.566 72.142 72.043 71.915 71.923 73.564 73.713 75.682 76.187 77.622 76.876 71.394 71.359 74.513 76.747 73.55 71.903 70.565 71.156 73.275 70.435 70.366 70.339 71.25 70.11 69.933 69.686 69.569 69.598 69.438 69.288 70.234 70.59 68.931 68.433 69.908 73.53 73.988 74.536 75.377 70.611 68.302 68.406 72.335 73.551 71.607 68.578 68.21 67.571 67.435 66.967 66.733 66.727 66.429 66.226 66.066 65.83 65.62 65.361 65.041 65.159 65.241 65.161 65.353 66.62 66.834 66.218 64.527 64.428 64.209 64.06 64.244 64.006 68.798 70.522 71.425 67.138 66.206 64.593 62.938 61.638 61.648 61.888 62.076 62.172 61.971 61.659 61.59 61.776 62.272 61.741 61.217 61.269 61.611 61.298 60.706 60.667 70.568 71.391 62.324 60.881 59.993 62.94 59.403 58.157 58.025 58.013 59.493 58.988 59.969 59.576 57.931 57.937 57.627 57.194 57.204 57.368 57.785 56.883 56.081 55.84 55.425 55.743 57.457 60.92 62.1 62.963 62.381 61.214 58.517 55.635 55.726 54.584 54.525 54.424 54.362 54.31 54.633 55.483 61.028 62.775 62.922 63.121 61.968 53.824 52.716 52.685 52.685 52.656 52.666 52.698 57.81 56.788 53.401 53.898 53.975 56.477 61.992 62.729 63.098 62.147 60.966 54.892 50.362 50.302
-9999 -9999 -9999 -9999 -9999 -9999 -9999 -9999 -9999 -9999 -9999 -9999 -9999 -9999 -9999 -9999 -9999 -9999 -9999 -9999 -9999 -9999 -9999 -9999 -9999 -9999 -9999 -9999 -9999 -9999 -9999 -9999 -9999 -9999 -9999 -9999 -9999 -9999 -9999 -9999 -9999 -9999 -9999 -9999 -9999 -9999 -9999 -9999 -9999 -9999 -9999 -9999 -9999 -9999 -9999 -9999 -9999 -9999 -9999 -9999 -9999 -9999 -9999 -9999 -9999 -9999 -9999 -9999 -9999 -9999 -9999 -9999 -9999 -9999 -9999 -9999 -9999 -9999 -9999 -9999 -9999 -9999 -9999 -9999 -9999 -9999 -9999 -9999 -9999 -9999 -9999 -9999 -9999 -9999 -9999 -9999 -9999 -9999 -9999 -9999 -9999 -9999 -9999 -9999 -9999 -9999 -9999 -9999 -9999 -9999 -9999 100.571 100.573 100.568 100.582 100.593 100.562 100.572 100.582 100.558 100.522 100.527 100.503 100.482 100.461 100.459 100.41 100.411 100.376 100.374 100.355 100.362 100.393 100.385 100.334 100.322 100.281 100.269 100.227 100.206 100.192 100.106 100.075 100.081 100.012 99.946 99.979 99.968 103.37 104.077 104.766 103.609 100.2 100.491 100.861 100.633 99.828 99.705 99.923 99.69 99.832 99.491 99.867 103.113 105.094 105.622 104.837 100.696 98.778 98.794 100.795 99.869 98.649 100.606 102.23 98.769 97.688 97.661 97.533 97.442 97.336 97.247 97.143 97.105 96.992 96.853 96.713 96.658 96.459 96.273 95.987 95.886 95.663 95.482 95.26 95.037 94.882 94.597 94.347 94.147 93.994 93.715 93.537 93.315 93.113 92.876 92.596 92.308 91.837 91.568 91.233 90.962 90.85 90.706 90.621 90.59 90.459 90.22 89.521 89.087 88.812 88.564 88.252 87.951 87.581 87.307 86.859 86.638 86.305 86.073 85.733 85.478 85.192 85.024 84.805 84.654 84.596 84.547 84.551 84.448 84.448 84.343 84.227 84.09 83.946 83.776 83.584 83.336 82.919 82.617 82.228 82.058 81.866 81.745 81.709 81.502 81.203 81.195 81.112 80.922 80.853 80.656 81.417 80.815 79.986 79.79 79.671 79.253 78.813 78.524 78.394 78.13 77.922 77.879 77.631 77.37 77.141 77.008 76.974 76.955 76.757 76.69 76.426 76.361 76.24 76.127 75.904 75.739 75.526 75.319 75.149 75.014 74.796 74.62 74.446 74.259 74.189 74.102 75.79 77.943 75.896 78.358 76.365 73.339 72.998 72.903 72.368 72.039 72.211 74.04 73.948 74.783 76.295 75.612 71.938 71.475 71.494 73.65 75.267 73.91 71.206 70.662 71.056 70.987 70.517 70.459 70.511 71.31 70.15 70.093 70.112 70.371 70.164 69.679 69.642 69.986 71.644 70.115 68.53 68.649 68.869 69.514 70.128 73.75 71.196 68.257 71.486 75.713 75.463 74.332 73.484 71.592 68.309 67.756 67.316 67.618 67.373 66.847 67.328 67.158 66.029 65.772 65.477 65.218 65.24 65.309 65.299 65.415 66.336 68.2 67.588 64.765 64.649 64.153 64.029 66.457 69.388 70.549 71.472 70.359 69.155 64.917 64.306 64.025 63.235 62.543 62.23 62.376 62.322 62.18 62.174 62.29 62.371 62.225 62.259 61.726 61.633 61.811 61.569 60.848 60.482 64.197 66.758 62.778 59.192 59.013 58.731 58.52 58.553 58.111 58.013 57.898 59.322 59.843 58.272 57.864 58.124 57.994 57.595 57.277 57.092 57.486 56.679 56.442 57.738 56.564 57.296 55.708 56.404 60.853 62.17 62.856 62.132 61.127 58.065 54.802 54.633 54.537 54.656 54.692 54.298 54.212 54.718 55.402 61.054 62.075 57.731 56.786 55.029 53.234 52.663 52.661 52.597 52.621 52.559 54.117 53.045 53.509 54.112 53.302 54.323 61.81 61.902 62.664 62.892 62.462 60.425 52.024 51.212
-9999 -9999 -9999 -9999 -9999 -9999 -9999 -9999 -9999 -9999 -9999 -9999 -9999 -9999 -9999 -9999 -9999 -9999 -9999 -9999 -9999 -9999 -9999 -9999 -9999 -9999 -9999 -9999 -9999 -9999 -9999 -9999 -9999 -9999 -9999 -9999 -9999 -9999 -9999 -9999 -9999 -9999 -9999 -9999 -9999 -9999 -9999 -9999 -9999 -9999 -9999 -9999 -9999 -9999 -9999 -9999 -9999 -9999 -9999 -9999 -9999 -9999 -9999 -9999 -9999 -9999 -9999 -9999 -9999 -9999 -9999 -9999 -9999 -9999 -9999 -9999 -9999 -9999 -9999 -9999 -9999 -9999 -9999 -9999 -9999 -9999 -9999 -9999 -9999 -9999 -9999 -9999 -9999 -9999 -9999 -9999 -9999 -9999 -9999 -9999 -9999 -9999 -9999 -9999 -9999 -9999 -9999 -9999 -9999 -9999 -9999 -9999 100.593 100.583 100.564 100.57 100.575 100.583 100.574 100.557 100.543 100.537 100.512 100.483 100.491 100.466 100.44 100.359 100.41 100.357 100.336 100.347 100.386 100.383 100.319 100.302 100.287 100.274 100.26 100.222 100.181 100.123 100.079 100.083 100.017 100.008 99.981 99.969 101.141 103.373 104.59 101.212 102.317 101.736 100.865 100.575 100.438 99.669 99.63 99.69 99.571 99.402 99.174 101.062 104.06 104.423 102.312 99.773 98.782 98.99 99.473 99.842 98.921 100.602 99.11 99.268 98.15 97.892 97.965 97.838 98.111 98.106 98.862 97.686 97.096 97.114 96.936 96.853 96.635 96.532 96.351 96.057 95.894 95.684 95.544 95.263 95.146 94.932 94.738 94.554 94.308 94.096 93.87 93.666 93.555 93.299 92.988 92.729 92.285 91.834 91.449 91.203 91.089 91.018 90.906 90.913 90.788 90.637 89.834 89.539 89.275 88.944 88.715 88.49 88.147 87.737 87.339 87.121 86.777 86.395 86.199 85.891 85.492 85.344 85.096 84.974 84.992 85.039 84.84 84.956 84.756 84.788 84.648 84.626 84.488 84.206 83.936 83.651 83.326 82.892 82.527 82.404 82.284 82.329 82.198 81.921 81.676 81.657 81.528 81.324 81.31 81.111 80.896 80.807 80.498 80.309 80.182 79.793 79.4 79.067 78.853 78.594 78.409 78.226 77.937 77.822 77.61 77.361 77.348 77.292 77.273 77.074 76.859 76.831 76.665 76.461 76.347 76.11 76.009 75.671 75.455 75.367 75.086 74.927 74.805 74.864 74.452 74.103 74.591 76.668 80.058 75.936 74.025 73.88 73.624 73.605 73.46 73.197 72.892 73.029 73.002 74.143 76.093 75.301 72.017 71.689 72.155 75.387 75.533 72.704 71.179 70.832 70.757 70.712 70.625 70.576 71.117 70.797 70.295 70.237 70.227 72.124 70.966 69.933 69.903 71.267 70.548 69.699 69.479 69.174 69.251 68.819 68.629 68.416 68.433 68.126 71.911 74.338 75.12 75.632 74.918 74.192 73.409 68.481 67.718 67.583 66.962 66.967 66.584 67.653 66.489 65.921 65.637 65.403 65.325 65.415 65.422 65.552 66.352 67.471 67.7 67.975 65.575 63.912 66.459 69.417 70.634 71.455 70.49 69.731 64.469 63.716 64.967 64.873 63.099 63.67 62.601 62.613 62.619 62.544 62.447 62.594 62.785 62.384 62.622 61.897 61.852 62.097 62.335 60.789 60.342 60.533 65.695 59.598 59.192 58.959 58.769 58.691 58.518 58.23 58.043 57.93 57.895 58.063 57.827 57.758 58.822 58.465 58.016 57.918 57.57 57.215 57.185 57.694 57.842 57.766 57.178 55.484 55.18 56.127 61.318 62.488 63.036 62.445 60.008 55.945 54.645 54.718 54.708 54.619 54.3 54.221 54.869 54.29 59.307 55.896 53.872 54.066 53.823 52.829 52.728 52.587 52.582 52.645 52.611 52.515 52.515 52.664 52.854 52.772 52.713 58.761 61.049 63.029 63.066 62.512 61.191 55.64 52.826
-9999 -9999 -9999 -9999 -9999 -9999 -9999 -9999 -9999 -9999 -9999 -9999 -9999 -9999 -9999 -9999 -9999 -9999 -9999 -9999 -9999 -9999 -9999 -9999 -9999 -9999 -9999 -9999 -9999 -9999 -9999 -9999 -9999 -9999 -9999 -9999 -9999 -9999 -9999 -9999 -9999 -9999 -9999 -9999 -9999 -9999 -9999 -9999 -9999 -9999 -9999 -9999 -9999 -9999 -9999 -9999 -9999 -9999 -9999 -9999 -9999 -9999 -9999 -9999 -9999 -9999 -9999 -9999 -9999 -9999 -9999 -9999 -9999 -9999 -9999 -9999 -9999 -9999 -9999 -9999 -9999 -9999 -9999 -9999 -9999 -9999 -9999 -9999 -9999 -9999 -9999 -9999 -9999 -9999 -9999 -9999 -9999 -9999 -9999 -9999 -9999 -9999 -9999 -9999 -9999 -9999 -9999 -9999 -9999 -9999 -9999 -9999 -9999 100.565 100.564 100.569 100.585 100.584 100.581 100.581 100.544 100.552 100.531 100.534 100.464 100.509 100.434 100.439 100.403 100.366 100.4 100.379 100.398 100.38 100.353 100.315 100.291 100.26 100.269 100.21 100.157 100.106 100.08 100.068 100.044 100.01 99.981 99.983 102.138 104.122 104.223 103.14 104.87 105.045 102.636 100.871 100.69 99.767 99.673 99.632 99.416 99.231 99.194 99.01 99.022 100.817 100.662 98.656 100.782 101.511 102.477 102.343 99.879 98.852 98.741 98.605 98.176 98.465 100.587 101.029 101.436 102.876 101.742 98.801 97.552 97.251 97.074 96.897 96.77 96.752 96.492 96.287 96.039 95.841 95.724 95.549 95.383 95.198 95.008 94.782 94.584 94.466 94.187 94.074 93.769 93.621 93.342 93.07 92.649 92.241 91.908 91.583 91.41 91.281 91.229 91.186 91.123 91.001 90.461 89.888 89.582 89.4 89.209 88.901 88.531 88.262 87.984 87.568 87.292 86.923 86.624 86.258 85.95 85.821 85.598 85.534 85.587 85.499 85.419 85.375 85.252 85.227 85.188 85.066 84.809 84.591 84.452 84.103 83.649 83.277 83.009 82.769 82.81 82.661 82.577 82.312 81.974 82.102 81.875 81.728 81.711 81.798 81.396 81.065 81.096 80.814 80.583 80.313 79.911 79.662 79.375 79.137 78.92 78.701 78.411 78.317 78.147 77.813 77.823 77.745 77.654 77.529 77.346 77.194 77.014 76.915 76.738 76.533 76.332 76.301 76.005 75.765 75.545 75.351 75.169 75.1 74.646 74.519 74.762 74.777 74.999 74.295 74.447 74.006 73.684 73.992 73.728 74.006 73.059 73.157 72.909 73.005 73.271 73.248 72.786 71.92 73.99 76.852 77.345 77.645 74.517 71.034 71.286 70.909 70.701 70.647 71.303 70.856 70.434 70.35 70.221 71.639 70.621 70.097 70.012 71.552 70.524 69.807 69.691 69.607 69.524 69.189 68.731 69.845 70.03 68.435 69.321 72.878 73.819 74.372 75.318 75.535 74.669 69.07 68.186 67.22 66.972 66.946 66.89 66.787 66.448 65.989 65.828 65.523 65.378 65.499 65.533 65.563 65.731 67.248 67.278 67.091 65.48 63.781 68.065 70.634 71.246 70.575 69.224 66.023 64.347 63.829 63.812 64.879 64.034 63.107 62.852 62.767 62.895 63.002 62.727 62.781 62.75 62.57 62.469 62.045 62.301 61.455 60.697 60.607 62.163 67.067 67.249 66.063 59.527 59.001 58.904 58.817 58.475 58.784 58.592 58.022 57.92 57.922 57.808 58.828 59.731 59.451 58.212 58.56 57.703 57.147 57.111 57.798 57.173 56.415 56.298 55.578 55.498 55.737 56.532 61.393 63.241 62.962 61.702 60.351 54.943 54.722 54.62 54.47 54.319 54.202 54.057 54.051 53.754 53.709 54.301 53.529 53.169 52.966 52.808 52.757 52.872 52.601 52.604 52.622 53.983 52.714 52.878 53.023 52.701 53.177 61.095 61.83 62.435 63.023 56.223 53.181 54.089
-9999 -9999 -9999 -9999 -9999 -9999 -9999 -9999 -9999 -9999 -9999 -9999 -9999 -9999 -9999 -9999 -9999 -9999 -9999 -9999 -9999 -9999 -9999 -9999 -9999 -9999 -9999 -9999 -9999 -9999 -9999 -9999 -9999 -9999 -9999 -9999 -9999 -9999 -9999 -9999 -9999 -9999 -9999 -9999 -9999 -9999 -9999 -9999 -9999 -9999 -9999 -9999 -9999 -9999 -9999 -9999 -9999 -9999 -9999 -9999 -9999 -9999 -9999 -9999 -9999 -9999 -9999 -9999 -9999 -9999 -9999 -9999 -9999 -9999 -9999 -9999 -9999 -9999 -9999 -9999 -9999 -9999 -9999 -9999 -9999 -9999 -9999 -9999 -9999 -9999 -9999 -9999 -9999 -9999 -9999 -9999 -9999 -9999 -9999 -9999 -9999 -9999 -9999 -9999 -9999 -9999 -9999 -9999 -9999 -9999 -9999 -9999 -9999 -9999 100.573 100.585 100.587 100.594 100.598 100.577 100.563 100.546 100.532 100.523 100.516 100.501 100.453 100.425 100.402 100.408 100.401 100.384 100.417 100.385 100.368 100.328 100.305 100.28 100.241 100.238 100.221 100.105 100.108 100.082 100.045 100.039 100.037 99.987 101.224 104.262 104.55 104.562 104.728 105.17 103.878 100.771 100.355 99.888 99.6 99.495 99.413 99.21 99.046 98.922 98.807 98.685 98.586 101.223 103.307 104.826 99.82 103.394 102.702 98.62 98.481 98.28 98.232 98.87 101.886 102.041 102.605 102.865 103.203 101.142 100.936 100.116 97.489 97.193 96.927 96.749 96.665 96.559 96.356 96.111 95.926 95.714 95.61 95.394 95.223 95.052 94.876 94.759 94.432 94.294 94.075 93.873 93.643 93.424 93.119 92.676 92.175 91.988 91.821 91.739 91.668 91.561 91.401 91.375 90.756 90.322 90.047 89.902 89.602 89.372 89.035 88.756 88.394 88.084 87.688 87.475 87.109 86.823 86.452 86.349 86.136 85.987 85.967 85.991 85.78 85.798 85.697 85.564 85.608 85.422 85.173 84.976 84.66 84.392 84.066 83.773 83.455 83.184 83.248 83.165 83.109 82.784 82.466 82.478 82.344 82.284 82.13 81.94 81.746 81.634 81.624 81.248 80.904 80.698 80.56 80.152 79.948 79.587 79.488 79.311 79.062 78.791 78.596 78.46 78.243 78.164 78.161 77.972 77.733 77.575 77.506 77.324 77.165 77.026 76.743 76.694 76.354 76.119 75.867 75.681 76.653 77.284 75.549 74.769 75.14 75.181 74.69 74.484 74.204 74.616 73.801 73.866 73.605 74.204 73.19 73.027 73.008 72.908 72.88 72.729 72.6 73.05 77.184 78.104 78.279 77.988 77.567 72.95 71.537 71.782 70.783 70.712 71.665 70.597 70.572 70.439 70.371 72.098 72.245 70.155 71.79 72.094 70.57 70.269 69.803 69.779 69.693 69.687 69.416 69.348 70.202 68.59 69.637 70.72 70.886 72.89 73.667 74.696 69.965 68.76 67.743 71.458 70.993 67.1 67.009 67.192 66.503 66.057 65.928 65.76 65.566 65.564 65.678 65.669 65.773 66.776 67.311 66.567 64.729 63.933 66.172 70.956 70.472 69.344 66.053 63.986 64.897 63.96 63.807 64.557 64.866 63.797 63.193 63.069 63.153 63.044 62.963 62.832 62.764 62.763 62.59 62.615 61.333 61.126 60.882 63.172 66.405 67.482 67.576 66.88 65.017 59.694 58.936 58.813 58.705 58.433 58.124 58.083 57.929 58.543 59.309 59.591 59.702 57.722 59.029 58.732 58.281 57.2 57.267 57.198 56.993 56.147 56.196 55.912 55.671 55.634 57.331 60.097 61.538 62.822 62.796 61.493 58.916 54.915 54.919 54.764 54.321 54.239 54.108 53.918 53.784 53.694 53.503 53.382 53.198 53.079 53.047 52.923 52.711 52.607 52.595 52.596 54.456 54.412 52.717 54.111 53.276 53.035 54.395 60.626 56.088 52.28 53.528 53.552 54.744
-9999 -9999 -9999 -9999 -9999 -9999 -9999 -9999 -9999 -9999 -9999 -9999 -9999 -9999 -9999 -9999 -9999 -9999 -9999 -9999 -9999 -9999 -9999 -9999 -9999 -9999 -9999 -9999 -9999 -9999 -9999 -9999 -9999 -9999 -9999 -9999 -9999 -9999 -9999 -9999 -9999 -9999 -9999 -9999 -9999 -9999 -9999 -9999 -9999 -9999 -9999 -9999 -9999 -9999 -9999 -9999 -9999 -9999 -9999 -9999 -9999 -9999 -9999 -9999 -9999 -9999 -9999 -9999 -9999 -9999 -9999 -9999 -9999 -9999 -9999 -9999 -9999 -9999 -9999 -9999 -9999 -9999 -9999 -9999 -9999 -9999 -9999 -9999 -9999 -9999 -9999 -9999 -9999 -9999 -9999 -9999 -9999 -9999 -9999 -9999 -9999 -9999 -9999 -9999 -9999 -9999 -9999 -9999 -9999 -9999 -9999 -9999 -9999 -9999 -9999 100.595 100.614 100.615 100.599 100.558 100.551 100.558 100.556 100.552 100.544 100.506 100.5 100.449 100.419 100.426 100.42 100.405 100.406 100.407 100.387 100.332 100.285 100.271 100.241 100.219 100.226 100.208 100.143 100.139 100.085 100.098 100.065 100.045 101.805 103.708 104.042 103.877 104.255 103.887 103.971 101.489 100.305 99.821 99.583 99.513 99.425 99.245 99.106 99.003 98.908 98.806 99.72 103.534 103.885 100.997 99.844 104.793 101.752 99.484 98.15 98.061 98.449 102.356 104.194 102.795 102.57 101.953 102.342 102.456 102.464 101.373 101.928 99.88 97.272 97.028 97.723 99.174 99.405 96.323 96.117 95.961 95.775 95.603 95.466 95.305 95.106 94.956 94.758 94.549 94.352 94.175 93.964 93.722 93.438 93.038 92.62 92.274 92.156 92.035 91.926 91.934 91.829 91.601 91.115 90.605 90.364 90.214 89.996 89.703 89.503 89.201 88.784 88.512 88.229 87.928 87.605 87.273 87.032 86.829 86.543 86.391 86.31 86.309 86.224 86.271 86.073 86.051 86.035 85.677 85.512 85.204 84.959 84.683 84.42 84.172 83.965 83.731 83.681 83.572 83.402 83.225 82.761 82.795 82.852 82.612 82.546 82.377 82.239 82.024 81.865 81.682 81.42 81.209 80.941 80.598 80.453 80.121 79.896 79.777 79.534 79.204 79.099 79.344 78.877 78.49 78.404 78.286 78.096 77.939 77.789 77.572 77.482 77.378 77.237 76.925 76.729 76.453 76.258 76.058 76.484 79.127 77.7 75.273 75.552 75.31 74.943 75.145 74.397 74.137 74.634 73.634 73.898 75.552 73.809 72.961 72.892 72.799 72.715 72.719 72.662 73.693 76.262 77.811 79.345 78.896 78.184 74.454 72.819 72.486 71.853 71.945 71.611 70.989 70.916 70.855 70.548 70.523 70.786 71.839 73.198 71.055 70.454 70.312 69.908 69.944 69.808 69.884 69.769 70.212 69.555 68.881 69.301 70.53 68.611 67.871 69.304 71.596 67.829 67.596 71.13 74.327 73.322 69.373 67.593 66.93 67.071 66.392 66.021 65.9 65.763 65.645 65.729 65.777 65.784 65.904 66.556 66.117 65.018 64.826 64.637 65.961 69.116 65.216 63.823 63.949 66.301 64.733 63.86 63.72 63.885 63.677 63.381 63.487 63.388 63.53 62.982 62.93 62.617 62.381 62.278 62.422 61.633 61.131 60.991 60.841 65.71 66.899 67.741 67.597 66.578 64.092 60.282 59.398 59.047 58.963 58.654 58.183 58.025 58.027 57.866 58.176 59.138 57.852 58.707 58.96 57.983 57.559 57.315 56.623 57.413 56.53 56.14 55.99 55.893 56.29 57.254 55.8 60.756 62.935 63.411 62.369 61.128 58.137 55.898 54.928 54.562 54.382 54.159 54.057 53.944 53.784 53.649 53.496 53.356 53.296 54.242 53.042 52.861 52.794 52.537 52.568 52.546 54.489 52.775 54.811 53.134 52.755 54.422 54.946 51.485 51.227 53.061 52.39 52.871
-9999 -9999 -9999 -9999 -9999 -9999 -9999 -9999 -9999 -9999 -9999 -9999 -9999 -9999 -9999 -9999 -9999 -9999 -9999 -9999 -9999 -9999 -9999 -9999 -9999 -9999 -9999 -9999 -9999 -9999 -9999 -9999 -9999 -9999 -9999 -9999 -9999 -9999 -9999 -9999 -9999 -9999 -9999 -9999 -9999 -9999 -9999 -9999 -9999 -9999 -9999 -9999 -9999 -9999 -9999 -9999 -9999 -9999 -9999 -9999 -9999 -9999 -9999 -9999 -9999 -9999 -9999 -9999 -9999 -9999 -9999 -9999 -9999 -9999 -9999 -9999 -9999 -9999 -9999 -9999 -9999 -9999 -9999 -9999 -9999 -9999 -9999 -9999 -9999 -9999 -9999 -9999 -9999 -9999 -9999 -9999 -9999 -9999 -9999 -9999 -9999 -9999 -9999 -9999 -9999 -9999 -9999 -9999 -9999 -9999 -9999 -9999 -9999 -9999 -9999 -9999 100.601 100.576 100.606 100.562 100.569 100.555 100.564 100.578 100.549 100.548 100.496 100.442 100.458 100.467 100.441 100.414 100.422 100.4 100.362 100.339 100.314 100.301 100.283 100.259 100.229 100.188 100.18 100.144 100.125 100.105 100.065 100.029 101.408 103.909 105.141 102.084 102.686 102.731 101.012 100.525 100.185 99.77 99.509 99.423 99.326 99.229 99.145 99.046 98.961 98.819 101.607 103.432 104.265 106.07 100.704 102.419 101.071 98.107 97.941 97.951 97.993 101.779 103.128 102.312 101.132 101.767 101.283 101.526 102.193 102.434 102.863 102.062 100.099 97.441 97.163 97.005 97.108 96.798 96.566 96.193 96.066 95.857 95.655 95.485 95.344 95.152 94.996 94.799 94.607 94.416 94.181 93.994 93.729 93.343 92.919 92.641 92.472 92.325 92.189 92.188 92.097 91.914 91.265 91.016 90.826 90.554 90.319 90.139 89.96 89.614 89.225 89.016 88.725 88.344 88.1 87.845 87.552 87.317 87.088 86.953 86.76 86.767 86.713 86.643 86.575 86.491 86.37 86.136 85.894 85.521 85.274 85.137 84.875 84.672 84.47 84.163 84.092 83.939 83.925 83.512 83.191 83.212 83.158 83.112 83.076 82.803 82.545 82.388 82.289 81.978 81.772 81.611 81.39 81.053 80.803 80.58 80.375 80.171 79.895 79.785 79.583 79.299 79.154 78.983 78.877 78.702 78.517 78.404 78.207 78.026 77.909 77.656 77.577 77.286 77.012 76.723 76.49 76.277 77.947 78.656 76.904 75.666 75.655 75.398 75.262 74.704 74.521 76.666 77.067 73.983 73.429 73.23 73.133 73.066 72.958 72.868 72.81 72.732 72.679 72.589 73.304 75.157 76.763 77.557 75.905 73.837 73.044 73.256 73.139 72.645 72.475 72.843 72.642 71.505 72.14 71.814 70.796 71.22 71.817 70.492 70.085 70.038 70.01 70.123 70.046 69.96 69.837 70.106 69.355 69.367 69.288 69.725 69.127 68.148 67.884 67.856 68.58 67.513 72.03 73.898 74.617 73.809 71.818 67.255 66.986 66.711 68.307 65.968 65.836 65.759 65.751 65.839 65.893 65.911 66.279 66.988 65.776 65.445 64.667 64.036 63.899 63.902 64.022 64.165 66.921 65.44 65.28 64.066 64.242 64.082 63.795 63.258 63.459 63.232 62.803 62.736 62.58 62.587 63.44 62.51 61.991 61.511 61.216 60.853 60.956 66.011 67.039 67.679 67.392 66.43 63.526 59.367 59.052 58.952 58.521 58.271 58.521 57.967 57.921 57.675 59.121 59.515 58.118 57.737 57.13 57.55 58.263 56.766 56.237 56.141 56.234 56.166 56.19 56.033 55.565 55.462 55.473 60.743 62.102 62.911 62.004 58.071 54.979 54.833 54.723 54.441 54.329 54.184 54.068 53.911 53.774 53.612 53.709 60.598 56.474 53.274 52.932 53.126 52.598 52.506 52.514 52.483 52.405 52.467 53.393 52.95 52.396 52.084 51.75 51.586 51.734 53.127 51.887
-9999 -9999 -9999 -9999 -9999 -9999 -9999 -9999 -9999 -9999 -9999 -9999 -9999 -9999 -9999 -9999 -9999 -9999 -9999 -9999 -9999 -9999 -9999 -9999 -9999 -9999 -9999 -9999 -9999 -9999 -9999 -9999 -9999 -9999 -9999 -9999 -9999 -9999 -9999 -9999 -9999 -9999 -9999 -9999 -9999 -9999 -9999 -9999 -9999 -9999 -9999 -9999 -9999 -9999 -9999 -9999 -9999 -9999 -9999 -9999 -9999 -9999 -9999 -9999 -9999 -9999 -9999 -9999 -9999 -9999 -9999 -9999 -9999 -9999 -9999 -9999 -9999 -9999 -9999 -9999 -9999 -9999 -9999 -9999 -9999 -9999 -9999 -9999 -9999 -9999 -9999 -9999 -9999 -9999 -9999 -9999 -9999 -9999 -9999 -9999 -9999 -9999 -9999 -9999 -9999 -9999 -9999 -9999 -9999 -9999 -9999 -9999 -9999 -9999 -9999 -9999 -9999 100.607 100.598 100.587 100.53 100.567 100.589 100.576 100.543 100.534 100.471 100.457 100.459 100.454 100.436 100.403 100.403 100.41 100.411 100.385 100.314 100.301 100.272 100.271 100.234 100.231 100.209 100.195 100.154 100.117 100.093 100.596 103.732 104.535 103.885 101.297 100.793 100.782 101.213 101.167 100.161 99.651 99.45 99.285 99.239 99.228 99.192 99.139 99.057 98.894 98.779 102.274 104.27 103.782 104.373 103.564 99.345 98.233 98.123 97.993 97.966 98.046 98.655 98.522 100.431 100.146 98.45 97.968 99.265 101.396 102.314 101.503 99.295 97.671 97.453 97.485 97.414 97.038 96.921 96.726 96.448 96.392 96.128 95.959 95.575 95.403 95.152 94.963 94.747 94.611 94.402 94.234 93.947 93.726 93.309 93.031 92.78 92.622 92.475 92.424 92.369 92.191 91.699 91.312 91.141 90.931 90.734 90.528 90.264 90.018 89.711 89.5 89.101 88.858 88.539 88.318 88.049 87.812 87.534 87.426 87.228 87.192 87.089 87.102 87.013 86.931 86.78 86.546 86.317 85.87 85.731 85.539 85.368 85.063 84.857 84.602 84.439 84.332 84.398 83.976 83.613 83.642 83.597 83.464 83.357 83.185 82.998 82.745 82.598 82.373 82.113 82.047 81.824 81.491 81.247 80.915 80.802 80.613 80.385 80.113 79.828 79.652 79.593 79.352 79.152 79.042 78.74 78.677 78.496 78.303 78.161 77.982 77.765 77.478 77.18 77.029 76.992 78.407 78.787 77.716 75.828 76.02 75.81 75.957 76.009 74.971 74.652 74.919 75.023 73.786 73.586 73.422 73.289 73.122 73.008 72.956 72.871 72.802 72.7 72.641 72.547 72.48 72.747 72.701 72.432 72.203 72.644 72.738 72.603 72.345 72.059 72.562 72.777 72.674 72.825 72.433 71.811 71.775 72.87 71.253 70.419 70.908 70.888 70.251 70.183 70.072 70.816 69.994 69.654 69.736 69.475 70.08 69.179 69.346 68.934 68.226 69.225 67.324 70.957 72.168 73.498 74.36 73.698 72.08 67.193 67.604 69.028 66.644 66.005 65.88 65.822 65.905 65.964 66.014 65.952 66.338 67.095 66.457 65.491 64.961 65.535 65.777 64.517 65.576 67.111 65.597 64.236 64.227 64.175 64.142 63.59 63.512 65.118 63.737 62.93 62.781 62.671 62.552 62.374 62.34 62.154 62.011 61.815 61.84 61.417 60.585 66.286 67.177 67.805 67.353 65.997 60.852 59.113 58.985 58.692 58.555 58.372 58.052 57.983 57.739 57.922 59.515 58.003 57.301 57.243 57.022 57.249 57.043 56.416 56.194 56.26 56.272 56.213 56.209 55.746 55.623 55.372 57.763 61.297 59.065 58.012 55.776 54.918 54.873 54.747 54.595 54.409 54.316 54.169 54.008 53.919 54.322 62.287 62.718 61.96 59.186 53.678 52.964 52.701 52.49 52.457 52.497 52.481 52.422 52.655 52.546 52.151 52.103 51.885 52.279 51.5 51.491 51.858
-9999 -9999 -9999 -9999 -9999 -9999 -9999 -9999 -9999 -9999 -9999 -9999 -9999 -9999 -9999 -9999 -9999 -9999 -9999 -9999 -9999 -9999 -9999 -9999 -9999 -9999 -9999 -9999 -9999 -9999 -9999 -9999 -9999 -9999 -9999 -9999 -9999 -9999 -9999 -9999 -9999 -9999 -9999 -9999 -9999 -9999 -9999 -9999 -9999 -9999 -9999 -9999 -9999 -9999 -9999 -9999 -9999 -9999 -9999 -9999 -9999 -9999 -9999 -9999 -9999 -9999 -9999 -9999 -9999 -9999 -9999 -9999 -9999 -9999 -9999 -9999 -9999 -9999 -9999 -9999 -9999 -9999 -9999 -9999 -9999 -9999 -9999 -9999 -9999 -9999 -9999 -9999 -9999 -9999 -9999 -9999 -9999 -9999 -9999 -9999 -9999 -9999 -9999 -9999 -9999 -9999 -9999 -9999 -9999 -9999 -9999 -9999 -9999 -9999 -9999 -9999 -9999 -9999 100.605 100.582 100.59 100.583 100.557 100.553 100.558 100.516 100.479 100.413 100.433 100.424 100.379 100.38 100.398 100.435 100.376 100.399 100.33 100.301 100.295 100.304 100.281 100.25 100.241 100.198 100.157 100.125 100.116 100.246 103.943 105.725 105.092 101.636 100.978 100.745 100.657 100.559 100.211 99.602 99.391 99.238 99.203 99.248 99.314 99.149 99.053 99.03 98.87 99.905 103.363 103.766 102.734 101.462 98.309 98.186 98.165 98.134 98.221 98.219 98.264 98.169 98.107 98.05 97.9 97.821 97.703 97.774 99.057 97.949 97.419 97.5 97.553 97.576 97.451 97.826 97.217 97.016 96.755 96.6 96.669 98.184 96.127 95.915 95.52 95.359 95.083 94.857 94.605 94.444 94.248 93.957 93.667 93.465 93.188 92.901 92.732 92.633 92.612 92.391 91.983 91.648 91.495 91.268 91.07 90.88 90.609 90.334 90.105 89.938 89.598 89.244 88.992 88.77 88.438 88.156 87.984 87.948 87.672 87.65 87.527 87.524 87.333 87.228 87.179 86.962 86.611 86.394 86.233 86.017 85.752 85.551 85.256 84.998 84.92 84.917 84.75 84.416 84.079 83.965 83.904 83.808 83.701 83.54 83.271 83.088 82.93 82.806 82.605 82.376 82.347 82.099 81.868 81.44 81.143 80.954 80.748 80.623 80.286 80.093 79.823 79.656 79.576 79.29 79.054 78.96 78.785 78.67 78.426 78.221 78.124 77.803 77.453 77.235 77.483 79.92 79.536 76.29 75.903 78.159 77.686 75.853 75.397 75.264 74.816 74.409 74.177 73.943 73.703 73.518 73.386 73.216 73.087 73.001 72.911 72.822 72.75 72.675 72.588 72.52 72.429 72.375 72.264 72.167 72.033 71.923 71.893 71.821 71.943 71.889 72.016 72.041 72.15 72.378 72.322 71.798 72.162 73.628 71.468 71.249 70.792 70.461 70.502 70.193 70.882 69.934 69.754 69.649 70.45 69.765 69.381 69.258 69.252 69.064 69.053 67.463 67.249 68.08 71.313 73.327 74.332 74.053 69.928 67.923 67.761 67.594 66.868 66.238 65.998 65.962 65.991 66.013 66.006 65.963 66.357 67.205 66.567 66.09 66.049 65.351 66.402 67.363 66.615 65.973 64.604 68.169 66.372 65.449 64.746 64.719 63.508 63.178 63.108 62.898 62.752 62.632 62.48 62.822 63.018 62.252 61.999 61.728 61.055 60.845 64.55 66.339 67.254 67.876 67.02 66.129 60.244 59.166 59.216 59.17 58.47 59.418 58.417 57.963 57.763 57.494 57.444 57.35 57.181 57.193 57.252 57.645 56.52 56.458 56.546 56.422 56.289 56.217 56.495 55.738 55.456 55.082 55.551 55.025 56.02 55.662 55.287 55.012 54.862 54.767 54.61 54.413 54.244 54.259 58.159 62.523 63.306 63.318 63.961 61.924 56.073 52.925 52.82 52.547 52.467 52.507 52.473 52.414 52.347 52.279 52.242 52.378 53.698 52.644 51.729 57.269 62.184
-9999 -9999 -9999 -9999 -9999 -9999 -9999 -9999 -9999 -9999 -9999 -9999 -9999 -9999 -9999 -9999 -9999 -9999 -9999 -9999 -9999 -9999 -9999 -9999 -9999 -9999 -9999 -9999 -9999 -9999 -9999 -9999 -9999 -9999 -9999 -9999 -9999 -9999 -9999 -9999 -9999 -9999 -9999 -9999 -9999 -9999 -9999 -9999 -9999 -9999 -9999 -9999 -9999 -9999 -9999 -9999 -9999 -9999 -9999 -9999 -9999 -9999 -9999 -9999 -9999 -9999 -9999 -9999 -9999 -9999 -9999 -9999 -9999 -9999 -9999 -9999 -9999 -9999 -9999 -9999 -9999 -9999 -9999 -9999 -9999 -9999 -9999 -9999 -9999 -9999 -9999 -9999 -9999 -9999 -9999 -9999 -9999 -9999 -9999 -9999 -9999 -9999 -9999 -9999 -9999 -9999 -9999 -9999 -9999 -9999 -9999 -9999 -9999 -9999 -9999 -9999 -9999 -9999 100.584 100.577 100.551 100.59 100.58 100.565 100.554 100.509 100.513 100.434 100.446 100.453 100.404 100.367 100.384 100.408 100.406 100.383 100.344 100.365 100.349 100.347 100.291 100.268 100.267 100.235 100.155 100.172 100.114 100.33 104.294 104.132 103.725 101.246 100.813 100.412 100.557 100.418 100.016 99.526 99.356 99.267 99.215 99.216 99.284 99.278 99.159 99.04 98.931 98.81 98.956 98.973 99.919 98.547 98.372 98.433 98.317 98.327 98.331 98.264 98.321 98.354 98.326 98.32 98.258 98.068 98.032 98.061 97.886 98.002 98.842 98.906 98.085 98.265 97.44 97.196 97.634 99.219 96.92 96.8 97.607 97.893 97.548 96.193 95.941 95.745 95.62 95.44 95.131 94.909 94.6 94.346 94.057 93.779 93.484 93.254 92.979 92.836 92.818 92.681 92.296 92.039 91.736 91.552 91.467 91.269 90.971 90.739 90.58 90.27 89.963 89.701 89.451 89.173 88.878 88.651 88.43 88.341 88.19 88.106 87.96 87.816 87.687 87.658 87.409 87.293 87.063 86.765 86.591 86.49 86.25 85.933 85.786 85.463 85.443 85.374 85.188 84.744 84.423 84.411 84.264 84.101 83.987 83.826 83.613 83.359 83.295 83.141 83.081 82.813 82.699 82.545 82.281 81.929 81.786 81.588 81.174 80.917 80.704 81.237 80.267 79.997 79.831 79.637 82.017 80.214 79.416 78.828 78.636 78.457 78.227 77.939 77.613 77.361 77.398 79.289 79.151 76.459 76.124 76.703 76.604 77.413 77.107 75.513 74.953 74.631 74.381 74.131 73.87 73.697 73.516 73.33 73.182 73.084 72.963 72.913 72.83 72.737 72.675 72.593 72.503 72.403 72.317 72.232 72.127 72.014 71.941 71.875 71.768 71.687 71.612 71.56 71.546 71.488 71.482 71.366 71.41 71.234 71.052 71.004 70.846 71.24 71.236 70.935 71.963 72.063 70.258 70.359 70.91 69.605 69.515 69.463 69.309 69.353 68.783 68.296 67.976 67.356 69.199 71.159 73.04 70.672 68.419 67.144 67.232 68.064 68.777 67.322 67.071 66.625 66.017 66.041 66.086 66.033 65.978 66.176 67.279 66.064 65.634 65.383 65.18 65.938 66.618 65.28 69.204 71.338 70.511 67.252 64.471 64.442 63.958 64.706 63.393 63.452 62.92 62.709 62.604 62.39 63.223 62.512 62.091 62.017 61.563 61.244 60.54 64.615 66.629 67.499 67.696 66.903 63.788 59.397 59.055 60.896 59.957 58.564 59.374 58.461 57.948 57.726 57.572 57.461 58.735 57.64 57.305 57.321 57.726 57.016 60.061 59.318 56.592 56.174 56.361 56.089 55.626 55.582 55.434 55.99 55.674 55.532 55.254 55.149 54.978 54.863 54.716 54.603 54.558 56.364 57.8 61.613 62.885 63.513 63.432 62.614 60.876 53.412 53.152 53.106 52.691 53.436 52.554 52.392 52.361 52.348 52.37 55.416 56.071 54.278 58.131 59.689 61.485
-9999 -9999 -9999 -9999 -9999 -9999 -9999 -9999 -9999 -9999 -9999 -9999 -9999 -9999 -9999 -9999 -9999 -9999 -9999 -9999 -9999 -9999 -9999 -9999 -9999 -9999 -9999 -9999 -9999 -9999 -9999 -9999 -9999 -9999 -9999 -9999 -9999 -9999 -9999 -9999 -9999 -9999 -9999 -9999 -9999 -9999 -9999 -9999 -9999 -9999 -9999 -9999 -9999 -9999 -9999 -9999 -9999 -9999 -9999 -9999 -9999 -9999 -9999 -9999 -9999 -9999 -9999 -9999 -9999 -9999 -9999 -9999 -9999 -9999 -9999 -9999 -9999 -9999 -9999 -9999 -9999 -9999 -9999 -9999 -9999 -9999 -9999 -9999 -9999 -9999 -9999 -9999 -9999 -9999 -9999 -9999 -9999 -9999 -9999 -9999 -9999 -9999 -9999 -9999 -9999 -9999 -9999 -9999 -9999 -9999 -9999 -9999 -9999 -9999 -9999 -9999 -9999 -9999 -9999 100.588 100.57 100.551 100.535 100.539 100.501 100.508 100.501 100.444 100.443 100.384 100.389 100.376 100.367 100.437 100.395 100.4 100.369 100.375 100.363 100.339 100.333 100.279 100.286 100.204 100.171 100.152 100.128 103.063 104.275 104.427 104.777 101.469 100.481 100.112 100.22 100.291 99.834 99.523 99.372 99.332 99.271 99.234 99.239 99.275 99.22 99.08 99.067 98.956 98.782 98.635 98.474 98.425 98.428 98.692 98.371 98.349 98.383 98.401 98.445 98.419 98.413 98.409 98.291 98.18 98.085 98.066 98.117 98.077 98.062 98.529 97.6 97.263 97.257 97.276 99.352 100.201 98.137 96.941 96.809 97.335 98.042 96.528 96.501 96.276 95.964 95.712 95.475 95.411 95.292 95.09 94.854 94.468 94.045 93.657 93.327 93.172 93.003 92.939 92.594 92.329 92.042 91.901 91.708 91.545 91.268 91.187 90.935 90.688 90.403 90.102 89.802 89.574 89.259 89.046 88.821 88.695 89.152 88.509 88.344 88.245 88.161 87.906 87.756 87.578 87.401 87.162 87.032 86.843 86.617 86.516 86.17 85.982 85.886 85.668 85.524 85.164 84.731 84.75 84.63 84.49 84.371 84.135 83.997 83.838 83.744 83.561 83.395 83.261 82.995 82.828 82.692 82.427 82.26 81.831 81.589 81.374 81.103 81.101 80.631 80.437 80.23 81.367 83.397 83.016 80.152 79.025 78.89 78.543 78.312 78.025 77.785 77.542 77.307 77.818 77.35 76.466 76.553 77.417 77.724 76.804 77.307 75.584 75.117 74.791 74.524 74.292 74.063 73.843 73.666 73.465 73.337 73.206 73.056 72.981 72.872 72.811 72.726 72.635 72.56 72.473 72.421 72.306 72.274 72.139 72.047 71.962 71.884 71.72 71.672 71.55 71.479 71.399 71.342 71.255 71.127 71.083 71.038 70.878 70.801 70.851 70.673 70.901 71.002 71.831 72.133 70.66 69.949 69.737 69.645 69.602 69.615 69.468 69.416 71.52 71.583 69.781 69.935 68.178 68.66 69.767 67.148 67.194 67.749 68.822 67.694 66.787 68.028 66.521 66.114 66.051 66.091 66.047 66.075 66.044 66.053 66.009 66.643 68.62 65.726 64.98 64.993 68.696 71.4 72.08 71.557 71.081 68.88 65.29 64.053 64.227 63.35 63.108 62.921 62.858 62.676 62.502 62.39 62.849 62.102 62.24 61.957 61.942 61.144 61.604 64.74 66.547 67.458 67.659 66.597 64.717 59.29 59.257 59.481 58.742 58.517 59.611 58.126 57.888 58.677 58.511 58.008 57.709 57.505 57.28 57.348 62.422 63.545 64.443 59.733 56.404 56.207 57.03 55.889 55.721 56.771 56.099 55.735 55.591 55.457 55.313 55.142 54.963 54.878 56.103 55.885 55.368 56.386 57.572 62.147 62.859 63.463 62.988 62.172 57.623 53.204 52.876 52.676 52.876 52.462 52.425 52.389 52.338 53.305 57.738 57.837 53.583 53.654 59.859 61.697
-9999 -9999 -9999 -9999 -9999 -9999 -9999 -9999 -9999 -9999 -9999 -9999 -9999 -9999 -9999 -9999 -9999 -9999 -9999 -9999 -9999 -9999 -9999 -9999 -9999 -9999 -9999 -9999 -9999 -9999 -9999 -9999 -9999 -9999 -9999 -9999 -9999 -9999 -9999 -9999 -9999 -9999 -9999 -9999 -9999 -9999 -9999 -9999 -9999 -9999 -9999 -9999 -9999 -9999 -9999 -9999 -9999 -9999 -9999 -9999 -9999 -9999 -9999 -9999 -9999 -9999 -9999 -9999 -9999 -9999 -9999 -9999 -9999 -9999 -9999 -9999 -9999 -9999 -9999 -9999 -9999 -9999 -9999 -9999 -9999 -9999 -9999 -9999 -9999 -9999 -9999 -9999 -9999 -9999 -9999 -9999 -9999 -9999 -9999 -9999 -9999 -9999 -9999 -9999 -9999 -9999 -9999 -9999 -9999 -9999 -9999 -9999 -9999 -9999 -9999 -9999 -9999 -9999 -9999 -9999 100.541 100.541 100.537 100.523 100.524 100.498 100.469 100.491 100.456 100.428 100.379 100.403 100.422 100.418 100.391 100.41 100.39 100.348 100.334 100.301 100.327 100.277 100.29 100.252 100.2 100.136 101.321 103.526 105.415 104.43 103.65 101.991 100.838 100.48 100.304 100.211 99.743 99.532 99.433 99.333 99.309 99.247 99.228 99.242 99.279 99.206 99.16 98.948 98.861 98.719 98.58 98.535 98.46 98.359 98.349 98.36 98.417 98.453 98.527 98.465 98.471 98.48 98.435 98.491 98.274 98.185 98.061 98.015 97.945 97.597 97.525 97.466 97.365 97.198 98.135 99.086 97.101 96.755 96.67 96.592 96.481 96.526 96.781 96.355 96.198 96.082 96.554 95.826 95.604 95.359 95.152 94.757 95.129 94.421 94.006 93.69 93.429 93.204 92.913 92.581 92.408 92.235 92.016 91.827 91.718 91.527 91.243 91.067 90.765 90.536 90.237 89.957 89.566 89.371 89.087 89.014 88.977 88.767 88.565 88.537 88.346 88.214 88.125 87.939 87.779 87.582 87.461 87.282 87.118 86.869 86.601 86.294 86.182 86.064 85.971 85.527 85.221 85.237 85.009 84.952 84.782 84.508 84.391 84.118 83.994 83.789 83.673 83.481 83.259 83.105 82.958 82.684 82.624 82.356 81.992 81.687 81.357 81.202 80.916 80.647 80.552 81.915 83.059 84.259 83.635 79.747 79.038 78.81 78.62 78.327 78.048 77.773 77.593 77.405 77.088 76.673 77.059 77.519 78.433 77.197 76.438 75.602 75.309 75.052 74.789 74.484 74.228 73.972 73.774 73.562 73.402 73.283 73.195 73.054 72.936 72.862 72.726 72.647 72.591 72.502 72.476 72.4 72.326 72.254 72.18 72.077 71.943 71.834 71.714 71.631 71.517 71.452 71.359 71.305 71.167 71.098 70.999 70.852 70.784 70.763 70.669 70.583 70.751 70.814 71.115 70.629 69.939 69.804 69.758 69.745 69.741 69.538 69.747 72.057 72.004 71.397 70.667 68.026 67.992 68.428 68.548 68.428 68.453 67.923 67.128 66.957 68.29 66.572 66.145 66.107 66.043 66.057 66.066 66.061 66.051 65.999 66.131 69.323 66.032 65.033 64.973 67.436 70.498 71.393 72.308 71.716 70.835 69.568 64.952 63.936 63.29 63.213 63.109 63.075 62.686 62.633 62.448 62.359 62.539 62.103 62.658 61.681 60.985 60.872 61.708 65.955 66.728 67.909 67.503 66.584 64.356 59.362 59.174 58.821 59.86 60.329 58.245 58.066 58.362 57.685 57.922 58.058 59.045 61.05 63.045 64.194 64.821 64.575 63.733 57.983 56.402 56.353 57.075 56.553 56.261 57.159 55.879 55.67 55.572 55.363 55.213 55.094 55.107 56.986 55.828 55.212 56.156 55.968 59.739 62.829 63.277 63.428 62.71 62.523 59.626 53.875 53.229 52.756 52.526 53.055 52.34 52.36 52.333 54.064 53.387 52.445 52.35 57.515 60.282
-9999 -9999 -9999 -9999 -9999 -9999 -9999 -9999 -9999 -9999 -9999 -9999 -9999 -9999 -9999 -9999 -9999 -9999 -9999 -9999 -9999 -9999 -9999 -9999 -9999 -9999 -9999 -9999 -9999 -9999 -9999 -9999 -9999 -9999 -9999 -9999 -9999 -9999 -9999 -9999 -9999 -9999 -9999 -9999 -9999 -9999 -9999 -9999 -9999 -9999 -9999 -9999 -9999 -9999 -9999 -9999 -9999 -9999 -9999 -9999 -9999 -9999 -9999 -9999 -9999 -9999 -9999 -9999 -9999 -9999 -9999 -9999 -9999 -9999 -9999 -9999 -9999 -9999 -9999 -9999 -9999 -9999 -9999 -9999 -9999 -9999 -9999 -9999 -9999 -9999 -9999 -9999 -9999 -9999 -9999 -9999 -9999 -9999 -9999 -9999 -9999 -9999 -9999 -9999 -9999 -9999 -9999 -9999 -9999 -9999 -9999 -9999 -9999 -9999 -9999 -9999 -9999 -9999 -9999 -9999 -9999 100.532 100.525 100.49 100.499 100.487 100.467 100.459 100.456 100.413 100.402 100.409 100.419 100.442 100.409 100.387 100.39 100.323 100.29 100.289 100.288 100.309 100.297 100.286 100.21 100.16 100.121 103.931 104.897 104.444 101.936 100.852 100.701 100.597 99.975 99.766 99.678 99.565 99.534 99.373 99.383 99.325 99.253 99.224 99.256 99.198 99.052 98.903 98.763 98.735 98.582 98.536 98.499 98.446 98.372 98.359 98.419 98.557 98.583 98.531 98.546 98.599 98.535 98.477 98.318 98.311 98.201 97.871 97.831 97.681 97.724 97.68 97.555 97.405 97.284 97.129 96.961 96.836 96.681 96.475 96.376 96.231 96.101 96.07 96.057 95.894 95.896 95.956 95.835 95.802 95.693 95.337 95.048 96.388 94.267 94.079 93.771 93.605 93.374 93.094 92.596 92.449 92.298 92.169 92.088 91.856 91.585 91.313 91.081 90.764 90.436 90.237 89.987 89.702 89.498 89.327 89.261 89.099 88.953 88.829 88.648 88.505 88.422 88.327 88.121 88.005 87.782 87.679 87.557 87.214 86.914 86.763 86.64 86.453 86.37 85.94 85.597 85.575 85.514 85.296 85.154 84.878 84.738 84.542 84.33 84.115 83.841 83.76 83.578 83.423 83.204 83.122 82.902 82.665 82.322 82.041 81.829 81.483 81.267 81.065 80.816 80.647 83.717 85.602 84.335 79.837 79.301 79.002 78.815 78.55 78.306 78.063 77.787 77.612 77.362 76.96 77.416 77.174 77.076 76.481 76.09 75.782 75.477 75.222 74.97 74.695 74.386 74.183 73.924 73.743 73.556 73.406 73.281 73.113 72.973 72.852 72.744 72.709 72.579 72.585 72.53 72.465 72.412 72.307 72.244 72.143 72.031 71.948 71.85 71.742 71.626 71.548 71.447 71.322 71.235 71.154 71.032 70.953 70.834 70.74 70.568 70.438 70.572 70.757 72.204 71.555 71.36 70.486 69.884 69.889 69.799 69.73 71.038 70.551 69.599 68.668 68.119 70.642 69.793 69.847 68.224 67.973 68.023 67.816 67.637 68.421 67.066 66.341 66.229 66.191 66.149 66.116 66.085 66.128 66.052 66.027 65.887 65.905 66.706 65.499 65.121 65.191 65.95 70.332 71.721 71.945 71.76 70.968 69.735 65.184 63.762 63.3 63.058 63.471 62.889 62.701 62.563 62.461 62.214 62.51 62.046 62.101 61.553 61.28 60.771 61.331 65.869 67.159 67.819 67.235 66.409 63.701 59.292 59.549 60.735 59.051 58.518 58.293 58.234 57.753 57.736 57.543 61.113 63.793 64.608 65.304 64.977 63.621 62.599 57.451 56.656 56.604 56.781 56.485 57.617 57.049 56.167 55.749 55.654 55.466 55.333 55.192 55.204 55.616 56.312 56.248 56.96 55.473 55.266 60.538 62.3 63.186 63.556 62.868 62.915 56.977 53.02 52.686 52.465 52.82 52.657 52.361 52.3 52.264 52.264 53.493 52.449 53.075 57.69
-9999 -9999 -9999 -9999 -9999 -9999 -9999 -9999 -9999 -9999 -9999 -9999 -9999 -9999 -9999 -9999 -9999 -9999 -9999 -9999 -9999 -9999 -9999 -9999 -9999 -9999 -9999 -9999 -9999 -9999 -9999 -9999 -9999 -9999 -9999 -9999 -9999 -9999 -9999 -9999 -9999 -9999 -9999 -9999 -9999 -9999 -9999 -9999 -9999 -9999 -9999 -9999 -9999 -9999 -9999 -9999 -9999 -9999 -9999 -9999 -9999 -9999 -9999 -9999 -9999 -9999 -9999 -9999 -9999 -9999 -9999 -9999 -9999 -9999 -9999 -9999 -9999 -9999 -9999 -9999 -9999 -9999 -9999 -9999 -9999 -9999 -9999 -9999 -9999 -9999 -9999 -9999 -9999 -9999 -9999 -9999 -9999 -9999 -9999 -9999 -9999 -9999 -9999 -9999 -9999 -9999 -9999 -9999 -9999 -9999 -9999 -9999 -9999 -9999 -9999 -9999 -9999 -9999 -9999 -9999 -9999 100.506 100.485 100.485 100.502 100.469 100.475 100.474 100.439 100.418 100.406 100.416 100.443 100.427 100.428 100.409 100.341 100.307 100.29 100.271 100.28 100.305 100.293 100.275 100.205 100.145 100.129 102.633 104.498 103.252 101.96 101.435 100.792 100.417 99.984 99.802 99.652 99.618 99.562 99.469 99.432 99.388 99.323 99.233 99.17 99.095 98.995 98.987 98.798 98.734 98.629 98.548 98.473 98.425 98.411 98.405 98.357 98.467 98.598 98.638 98.649 98.753 98.774 98.63 98.465 98.276 98.095 97.965 97.945 97.889 97.897 97.841 97.671 97.516 97.391 97.304 97.174 97.105 96.905 96.735 96.571 96.327 96.129 96.024 95.883 95.81 95.762 95.8 95.656 95.592 95.598 95.496 95.486 96.219 94.875 94.61 94.066 93.859 93.696 93.557 93.291 92.999 92.602 92.463 92.31 92.135 91.886 91.697 91.387 91.193 90.971 90.587 90.309 90.13 89.915 89.808 89.683 89.555 89.371 89.169 89.021 88.904 88.779 88.638 88.5 88.373 88.198 88.096 87.837 87.751 87.597 87.239 87.018 86.933 86.775 86.318 86.051 86.001 85.943 85.767 85.523 85.332 85.123 85.012 84.705 84.403 84.164 84.053 83.811 83.688 83.456 83.3 83.126 82.975 82.701 82.333 82.056 81.742 81.443 81.313 81.027 82.592 85.54 86.211 85.635 80.681 79.505 79.294 79.038 78.753 78.483 78.175 77.999 77.924 77.465 77.214 77.868 78.265 77.082 76.545 76.249 75.95 75.656 75.398 75.173 74.884 74.63 74.385 74.098 73.89 73.66 73.486 73.371 73.217 73.069 72.931 72.783 72.68 72.633 72.569 72.505 72.474 72.43 72.316 72.281 72.221 72.092 72.017 71.883 71.826 71.737 71.65 71.552 71.454 71.336 71.257 71.143 70.99 70.896 70.806 70.709 70.576 70.514 70.474 70.658 70.542 71.894 71.769 70.115 69.994 69.875 71.41 71.332 69.88 69.993 68.323 70.716 72.802 74.311 70.818 68.756 68.018 68.03 67.834 67.943 66.81 66.539 66.44 66.361 66.391 66.354 66.221 66.037 66.069 66.03 66.001 65.895 65.869 65.868 66.743 67.231 65.173 65.648 67.087 69.129 70.868 71.675 71.921 71.194 70.474 68.837 63.592 63.075 63.039 62.972 62.778 62.689 62.522 62.315 62.483 63.078 62.127 61.988 61.196 60.968 60.777 64.306 66.421 67.411 67.819 67.103 65.323 59.822 59.635 58.983 59.093 58.8 58.707 60.041 58.76 58.697 60.97 64.095 64.969 65.322 64.736 63.984 63.186 58.347 57.025 57.019 57.106 56.778 56.532 56.67 56.202 56.047 55.902 55.724 55.518 55.44 55.292 55.4 55.686 55.386 56.159 55.951 55.162 55.295 56.03 60.525 63.128 63.338 63.322 63.939 60.926 55.643 52.822 52.639 52.479 52.24 52.315 52.317 52.303 52.166 52.314 52.796 53.2 52.99
-9999 -9999 -9999 -9999 -9999 -9999 -9999 -9999 -9999 -9999 -9999 -9999 -9999 -9999 -9999 -9999 -9999 -9999 -9999 -9999 -9999 -9999 -9999 -9999 -9999 -9999 -9999 -9999 -9999 -9999 -9999 -9999 -9999 -9999 -9999 -9999 -9999 -9999 -9999 -9999 -9999 -9999 -9999 -9999 -9999 -9999 -9999 -9999 -9999 -9999 -9999 -9999 -9999 -9999 -9999 -9999 -9999 -9999 -9999 -9999 -9999 -9999 -9999 -9999 -9999 -9999 -9999 -9999 -9999 -9999 -9999 -9999 -9999 -9999 -9999 -9999 -9999 -9999 -9999 -9999 -9999 -9999 -9999 -9999 -9999 -9999 -9999 -9999 -9999 -9999 -9999 -9999 -9999 -9999 -9999 -9999 -9999 -9999 -9999 -9999 -9999 -9999 -9999 -9999 -9999 -9999 -9999 -9999 -9999 -9999 -9999 -9999 -9999 -9999 -9999 -9999 -9999 -9999 -9999 -9999 -9999 -9999 100.475 100.467 100.483 100.501 100.487 100.461 100.465 100.41 100.428 100.433 100.441 100.401 100.396 100.377 100.35 100.324 100.301 100.252 100.255 100.284 100.26 100.267 100.251 100.339 100.723 105.391 105.442 104.169 101.554 101.128 100.939 100.66 99.969 99.754 99.72 99.729 99.613 99.515 99.422 99.424 99.37 99.311 99.237 99.221 99.072 98.992 98.9 98.772 98.682 98.57 98.518 98.463 98.462 98.501 98.484 98.471 98.568 98.665 98.765 98.741 98.734 98.521 98.288 98.31 98.325 98.178 98.128 98.016 97.91 97.908 97.872 97.814 97.616 97.478 97.329 97.15 97 96.732 96.555 96.356 96.399 96.207 96.088 96.041 95.987 95.873 95.728 95.503 95.391 95.305 95.203 95.141 95.061 94.965 94.814 94.552 94.128 93.869 93.62 93.494 93.254 93.004 92.621 92.287 92.143 91.966 91.726 91.547 91.318 91.062 90.78 90.499 90.267 90.226 90.058 89.958 89.753 89.578 89.479 89.285 89.188 89.077 88.998 88.796 88.646 88.504 88.3 88.131 87.845 87.618 87.383 87.262 87.06 86.627 86.451 86.355 86.232 86.089 85.971 85.739 85.534 85.378 85.163 84.747 84.47 84.31 84.097 83.946 83.687 83.561 83.365 83.168 82.975 82.682 82.387 82.029 81.801 81.508 81.376 82.529 84.892 85.966 85.893 80.974 79.688 79.381 79.158 78.925 78.595 78.412 78.256 78.094 77.59 77.642 77.824 78.728 77.263 76.74 76.4 76.109 75.922 75.632 75.382 75.104 74.828 74.536 74.305 74.068 73.866 73.618 73.451 73.25 73.137 72.991 72.838 72.723 72.626 72.601 72.527 72.465 72.412 72.344 72.279 72.195 72.094 72.052 71.938 71.881 71.804 71.708 71.629 71.535 71.409 71.317 71.246 71.108 71.013 70.89 70.76 70.659 70.595 70.519 70.41 70.407 70.787 72.927 73.405 70.232 70.946 70.765 69.637 68.969 68.528 68.95 73.267 74.441 75.015 74.478 69.032 67.98 67.876 67.99 67.258 66.809 66.696 66.535 66.63 66.567 66.573 67.31 66.282 68.762 66.173 66.048 65.948 65.911 65.794 65.807 67.752 67.216 66.87 64.801 65.929 69.064 70.753 71.835 71.968 72.129 70.031 66.034 64.071 63.556 62.914 62.904 62.764 62.588 62.441 62.273 62.429 62.152 61.988 61.736 61.42 61.683 61.198 64.679 66.426 67.11 61.499 61.343 59.752 59.368 59.323 59.226 59.5 59.247 61.898 58.845 58.251 59.607 64.737 65.185 64.811 63.765 62.952 58.578 57.309 57.133 57.201 56.956 56.748 56.612 56.426 56.339 56.158 56.067 56.899 55.705 55.468 55.383 55.273 55.329 55.232 55.076 56.371 55.613 56.144 55.922 56.59 61.88 63.434 63.495 63.098 62.708 56.963 53.115 53.001 52.657 52.374 52.27 52.26 52.313 52.21 52.141 52.261 52.617 52.642
-9999 -9999 -9999 -9999 -9999 -9999 -9999 -9999 -9999 -9999 -9999 -9999 -9999 -9999 -9999 -9999 -9999 -9999 -9999 -9999 -9999 -9999 -9999 -9999 -9999 -9999 -9999 -9999 -9999 -9999 -9999 -9999 -9999 -9999 -9999 -9999 -9999 -9999 -9999 -9999 -9999 -9999 -9999 -9999 -9999 -9999 -9999 -9999 -9999 -9999 -9999 -9999 -9999 -9999 -9999 -9999 -9999 -9999 -9999 -9999 -9999 -9999 -9999 -9999 -9999 -9999 -9999 -9999 -9999 -9999 -9999 -9999 -9999 -9999 -9999 -9999 -9999 -9999 -9999 -9999 -9999 -9999 -9999 -9999 -9999 -9999 -9999 -9999 -9999 -9999 -9999 -9999 -9999 -9999 -9999 -9999 -9999 -9999 -9999 -9999 -9999 -9999 -9999 -9999 -9999 -9999 -9999 -9999 -9999 -9999 -9999 -9999 -9999 -9999 -9999 -9999 -9999 -9999 -9999 -9999 -9999 -9999 -9999 100.484 100.483 100.491 100.472 100.451 100.459 100.45 100.463 100.464 100.448 100.438 100.404 100.382 100.381 100.337 100.307 100.261 100.249 100.245 100.27 100.234 100.231 100.418 103.514 104.178 104.152 102.651 100.847 100.905 101.169 100.252 99.864 99.739 99.73 99.672 99.595 99.506 99.373 99.399 99.38 99.409 99.294 99.241 99.11 99.058 98.963 98.906 98.805 98.642 98.591 98.526 98.498 98.566 98.574 98.564 98.627 98.667 98.715 98.668 98.461 98.447 98.48 98.458 98.442 98.365 98.355 98.103 98.041 97.985 98.243 97.817 97.646 97.509 97.366 97.148 96.977 96.774 96.737 96.716 96.54 96.391 96.253 96.216 96.121 96.178 96.018 95.782 95.64 95.435 95.212 95.098 94.951 94.829 94.76 95.062 94.633 95.336 94.259 93.794 93.511 93.405 93.224 92.848 92.662 92.219 91.899 91.766 91.641 91.322 91.076 90.959 90.766 90.632 90.472 90.36 90.177 89.973 89.781 89.66 89.51 89.483 89.318 89.237 89.149 88.988 88.76 88.524 88.301 88.075 87.846 87.75 87.597 87.036 86.803 86.748 86.635 86.432 86.237 86.111 85.878 85.669 85.503 85.339 84.919 84.545 84.389 84.158 83.949 83.772 83.652 83.48 83.142 82.854 82.614 82.312 82.066 81.767 81.65 83.39 85.59 85.63 84.545 85.247 80.072 79.643 79.31 79.035 78.898 78.607 78.434 78.158 77.885 78.896 79.042 80.792 78.163 76.884 76.594 76.349 76.075 75.795 75.531 75.246 74.987 74.731 74.466 74.222 73.975 73.79 73.517 73.333 73.152 73.004 72.856 72.742 72.671 72.623 72.532 72.453 72.394 72.334 72.3 72.197 72.143 72.064 72.007 71.905 71.82 71.771 71.67 71.529 71.477 71.386 71.284 71.187 71.1 70.991 70.847 70.758 70.66 70.55 70.486 70.395 70.382 72.982 74.266 73.088 70.773 71.523 69.094 68.159 67.895 71.805 74.224 75.396 74.622 73.164 69.045 67.859 68.108 67.554 66.989 66.859 66.735 66.783 66.786 66.755 67.555 67.165 67.043 66.539 66.073 66.041 66.215 65.926 65.881 65.766 65.77 65.971 65.944 65.696 64.994 66.943 69.526 70.596 71.376 71.675 70.686 70.225 68.924 64.472 63.387 64.429 64.931 62.771 63.23 62.492 62.188 62.035 61.91 62.02 62.178 61.322 60.967 60.392 61.867 61.025 62.17 60.488 59.791 59.535 59.328 59.257 59.826 59.431 59.382 61.519 58.57 58.387 62.718 64.554 63.559 60.085 57.847 57.594 57.586 57.481 58.087 57.461 56.877 56.757 56.549 56.457 56.384 58.85 58.849 57.075 55.585 56.238 55.381 55.223 55.216 56.631 55.138 56.404 55.604 55.212 55.272 56.863 61.636 63.225 63.562 63.048 62.02 59.904 55.334 53 52.56 52.348 52.37 52.402 52.214 52.097 52.105 52.397 52.291
-9999 -9999 -9999 -9999 -9999 -9999 -9999 -9999 -9999 -9999 -9999 -9999 -9999 -9999 -9999 -9999 -9999 -9999 -9999 -9999 -9999 -9999 -9999 -9999 -9999 -9999 -9999 -9999 -9999 -9999 -9999 -9999 -9999 -9999 -9999 -9999 -9999 -9999 -9999 -9999 -9999 -9999 -9999 -9999 -9999 -9999 -9999 -9999 -9999 -9999 -9999 -9999 -9999 -9999 -9999 -9999 -9999 -9999 -9999 -9999 -9999 -9999 -9999 -9999 -9999 -9999 -9999 -9999 -9999 -9999 -9999 -9999 -9999 -9999 -9999 -9999 -9999 -9999 -9999 -9999 -9999 -9999 -9999 -9999 -9999 -9999 -9999 -9999 -9999 -9999 -9999 -9999 -9999 -9999 -9999 -9999 -9999 -9999 -9999 -9999 -9999 -9999 -9999 -9999 -9999 -9999 -9999 -9999 -9999 -9999 -9999 -9999 -9999 -9999 -9999 -9999 -9999 -9999 -9999 -9999 -9999 -9999 -9999 -9999 100.48 100.525 100.517 100.499 100.486 100.459 100.479 100.47 100.452 100.423 100.386 100.381 100.353 100.301 100.289 100.277 100.266 100.262 100.293 100.257 100.191 100.359 102.76 102.972 102.031 102.379 100.47 100.559 100.533 100.113 99.811 99.68 99.642 99.628 99.516 99.48 99.43 99.404 99.372 99.353 99.307 99.244 99.174 99.104 99.03 99.005 98.844 98.799 98.766 98.726 98.661 98.635 98.66 98.782 98.666 98.652 98.585 98.605 98.631 98.593 98.532 98.495 98.483 98.422 98.352 98.263 98.094 98.012 97.876 97.758 97.664 97.518 97.384 97.154 97.106 97.034 96.958 96.998 96.766 96.604 96.557 96.51 96.422 96.305 96.084 96.057 96.018 95.906 95.656 95.363 95.077 94.919 94.709 94.613 94.617 94.625 94.475 94.389 94.085 93.804 93.502 93.297 93.292 92.97 92.528 92.387 91.891 91.691 91.46 91.299 91.097 90.97 90.902 90.71 90.476 90.357 90.173 90.021 89.889 89.802 89.71 89.621 89.423 89.393 89.218 88.987 88.733 88.487 88.278 88.142 87.955 87.401 87.201 87.115 86.964 86.795 86.596 86.422 86.232 85.962 85.882 85.609 85.304 85.06 84.731 84.401 84.307 84.055 83.804 83.57 83.331 83.111 82.899 82.61 82.348 82.117 81.882 81.829 85.667 87.354 86.552 85.56 80.771 79.879 79.566 79.349 79.091 78.915 78.701 78.546 77.971 78.855 80.112 78.652 79.8 77.543 76.783 76.551 76.304 75.999 75.708 75.457 75.177 74.888 74.621 74.4 74.102 73.897 73.618 73.393 73.228 73.048 72.915 72.784 72.713 72.615 72.565 72.472 72.416 72.339 72.283 72.23 72.133 72.084 72.003 71.946 71.86 71.783 71.698 71.598 71.507 71.372 71.304 71.217 71.117 70.959 70.886 70.779 70.7 70.633 70.531 70.444 70.393 71.549 73.687 73.894 71.117 69.601 67.983 67.849 70.79 74.067 75.125 74.598 73.526 68.662 68.317 67.955 68.379 67.148 67.072 66.994 66.985 67.011 66.935 68.223 67.524 67.572 67.344 67.082 67.117 66.238 67.043 65.99 65.901 65.858 65.713 65.606 65.712 65.635 65.584 65.579 65.309 68.89 70.053 70.564 71.615 71.191 70.233 68.376 64.605 65.237 63.814 62.915 63.543 63.211 62.396 62.135 61.93 61.883 62.78 62.313 61.021 61.118 60.536 60.752 60.464 60.76 60.322 59.708 59.458 59.335 60.799 64.248 65.429 66.102 63.352 58.563 57.969 62.29 60.361 57.92 58.223 58.32 57.881 58.275 57.409 57.135 57.015 56.825 56.679 56.658 57.153 58.918 59.732 56.578 55.932 55.548 56.284 55.437 55.202 55.237 55.23 54.874 55.834 55.244 55.238 55.308 59.413 62.32 62.898 63.491 62.869 63.129 60.738 55.441 52.897 52.532 52.46 53.2 52.179 52.207 52.058 52.071 52.103
-9999 -9999 -9999 -9999 -9999 -9999 -9999 -9999 -9999 -9999 -9999 -9999 -9999 -9999 -9999 -9999 -9999 -9999 -9999 -9999 -9999 -9999 -9999 -9999 -9999 -9999 -9999 -9999 -9999 -9999 -9999 -9999 -9999 -9999 -9999 -9999 -9999 -9999 -9999 -9999 -9999 -9999 -9999 -9999 -9999 -9999 -9999 -9999 -9999 -9999 -9999 -9999 -9999 -9999 -9999 -9999 -9999 -9999 -9999 -9999 -9999 -9999 -9999 -9999 -9999 -9999 -9999 -9999 -9999 -9999 -9999 -9999 -9999 -9999 -9999 -9999 -9999 -9999 -9999 -9999 -9999 -9999 -9999 -9999 -9999 -9999 -9999 -9999 -9999 -9999 -9999 -9999 -9999 -9999 -9999 -9999 -9999 -9999 -9999 -9999 -9999 -9999 -9999 -9999 -9999 -9999 -9999 -9999 -9999 -9999 -9999 -9999 -9999 -9999 -9999 -9999 -9999 -9999 -9999 -9999 -9999 -9999 -9999 -9999 -9999 100.521 100.499 100.452 100.514 100.497 100.491 100.486 100.452 100.443 100.391 100.366 100.339 100.345 100.28 100.219 100.236 100.263 100.271 100.263 100.228 102.75 103.609 103.871 101.062 100.135 100.105 100.102 99.908 99.801 99.718 99.666 99.597 99.565 99.521 99.479 99.407 99.356 99.336 99.313 99.303 99.272 99.2 99.065 99.025 98.967 98.937 98.879 98.846 98.783 98.757 98.688 98.688 98.686 98.579 98.724 98.715 98.744 98.682 98.656 98.647 98.578 98.516 98.419 98.49 98.265 98.227 98.187 97.962 97.787 97.608 97.443 97.386 97.374 97.284 97.204 97.195 97.056 96.896 96.609 96.607 96.521 96.413 96.206 96.341 96.328 96.201 96.016 95.838 95.653 95.402 95.214 94.954 94.764 94.609 94.463 94.384 94.338 94.333 94.248 94.11 93.849 93.477 93.264 93.275 93.111 92.639 92.387 91.761 91.556 91.336 91.23 91.186 91.044 90.858 90.643 90.518 90.358 90.242 90.146 90.04 89.964 89.819 89.683 89.55 89.331 89.075 88.869 88.685 88.491 88.286 87.857 87.563 87.482 87.404 87.126 86.94 86.791 86.559 86.363 86.153 85.954 85.681 85.359 85.109 84.823 84.543 84.268 84.049 83.785 83.561 83.377 83.054 82.823 82.584 82.329 82.122 81.873 84.283 87.322 83.072 83.456 80.735 80.081 79.85 79.536 79.308 79.102 78.988 78.554 78.608 78.573 78.729 79.172 78.206 77.988 76.936 76.725 76.428 76.15 75.895 75.59 75.311 75.03 74.746 74.491 74.251 74.037 73.768 73.512 73.308 73.104 72.901 72.8 72.698 72.697 72.594 72.538 72.441 72.34 72.267 72.215 72.157 72.086 72.007 71.932 71.865 71.763 71.716 71.64 71.54 71.427 71.298 71.25 71.088 70.985 70.912 70.876 70.747 70.678 70.589 70.486 70.417 70.368 70.932 71.508 70.491 70.72 69.711 67.83 72.511 75.114 75.686 73.547 69.705 68.366 67.726 67.538 67.515 67.28 67.231 67.199 67.214 67.182 68.137 67.895 67.941 67.634 67.501 67.216 66.897 66.612 66.132 66.129 65.885 65.865 65.741 65.697 65.498 65.806 65.571 65.361 64.867 65.436 67.369 69.745 70.443 71.111 71.257 70.447 69.803 67.581 63.569 62.814 62.695 62.599 62.425 62.244 62.026 61.892 61.865 61.853 61.355 61.63 61.16 62.005 62.773 61.046 59.956 59.785 59.718 59.925 64.629 66.317 66.729 66.754 66.307 60.078 58.518 58.31 57.814 58.526 58.503 57.925 58.376 57.743 57.415 57.248 57.075 56.906 56.9 56.939 56.883 60.765 62.925 61.014 56.896 56.194 55.689 56.522 55.5 55.174 55.007 54.957 54.853 55.107 55.286 55.052 55.191 61.442 62.545 63.059 63.605 63.01 62.121 59.854 54.493 52.919 52.428 52.24 52.163 52.147 52.196 52.045 52.046
-9999 -9999 -9999 -9999 -9999 -9999 -9999 -9999 -9999 -9999 -9999 -9999 -9999 -9999 -9999 -9999 -9999 -9999 -9999 -9999 -9999 -9999 -9999 -9999 -9999 -9999 -9999 -9999 -9999 -9999 -9999 -9999 -9999 -9999 -9999 -9999 -9999 -9999 -9999 -9999 -9999 -9999 -9999 -9999 -9999 -9999 -9999 -9999 -9999 -9999 -9999 -9999 -9999 -9999 -9999 -9999 -9999 -9999 -9999 -9999 -9999 -9999 -9999 -9999 -9999 -9999 -9999 -9999 -9999 -9999 -9999 -9999 -9999 -9999 -9999 -9999 -9999 -9999 -9999 -9999 -9999 -9999 -9999 -9999 -9999 -9999 -9999 -9999 -9999 -9999 -9999 -9999 -9999 -9999 -9999 -9999 -9999 -9999 -9999 -9999 -9999 -9999 -9999 -9999 -9999 -9999 -9999 -9999 -9999 -9999 -9999 -9999 -9999 -9999 -9999 -9999 -9999 -9999 -9999 -9999 -9999 -9999 -9999 -9999 -9999 100.507 100.503 100.49 100.497 100.468 100.481 100.474 100.461 100.428 100.386 100.356 100.356 100.374 100.322 100.264 100.229 100.215 100.232 100.278 100.695 102.586 104.114 104.78 103.371 100.476 101.96 100.182 99.898 99.789 99.674 99.613 99.589 99.542 99.522 99.463 99.397 99.359 99.362 99.335 99.309 99.278 99.169 99.13 99.059 98.968 98.905 98.877 98.819 98.825 98.739 98.659 98.64 98.682 98.696 98.826 98.855 98.824 98.735 98.716 98.704 98.628 98.594 98.661 99.781 98.274 98.171 98.047 98.006 97.731 97.708 97.619 97.473 97.404 97.413 97.246 97.204 97.118 96.946 96.773 96.726 96.492 96.47 96.465 96.492 96.338 96.255 96.152 96.001 95.772 95.54 95.394 95.232 95.145 94.928 94.717 94.492 94.316 94.194 94.228 94.195 94.201 94.046 93.686 93.48 93.339 93.311 93.039 92.586 92.146 91.691 91.486 91.375 91.37 91.16 91.025 90.853 90.76 90.551 90.477 90.357 90.27 90.092 90.036 89.888 89.722 89.508 89.3 89.079 88.91 88.638 88.229 87.899 87.782 87.564 87.467 87.345 86.982 86.796 86.664 86.501 86.184 85.947 85.66 85.34 85.173 84.888 84.586 84.298 83.987 83.84 83.664 83.346 83.127 82.793 82.543 82.304 82.173 84.184 86.416 84.995 85.973 80.934 80.302 80.022 79.701 79.535 79.289 79.281 78.629 78.633 78.597 78.528 78.041 80.747 79.09 77.147 76.886 76.616 76.319 76.074 75.778 75.463 75.132 74.881 74.636 74.405 74.17 73.871 73.693 73.399 73.146 73.002 72.823 72.752 72.694 72.627 72.558 72.464 72.385 72.277 72.24 72.168 72.089 72.017 71.948 71.84 71.809 71.729 71.6 71.512 71.455 71.361 71.26 71.148 71.025 70.92 70.893 70.801 70.698 70.625 70.522 70.459 70.388 70.333 70.286 70.222 70.104 71.259 69.392 69.836 73.339 73.042 68.506 67.93 68.741 68.175 67.605 67.517 67.358 67.328 67.384 67.367 68.237 67.957 67.953 68.006 67.795 67.558 67.331 67.055 66.612 66.446 66.721 65.884 65.85 65.769 65.68 65.552 65.486 65.441 66.1 66.427 64.883 64.429 64.144 68.345 70.329 70.908 71.418 72.323 69.859 66.777 63.866 62.825 62.578 62.522 62.47 62.2 62.104 61.818 61.862 61.878 62.501 62.368 62.942 63.025 62.108 61.09 59.854 59.991 65.15 66.391 66.891 67.497 66.418 65.354 62.426 58.847 58.644 58.557 58.418 58.176 58.04 57.833 57.697 57.562 57.372 57.2 57.032 57.138 57.185 57.16 64.667 64.536 63.774 62.138 56.699 55.791 55.378 56.134 55.764 55.098 54.943 55.707 55.596 55.04 55.012 55.064 56.284 61.003 62.356 63.226 63.473 62.863 61.977 59.31 54.204 53.66 52.434 52.16 52.109 52.137 52.124 52.034
-9999 -9999 -9999 -9999 -9999 -9999 -9999 -9999 -9999 -9999 -9999 -9999 -9999 -9999 -9999 -9999 -9999 -9999 -9999 -9999 -9999 -9999 -9999 -9999 -9999 -9999 -9999 -9999 -9999 -9999 -9999 -9999 -9999 -9999 -9999 -9999 -9999 -9999 -9999 -9999 -9999 -9999 -9999 -9999 -9999 -9999 -9999 -9999 -9999 -9999 -9999 -9999 -9999 -9999 -9999 -9999 -9999 -9999 -9999 -9999 -9999 -9999 -9999 -9999 -9999 -9999 -9999 -9999 -9999 -9999 -9999 -9999 -9999 -9999 -9999 -9999 -9999 -9999 -9999 -9999 -9999 -9999 -9999 -9999 -9999 -9999 -9999 -9999 -9999 -9999 -9999 -9999 -9999 -9999 -9999 -9999 -9999 -9999 -9999 -9999 -9999 -9999 -9999 -9999 -9999 -9999 -9999 -9999 -9999 -9999 -9999 -9999 -9999 -9999 -9999 -9999 -9999 -9999 -9999 -9999 -9999 -9999 -9999 -9999 -9999 -9999 100.489 100.467 100.502 100.505 100.512 100.456 100.454 100.421 100.375 100.338 100.386 100.352 100.315 100.249 100.232 100.19 100.273 100.742 102.331 101.109 101.849 101.809 103.084 104.368 103.341 101.014 99.954 99.767 99.718 99.648 99.556 99.462 99.453 99.424 99.369 99.342 99.346 99.349 99.311 99.281 99.237 99.14 99.085 99.011 98.939 98.837 98.852 98.798 98.639 98.62 98.631 98.734 98.814 98.815 98.846 98.923 98.921 98.811 98.733 98.645 98.585 98.544 98.385 98.359 98.367 98.011 97.907 97.891 97.814 97.708 97.643 97.511 97.416 97.364 97.154 97.081 96.916 96.645 96.644 96.623 96.646 96.574 96.536 96.416 96.271 96.147 95.983 95.878 95.616 95.517 95.366 95.31 95.163 94.954 94.869 94.648 94.417 94.244 94.053 94.075 94.121 94.093 93.958 93.647 93.45 93.255 93.19 92.973 92.817 92.264 91.852 91.661 91.428 91.319 91.194 91.094 90.917 90.827 90.655 90.582 90.384 90.255 90.164 90.035 89.897 89.6 89.365 89.188 89.028 88.407 88.183 88.106 87.91 87.787 87.549 87.336 87.152 86.883 86.73 86.468 86.209 85.906 85.738 85.453 85.107 84.93 84.712 84.358 84.011 83.883 83.713 83.526 83.089 82.732 82.512 82.341 82.871 85.706 85.491 85.827 81.969 80.518 80.269 80.038 79.715 79.499 79.28 78.795 78.888 78.781 81.443 78.963 78.413 77.57 77.304 77.05 76.784 76.467 76.161 75.852 75.547 75.249 75.017 74.757 74.525 74.282 74.046 73.783 73.505 73.229 73.033 72.81 72.773 72.673 72.626 72.531 72.48 72.384 72.328 72.238 72.193 72.124 72.082 71.989 71.887 71.779 71.688 71.625 71.568 71.471 71.386 71.286 71.193 71.069 70.96 70.871 70.796 70.741 70.654 70.511 70.463 70.395 70.342 70.304 70.229 70.078 69.824 70.188 68.717 69.244 68.748 67.921 67.961 68.727 67.928 67.669 67.55 67.428 67.589 67.523 68.242 68.167 67.846 67.913 67.866 68.056 67.5 67.213 66.883 66.775 66.734 66.536 66.286 65.984 66.505 65.859 65.649 65.526 65.405 65.308 65.42 66.932 64.53 64.195 63.994 68.369 70.03 71.597 71.385 70.979 70.055 64.854 63.073 67.777 67.884 63.904 62.317 62.144 61.943 61.766 62.393 62.95 62.007 61.456 62.945 60.777 60.814 61.592 64.798 67.082 67.635 67.181 66.809 65.375 62.132 59.458 58.995 58.73 58.743 58.438 58.328 58.14 57.926 57.827 57.595 57.47 57.231 57.127 57.938 57.34 62.514 64.025 64.832 64.468 63.682 61.734 57.784 55.901 55.307 55.962 55.297 55.021 54.896 55.377 54.777 54.884 55.222 55.689 55.839 59.969 62.029 63.026 63.493 63.066 62.596 56.59 53.496 53.491 52.299 52.249 52.338 52.099 52.007
-9999 -9999 -9999 -9999 -9999 -9999 -9999 -9999 -9999 -9999 -9999 -9999 -9999 -9999 -9999 -9999 -9999 -9999 -9999 -9999 -9999 -9999 -9999 -9999 -9999 -9999 -9999 -9999 -9999 -9999 -9999 -9999 -9999 -9999 -9999 -9999 -9999 -9999 -9999 -9999 -9999 -9999 -9999 -9999 -9999 -9999 -9999 -9999 -9999 -9999 -9999 -9999 -9999 -9999 -9999 -9999 -9999 -9999 -9999 -9999 -9999 -9999 -9999 -9999 -9999 -9999 -9999 -9999 -9999 -9999 -9999 -9999 -9999 -9999 -9999 -9999 -9999 -9999 -9999 -9999 -9999 -9999 -9999 -9999 -9999 -9999 -9999 -9999 -9999 -9999 -9999 -9999 -9999 -9999 -9999 -9999 -9999 -9999 -9999 -9999 -9999 -9999 -9999 -9999 -9999 -9999 -9999 -9999 -9999 -9999 -9999 -9999 -9999 -9999 -9999 -9999 -9999 -9999 -9999 -9999 -9999 -9999 -9999 -9999 -9999 -9999 -9999 100.477 100.485 100.495 100.5 100.458 100.449 100.41 100.343 100.322 100.362 100.321 100.318 100.243 100.21 100.203 100.283 100.423 102.928 104.026 106.032 102.36 104.2 104.136 101.982 100.317 99.966 99.81 99.739 99.628 99.574 99.492 99.499 99.433 99.396 99.314 99.33 99.356 99.344 99.3 99.247 99.203 99.132 99.006 98.956 98.882 98.796 98.625 98.649 98.64 98.674 98.739 98.78 98.801 98.882 98.887 98.962 98.874 98.807 98.745 98.63 98.521 98.427 98.314 98.182 98.1 98.053 97.969 97.884 97.889 97.794 97.67 97.524 97.355 97.204 97.046 96.892 96.754 96.753 96.739 96.71 96.67 96.591 96.576 96.463 96.275 96.071 95.917 95.812 95.68 95.565 95.385 95.224 95.174 95.054 94.885 94.708 94.571 94.418 94.165 94.012 93.943 94.011 93.952 93.893 93.591 93.223 93.274 93.19 93.069 93.007 92.422 92.067 91.725 91.487 91.328 91.295 91.127 91.062 90.803 90.765 90.604 90.464 90.384 90.141 89.878 89.723 89.495 89.225 88.807 88.488 88.431 88.242 88.107 87.916 87.676 87.477 87.193 87.005 86.77 86.526 86.271 86.035 85.685 85.523 85.303 84.931 84.679 84.368 84.205 83.908 83.545 83.248 82.928 82.73 82.538 83.035 86.21 85.838 86.007 81.685 80.779 80.406 80.127 79.875 79.598 79.315 78.959 79.18 78.92 79.671 78.678 78.306 77.729 77.444 77.168 76.859 76.567 76.282 75.979 75.743 75.475 75.164 74.931 74.686 74.403 74.159 73.952 73.642 73.384 73.141 72.957 72.784 72.686 72.634 72.547 72.464 72.407 72.325 72.26 72.205 72.125 72.082 71.985 71.852 71.808 71.718 71.635 71.554 71.487 71.389 71.311 71.208 71.094 71.015 70.935 70.835 70.74 70.657 70.546 70.447 70.415 70.334 70.263 70.23 70.106 69.9 69.769 71.86 70.522 67.891 68.279 69.041 68.027 67.862 67.775 67.647 67.807 67.74 67.768 68.121 67.781 67.741 67.788 67.852 68.512 67.345 67.537 67.917 69.523 66.92 66.727 67.297 67.298 66.395 66.808 65.841 65.531 65.445 66.143 65.653 65.593 65.656 64.999 64.356 64.318 68.619 69.884 70.753 71.269 66.875 65.168 65.825 69.652 70.127 67.337 62.49 62.257 62.045 61.908 61.714 61.73 61.445 61.636 61.615 60.666 63.874 66.671 67.432 68.225 67.838 66.42 65.648 61.256 59.382 60.778 59.144 58.919 58.732 58.547 58.367 58.152 58.023 57.81 57.665 57.531 57.321 57.124 57.149 57.143 58.664 62.772 64.81 64.572 64.682 63.882 62.991 56.247 55.639 55.286 55.795 55.735 54.954 54.821 54.794 56.39 54.802 55.681 54.814 55.823 61.135 62.711 63.157 63.401 62.671 54.266 54.135 53.097 53.634 52.358 52.936 52.131 52.064
-9999 -9999 -9999 -9999 -9999 -9999 -9999 -9999 -9999 -9999 -9999 -9999 -9999 -9999 -9999 -9999 -9999 -9999 -9999 -9999 -9999 -9999 -9999 -9999 -9999 -9999 -9999 -9999 -9999 -9999 -9999 -9999 -9999 -9999 -9999 -9999 -9999 -9999 -9999 -9999 -9999 -9999 -9999 -9999 -9999 -9999 -9999 -9999 -9999 -9999 -9999 -9999 -9999 -9999 -9999 -9999 -9999 -9999 -9999 -9999 -9999 -9999 -9999 -9999 -9999 -9999 -9999 -9999 -9999 -9999 -9999 -9999 -9999 -9999 -9999 -9999 -9999 -9999 -9999 -9999 -9999 -9999 -9999 -9999 -9999 -9999 -9999 -9999 -9999 -9999 -9999 -9999 -9999 -9999 -9999 -9999 -9999 -9999 -9999 -9999 -9999 -9999 -9999 -9999 -9999 -9999 -9999 -9999 -9999 -9999 -9999 -9999 -9999 -9999 -9999 -9999 -9999 -9999 -9999 -9999 -9999 -9999 -9999 -9999 -9999 -9999 -9999 100.477 100.48 100.485 100.483 100.443 100.443 100.414 100.357 100.34 100.346 100.292 100.293 100.24 100.193 100.197 100.238 100.287 103.169 106.177 105.72 103.786 100.519 100.445 100.462 100.179 100.05 99.855 99.755 99.639 99.593 99.535 99.486 99.461 99.387 99.384 99.357 99.358 99.322 99.316 99.288 99.193 99.108 99.016 98.938 98.78 98.754 98.725 98.685 98.684 98.675 98.697 98.768 98.84 98.907 98.928 98.88 98.853 98.822 98.797 98.656 98.565 98.355 98.365 98.285 98.189 98.115 98.075 97.997 97.949 97.842 97.762 97.682 97.542 97.217 97.06 96.979 96.931 96.851 96.788 96.749 96.79 96.726 96.591 96.472 96.327 96.206 96.032 95.934 95.723 95.579 95.533 95.418 95.358 95.16 95.052 94.964 94.797 94.62 94.504 94.29 94.112 93.982 93.83 93.78 93.666 93.367 93.257 93.146 93.05 93.059 93.052 92.765 92.578 92.092 91.796 91.461 91.289 91.253 91.129 91.067 90.941 90.77 90.695 90.566 90.136 90.019 89.805 89.637 89.07 88.789 88.638 88.48 88.318 88.164 87.884 87.742 87.436 87.278 87.031 86.824 86.637 86.366 86.034 85.741 85.584 85.258 85.014 84.821 84.615 84.095 83.898 83.46 83.153 82.952 82.723 83.054 85.49 85.491 82.409 81.112 80.873 80.706 80.354 80.083 79.805 79.456 79.187 79.263 79.058 81.602 78.859 78.26 77.939 77.518 77.33 76.939 76.677 76.349 76.098 75.804 75.585 75.306 75.054 74.766 74.542 74.309 74.095 73.786 73.466 73.195 73.006 72.835 72.669 72.625 72.528 72.453 72.411 72.343 72.285 72.218 72.174 72.067 71.977 71.881 71.772 71.687 71.617 71.549 71.47 71.352 71.247 71.189 71.125 71.005 70.945 70.854 70.765 70.645 70.574 70.45 70.381 70.312 70.24 70.148 70.086 69.877 69.68 69.405 70.246 68.997 68.303 68.258 68.045 67.947 67.881 67.933 67.974 68.226 68.332 67.793 67.803 70.719 70.759 69.505 68.338 67.204 69.333 72.192 72.819 68.496 66.939 67.785 66.521 66.89 66.003 65.648 65.57 65.477 65.413 65.91 65.2 65.485 65.9 65.281 64.706 64.364 66.722 69.777 66.754 65.631 64.931 64.285 68.05 68.45 66.112 62.541 62.348 62.181 61.955 61.838 61.704 62.616 62.09 61.495 64.041 67.274 68.45 68.836 67.425 66.706 63.021 60.246 59.593 59.471 59.428 59.186 58.979 58.822 58.628 58.476 58.322 58.148 57.885 57.784 57.57 57.365 57.167 57.07 57.08 57.025 57.076 62.777 63.639 64.544 64.838 63.817 62.379 58.649 55.841 55.146 55.252 54.914 54.858 54.818 56.845 57.247 54.753 54.687 54.622 55.335 60.871 62.299 58.392 53.437 52.749 53.485 58.285 52.746 52.595 52.646 52.005 52.181
-9999 -9999 -9999 -9999 -9999 -9999 -9999 -9999 -9999 -9999 -9999 -9999 -9999 -9999 -9999 -9999 -9999 -9999 -9999 -9999 -9999 -9999 -9999 -9999 -9999 -9999 -9999 -9999 -9999 -9999 -9999 -9999 -9999 -9999 -9999 -9999 -9999 -9999 -9999 -9999 -9999 -9999 -9999 -9999 -9999 -9999 -9999 -9999 -9999 -9999 -9999 -9999 -9999 -9999 -9999 -9999 -9999 -9999 -9999 -9999 -9999 -9999 -9999 -9999 -9999 -9999 -9999 -9999 -9999 -9999 -9999 -9999 -9999 -9999 -9999 -9999 -9999 -9999 -9999 -9999 -9999 -9999 -9999 -9999 -9999 -9999 -9999 -9999 -9999 -9999 -9999 -9999 -9999 -9999 -9999 -9999 -9999 -9999 -9999 -9999 -9999 -9999 -9999 -9999 -9999 -9999 -9999 -9999 -9999 -9999 -9999 -9999 -9999 -9999 -9999 -9999 -9999 -9999 -9999 -9999 -9999 -9999 -9999 -9999 -9999 -9999 -9999 -9999 100.479 100.484 100.448 100.458 100.425 100.404 100.357 100.352 100.345 100.332 100.253 100.233 100.203 100.211 100.278 100.583 100.995 102.544 101.607 100.787 100.551 100.777 101.073 100.45 100.171 99.875 99.761 99.695 99.622 99.572 99.529 99.461 99.452 99.429 99.425 99.404 99.372 99.358 99.258 99.206 99.112 98.959 98.869 98.809 98.762 98.71 98.696 98.664 98.695 98.698 98.754 98.837 98.893 98.889 98.861 98.841 98.794 98.72 98.516 98.527 98.492 98.463 98.383 98.305 98.213 98.134 98.064 98.006 97.949 97.906 97.729 97.574 97.35 97.224 97.129 97.031 97.066 96.886 96.92 96.898 96.85 96.691 96.525 96.395 96.264 96.1 96.044 95.919 95.762 95.693 95.552 95.472 95.281 95.262 95.018 94.938 94.81 94.75 94.528 94.394 94.21 94.07 93.996 93.764 93.617 93.559 93.29 93.235 93.023 92.985 93.029 92.996 92.875 92.599 92.068 91.741 91.344 91.306 91.266 91.153 91.112 91.027 90.776 90.515 90.294 90 89.895 89.394 88.937 88.957 88.833 88.641 88.483 88.258 87.966 87.727 87.562 87.421 87.123 86.895 86.597 86.253 86.053 85.746 85.474 85.194 84.909 84.641 84.353 84.042 84.048 83.435 83.155 83.099 85.604 87.288 87.132 85.473 81.371 80.982 80.854 80.521 80.263 79.983 79.59 79.582 79.519 80.358 82.098 78.695 78.49 78.028 77.681 77.387 77.168 76.81 76.578 76.226 75.956 75.677 75.411 75.135 74.902 74.624 74.425 74.222 73.96 73.594 73.328 73.077 72.842 72.712 72.611 72.501 72.45 72.385 72.351 72.28 72.25 72.186 72.073 71.962 71.881 71.74 71.689 71.597 71.543 71.403 71.273 71.153 71.119 71.041 70.998 70.951 70.843 70.738 70.622 70.668 71.985 70.497 70.215 70.078 70.041 69.961 69.803 69.574 69.362 69.512 70.735 68.616 68.225 68.093 68.014 68.043 68.125 68.094 68.874 68.266 67.873 70.608 73.825 74.048 70.67 67.692 67.027 71.134 73.977 74.271 72.452 68.797 67.02 67.41 66.591 66.975 65.77 65.522 65.489 65.426 65.275 65.385 65.94 65.409 66.229 65.438 64.728 66.14 67.263 63.686 65.239 66.69 66.084 65.021 69.136 65.291 62.82 62.939 63.247 62.206 62.002 61.695 61.695 62.232 63.384 63.678 68.387 68.834 67.792 66.575 64.392 60.688 60.221 59.807 59.705 59.939 59.429 59.062 58.921 58.789 58.615 58.495 58.976 58.366 60.833 58.106 57.433 57.155 57.056 56.986 57.477 57.137 58.009 62.598 65.093 64.67 64.717 64.002 62.734 56.343 55.267 55.078 55.004 54.868 54.849 54.776 57.303 57.878 55.48 54.876 54.894 55.833 57.635 54.786 57.398 56.127 62.151 61.405 58.919 52.893 52.419 52.457 52.961
-9999 -9999 -9999 -9999 -9999 -9999 -9999 -9999 -9999 -9999 -9999 -9999 -9999 -9999 -9999 -9999 -9999 -9999 -9999 -9999 -9999 -9999 -9999 -9999 -9999 -9999 -9999 -9999 -9999 -9999 -9999 -9999 -9999 -9999 -9999 -9999 -9999 -9999 -9999 -9999 -9999 -9999 -9999 -9999 -9999 -9999 -9999 -9999 -9999 -9999 -9999 -9999 -9999 -9999 -9999 -9999 -9999 -9999 -9999 -9999 -9999 -9999 -9999 -9999 -9999 -9999 -9999 -9999 -9999 -9999 -9999 -9999 -9999 -9999 -9999 -9999 -9999 -9999 -9999 -9999 -9999 -9999 -9999 -9999 -9999 -9999 -9999 -9999 -9999 -9999 -9999 -9999 -9999 -9999 -9999 -9999 -9999 -9999 -9999 -9999 -9999 -9999 -9999 -9999 -9999 -9999 -9999 -9999 -9999 -9999 -9999 -9999 -9999 -9999 -9999 -9999 -9999 -9999 -9999 -9999 -9999 -9999 -9999 -9999 -9999 -9999 -9999 -9999 -9999 100.445 100.44 100.424 100.389 100.435 100.393 100.353 100.348 100.268 100.258 100.23 100.183 100.269 100.879 102.403 103.9 100.689 102.894 104.034 100.547 101.098 100.905 100.655 100.056 99.861 99.798 99.695 99.651 99.588 99.555 99.55 99.479 99.446 99.456 99.429 99.39 99.353 99.282 99.198 99.046 98.891 98.877 98.752 98.734 98.716 98.685 98.682 98.671 98.64 98.675 98.734 98.785 98.85 98.854 98.855 98.664 98.631 98.596 98.576 98.527 98.461 98.439 98.394 98.267 98.167 98.097 98.083 98.01 97.852 97.672 97.651 97.496 97.32 97.156 97.014 97.066 97.075 97.003 96.962 97.291 97.011 96.7 96.532 96.342 96.254 96.106 95.999 95.829 95.777 95.674 95.574 95.48 95.44 95.314 95.218 94.998 94.84 94.667 94.595 94.47 94.324 94.12 93.957 93.901 93.764 93.564 93.552 93.624 93.659 93.138 92.961 92.872 92.785 92.745 92.561 92.199 91.924 91.481 91.417 91.223 91.171 91.025 90.776 90.528 90.335 90.084 89.64 89.299 89.23 89.018 88.856 88.748 88.592 88.271 88.108 87.938 87.71 87.423 87.215 86.965 86.662 86.191 86.016 85.783 85.462 85.211 84.918 84.559 84.241 83.938 83.718 83.382 83.195 84.816 86.637 86.989 85.973 82.702 81.265 80.991 80.699 80.426 80.188 79.74 79.82 79.491 81.483 82.004 79.526 78.515 78.177 77.78 77.523 77.217 76.956 76.638 76.376 76.05 75.741 75.489 75.233 75.027 74.783 74.564 74.316 74.004 73.702 73.371 73.154 72.935 72.718 72.593 72.494 72.436 72.404 72.354 72.314 72.259 72.144 72.072 71.945 71.825 71.745 71.659 71.564 71.428 71.293 71.154 71.043 70.889 70.843 70.793 70.879 70.788 70.734 70.636 73.273 75.334 71.515 70.255 69.913 69.846 69.913 72.737 70.5 70.557 68.921 68.75 68.454 68.561 68.214 68.2 68.215 68.255 68.403 68.112 67.948 70.699 73.571 75.108 75.027 73.623 69.004 67.136 71.92 73.217 74.053 73.967 73.438 68.931 67.238 67.019 66.716 67.76 65.856 65.511 65.411 65.35 65.212 65.141 65.229 65.451 65.435 65.197 64.705 64.368 64.91 65.638 66.857 66.944 71.672 73.027 71.851 66.119 62.647 62.61 62.216 62.091 61.962 61.631 61.712 62.825 63.605 63.719 67.533 66.56 63.497 60.761 60.22 60.112 59.906 59.9 60.157 59.418 59.229 59.009 58.839 58.787 59.083 58.708 65.298 63.93 61.005 57.816 57.319 57.107 56.99 56.947 56.917 56.968 56.92 61.66 63.367 64.28 64.318 63.597 62.911 60.547 55.445 55.05 54.955 56.332 55.382 54.776 57.275 55.492 54.46 54.617 54.738 54.841 55.19 56.077 59.432 62.911 62.33 61.279 57.028 53.487 52.198 52.253
-9999 -9999 -9999 -9999 -9999 -9999 -9999 -9999 -9999 -9999 -9999 -9999 -9999 -9999 -9999 -9999 -9999 -9999 -9999 -9999 -9999 -9999 -9999 -9999 -9999 -9999 -9999 -9999 -9999 -9999 -9999 -9999 -9999 -9999 -9999 -9999 -9999 -9999 -9999 -9999 -9999 -9999 -9999 -9999 -9999 -9999 -9999 -9999 -9999 -9999 -9999 -9999 -9999 -9999 -9999 -9999 -9999 -9999 -9999 -9999 -9999 -9999 -9999 -9999 -9999 -9999 -9999 -9999 -9999 -9999 -9999 -9999 -9999 -9999 -9999 -9999 -9999 -9999 -9999 -9999 -9999 -9999 -9999 -9999 -9999 -9999 -9999 -9999 -9999 -9999 -9999 -9999 -9999 -9999 -9999 -9999 -9999 -9999 -9999 -9999 -9999 -9999 -9999 -9999 -9999 -9999 -9999 -9999 -9999 -9999 -9999 -9999 -9999 -9999 -9999 -9999 -9999 -9999 -9999 -9999 -9999 -9999 -9999 -9999 -9999 -9999 -9999 -9999 -9999 -9999 100.406 100.389 100.403 100.399 100.371 100.373 100.36 100.292 100.267 100.242 100.24 100.247 100.233 104.563 104.033 102.672 105.403 103.274 100.512 100.722 100.745 100.22 100.038 99.94 99.763 99.691 99.66 99.623 99.557 99.549 99.52 99.519 99.45 99.376 99.346 99.364 99.197 99.112 99.09 99 98.923 98.856 98.762 98.705 98.691 98.601 98.576 98.575 98.596 98.714 98.778 98.803 98.774 98.729 98.703 98.674 98.64 98.634 98.543 98.508 98.438 98.356 98.255 98.169 98.146 98.03 97.966 97.916 97.837 97.747 97.607 97.366 97.233 97.131 96.996 96.942 96.946 96.952 96.929 96.86 96.729 96.634 96.475 96.371 96.148 96.034 95.94 95.834 95.724 95.672 95.606 95.549 95.362 95.326 95.119 94.935 94.839 94.8 94.579 94.381 94.466 94.316 94.136 93.952 93.799 93.762 93.555 93.497 93.525 93.493 93.257 92.923 92.696 92.554 92.506 92.393 92.106 91.947 91.633 91.484 91.181 90.971 90.753 90.581 90.363 89.895 89.568 89.5 89.289 89.094 89.043 88.815 89.968 88.909 88.179 88.008 87.712 87.548 87.178 86.872 86.566 86.256 85.978 85.609 85.335 85.024 84.717 84.389 84.134 83.845 83.566 83.299 83.124 85.535 86.473 86.601 83.591 81.439 81.062 80.804 80.581 80.187 79.863 80.064 79.735 79.475 80.453 80.16 78.536 78.24 78.046 77.623 77.361 77.075 76.797 76.529 76.177 75.857 75.595 75.339 75.092 74.856 74.637 74.387 74.142 73.776 73.501 73.178 72.954 72.761 72.596 72.462 72.45 72.381 72.365 72.311 72.224 72.135 72.052 71.919 71.793 71.715 71.614 71.521 71.358 71.249 70.976 70.742 70.625 70.555 70.917 70.685 70.743 70.722 75.799 78.202 78.318 78.362 75.803 69.929 69.619 70.268 71.179 74.841 70.432 69.606 68.563 68.432 68.378 68.482 68.777 68.377 68.358 68.228 67.861 67.904 73.622 75.104 74.791 74.018 70.24 67.694 67.169 66.841 68.438 72.547 73.725 74.37 73.836 68.557 66.906 68.113 67.178 66.584 65.719 65.478 65.301 65.216 65.158 65.066 64.909 64.853 65.794 65.687 65.566 64.894 65.819 65.913 73.008 73.849 74 72.845 71.608 67.399 62.559 62.291 62.217 62.029 61.784 62.29 61.904 62.799 63.632 62.174 63.425 60.765 60.76 60.69 60.596 60.401 59.777 59.644 59.433 59.288 59.179 59.475 59.365 59.42 59.739 66.826 65.917 65.313 62.065 58.031 57.176 57.008 56.878 56.823 56.861 56.921 57.904 62.193 63.505 63.777 64.414 63.667 62.165 58.594 55.266 55.038 55.795 56.311 55.241 54.665 54.867 55.092 54.728 54.851 55.405 55.605 58.251 61.698 62.628 63.006 62.381 61.082 54.269 52.71 52.183
-9999 -9999 -9999 -9999 -9999 -9999 -9999 -9999 -9999 -9999 -9999 -9999 -9999 -9999 -9999 -9999 -9999 -9999 -9999 -9999 -9999 -9999 -9999 -9999 -9999 -9999 -9999 -9999 -9999 -9999 -9999 -9999 -9999 -9999 -9999 -9999 -9999 -9999 -9999 -9999 -9999 -9999 -9999 -9999 -9999 -9999 -9999 -9999 -9999 -9999 -9999 -9999 -9999 -9999 -9999 -9999 -9999 -9999 -9999 -9999 -9999 -9999 -9999 -9999 -9999 -9999 -9999 -9999 -9999 -9999 -9999 -9999 -9999 -9999 -9999 -9999 -9999 -9999 -9999 -9999 -9999 -9999 -9999 -9999 -9999 -9999 -9999 -9999 -9999 -9999 -9999 -9999 -9999 -9999 -9999 -9999 -9999 -9999 -9999 -9999 -9999 -9999 -9999 -9999 -9999 -9999 -9999 -9999 -9999 -9999 -9999 -9999 -9999 -9999 -9999 -9999 -9999 -9999 -9999 -9999 -9999 -9999 -9999 -9999 -9999 -9999 -9999 -9999 -9999 -9999 -9999 100.402 100.398 100.37 100.354 100.342 100.324 100.282 100.27 100.247 100.226 100.209 100.99 103.583 105.549 105.487 103.889 101.831 100.449 100.593 100.26 100.147 100.063 99.877 99.752 99.661 99.673 99.623 99.588 99.531 99.497 99.472 99.397 99.347 99.238 99.224 99.225 99.158 99.097 99.014 98.934 98.888 98.827 98.745 98.653 98.583 98.567 98.507 98.533 98.579 98.606 98.708 98.707 98.741 98.669 98.688 98.674 98.654 98.545 98.391 98.391 98.321 98.238 98.142 98.078 98.077 98.022 97.938 97.881 97.769 97.597 97.466 97.253 97.07 97.01 96.941 96.928 96.888 96.861 96.789 96.729 96.657 96.512 96.374 96.286 96.189 96.115 95.972 95.887 95.818 95.709 95.574 95.477 95.483 95.284 95.1 94.937 94.852 94.689 94.649 94.584 94.458 94.344 94.278 93.977 93.871 93.732 93.798 93.756 93.701 93.566 93.555 93.104 92.902 92.665 92.4 92.296 92.227 92.23 91.879 91.625 91.182 90.897 90.761 90.543 90.202 89.785 89.773 89.439 89.291 89.173 89.053 89.596 88.646 88.308 88.295 88.026 87.734 87.446 87.061 86.786 86.504 86.161 85.877 85.508 85.225 84.867 84.591 84.269 83.997 83.706 83.483 83.255 85.42 86.824 86.863 83.074 81.597 81.212 80.966 80.687 80.207 80.021 80.198 81.155 82.255 85.246 81.861 79.746 78.353 78.09 77.944 79.248 78.793 76.915 76.595 76.228 75.911 75.661 75.434 75.141 74.929 74.734 74.467 74.189 73.844 73.533 73.265 73.017 72.785 72.588 72.483 72.431 72.425 72.362 72.279 72.168 72.112 72.015 71.871 71.764 71.661 71.559 71.366 71.224 70.946 70.778 70.553 70.287 70.2 70.205 70.413 70.499 70.698 73.059 77.344 73.026 75.92 75.167 71.09 69.339 69.643 69.531 69.708 68.912 68.667 68.521 68.503 68.458 68.557 68.536 68.627 68.261 67.908 67.847 72.903 74.44 75.17 74.157 69.389 67.818 67.834 67.905 67.07 66.961 70.411 71.567 73.569 74.171 67.645 66.583 66.592 66.894 66.449 66.765 66.884 65.385 65.235 65.141 65.016 64.99 64.895 64.707 65.468 64.849 65.883 65.506 66.07 71.264 73.386 74.107 73.825 72.761 70.144 64.692 62.372 62.227 62.109 61.925 62.771 61.904 61.813 61.984 61.997 61.246 61.303 60.702 60.456 61.041 60.33 59.888 59.784 59.563 59.424 59.322 59.406 59.329 62.273 65.07 66.545 67.095 66.23 65.503 60.222 57.731 57.099 56.921 56.808 56.765 57.653 56.817 56.896 62.206 63.021 64.21 64.453 63.844 62.797 56.658 55.632 54.897 54.778 54.706 54.7 54.61 54.501 55.06 54.295 54.502 55.634 55.433 59.599 61.886 62.71 63.113 62.083 61.106 58.708 53.32
-9999 -9999 -9999 -9999 -9999 -9999 -9999 -9999 -9999 -9999 -9999 -9999 -9999 -9999 -9999 -9999 -9999 -9999 -9999 -9999 -9999 -9999 -9999 -9999 -9999 -9999 -9999 -9999 -9999 -9999 -9999 -9999 -9999 -9999 -9999 -9999 -9999 -9999 -9999 -9999 -9999 -9999 -9999 -9999 -9999 -9999 -9999 -9999 -9999 -9999 -9999 -9999 -9999 -9999 -9999 -9999 -9999 -9999 -9999 -9999 -9999 -9999 -9999 -9999 -9999 -9999 -9999 -9999 -9999 -9999 -9999 -9999 -9999 -9999 -9999 -9999 -9999 -9999 -9999 -9999 -9999 -9999 -9999 -9999 -9999 -9999 -9999 -9999 -9999 -9999 -9999 -9999 -9999 -9999 -9999 -9999 -9999 -9999 -9999 -9999 -9999 -9999 -9999 -9999 -9999 -9999 -9999 -9999 -9999 -9999 -9999 -9999 -9999 -9999 -9999 -9999 -9999 -9999 -9999 -9999 -9999 -9999 -9999 -9999 -9999 -9999 -9999 -9999 -9999 -9999 -9999 -9999 100.381 100.373 100.336 100.343 100.313 100.292 100.262 100.271 100.261 100.229 100.325 104.154 103.494 105.269 103.525 100.968 100.591 100.752 100.121 100.016 100.102 99.903 99.739 99.665 99.594 99.572 99.551 99.49 99.481 99.446 99.265 99.267 99.243 99.18 99.157 99.158 99.071 99.022 98.966 98.917 98.816 98.722 98.664 98.582 98.624 98.545 98.513 98.482 98.559 98.664 98.62 98.623 98.641 98.664 98.647 98.552 98.493 98.34 98.346 98.242 98.183 98.088 98.096 98.03 97.99 97.894 97.866 97.811 97.642 97.431 97.22 97.096 97.072 96.996 96.939 96.937 96.876 96.829 96.712 96.573 96.49 96.434 96.358 96.229 96.125 96.17 96.102 95.94 95.842 95.661 95.55 95.478 95.422 95.242 95.028 94.927 94.85 94.763 94.751 94.656 94.458 94.447 94.211 94.07 94.594 100.798 100.924 95.948 93.784 93.605 93.806 93.718 93.275 93.811 92.662 92.366 92.095 92.045 92.174 91.648 91.314 90.906 90.655 90.379 90.08 89.899 89.804 89.591 89.334 89.247 88.978 88.846 88.708 88.498 88.3 87.949 87.66 87.276 87.014 86.635 86.428 86.011 85.631 85.422 85.105 84.832 84.369 84.127 83.9 83.628 83.288 83.511 85.158 86.044 82.034 81.648 81.358 81.062 80.796 80.285 80.347 83.081 83.474 81.282 84.103 86.126 82.247 78.41 78.334 78.72 78.838 79.903 77.63 76.612 76.325 76.017 75.739 75.487 75.244 74.94 74.737 74.502 74.26 73.929 73.627 73.315 73.071 72.817 72.622 72.504 72.437 72.39 72.33 72.286 72.168 72.085 71.973 71.829 71.693 71.531 71.357 71.163 70.971 70.741 70.56 70.174 69.925 69.857 69.897 70.065 70.162 70.355 72.562 70.875 77.044 77.238 75.915 69.402 69.181 69.077 69.048 68.956 68.838 68.668 68.605 68.586 68.658 68.678 68.631 69.004 68.612 67.863 68.649 73.004 75.397 74.183 69.558 68.985 68.319 67.923 67.736 67.375 67.191 67.011 67.704 71.217 67.629 66.733 66.428 71.822 70.206 67.314 66.403 66.347 66.504 65.645 65.096 65.017 64.96 64.829 64.752 64.642 64.621 64.751 64.722 65.666 66.226 71.966 73.379 74.34 73.912 73.616 69.216 62.997 62.337 62.177 62.077 61.869 61.886 61.54 62.207 62.037 61.953 60.966 61.375 60.675 60.348 60.194 59.999 59.821 59.658 59.53 59.77 59.541 59.364 59.752 63.807 65.773 66.399 67.04 66.367 65.47 62.814 57.852 57.197 57.105 56.746 56.656 57.747 58.777 56.998 61.259 62.906 63.653 64.538 57.784 55.217 54.874 55.19 55.251 54.781 54.703 54.605 54.579 54.445 54.317 54.461 54.417 54.504 55.638 60.882 61.781 62.863 62.959 62.376 61.268 56.104
