ncols 390
nrows 31
xllcorner    425100
yllcorner    438778
cellsize     2
NODATA_value -9999
133.273 130.192 128.6 129.913 131.235 133.425 129.836 127.613 127.968 128.13 128.195 128.286 131.502 138.75 130.608 128.761 128.968 129.169 129.136 129.462 130.861 132.019 130.253 129.895 130.276 130.633 131.111 130.898 133.18 136.119 131.681 137.835 135.381 132.133 132.708 134.446 133.388 133.203 132.733 132.528 132.955 133.448 134.089 134.373 134.684 135.195 136.246 135.01 135.792 137.05 137.935 138.314 137.362 135.657 138.023 141.477 141.208 139.794 137.439 136.723 136.435 136.991 138.367 141.463 141.199 139.681 138.015 137.491 137.288 137.328 137.503 137.729 138.258 139.507 141.628 139.786 139.597 139.045 138.857 138.813 138.797 138.82 139.101 139.346 139.79 140.267 140.639 140.883 141.149 141.356 141.512 141.607 141.742 141.938 142.119 142.287 142.404 142.565 142.773 142.966 143.041 143.225 143.407 143.56 143.716 143.895 144.049 144.138 144.301 144.849 146.585 145.714 144.512 144.492 144.549 145.091 146.533 146.864 146.884 147.089 147.227 147.291 146.423 147.026 148.424 148.269 149.011 150.206 149.627 147.159 147.204 147.37 147.282 147.385 147.431 147.519 148.074 149.503 150.084 149.374 148.017 147.837 147.849 147.982 148.156 148.225 148.476 148.781 149.051 149.638 150.842 159.043 159.179 151.279 151.041 149.516 149.547 149.603 149.624 149.878 152.097 155.394 156.54 156.284 154.188 152.768 150.89 152.8 151.912 151.591 151.313 150.804 150.618 150.565 150.488 150.526 150.922 151.88 153.728 152.747 151.058 150.633 151.05 151.885 153.151 154.245 156.028 158.935 157.777 155.63 155.214 154.961 154.116 154.265 154.487 155.619 158.187 165.189 162.295 158.993 158.074 158.126 158.293 159.363 161.128 162.529 162.786 162.363 160.926 161.136 159.973 158.66 158.553 158.47 158.479 158.503 158.542 158.507 158.574 158.758 158.82 158.944 158.769 159.589 160.42 159.775 159.035 158.524 158.605 158.677 158.72 158.765 158.764 158.74 158.649 158.734 158.781 158.704 158.801 158.808 158.753 158.65 158.628 158.807 159.02 159.484 159.208 158.835 158.978 159.261 159.614 160.688 162.334 163.537 165.033 166.443 165.837 164.269 162.241 161.57 160.889 161.72 162.447 162.663 163.148 162.659 162.354 161.557 161.318 161.505 161.615 161.708 162.183 162.437 162.678 165.99 170.583 166.979 161.265 160.697 160.71 160.56 160.1 159.801 162.334 165.681 163.782 160.038 159.158 159.06 158.93 158.794 158.641 158.87 158.819 159.046 159.878 160.9 160.91 161.676 162.179 160.853 160.847 163.905 160.905 160.921 163.879 164.267 163.279 162.771 159.966 158.458 158.628 158.329 158.469 158.843 159.245 158.477 158.044 157.928 158.356 158.358 158.134 157.88 157.847 158.575 161.062 159.283 157.71 157.748 157.474 157.522 158.017 158.351 158.099 157.186 157.448 157.417 157.569 158.083 158.358 157.548 157.241 159.298 157.186 156.641 157.143 157.182 157.332 156.272 156.134 155.972 155.803 155.567 155.707 156.196 155.786 155.704 156.987 160.583 161.616 162.626 162.257 162.107 162.176 159.978 156.685 156.437 155.813 156.139 158.246 156.767 155.707 156.298 156.412 156.023 155.68 155.867 155.779 155.847 156.846 159.159 158.296 158.615 160.527 160.752 157.415 155.721 155.948 158.374
132.069 128.974 127.239 128.462 129.095 128.005 127.659 127.818 128.225 127.881 127.914 128.794 130.279 132.11 128.756 128.554 128.644 128.765 129.053 129.124 129.153 129.186 129.275 130.017 130.601 130.345 130.767 130.619 130.857 132.159 137.924 135.918 136.427 131.628 131.874 132.302 132.434 132.472 132.417 132.493 132.968 133.566 135.012 134.45 133.984 134.995 138.422 136.638 135.939 139.258 136.666 136.135 135.859 135.727 137.704 140.039 138.825 136.414 136.803 136.678 136.616 136.944 137.258 137.602 137.443 137.374 137.923 137.876 137.531 138.02 137.669 137.711 138.068 139.372 143.587 140.819 139.573 139.245 138.904 138.834 138.795 138.834 138.902 138.921 139.149 139.41 140.174 140.671 141.115 141.331 141.443 141.479 141.665 141.845 142.027 142.15 142.37 142.516 142.714 142.812 142.915 143.067 143.335 143.491 143.58 143.71 143.77 143.949 144.066 144.345 145.23 144.954 144.518 144.875 145.194 145.626 146.03 146.09 145.943 146.653 147.281 147.32 147.07 146.232 145.415 148.012 148.684 156.088 153.121 147.715 147.034 147.125 147.216 147.384 147.436 147.674 148.344 150.576 151.132 150.19 148.834 147.772 147.662 147.774 147.805 148.17 148.451 149.67 151.778 150.925 150.907 154.459 154.211 151.783 151.059 149.434 149.496 149.547 149.854 151.364 154.781 156.868 156.625 156.603 156.407 155.818 154.098 154.992 154.859 151.741 151.308 150.875 150.708 150.581 150.526 150.609 150.684 152.424 153.944 153.957 151.254 150.851 150.895 151.167 151.801 152.713 153.734 154.589 155.115 155.58 155.684 155.795 155.058 154.537 155.251 155.281 157.418 158.482 158.566 158.914 158.112 157.988 158.323 159.119 160.128 161.298 161.077 160.205 158.75 159.001 158.972 158.431 158.406 158.557 158.995 158.682 158.522 158.478 158.515 158.465 158.724 159.786 161.627 162.021 162.73 161.774 159.838 158.842 158.591 158.587 158.677 158.743 158.821 158.84 158.781 158.831 158.921 158.878 158.844 158.855 158.827 158.802 158.764 158.862 158.991 159.003 159.062 159.081 159.247 159.452 159.579 159.719 160.412 161.199 163.255 165.466 165.987 165.065 164.078 162.746 161.75 161.446 161.587 162.03 161.855 161.237 161.139 161.105 161.215 161.349 161.489 161.564 161.778 161.976 162.643 163.996 169.237 166.456 161.86 161.125 160.754 160.551 159.59 159.683 163.282 165.945 163.587 160.096 159.197 158.934 158.885 158.615 158.39 158.582 158.653 158.642 158.931 159.224 159.627 159.136 158.704 158.546 158.848 160.124 160.025 162.533 164.625 164.854 162.665 160.934 158.592 158.506 158.405 158.19 158.412 162.983 162.222 159.617 158.014 159.649 160.898 160.402 158.272 158.056 158.119 159.033 160.544 160.381 157.565 157.414 157.393 157.365 157.181 157.283 157.213 157.075 157.028 156.971 157.056 157.032 156.948 156.68 156.658 156.951 156.49 156.308 156.342 156.349 155.954 155.963 156.165 156.039 155.621 155.545 155.815 156.126 155.48 155.612 157.681 159.472 162.342 162.463 160.446 160.621 160.584 157.888 155.527 155.593 155.678 155.631 155.609 155.474 155.417 155.757 155.956 155.468 155.567 155.764 156.038 155.739 155.841 156.335 155.761 156.098 157.446 156.981 155.79 155.498 156.23 159.078
128.117 126.812 126.926 127.299 127.282 126.985 127.492 128.905 128.376 127.643 128.109 131.833 133.451 128.268 128.128 128.273 128.475 128.513 128.957 129.747 129.147 129.053 130.086 130.112 130.132 130.191 129.988 130.3 130.432 131.794 135.186 133.582 132.236 131.727 131.733 131.875 132.444 133.118 133.468 132.751 133.811 133.695 134.021 133.83 134.005 134.106 135.238 134.963 136.125 137.256 135.217 135.068 135.054 135.302 136.118 137.654 137.297 136.525 136.678 136.762 136.693 136.581 136.623 136.602 136.713 137.404 138.806 139.606 141.651 141.762 139.182 137.939 137.512 138.489 139.66 139.241 138.961 138.966 138.922 138.911 -9999 138.796 138.811 138.715 138.823 139.181 139.831 140.374 141.112 141.257 141.375 141.494 141.58 141.74 141.816 141.972 142.157 142.375 142.512 142.61 142.766 142.964 143.132 143.345 143.511 143.622 143.655 143.803 143.915 143.979 144.118 144.265 144.415 145.83 147 146.29 146.179 145.608 144.92 145.308 146.177 147.006 147.299 147.005 145.913 145.261 146.63 148.515 148.974 147.005 147.005 147.156 147.133 147.349 147.758 148.4 150.772 152.842 152.475 150.444 149.574 147.903 147.5 147.662 147.907 148.169 148.469 149.725 152.96 151.619 148.644 149.056 149.077 149.22 149.18 149.332 149.519 149.729 151.779 155.033 155.898 156.464 156.624 156.729 156.675 156.605 156.358 156.197 153.673 150.892 151.016 150.927 150.878 150.659 150.625 150.766 151.928 153.417 154.065 153.822 152.654 152.246 151.856 151.69 151.719 151.707 152.136 152.695 153.457 154.09 155.555 155.313 156.374 157.964 156.206 154.937 155.519 156.788 159.414 162.362 160.09 158.452 158.748 161.734 162.075 160.817 159.844 158.881 158.525 158.468 158.438 158.407 158.463 158.908 161.407 160.434 158.89 158.462 158.429 158.409 158.555 158.863 160.531 162.608 163.243 162.59 161.058 159.303 158.573 158.553 158.644 158.65 158.766 158.81 158.779 158.771 158.875 158.94 158.859 158.665 158.795 158.939 158.995 159.071 159.098 159.142 159.208 159.357 159.486 159.584 159.707 159.867 160.026 160.167 161.322 162.905 163.978 164.447 164.51 163.728 162.775 161.506 160.909 161.08 161.067 161.06 161.057 161.098 161.184 161.232 161.446 161.515 161.721 161.914 162.814 165.923 168.244 163.775 162.37 161.389 160.568 160.24 159.506 159.688 163.578 166.005 163.557 160.297 159.377 158.755 158.928 158.584 158.42 158.48 158.615 158.439 158.557 158.508 158.549 158.52 158.562 158.712 158.947 160.737 161.414 163.576 164.905 163.55 159.499 158.604 158.354 158.158 158.155 158.175 158.313 159.882 159.386 158.806 159.643 159.696 162.273 162.702 162.086 159.905 158.751 158.099 160.392 158.982 157.253 157.175 157.144 157.061 156.911 157.069 157.099 157.009 156.832 156.862 156.787 156.708 156.558 156.452 156.501 156.891 156.551 156.296 155.98 155.766 155.693 156.071 156.986 157.039 156.173 156.778 158.442 158.222 156.926 155.97 156.293 159.822 160.287 159.414 156.38 155.944 157.106 155.528 155.47 155.382 155.577 157.017 155.952 155.725 155.144 155.552 156.283 155.72 155.639 155.699 155.692 155.343 155.408 155.41 155.251 155.38 155.656 155.694 155.526 155.447 156.088 158.763
126.097 126.072 126.546 126.793 127.216 129.838 134.051 128.83 127.297 127.308 127.964 130.994 130.098 129.103 127.916 128.04 128.169 128.198 129.702 130.392 129.199 131.771 131.265 130.584 129.474 129.804 130.06 130.211 130.093 130.287 130.861 131.945 131.974 131.504 131.779 132.083 132.316 132.891 134.502 134.014 135.266 134.122 133.226 133.851 134.214 134.311 135.078 134.869 134.437 135.298 135.262 135.184 135.172 136.319 136.863 136.994 136.425 136.041 136.396 136.604 136.622 136.413 136.157 136.214 136.482 137.225 140.46 143.172 143.558 143.18 141.917 138.062 137.507 137.948 138.505 138.918 139.032 139.011 138.97 138.966 138.924 -9999 138.752 138.709 138.768 138.932 139.226 140.032 140.49 140.973 141.406 141.486 141.596 141.833 142.111 141.763 141.938 142.141 142.3 142.482 142.652 142.848 143.027 143.221 143.366 143.452 143.518 143.677 143.87 143.91 143.956 144.037 144.345 144.985 145.889 145.989 146.374 146.012 144.598 144.518 144.795 146.666 147.333 147.324 147.075 145.554 145.016 146.825 148.028 147.626 147.455 147.902 147.34 147.337 148.242 149.36 150.535 151.733 150.335 149.345 148.601 147.786 147.837 149.118 149.327 148.395 148.282 148.828 149.329 149.149 148.54 148.627 148.774 148.942 149.164 149.359 149.511 150.377 152.084 154.996 155.341 156.278 156.666 156.722 156.692 156.664 156.512 156.462 154.595 152.446 151.55 151.111 150.887 150.563 151.226 152.101 153.831 153.992 154.149 154.081 153.972 153.896 153.721 152.977 152.193 151.835 151.949 151.956 152.427 153.347 154.184 154.055 155.498 161.63 159.115 155.674 155.297 155.84 160.853 165.745 160.68 158.285 158.84 164.002 163.011 159.071 158.744 158.57 158.433 158.345 158.319 158.354 158.552 159.45 162.058 162.077 159.09 158.527 158.374 158.418 158.464 158.553 159.178 162.248 162.812 162.431 161.81 159.617 158.501 158.498 158.581 158.642 158.722 158.77 158.781 158.805 158.877 158.948 158.895 158.857 158.906 159.103 159.142 159.239 159.279 159.315 159.457 159.628 159.797 159.755 159.841 159.974 160.171 160.345 160.603 160.946 162.72 164 164.066 163.613 163.444 161.879 161.191 161.097 161.052 161.058 161.04 161.108 161.285 161.327 161.483 161.569 161.727 161.883 163.203 165.063 164.662 163.514 161.812 160.972 160.496 160.067 159.539 160.171 163.101 165.433 164.179 163.053 159.839 158.791 158.739 158.533 158.367 158.443 158.47 158.405 158.318 158.55 158.664 158.521 158.703 159.469 161.187 163.055 163.742 164.262 164.136 160.543 159.839 160.057 158.516 157.951 157.979 157.815 157.86 158.178 158.43 160.073 164.235 160.172 161.35 162.591 160.827 158.376 157.748 157.405 157.747 157.245 157.102 156.996 157.222 157.923 157.101 157.045 156.979 156.867 156.672 156.744 156.58 156.494 156.483 156.329 156.882 157.481 157.207 156.211 155.94 155.744 155.495 155.654 156.555 155.746 157.056 160.373 161.276 160.598 159.444 156.007 156.54 158.944 155.971 156.117 155.762 155.934 155.47 155.277 155.318 155.226 155.542 158.879 156.406 155.576 154.673 155.103 155.702 155.679 155.586 -9999 155.461 155.413 155.242 155.21 155.149 155.105 155.276 155.599 155.762 155.668 155.36 155.745
126.299 127.176 129.038 127 126.518 130.167 133.684 128.288 127.052 127.121 127.328 127.945 128.867 127.932 128.174 127.971 128.444 130.31 130.614 134.091 131.32 131.414 133.371 129.681 129.349 129.65 129.634 129.696 129.907 130.079 130.261 131.264 132.033 131.358 132.083 132.315 132.209 132.105 132.264 133.207 134.121 133.233 133.493 134.696 134.295 134.953 135.096 134.306 133.968 134.3 134.794 134.884 135.28 138.145 139.902 138.047 137.295 136.54 136.001 136.112 136.233 136.178 136.021 136.099 136.226 137.514 140.388 143.335 143.905 144.029 142.554 139.481 137.551 137.685 138.368 138.79 139.065 139.069 139.025 139.006 138.985 -9999 -9999 138.715 138.725 138.857 139.285 139.955 140.135 140.709 141.039 141.264 141.452 141.981 144.423 142.806 141.901 142.009 142.189 142.405 142.595 142.777 142.973 143.173 143.273 143.353 143.425 143.537 143.684 143.7 143.699 143.876 144.022 144.256 144.501 145.078 146.007 146.445 144.635 144.441 144.758 146.312 147.314 147.487 147.426 146.976 145.453 145.883 147.518 148.002 148.688 149.018 147.262 147.414 147.884 148.015 149.754 149.742 148.088 147.606 147.561 147.544 148.432 151.51 153.151 149.35 149.114 149.967 149.767 148.876 148.543 148.663 148.793 148.895 149.11 149.367 149.547 150.971 154.898 154.509 153.789 155.162 156.154 156.359 156.582 156.609 156.535 156.599 156.362 155.897 153.553 151.468 151.036 150.424 151.16 152.199 153.594 154.213 154.207 154.176 154.166 154.267 154.038 153.709 152.303 151.801 151.74 151.692 151.733 152.454 153.305 153.733 155.149 157.011 162.932 157.631 155.203 155.466 158.573 161.965 160.034 157.739 158.455 160.239 161.73 159.369 158.325 158.339 158.372 158.372 158.257 158.219 158.357 159.942 161.12 160.398 158.91 158.424 158.307 158.347 158.352 158.342 158.942 160.566 160.896 161.081 160.663 158.721 158.454 158.463 158.538 158.623 158.683 158.78 158.819 158.862 158.843 158.941 158.95 158.95 159.143 159.26 159.286 159.379 159.431 159.43 159.513 159.739 159.877 159.893 159.924 160.004 160.094 160.252 160.422 160.699 162.228 163.553 163.192 162.133 162.374 161.674 161.276 161.072 161.079 161.118 161.104 161.097 161.237 161.354 161.433 161.486 161.605 161.88 163.602 164.173 164.429 165.621 162.847 160.887 160.183 160.082 160.069 160.787 162.761 164.728 164.545 163.643 159.974 158.803 158.67 158.631 158.671 158.549 -9999 158.301 158.312 158.676 159.423 158.563 158.429 158.805 161.44 162.116 162.882 164.058 162.542 158.753 158.625 158.997 157.912 157.728 157.766 157.652 157.75 158.148 158.172 160.214 162.385 158.773 158.352 158.877 157.353 157.261 157.24 157.096 156.981 156.88 156.909 156.888 157.853 160.464 160.383 157.622 156.806 156.828 156.594 156.514 156.465 156.381 156.84 156.67 157.394 157.726 157.245 155.573 155.544 155.421 155.2 155.136 155.289 156.36 160.055 161.273 161.505 160.856 159.562 156.019 155.299 156.135 155.364 155.432 155.639 155.889 155.455 155.02 155.181 155.07 155.539 155.344 155.862 154.758 154.673 154.898 155.138 155.102 154.991 155.008 -9999 155.182 155.134 155.054 154.929 154.972 155.179 155.594 155.926 156.104 155.247 155.611
128.738 130.91 132.6 129.246 126.639 126.628 127.082 127.468 127.141 127.306 127.044 127.361 127.548 127.8 128.265 128.072 128.075 132.759 137.113 131.98 129.196 128.921 130.234 130.057 130.394 129.44 129.673 129.62 129.752 129.866 130.212 130.761 131.146 131.327 132.302 132.548 132.469 132.573 132.686 133.714 133.543 132.988 133.334 133.808 133.516 134.994 135.524 134.386 133.944 134.013 134.125 134.538 136.008 140.555 140.989 138.009 138.266 135.864 135.62 135.648 135.822 135.818 135.775 136.125 136.452 137.587 141.286 142.779 143.693 143.802 142.448 140.53 137.828 137.836 138.335 138.748 138.86 139.036 139.065 139.043 139.11 -9999 -9999 138.686 138.772 138.603 139.144 140.506 140.546 140.355 140.677 140.948 141.331 142.568 147.257 144.132 141.999 141.867 142.083 142.328 142.52 142.711 142.862 143.063 143.195 143.284 143.387 143.404 143.565 143.477 143.435 143.463 143.463 143.655 144.044 144.292 144.588 144.821 144.539 144.54 145.055 146.886 147.486 147.509 147.375 146.456 145.14 145.483 146.767 146.768 146.675 147.535 147.322 147.454 147.653 147.658 148.283 149.363 147.677 147.27 147.275 147.349 148.413 151.313 156.103 151.802 151.274 151.654 152.203 150.947 149.405 148.864 148.71 148.775 149.028 149.283 149.53 150.793 152.58 153.254 153.043 152.49 151.932 154.356 156.485 156.541 156.557 156.719 156.687 156.518 156.078 155.129 151.571 150.533 151.99 153.007 153.89 154.304 154.233 154.236 154.164 154.034 153.337 152.102 151.105 151.488 151.39 151.41 151.16 151.843 152.337 152.932 153.613 155.587 158.905 155.323 155.338 154.672 154.81 156.498 157.427 156.754 158.106 162.226 161.03 159.38 158.27 158.246 158.288 158.374 158.307 158.26 158.286 158.603 158.611 158.754 158.526 158.419 158.327 158.303 158.24 158.245 158.472 159.016 159.007 158.31 158.639 158.462 158.399 158.483 158.453 158.555 158.706 158.799 158.852 158.811 158.752 158.8 158.945 159.062 159.188 159.301 159.38 159.425 159.518 159.628 159.6 159.763 159.849 159.899 159.89 159.942 160.035 160.236 160.389 160.523 160.814 161.201 162.258 162.091 161.601 161.155 161.157 161.027 161.196 161.108 161.078 161.055 161.089 161.205 161.331 161.333 161.275 161.398 161.799 161.752 164.988 167.091 164.422 161.157 160.526 159.985 160.396 162.07 163.79 164.07 164.774 163.52 159.591 158.754 159 158.933 158.782 158.619 158.347 158.208 158.153 158.36 158.417 158.386 158.048 158.179 159.166 159.682 160.823 163.299 162.776 159.758 158.252 158.115 157.939 157.981 157.909 157.712 157.637 157.615 157.628 157.915 158.436 157.516 157.315 157.088 157.041 157.081 156.93 156.917 156.751 156.741 156.646 156.632 157.014 157.952 158.463 156.927 156.651 156.554 156.486 156.429 156.331 156.223 157.118 157.696 157.453 157.527 157.243 156.044 155.133 155.149 155.302 155.98 158.827 160.919 161.925 161.785 160.075 159.969 156.724 155.934 155.394 155.696 156.029 155.496 155.48 155.546 155.381 155.064 155.062 -9999 155.57 155.719 155.722 154.947 154.814 155.13 155.117 154.885 154.932 155.01 155.004 155.005 154.955 154.873 154.775 154.816 155.041 155.425 155.609 155.774 155.866 156.275
130.511 134.421 132.679 128.583 126.486 126.083 126.392 126.725 126.807 127.459 127.257 127.691 127.621 127.853 127.943 127.69 127.745 130.717 130.998 128.324 128.101 128.875 128.985 129.047 129.144 129.16 129.393 129.892 129.652 129.832 130.264 130.682 131.039 131.414 132.669 132.552 133.55 136.34 135.619 133.642 133.214 133.321 132.911 133.138 133.459 135.267 136.519 136.157 134.713 134.032 134.4 135.945 137.351 139.309 140.389 141.187 140.168 136.479 136.071 135.652 135.817 135.776 135.749 136.104 136.369 137.339 139.44 141.732 142.357 142.77 139.579 137.487 137.336 138.535 139.05 138.842 138.83 139.072 139.166 139.327 139.387 139.336 139.111 -9999 138.683 138.694 138.854 139.74 140.422 139.993 140.062 140.524 141.05 141.74 142.085 141.848 141.615 141.744 141.998 142.314 142.395 142.591 142.77 142.983 143.138 143.23 143.452 143.52 143.504 143.346 143.23 143.266 143.282 143.395 143.623 143.965 144.165 144.252 144.303 144.57 146.177 147.437 147.499 147.447 146.994 146.671 145.103 145.054 145.923 145.624 145.888 147.055 147.936 147.494 147.346 147.366 147.67 147.786 147.38 147.244 147.137 147.267 147.452 148.692 148.978 150.059 157.212 151.474 153.888 158.221 156.545 151.822 151.171 150.258 149.188 149.164 149.411 149.819 150.809 151.392 152.426 150.307 150.219 152.235 154.981 156.281 156.678 156.754 156.781 156.636 156.553 156.183 154.352 150.685 152.9 153.73 154.599 154.947 154.36 154.135 154.174 154.087 152.803 151.02 151.411 -9999 151.132 151.243 151.162 151.496 151.771 152.284 153.034 155.074 157.77 157.831 155.236 154.388 154.311 154.603 154.933 154.753 155.597 157.324 158.141 158.644 158.076 157.815 157.993 158.143 158.209 158.275 158.224 158.188 158.389 158.466 158.528 158.421 158.355 158.263 158.186 158.214 158.158 158.392 158.253 158.121 158.207 158.387 158.341 158.322 158.38 158.488 158.415 158.692 158.735 158.748 158.763 158.835 158.969 159.118 159.158 159.214 159.351 159.462 159.542 159.603 159.69 159.8 159.83 159.895 159.893 160.008 160.225 160.28 160.34 160.497 160.758 161.139 162.362 163.062 161.571 161.128 161.011 160.987 161.061 161.015 160.994 161.051 161.037 161.089 161.094 161.17 161.208 161.238 161.237 162.555 167.64 167.386 163.264 161.04 160.745 160.116 160.345 161.332 162.086 162.692 164.08 163.011 160.218 159.432 159.206 159.189 158.762 158.452 158.266 158.055 158.088 158.152 158.083 158.194 158.339 158.468 159.163 160.37 159.489 160.788 161.668 159.92 159.323 158.415 158.484 159.407 159.435 157.961 157.507 157.263 157.136 157.274 157.678 157.164 156.999 156.879 156.881 156.794 156.717 156.701 156.648 156.623 156.575 156.485 156.443 156.497 156.495 156.442 156.438 156.281 156.309 156.258 156.062 155.813 156.379 157.294 156.532 156.788 157.066 157.023 156.126 155.21 155.977 158.059 160.328 161.72 162.151 160.74 158.721 156.113 155.818 154.883 154.958 154.924 155.086 154.641 154.506 154.855 -9999 155.054 154.855 154.8 154.911 155.287 155.815 156 155.833 155.607 155.267 155.16 155.079 154.973 155.018 154.987 154.887 154.853 154.847 154.867 154.802 155.127 155.616 -9999 155.902 156.081
131.152 137.637 130.068 128.39 127.956 126.652 127.475 126.668 126.654 127.86 129.694 130.92 127.773 127.304 127.237 127.292 127.768 129.659 132.962 129.61 128.562 130.698 132.549 129.132 131.962 129.006 129.065 130.053 131.048 130.195 130.474 130.822 131.654 132.025 132.086 132.584 135.365 136.368 133.55 132.396 134.208 133.16 132.811 132.874 133.272 134.342 135.187 135.193 133.99 134.075 134.944 138.367 138.646 136.028 136.591 139.797 138.26 136.025 136.535 137.204 136.424 136.051 135.702 135.573 136.01 136.315 136.842 137.752 138.127 139.761 137.19 136.602 136.764 137.963 138.505 138.268 138.606 138.978 139.525 139.849 139.482 139.149 139.281 -9999 -9999 138.734 138.718 138.906 140.397 140.128 139.477 139.807 140.661 141.135 141.404 141.47 141.506 141.604 141.812 142.096 142.199 142.462 142.632 142.885 143.037 143.194 143.378 143.482 143.484 143.283 143.11 143.144 143.203 143.2 143.21 143.422 143.966 144.113 144.207 144.513 145.711 147.069 147.383 146.799 145.82 145.256 145.031 145.016 145.293 145.447 145.536 146.114 146.968 146.918 147.197 147.219 147.303 147.371 147.406 147.357 147.296 147.286 147.394 147.647 148.349 150.996 155.285 153.047 154.847 160.172 160.465 152.023 153.638 150.498 149.088 148.932 149.2 149.512 149.656 150.039 150.732 149.879 149.904 150.069 151.714 153.666 155.969 156.483 156.69 156.664 156.567 156.508 154.963 151.403 150.262 152.442 154.695 155.726 154.322 154.123 154.255 154.198 152.853 151.448 151.109 150.875 150.931 151.149 151.198 151.261 151.68 151.993 153.122 155.395 162.328 157.735 155.227 153.983 154.036 154.101 154.213 154.324 154.414 155.593 158.159 158.751 157.554 157.589 157.97 158.062 158.11 158.134 158.159 158.166 158.302 158.408 158.374 158.398 158.326 158.242 158.272 158.559 158.859 158.372 158.231 158.184 158.304 158.318 158.226 158.187 158.329 158.433 158.46 158.665 158.753 158.709 158.747 158.832 158.941 159.036 159.091 159.158 159.089 159.36 159.444 159.491 159.539 159.638 159.738 159.814 159.819 159.934 159.987 160.083 160.183 160.357 160.91 161.221 161.992 162.664 161.173 160.625 160.719 160.79 160.809 160.821 160.877 161.066 161.059 161.131 161.145 161.128 161.15 161.209 161.435 163.739 167.551 167.463 162.394 160.669 160.269 160.013 159.932 160.154 160.376 159.85 160.683 161.143 161.265 159.625 159.218 158.18 158.488 158.273 158.065 -9999 157.659 157.674 157.774 157.838 158.562 158.526 158.008 159.938 160.253 157.957 158.222 158.697 159.621 158.519 158.936 160.817 160.738 159.4 157.253 157.048 156.98 157.019 156.951 156.876 156.834 156.695 156.559 156.52 156.559 156.541 156.505 156.489 156.475 156.363 156.267 156.295 156.284 156.21 156.16 156.146 156.139 155.919 155.864 155.762 155.895 155.656 155.256 155.704 156.468 156.568 156.612 156.193 157.032 158.421 157.415 160.977 161.078 157.888 155.609 155.641 154.868 154.785 154.715 154.687 154.566 154.237 154.433 154.536 154.704 154.749 154.759 154.675 154.754 155.775 156.541 157.12 156.102 155.848 155.603 155.329 155.436 155.216 155.011 155.023 154.845 154.862 154.952 154.893 154.743 155.273 156.181 156.346 155.556 155.269
131.285 135.429 129.878 133.369 129.702 128.482 129.375 127.598 127.284 129.021 134.039 132.843 127.33 126.676 126.982 127.127 127.747 129.037 130.405 131.407 129.095 130.673 128.692 129.539 133.129 129.293 128.904 133.393 136.137 131.643 131.898 131.112 132.625 132.389 131.432 133.188 134.033 132.911 132.385 132.374 132.385 132.686 132.557 132.556 133.108 133.27 133.4 133.439 133.37 134.735 138.596 139.831 139.858 138.801 135.549 136.683 136.081 135.186 135.777 136.757 136.483 -9999 135.612 135.451 135.482 135.787 135.837 136.054 137.383 138.803 138.218 137.016 136.595 136.833 137.526 138.042 138.584 139.026 139.868 140.495 139.84 139.334 139.244 139.072 -9999 138.566 138.594 138.61 139.007 139.301 139.244 139.256 140.107 140.847 141.189 141.302 141.392 141.506 141.704 141.906 142.079 142.348 142.588 142.802 142.889 143.138 143.292 143.433 143.428 143.27 143.125 143.067 143.176 143.139 143.19 143.316 143.681 143.901 144.04 144.316 145.462 147.186 147.233 147.07 145.192 144.87 145.02 145.031 145.194 145.387 145.475 145.635 146.215 146.68 147.23 147.239 147.272 147.101 147.113 147.327 147.459 147.346 147.387 147.591 148.144 149.482 152.976 151.227 150.823 153.372 156.056 149.521 149.571 148.856 148.35 148.628 149.027 149.297 149.391 149.495 149.692 149.66 149.665 149.8 149.906 151.202 155.001 155.053 156.362 156.747 156.637 156.749 156.569 154.78 153.005 154.383 156.211 155.362 154.387 154.109 154.175 153.605 151.84 150.761 150.74 150.819 150.836 150.958 151.129 152.329 153.699 155.181 154.077 154.323 155.197 155.848 153.908 153.495 153.467 153.83 154.006 154.389 154.895 156.771 159.503 155.967 156.31 157.085 158.371 158.254 158.09 158.157 158.121 158.183 158.236 158.33 158.291 158.303 158.238 158.205 158.702 160.423 161.157 159.621 158.379 158.314 158.393 158.223 158.169 158.203 158.257 158.392 158.408 158.446 158.594 158.637 158.631 158.659 158.803 158.908 158.992 159.075 159.169 159.265 159.449 159.356 159.348 159.339 159.475 159.469 159.591 159.691 159.706 159.98 160.032 159.999 160.145 161.032 162.628 162.38 160.828 160.473 160.592 160.587 160.57 160.628 160.661 160.716 160.935 161.1 161.094 161.012 161.121 161.01 161.486 164.001 166.269 166.01 162.054 160.816 159.836 159.649 159.368 159.264 159.202 158.888 158.678 158.245 159.053 159.608 158.828 158.163 158.012 157.785 157.571 157.374 157.386 157.422 157.334 157.202 157.079 157.767 157.356 157.96 157.951 156.857 156.862 157.009 158.508 158.941 159.223 158.989 158.813 158.529 156.925 156.89 156.829 156.725 156.615 156.664 156.647 156.49 156.463 156.407 156.331 156.294 156.295 156.391 156.294 156.141 156.229 156.168 156.104 156.077 156.001 155.829 155.815 155.739 155.797 155.906 155.937 155.162 155.051 155.043 155.588 155.407 155.304 155.423 157.741 156.39 157.017 157.451 155.799 155.79 154.877 154.927 154.729 154.739 154.735 154.609 154.368 154.258 154.401 154.531 154.678 154.81 154.877 155.041 154.87 155.452 156.523 157.085 155.43 155.052 154.975 154.853 154.939 155.075 154.934 154.985 154.746 154.846 154.8 155.232 155.273 156.43 156.595 156.71 155.568 154.737
126.63 126.928 130.145 131.274 133.998 130.594 131.097 130.798 129.251 129.248 129.52 128.69 126.803 126.751 127.311 127.247 127.293 127.846 128.543 129.848 139.054 132.195 128.548 128.21 128.566 128.872 128.893 129.061 129.177 131.6 136.151 132.86 131.639 132.004 132.534 135.29 134.519 133.243 134 132.666 132.473 133.423 133.171 132.506 132.737 132.901 133.099 133.209 133.487 136.162 138.376 139.641 140.813 139.638 138.002 134.862 134.397 134.568 135.135 136.175 136.234 -9999 135.528 135.385 135.41 135.676 135.896 136.129 138.398 139.96 139.493 137.169 136.561 136.781 137.459 138.013 139.082 139.201 139.343 139.856 139.836 139.272 139.108 139.004 138.812 138.59 138.459 138.582 138.638 138.757 138.927 139.263 139.43 140.371 140.943 141.135 141.289 141.373 141.5 141.754 141.923 142.248 142.462 142.578 142.752 142.903 143.185 143.364 143.361 -9999 143.146 143.142 143.222 143.171 143.233 143.209 143.235 143.515 143.771 144.062 144.506 146.413 147.279 147.177 146.739 145.399 144.845 145.064 145.123 145.231 145.377 145.691 147.045 147.644 147.23 146.842 146.789 146.787 146.995 147.255 147.605 147.424 147.381 147.433 147.517 147.479 148.029 147.934 148.385 150.105 150.924 148.448 147.643 147.531 147.756 148.16 148.602 148.915 149.073 149.231 149.488 149.535 149.6 149.608 149.645 150.02 151.189 152.743 156.102 156.629 156.642 156.658 156.854 157.192 158.326 158.091 157.131 154.789 154.207 153.908 153.33 152.005 150.968 150.631 150.71 150.833 150.729 150.711 151.53 155.569 157.122 158.918 155.414 153.521 153.745 153.626 153.226 153.403 153.48 153.665 153.927 154.217 154.274 155.529 155.776 155.077 154.824 155.298 156.74 157.692 158.634 160.104 160.062 158.478 158.248 158.169 158.156 158.307 158.256 158.22 158.654 161.342 162.193 161.271 158.907 158.84 158.957 158.053 158.102 158.089 157.951 158.148 158.148 158.17 158.311 158.492 158.536 158.487 158.651 158.818 158.959 158.906 158.864 159.051 159.222 159.289 159.327 159.336 159.267 159.26 159.406 159.716 159.782 159.892 159.917 159.879 159.969 160.661 161.305 161.269 160.403 160.41 160.49 160.503 160.452 160.67 160.609 160.737 160.753 160.78 160.911 160.865 160.843 160.762 161.039 162.581 164.107 165.814 165.806 163.548 160.487 159.763 158.745 159.438 158.994 158.6 158.989 160.144 160.152 161.064 158.548 158.01 157.531 157.419 157.211 157.105 157.241 157.33 157.3 157.262 157.667 159.995 160.525 159.76 158.54 156.806 156.843 156.947 158.123 158.845 159.748 159.075 158.244 157.008 156.732 156.667 156.462 156.494 156.479 156.43 156.304 156.31 156.358 156.27 156.193 156.167 156.187 156.097 156.049 156.091 156.088 155.938 155.831 155.788 155.722 155.622 155.516 155.416 155.751 156.292 155.233 154.919 154.898 154.731 154.35 154.81 154.293 154.487 156.084 156.302 155.766 155.989 155.509 154.814 154.746 154.932 154.76 154.725 -9999 154.766 154.493 154.408 154.545 154.822 154.851 154.626 154.658 154.737 154.884 155.087 156.343 155.998 155.882 155.03 155.003 155.305 155.486 155.211 155.138 154.899 154.844 154.899 154.724 154.853 155.499 158.13 157.69 156.673 155.164 154.658
126.068 126.118 129.647 131.543 131.993 132.369 134.067 135.344 132.466 129.144 127.937 131.517 127.425 127.382 128.544 127.353 127.118 127.327 129.959 136.707 133.508 129.488 127.744 127.926 128.291 128.667 128.755 129.031 131.652 134.168 131.433 132.032 132.315 132.356 132.767 134.8 134.646 133.47 132.806 132.284 132.498 133.005 134.202 133.177 132.51 132.678 133.005 133.263 134.262 137.611 135.47 136.521 139.505 137.933 136.048 134.655 134.296 134.381 134.687 134.914 135.339 135.34 135.47 135.233 135.453 135.866 137.369 137.69 139.868 140.871 140.282 138.791 136.895 136.866 138.411 137.902 138.38 138.619 138.637 139.012 139.05 139.056 139.061 139.04 138.939 138.787 138.583 138.54 138.573 138.597 138.712 139.12 139.356 139.786 140.516 140.881 141.029 141.069 141.43 141.846 141.762 142.077 142.279 142.393 142.59 142.818 143.167 143.319 143.307 143.251 -9999 143.157 143.164 143.186 143.241 143.248 143.166 143.174 143.489 143.678 143.911 144.935 146.653 146.94 147.069 146.405 146.551 145.798 144.915 144.998 145.269 145.584 146.948 147.571 146.171 146.183 146.269 146.583 146.823 147.067 147.313 147.331 147.295 147.324 147.356 147.251 147.339 147.356 147.22 147.39 147.567 147.433 147.508 147.538 147.639 147.917 148.157 148.437 148.664 148.957 149.225 149.31 149.514 149.488 149.55 149.684 149.805 150.446 153.369 155.914 156.231 156.541 156.893 157.435 158.987 159.565 159.216 153.837 152.624 152.433 151.097 150.866 150.51 150.489 150.515 150.623 150.671 150.642 152.288 156.002 159.676 160.136 155.066 153.691 153.292 153.024 153.258 153.466 153.548 153.575 153.717 153.884 154.182 154.253 154.379 154.393 154.461 154.62 154.947 155.958 158.058 164.07 163.791 159.967 158.609 158.08 158.132 158.211 158.33 158.538 158.833 159.276 161.609 161.494 159.868 159.066 158.411 158.099 158.009 157.987 157.866 157.968 157.992 158.09 158.143 158.368 158.414 158.448 158.592 158.75 158.786 158.809 158.85 158.891 158.954 159.155 159.235 159.254 159.199 159.28 159.349 159.42 159.562 159.527 159.647 159.782 159.997 160.104 160.318 160.394 160.256 160.255 160.339 160.515 160.67 160.652 160.57 160.599 160.679 160.827 160.803 160.763 160.791 160.801 160.829 161.609 163.752 165.89 167.438 165.912 163.813 161.701 159.44 159.027 157.903 157.89 160.354 163.286 163.201 163.027 160.547 158.095 157.359 157.334 157.201 157.107 157.169 157.135 157.42 157.257 158.39 161.769 162.683 162.266 161.254 158 156.727 156.871 157.954 158.243 159.034 159.572 158.043 156.583 156.453 156.314 156.289 156.343 156.176 156.135 156.112 156.118 156.133 156.063 156.013 155.949 155.912 155.864 155.903 155.961 155.877 155.816 155.794 155.726 155.631 155.651 155.4 155.287 155.87 155.502 155.252 154.743 154.719 154.619 154.685 155.561 154.326 154.387 155.155 155.538 155.512 155.07 154.798 154.488 154.681 154.739 154.72 154.587 154.57 154.744 154.655 154.674 154.74 155.875 155.042 154.46 154.466 154.728 155.569 154.801 156.735 157.578 159.037 158.321 157.24 156.677 156.512 155.271 156.303 156.17 155.848 154.964 155.171 155.128 156.455 158.318 157.425 156.429 154.84 154.683
125.736 125.129 126.513 128.321 133.485 129.544 130.022 132.092 130.329 128.683 126.445 128.1 128.77 128.871 129.179 128.007 127.252 127.935 135.653 136.759 132.091 127.563 127.551 127.798 128.74 128.768 128.926 128.98 131.559 132.746 131.171 134.266 134.141 136.17 133.856 132.925 133.138 131.911 131.582 131.608 132.059 132.348 134.638 133.032 132.205 131.923 132.728 134.497 136.658 139.265 137.394 135.849 136.978 134.79 133.919 133.978 134.142 134.148 134.247 134.656 134.9 135.166 135.325 135.593 135.997 135.6 137.014 138.861 140.117 140.766 140.548 139.341 137.708 136.773 137.64 137.343 137.642 137.918 138.162 138.542 138.733 138.957 139.005 139.043 138.929 138.904 138.832 -9999 138.633 138.623 138.67 138.846 139.175 139.585 139.977 140.577 140.715 140.778 140.987 141.318 141.409 142.038 142.45 142.568 142.759 142.765 142.816 143.027 143.15 143.208 143.226 143.201 143.135 143.174 143.224 143.219 143.182 143.13 143.194 143.394 143.312 143.643 144.395 145.129 145.737 146.209 146.842 145.738 144.676 144.899 145.131 145.345 145.765 146.504 145.95 145.974 146.144 146.319 146.73 147.098 147.335 147.305 147.24 147.239 147.392 147.259 147.32 147.426 147.322 147.333 147.378 147.223 147.383 147.523 147.617 147.643 147.704 148.039 148.233 148.597 148.976 149.017 149.117 149.28 149.441 149.609 149.667 149.812 150.183 151.095 154.337 156.029 156.897 158.162 158.308 158.157 156.069 151.63 150.673 152.432 151.696 150.8 150.441 150.418 150.496 150.626 150.769 150.829 151.752 154.484 157.443 160.198 161.109 160.014 154.023 153.095 153.301 153.308 153.401 153.429 153.496 153.723 153.895 153.904 153.982 154.035 154.241 154.437 154.574 154.976 156.313 159.029 158.285 157.836 158.459 158.019 158.406 158.434 158.408 158.784 158.772 158.752 159.363 158.742 158.905 158.835 158.319 158.001 157.84 157.775 157.773 157.863 157.915 158.001 158.066 158.179 158.213 158.378 158.523 158.637 158.671 158.787 158.794 158.881 159.04 159.107 159.17 159.207 159.35 159.324 159.22 159.548 159.719 159.657 159.479 159.54 159.805 160.004 160.093 160.135 160.163 160.117 160.3 160.445 160.545 160.587 160.598 160.578 160.617 160.602 160.668 160.807 160.755 160.688 160.797 161.042 161.976 163.589 165.254 163.04 164.096 162.044 159.396 158.974 158.255 158.328 160.111 160.899 163.251 163.786 161.68 157.92 157.532 157.416 -9999 157.214 157.204 157.269 157.701 157.938 158.419 159.984 161.56 162.873 162.039 159.102 156.87 156.781 157.144 157.515 157.303 157.06 156.842 156.476 157.322 156.301 156.229 156.079 155.953 155.923 155.863 155.878 155.917 155.936 155.826 155.725 155.733 155.826 155.739 155.689 155.685 155.642 155.647 155.464 155.528 155.432 155.147 154.939 155.946 155.626 154.967 154.723 154.683 155.036 155.719 158.086 158.09 156.574 155.297 154.827 155 154.719 154.629 154.277 154.521 154.593 154.548 154.392 154.421 154.89 154.75 155.188 155.498 156.154 155.226 154.357 154.863 157.008 156.353 158.16 159.408 160.646 160.803 160.558 159.255 158.006 156.847 155.741 155.573 156.755 158.094 156.875 156.946 156.753 156.079 156.388 157.081 156.46 154.78 154.666
124.971 124.658 126.024 128.388 129.846 129.494 129.033 129.163 127.066 127.614 127.409 126.622 127.525 135.597 132.561 127.793 127.317 127.917 129.669 132.254 134.478 128.478 127.588 127.707 128.642 129.528 131.308 129.825 129.787 129.751 130.32 130.789 133.206 135.445 135.75 133.806 134.215 132.027 131.346 131.589 132.958 133.804 134.439 134.463 134.084 132.544 132.528 134.106 133.934 134.737 137.582 138.524 136.351 133.999 133.617 133.812 134.015 134.138 134.15 134.566 134.826 134.97 135.11 135.317 135.292 135.347 135.914 138.471 139.979 140.783 140.639 139.778 138.568 137.125 137.081 137.178 138.027 138.039 138.107 138.248 138.532 138.846 138.953 139.071 139.052 139.046 139.06 138.945 138.726 138.645 138.632 138.586 138.893 139.159 139.67 140.036 140.345 140.46 140.584 140.861 141.082 141.89 144.577 143.909 145.437 143.799 142.793 142.827 143.036 143.254 143.214 143.241 143.141 143.178 -9999 143.191 143.151 143.162 143.149 143.116 143.167 143.269 143.718 143.966 144.433 144.867 146.504 145.228 144.752 144.828 145.014 145.192 145.359 145.513 145.664 145.836 146.003 146.139 146.485 147.071 147.172 147.242 147.249 147.306 147.386 147.304 147.266 147.389 147.377 147.335 147.35 147.328 147.396 147.502 147.621 147.542 147.63 147.842 147.878 148.104 148.462 148.63 148.866 149.062 149.244 149.5 149.61 149.703 149.719 149.883 150.596 152.737 155.235 156.661 156.429 155.897 152.846 149.906 151.097 152.511 152.679 151.125 150.342 150.419 150.41 150.698 150.85 151.038 151.012 152.588 154.897 157.96 160.392 157.131 153.54 153.002 153.167 153.212 153.258 153.204 153.308 153.529 153.578 153.521 153.716 153.727 153.901 154.132 154.21 154.386 154.753 155.49 155.811 156.139 156.393 157.2 158.494 158.681 158.507 158.328 158.365 158.117 158.264 158.264 158.201 158.018 157.89 157.867 157.772 157.777 157.828 157.828 157.835 157.925 157.987 158.126 158.063 158.234 158.444 158.513 158.594 158.684 158.918 158.884 158.925 158.998 159 159.113 159.299 159.367 159.568 159.8 160.613 159.917 159.376 159.457 159.81 160.035 159.904 159.871 159.852 160.092 160.205 160.33 160.269 160.427 160.5 160.588 160.69 160.634 160.437 160.367 160.648 160.594 160.768 160.921 161.116 161.487 162.246 160.123 160.205 160.186 159.403 159.035 158.719 158.82 160.061 161.871 163.632 163.966 161.204 158.162 157.658 157.571 -9999 -9999 -9999 157.209 157.466 157.571 157.808 158.21 160.226 162.958 162.271 157.963 156.542 156.63 156.805 157.22 156.414 156.46 156.38 156.484 159.751 157.42 156.626 156.015 155.877 155.807 155.755 155.795 155.792 155.642 155.684 155.678 155.665 155.625 155.606 155.555 155.495 155.465 155.46 155.347 155.274 155.21 155.156 154.928 154.955 154.622 154.824 154.771 155.046 156.501 158.754 159.718 159.941 157.403 156.357 154.246 154.138 154.6 155.024 154.19 154.429 -9999 154.502 154.338 154.383 155.049 154.928 154.922 154.587 154.82 155.293 154.948 156.266 158.279 159.151 160.057 161.631 162.149 161.634 161.1 159.825 158.773 157.232 155.973 156.769 158.434 158.799 159.156 157.845 157.499 155.563 154.69 154.866 154.712 154.704 154.565
125.317 124.924 127.081 129.034 130.378 129.234 127.811 127.684 127.186 128.209 128.308 127.099 130.786 138.756 131.791 127.044 127.035 127.841 129.409 131.524 131.849 130.354 128.22 127.939 128.344 130.642 135.071 130.639 131.863 131.142 131.24 131.68 130.416 132.741 134.354 134.506 133.372 131.941 131.265 131.245 131.888 133.661 134.679 135.639 135.941 134.531 133.023 133.568 132.905 133.011 133.975 136.364 134.818 133.463 133.583 133.852 133.963 134.087 134.165 134.394 134.598 134.874 134.865 134.693 134.786 134.985 135.522 137.469 139.371 140.112 140.481 139.995 139.241 138.307 138.035 137.963 138.717 137.821 138.289 138.181 138.288 138.612 139.007 139.123 139.196 139.223 139.14 138.986 138.87 -9999 138.546 138.381 138.665 138.916 139.236 139.674 139.882 140.123 140.292 140.573 140.8 141.242 142.746 142.799 144.432 143.165 142.579 142.626 142.785 143.01 143.197 143.263 143.475 143.315 143.27 143.235 143.222 143.221 143.234 143.276 143.223 143.22 143.346 143.677 143.989 144.365 144.554 144.695 144.676 144.774 144.952 145.195 145.3 145.213 145.396 145.511 145.536 145.737 145.952 146.346 146.81 147.049 147.198 147.234 147.275 147.248 147.199 147.447 147.414 147.301 147.354 147.481 147.477 147.477 147.542 147.544 147.576 147.802 147.853 148.009 148.148 148.356 148.649 148.798 149.008 149.316 149.418 149.588 149.71 149.64 149.74 149.982 151.019 153.283 154.693 151.923 151.176 150.558 151.615 152.678 152.659 151.396 150.256 150.561 150.573 151.027 151.544 151.605 151.341 151.768 152.166 153.229 152.952 153.168 152.971 152.964 153.071 153.115 153.146 153.137 153.139 153.335 153.754 153.604 153.551 153.561 153.678 153.896 153.974 154.191 154.314 154.379 154.735 155.009 155.392 155.955 156.767 158.231 158.046 157.831 158.453 158.483 158.269 158.136 157.825 157.821 157.837 157.793 157.626 157.689 157.871 157.954 157.827 157.964 158.164 158.132 158.099 158.153 158.334 158.628 158.764 159.546 159.269 158.863 158.721 158.682 158.774 158.799 159.3 159.396 159.541 160.424 160.841 160.297 159.411 160.179 161.292 160.932 159.123 158.384 159.074 159.797 159.976 160.152 160.22 160.379 160.559 160.376 161.093 160.672 160.134 160.159 160.353 160.66 160.818 160.813 160.613 160.564 160.16 159.938 159.717 159.266 159.266 159.318 159.249 158.924 158.867 160.016 164.155 164.342 160.256 157.836 157.657 157.506 -9999 -9999 156.971 156.85 156.781 156.752 156.678 157.463 161.146 163.712 161.687 157.2 156.501 156.365 156.313 156.482 156.227 156.187 156.119 156.537 157.418 156.024 155.975 155.784 155.758 155.68 155.68 155.687 155.56 155.509 155.53 155.644 155.583 155.483 155.436 155.412 155.361 155.255 155.232 155.127 155.025 154.863 155.076 154.92 154.517 154.46 154.611 154.485 155.171 156.743 158.659 160.895 160.538 156.95 155.769 154.379 153.824 154.012 154.373 154.395 -9999 154.418 154.513 154.624 154.979 154.735 154.579 155.128 154.916 154.337 154.96 155.292 155.949 156.81 158.436 161.459 161.684 161.575 160.689 160.199 159.649 159.494 156.029 155.104 155.831 157.558 157.87 160.508 161.563 160.133 155.858 155.742 155.072 154.545 154.524 154.585
125.207 124.653 125.365 127.019 129.271 127.976 126.999 127.744 128.826 130.456 130.56 128.608 130.812 131.951 127.108 126.536 129.45 130.44 129.268 130.129 128.937 130.585 131.287 129.443 128.727 129.568 131.403 133.236 134.801 133.705 139.943 133.259 129.434 129.913 131.864 132.378 133.035 131.363 131.034 131.167 131.298 133.192 134.478 135.627 136.31 135.596 134.752 133.796 132.828 132.592 132.964 134.319 133.622 133.724 133.646 133.785 133.927 134.019 -9999 -9999 -9999 -9999 134.734 134.576 134.535 134.781 135.108 136.089 137.626 139.08 140.653 139.325 137.423 137.32 138.466 138.669 138.65 138.006 137.877 137.68 137.964 138.426 139.378 139.159 139.259 139.576 139.254 138.924 139.003 -9999 138.607 138.592 138.737 138.826 139.02 139.344 139.723 139.881 140.057 140.263 140.446 140.75 141.23 142.715 145.016 142.527 142.273 142.454 142.617 142.782 143.001 143.133 143.308 143.345 143.302 143.24 143.247 143.25 143.325 143.287 143.259 143.181 143.069 143.342 143.788 144 144.244 144.475 144.593 144.735 144.791 144.952 145.234 145.062 145.213 145.346 145.51 145.653 145.696 145.932 146.456 146.843 147.264 147.184 147.081 147.183 147.307 147.537 147.348 147.283 147.317 147.4 147.446 147.401 147.49 147.621 147.679 147.741 147.845 148.015 148.073 148.164 148.318 148.548 148.725 148.985 149.211 149.41 149.507 149.602 149.712 149.735 149.811 149.976 151.202 150.539 150.306 151.882 152.157 152.804 152.787 152.412 150.68 150.501 150.808 152.008 152.673 152.562 151.738 151.922 152.791 152.275 152.367 152.75 152.815 152.972 153.11 153.117 153.091 153.375 154.211 154.442 154.341 153.53 153.595 153.707 153.755 153.671 153.955 154.043 154.022 153.967 154.198 154.324 154.607 154.925 155.293 155.816 156.094 156.497 157.19 157.618 157.233 157.413 157.551 157.737 157.902 157.91 157.631 157.594 158.054 157.957 157.852 158.017 158.009 157.933 157.974 157.938 158.083 158.452 158.476 158.789 158.562 158.439 158.303 158.285 158.484 158.488 158.927 159.226 160.544 160.971 161.052 161.014 161.383 163.151 164.8 162.919 159.308 158.402 158.767 159.06 159.596 159.909 160.046 160.42 160.284 159.847 159.805 159.775 159.734 159.678 159.729 159.959 159.99 159.959 159.576 159.674 160.137 160.287 159.793 159.107 158.74 159.23 159.287 158.531 157.991 160.097 163.785 164.108 161.285 158.924 158.294 157.657 157.299 -9999 156.757 156.662 156.523 156.442 156.468 157.095 161.809 163.77 162.079 157.78 156.991 156.421 156.436 157.279 158.14 156.926 156.038 155.985 155.821 155.758 155.769 155.653 155.561 155.53 155.592 155.536 155.393 155.367 155.409 155.44 155.461 155.355 155.29 155.278 155.176 155.148 155.056 154.871 154.835 154.724 154.518 154.508 154.44 154.425 154.345 154.276 155 157.672 159.567 160.755 160.093 156.61 153.96 153.916 153.824 153.854 -9999 -9999 154.426 154.53 154.457 154.393 154.5 154.394 154.911 155.434 157.311 155.851 154.885 154.707 154.753 154.979 157.759 159.844 159.78 159.134 157.638 156.062 156.469 157.023 154.975 154.442 154.507 155.012 156.415 160.173 160.461 160.825 160.117 160.277 156.21 154.395 154.343 154.569
125.11 124.8 124.738 125.776 126.879 126.878 125.954 127.948 130.467 132.554 132.28 128.898 127.157 126.828 126.806 126.691 128.228 134.474 129.179 128.442 128.589 129.06 128.943 130.098 130.251 131.339 133.052 135.359 135.108 132.668 132.006 129.328 128.784 129.526 131.243 132.249 132.149 131.264 131.456 131.158 131.197 132.209 134.366 135.735 136.426 135.797 134.757 132.666 132.307 132.549 132.466 133.012 133.301 133.362 133.489 133.651 133.867 133.923 133.965 -9999 -9999 -9999 -9999 134.509 134.458 134.53 134.742 135.16 135.582 136.109 137.89 137.381 136.126 136.056 137.086 138.386 138.259 137.873 137.246 137.218 137.634 138.587 140.357 139.499 139.185 139.806 139.561 139.013 139.091 139.04 -9999 138.684 138.697 138.709 138.865 139.054 139.229 139.649 139.879 140.11 140.33 140.628 141.1 142.164 143.247 142.445 142.084 142.292 142.48 142.574 142.686 142.887 143.08 143.309 143.209 143.191 143.227 143.241 143.252 143.214 143.171 143.136 143.132 143.145 143.423 143.694 143.994 144.137 144.491 144.821 144.737 144.665 144.679 144.752 144.928 145.064 145.658 146.102 145.625 145.684 145.858 146.338 147.81 147.412 147.075 147.071 147.216 147.337 147.25 147.238 147.268 147.288 147.412 147.47 147.429 147.663 147.686 147.634 147.768 147.981 147.973 147.956 148.118 148.28 148.452 148.785 149.006 149.222 149.372 149.455 149.574 149.628 149.655 149.705 149.741 149.78 150.024 151.134 151.853 152.57 152.444 151.203 150.379 150.075 150.371 152.126 152.778 152.856 152.751 153.59 154.584 152.475 152.222 152.448 152.637 152.964 153.129 153.288 154.944 156.986 158.24 157.459 155.795 154.627 154.567 155.795 156.373 155.146 154.333 153.981 154.349 154.047 154.024 154.036 154.131 154.302 154.531 154.658 155.268 155.674 155.957 156.154 156.444 156.88 157.276 157.388 157.58 157.737 157.429 157.162 157.588 157.746 157.559 157.568 157.663 157.538 157.548 157.28 157.397 157.586 157.67 157.896 157.654 157.855 157.917 158.016 158.059 158.075 158.553 159.449 160.493 161.571 161.163 160.548 161.672 163.99 165.118 163.247 159.698 158.44 158.571 158.715 158.888 158.773 159.337 160.404 159.867 159.188 159.191 159.017 159.012 158.981 159.084 159.101 159.106 159.192 158.986 159.436 161.805 161.153 160.282 159.075 158.454 158.238 158.267 157.9 157.758 160.499 163.986 163.817 163.01 161.26 158.431 157.24 157.354 -9999 156.805 156.753 156.687 156.558 156.603 158.506 161.844 162.389 161.299 160.861 157.858 156.977 156.453 157.497 158.95 157.074 155.882 155.752 155.598 155.595 155.678 155.621 155.484 155.471 155.409 155.303 155.341 155.285 155.202 155.26 155.211 155.124 155.021 155.033 154.965 154.948 154.95 154.869 154.828 154.917 154.675 154.483 154.5 154.466 154.317 154.434 157.376 159.581 160.707 160.734 158.872 154.178 153.76 153.927 154.38 154.036 -9999 154.253 154.381 154.427 154.348 154.061 154.276 154.409 155.277 157.871 158.496 158.938 157.985 155.983 154.736 155.366 158.027 156.284 156.77 156.672 155.726 154.9 154.664 155.582 155.673 155.118 154.308 154.241 154.474 155.884 157.182 160.815 161.331 159.827 155.396 154.274 154.349 154.492
125.808 125.295 127.153 127.274 125.638 125.877 126.91 128.972 129.48 132.232 132.071 129.698 126.301 126.917 128.537 128.277 130.004 130.343 128.079 128.997 128.958 129.34 130.69 130.448 132.149 133.68 133.249 136.077 134.612 132.422 129.445 128.831 129.937 130.619 131.616 132.167 131.336 130.722 131.151 131.369 131.274 132.559 134.746 136.056 136.574 135.763 134.012 132.104 132.158 132.478 133.173 133.134 133.036 133.193 133.317 133.59 133.763 133.88 133.92 134.005 134.201 134.461 134.762 134.596 134.378 134.209 134.372 134.595 135.005 135.313 135.753 136.059 135.889 135.943 136.63 138.169 137.062 137.141 137.113 137.158 137.499 139.08 141.237 138.515 138.71 139.05 139.501 139.305 139.243 -9999 -9999 -9999 138.696 138.719 138.69 138.731 138.794 139.129 139.637 139.929 140.223 140.529 141.051 141.422 142.092 141.854 141.844 141.962 142.192 142.356 142.529 142.694 142.914 143.086 143.143 143.163 143.194 143.186 143.126 143.058 143.098 143.167 143.212 143.196 143.219 143.39 143.576 143.715 144.031 144.849 144.523 144.309 144.204 144.523 144.729 145.059 145.383 145.68 145.621 145.609 145.882 146.327 147.241 146.978 146.973 146.981 147.096 147.144 147.095 147.146 147.23 147.295 147.372 147.423 147.45 147.617 147.611 147.522 147.54 147.636 147.834 147.83 147.944 148.067 148.222 148.497 148.743 148.961 149.092 149.273 149.43 149.604 149.637 149.719 149.717 149.678 149.672 150.021 150.379 151.127 150.744 149.904 149.979 149.945 150.093 150.53 152.567 153.087 153.082 152.339 152.353 151.924 152.073 152.338 152.584 152.833 153.062 154.254 157.661 159.952 159.581 158.879 156.877 156.7 158.362 158.836 159.336 158.576 156.96 154.867 156.852 156.302 154.835 153.992 154.16 154.111 154.141 154.442 154.688 154.729 154.856 155.216 155.735 155.897 156.112 156.47 156.301 156.421 156.37 156.561 156.672 156.686 156.913 156.908 156.757 156.672 157.106 156.61 156.762 157.077 157.169 157.297 157.38 157.535 157.713 157.776 157.744 157.92 158.279 159.237 160.082 160.501 160.182 158.778 159.434 164.069 165.224 163.256 159.441 158.561 158.294 158.242 158.379 158.43 158.85 159.263 159.386 158.985 158.879 158.831 158.845 158.715 158.722 158.738 158.722 158.678 158.731 160.334 163.158 160.577 161.459 159.176 158.199 157.922 157.896 157.714 157.863 159.944 162.787 162.145 159.838 161.078 158.15 156.995 157.107 -9999 156.952 157.023 157.113 156.863 156.865 158.865 159.61 159.549 157.854 158.622 156.983 155.873 155.962 156.067 157.778 157.081 156.311 155.692 155.577 155.54 155.44 155.484 155.448 155.31 155.227 155.191 155.291 155.224 155.11 155.098 155.044 154.967 154.911 154.882 154.696 154.747 154.795 154.773 155.436 156.681 155.551 154.604 154.784 154.502 154.82 155.92 159.093 160.514 161.279 160.552 156.852 154.463 153.961 153.988 154.108 -9999 -9999 154.12 154.379 154.602 153.925 154.204 155.436 155.093 156.82 159.953 161.103 160.706 159.438 155.884 154.065 154.373 154.952 155.197 156.04 155.085 155.239 154.263 154.323 155.331 156.42 155.168 154.286 154.261 154.321 154.4 156.527 158.659 157.597 156.671 155.099 154.441 154.46 154.371
126.467 130.63 128.729 129.623 126.963 126.708 127.639 128.826 129.124 128.631 130.793 134.506 128.478 126.751 129.068 129.051 127.221 127.205 127.832 127.927 128.179 129.177 130.235 130.71 135.423 133.767 133.008 134.967 135.764 130.759 128.831 129.323 133.726 131.355 131.125 130.688 130.544 130.697 131.09 131.012 131.115 132.614 135.316 136.095 136.249 135.451 133.354 131.905 132.126 132.422 133.797 134.416 133.288 133.199 133.427 133.964 133.772 133.909 133.847 134.012 134.295 134.634 135.015 134.579 134.351 134.21 134.291 134.383 134.699 135.01 135.01 135.059 135.27 135.351 135.931 136.382 136.424 137.091 137.056 137.281 137.905 140.825 142.805 140.545 138.782 139.356 139.817 139.468 139.357 -9999 -9999 -9999 -9999 138.704 138.646 138.651 138.647 138.623 139.372 139.693 139.963 140.226 141.265 143.143 142.433 141.502 141.453 141.657 142.009 142.223 142.324 142.503 142.758 142.958 143.064 143.148 143.208 143.149 143.114 143.016 143.079 143.166 143.249 143.212 143.176 143.145 143.166 143.406 143.644 143.84 143.865 143.915 144.008 144.176 144.632 144.931 145.01 145.314 145.401 145.544 146.186 147.474 147.162 145.991 146.565 146.868 147.042 147.097 147.12 147.138 147.175 147.278 147.393 147.359 147.356 147.512 147.543 147.64 147.504 147.533 147.644 147.682 147.803 147.807 148.069 148.353 148.452 148.661 148.858 148.972 149.166 149.43 149.555 149.607 149.617 149.642 149.73 149.675 149.823 149.945 149.889 149.862 149.845 149.881 149.937 150.362 151.532 153.858 153.145 152.046 151.692 151.66 151.89 152.226 152.478 152.682 153.125 154.821 159.081 159.435 159.721 159.123 158.44 159.262 160.53 160.365 160.187 159.808 158.937 158.923 159.24 158.893 155.78 154.734 155.667 154.406 154.453 154.408 154.283 154.411 154.456 154.609 154.876 155.037 155.094 155.147 155.185 155.742 155.807 155.472 155.781 156.158 156.136 156.018 156.228 156.305 156.367 156.34 156.559 156.89 156.916 156.979 157.072 157.267 157.46 157.567 157.53 157.645 157.729 157.993 158.615 159.095 158.734 158.322 159.61 163.365 164.081 162.575 159.963 158.629 158.204 158.188 158.437 158.271 158.475 158.715 158.843 158.893 158.849 158.884 158.724 158.428 158.513 158.547 158.421 158.439 158.488 160.26 161.581 160.14 159.921 158.845 158.418 157.866 157.785 157.743 157.74 157.83 159.002 159.34 158.926 158.639 156.513 156.616 156.73 -9999 156.822 156.848 156.794 156.335 156.303 157.729 157.803 156.939 156.494 156.771 155.669 154.99 155.141 155.532 156.047 156.759 158.149 156.031 155.402 155.288 155.288 155.322 155.226 155.156 155.116 155.064 155.022 155.01 155.045 154.941 154.932 154.865 154.714 154.694 154.631 154.688 154.655 154.642 155.475 155.654 155.103 155.467 154.685 155.066 155.28 157.285 159.123 160.423 160.255 158.468 155.341 154.744 154.28 154.037 153.993 -9999 153.982 153.777 153.817 153.857 153.756 154.46 156.572 158.385 159.957 161.983 161.722 160.873 159.037 154.552 154.005 154.297 154.382 154.251 154.989 154.989 154.819 154.221 154.459 155.782 155.976 155.003 154.44 154.413 154.213 154.24 154.674 155.084 154.943 155.293 154.606 154.847 155.131 154.464
127.702 129.666 129.1 133.261 127.112 126.387 127.552 128.518 128.114 128.259 129.987 131.995 128.067 126.592 127.542 127.631 126.527 128.866 127.377 127.256 127.42 128.638 129.328 129.487 131.89 131.65 135.05 134.216 137.132 134.147 128.486 128.057 129.092 130.324 130.295 130.381 130.386 130.616 130.844 131.221 131.088 132.877 134.667 135.09 135.295 135.095 132.662 131.912 132.298 132.382 133.082 133.792 133.168 133.017 134.016 134.475 133.623 133.585 133.735 133.861 134.077 134.537 135.021 134.238 -9999 134.246 134.265 134.394 134.556 134.748 134.597 134.775 135.072 135.255 135.601 135.881 136.12 136.766 137.136 137.696 139.304 142.625 143.815 143.761 140.933 139.327 139.397 139.277 139.219 -9999 -9999 -9999 -9999 -9999 138.656 138.725 138.814 138.762 139.167 139.619 139.756 139.957 140.881 142.113 141.617 140.977 141.084 141.309 141.857 142.043 142.135 142.216 142.469 142.713 142.873 142.962 143.084 143.127 143.158 143.143 143.14 143.187 143.226 143.208 143.171 143.129 143.141 143.119 143.254 143.419 143.678 143.789 143.875 144.248 144.797 145.008 145.048 145.159 145.324 145.53 146.746 147.825 147.271 146.241 146.237 146.359 146.764 147.044 147.196 147.154 147.101 147.259 147.321 147.281 147.39 147.4 147.648 149.326 148.766 147.864 147.666 147.642 147.74 147.834 147.953 148.059 148.204 148.369 148.581 148.735 148.891 149.107 149.252 149.411 149.482 149.542 149.639 149.627 149.6 149.695 149.775 149.771 149.726 149.734 149.763 150.129 151.282 152.805 152.014 151.369 151.631 151.543 151.724 151.919 152.313 152.542 152.978 154.658 157.108 158.062 157.84 156.716 157.696 159.411 160.072 160.247 160.22 158.274 157.054 160.236 160.667 159.762 157.03 154.98 158.03 157.217 156.788 154.813 154.808 155.032 155.054 155.42 154.975 154.772 154.874 154.823 154.858 155.735 156.393 155.367 155.458 155.692 155.768 155.784 155.909 156.031 156.09 156.143 156.368 156.586 156.679 156.753 156.782 156.966 157.187 157.244 157.263 157.304 157.285 157.459 157.875 157.917 158.014 158.028 158.837 160.222 163.128 160.65 159.128 159.971 159.577 159.414 158.801 158.723 158.353 158.419 158.51 158.634 158.809 158.814 158.478 158.368 158.407 158.492 158.38 158.323 158.43 158.963 158.856 158.991 159.283 159.831 160.862 159.645 157.932 157.771 157.829 157.942 158.208 158.473 158.364 157.578 156.297 156.342 156.671 -9999 -9999 -9999 156.198 155.823 156.042 156.784 157.411 156.362 155.676 156.747 156.163 154.785 154.939 155.141 155.288 155.479 156.696 155.752 155.208 155.203 155.078 155.047 155.018 155.027 154.985 154.936 154.886 154.886 154.854 154.795 154.791 154.638 154.568 154.557 154.522 154.552 154.425 154.495 155.171 155.018 154.332 154.445 155.257 155.724 154.913 154.912 157.289 158.334 157.144 154.731 154.115 154.109 154.013 153.879 153.955 -9999 153.808 153.694 153.477 153.729 153.718 154.65 157.98 160.131 161.298 161.534 161.057 159.727 156.378 154.276 154.141 154.634 154.754 154.327 154.41 154.372 155.004 154.637 154.706 155.671 156.292 155.855 155.349 154.506 154.188 154.095 154.18 154.222 154.229 154.41 154.29 154.639 155.356 155.925
128.987 127.803 128.67 130.151 125.068 125.244 127.291 128.093 126.139 126.983 126.934 126.302 125.62 126.018 126.002 125.966 126.455 128.464 128.09 126.905 127.584 129.033 131.346 130.493 128.859 128.041 129.903 129.726 134.427 131.235 127.83 128.408 128.293 128.843 129.77 130.325 130.382 130.82 132.119 132.561 132.248 131.523 131.065 131.569 133.347 134.612 132.474 131.824 132.062 132.178 132.159 132.453 132.76 133.057 134.168 135.096 134.097 133.392 133.757 133.805 133.871 133.683 133.677 133.661 133.915 -9999 134.188 134.329 134.474 134.57 134.653 134.922 135.193 135.367 136.128 136.489 136.754 136.908 137.198 137.872 140.417 142.704 144.282 143.888 142.431 138.582 138.562 138.902 138.923 138.936 -9999 -9999 -9999 -9999 -9999 138.719 138.718 138.631 138.95 139.339 139.491 139.663 140.079 140.403 140.604 140.707 140.862 141.098 141.28 141.581 141.837 142.005 142.284 142.511 142.627 142.757 142.867 143.118 143.161 143.287 143.27 143.276 143.296 143.302 143.269 143.191 143.117 143.05 143.185 143.292 143.459 143.704 143.777 144.349 145.385 145.123 144.971 145.119 145.503 145.989 147.35 147.486 147.306 146.386 146.025 145.93 146.455 146.974 147.144 147.117 147.115 147.206 147.307 147.272 147.256 147.39 147.788 149.395 149.922 149.708 148.062 147.684 147.724 147.794 147.808 147.844 147.9 148.106 148.382 148.438 148.591 148.825 149.043 149.198 149.354 149.436 149.552 149.66 149.581 149.56 149.604 149.656 149.646 149.647 149.676 149.987 150.455 150.956 151.328 151.903 152.26 151.404 151.604 151.781 152.139 152.333 152.727 153.271 155.069 155.404 154.708 153.267 153.957 155.574 158.462 158.261 158.139 156.965 158.461 160.103 160.633 160.128 158.483 155.509 159.137 159.963 159.25 156.54 157.523 158.985 158.647 158.073 155.485 154.783 154.74 154.829 155.033 156.904 156.217 155.841 155.84 156.885 156.261 155.921 156.242 156.493 157.098 156.944 156.606 156.418 156.489 156.582 156.569 156.722 156.956 157.035 157.07 157.316 157.284 157.504 158.331 158.099 157.613 157.843 158.228 158.596 160.138 160.73 161.425 163.546 163.361 162.506 162.131 159.17 158.281 158.249 158.264 158.33 158.941 158.742 158.286 158.098 158.253 158.299 158.24 158.185 158.204 158.19 158.395 159.005 160.147 162.288 166.322 162.604 157.875 157.553 157.594 158.005 158.835 159.635 159.381 158.68 156.555 156.627 157.159 157.127 -9999 156.197 155.882 155.679 155.859 155.778 156.713 158.226 158.641 159.314 159.351 156.613 154.597 154.738 154.838 155.045 155.12 155.082 155.027 155.046 154.99 154.948 154.858 154.812 154.812 154.791 154.784 154.723 154.668 154.654 154.644 154.466 154.398 154.492 154.488 154.393 154.39 154.509 154.813 154.164 153.85 153.819 153.805 153.868 153.629 153.562 154.42 155.448 155.003 153.921 153.686 153.638 153.971 153.938 153.874 153.717 153.816 154.189 153.969 153.729 155.792 157.305 159.722 161.18 161.603 160.972 157.952 156.497 154.746 154.385 154.237 154.406 154.451 154.438 154.376 154.324 154.425 154.523 154.424 154.674 155.478 156.072 155.87 154.243 154.182 154.116 154.152 154.278 154.146 153.787 153.908 154.104 154.552 156.674
124.669 125.333 126.407 124.726 124.177 126.644 127.594 127.332 126.845 127.292 127.588 129.973 126.476 126.005 125.901 125.876 126.048 126.179 126.996 129.633 129.646 130.271 133.276 131.226 127.657 126.827 127.179 130.326 131.937 127.987 128.462 133.133 128.145 127.857 129.012 130.608 130.347 130.648 131.929 131.509 132.216 131.862 131.588 131.798 131.769 132.191 131.486 131.518 131.551 131.801 132.023 132.221 132.472 132.792 133.352 133.576 133.208 133.148 134.854 137.065 136.341 134.786 133.419 133.614 133.776 133.84 134.073 133.852 134.251 134.719 134.9 135.363 136.287 136.463 136.999 137.394 137.267 137.198 137.272 137.834 140.756 142.92 143.371 143.081 140.811 138.203 138.308 138.72 138.923 138.988 -9999 -9999 -9999 -9999 -9999 -9999 138.734 138.792 138.947 139.067 139.168 139.429 139.772 140.035 140.285 140.529 140.762 140.898 141.051 141.189 141.568 141.64 142.105 142.285 142.408 142.562 142.661 142.903 143.074 143.205 143.35 143.325 143.331 143.373 143.372 143.282 143.106 142.949 142.996 143.033 143.231 143.569 143.873 144.393 144.864 144.745 144.797 145.167 -9999 146.23 146.526 146.296 146.499 146.061 145.698 145.928 146.524 147.095 147.463 147.153 147.046 147.028 147.194 147.319 147.46 148.184 149.558 150.139 150.311 149.61 148.432 147.989 147.753 147.716 147.685 147.711 147.793 147.919 147.997 148.047 148.353 148.574 148.875 149.021 149.24 149.277 149.365 149.573 149.506 149.436 149.529 149.579 149.585 149.602 149.708 149.954 150.112 150.297 150.667 151.342 151.33 151.257 151.46 151.653 151.959 152.254 152.702 153.671 154.64 153.751 152.84 152.692 153.251 155.266 155.365 154.564 155.666 155.322 155.85 158.308 158.953 158.906 157.417 157.738 160.365 159.79 158.629 156.052 159.893 160.606 160.923 159.79 156.539 155.078 155.75 157.526 157.399 159.338 159.772 158.52 159.255 159.214 158.923 156.879 157.119 159.821 160.228 159.978 157.355 156.913 158.334 158.903 157.643 156.598 157.286 158.543 159.121 160.311 160.118 158.712 158.768 158.295 157.6 157.681 158.798 158.849 159.385 160.742 162.143 164.159 164.889 164.213 162.716 159.333 158.134 158.104 158.085 158.146 158.366 158.436 158.181 158.041 157.988 157.949 158.004 157.963 157.896 157.767 157.955 158.364 159.411 164.515 166.425 161.865 157.654 157.179 156.856 156.678 158.849 160.766 161.007 161.245 158.806 157.386 157.467 157.28 156.991 156.226 155.555 155.475 155.977 155.898 156.528 158.931 159.627 160.763 160.175 157.55 154.738 154.532 154.549 154.486 154.708 155.034 155.044 154.752 154.813 154.779 154.724 154.626 154.552 154.638 154.599 154.517 154.416 154.453 154.349 154.263 154.348 154.342 154.261 154.294 154.299 154.638 154.703 153.793 153.715 153.58 152.876 152.575 153.105 153.484 153.364 153.578 153.644 153.544 153.3 153.348 153.697 153.849 -9999 153.51 153.609 153.753 153.753 154.077 155.916 157.943 158.473 160.341 160.516 157.782 154.498 154.28 154.376 154.393 154.261 154.222 154.749 154.878 154.669 154.493 155.079 154.822 154.669 155.633 155.9 156.418 156.064 154.739 154.082 154.014 153.98 154.458 155.522 153.799 153.892 153.829 153.998 155.225
124.981 127.273 128.824 127.553 125.311 126.364 131.007 128.616 127.886 129.562 129.396 130.479 129.357 125.157 125.447 125.767 126.02 125.892 126.452 129.585 130.463 129.344 130.407 130.319 126.955 126.734 127.469 130.466 133.214 128.177 128.519 131.725 129.083 127.498 129.102 130.148 130.34 130.127 130.379 130.615 132.12 132.757 134.208 133.962 132.198 131.138 131.19 131.273 131.502 131.831 131.96 132.362 132.482 132.61 132.723 132.74 132.611 133.14 137.224 139.834 140.141 139.18 135.404 134.065 134.138 133.877 133.926 133.902 134.349 134.936 136.437 136.882 136.812 137.237 137.649 137.851 137.231 137.459 137.957 139.622 142.26 142.813 142.177 141.297 139.387 138.171 138.561 138.785 138.942 -9999 -9999 138.813 138.872 138.983 -9999 -9999 -9999 138.973 138.96 138.972 139.119 139.234 139.455 139.75 140.023 140.34 140.606 140.817 140.928 141.037 141.263 141.703 141.899 141.967 142.141 142.388 142.478 142.756 142.939 143.089 143.248 143.228 143.267 143.392 143.299 143.109 142.972 142.881 142.849 142.954 143.108 143.416 144.04 144.341 144.474 144.606 144.763 -9999 -9999 145.781 146.138 146.097 145.987 145.914 145.781 145.986 -9999 147.309 147.769 147.382 147.035 146.983 147.1 147.343 147.685 148.312 149.719 150.123 150.109 149.251 148.193 148.519 147.837 147.636 147.61 147.718 147.706 147.808 147.895 147.961 148.066 148.336 148.635 148.77 148.875 149.062 149.157 149.372 149.345 149.428 149.485 149.523 149.537 149.592 149.837 150.13 150.277 150.354 150.901 151.498 151.381 150.86 151.157 151.501 151.78 151.991 152.431 153.668 154.984 154.877 153.247 152.601 153.114 154.646 154.524 153.072 153.279 153.396 154.156 155.897 155.81 156.667 156.335 158.323 158.509 158.057 158.408 159.235 161.304 161.686 161.567 160.812 156.297 157.445 159.207 160.324 159.02 158.863 160.356 161.303 161.139 159.755 157.299 157.979 160.013 161.439 162.076 160.678 157.401 160.67 161.703 161.827 159.844 157.027 159.003 161.862 162.575 162.753 161.809 158.087 157.412 157.35 157.049 157.186 158.031 158.211 157.976 158.802 162.246 164.044 164.336 164.301 162.859 158.635 157.904 157.911 157.901 157.893 157.878 157.918 157.929 157.914 157.842 157.83 157.857 157.845 157.694 157.608 157.741 157.971 159.698 165.46 166.084 160.001 157.081 156.876 156.657 156.636 157.963 158.325 161.388 162.246 160.128 156.636 157.108 157.238 -9999 155.929 155.536 155.499 155.926 156.104 155.866 157.045 158.927 161.267 160.733 157.36 154.847 154.483 154.46 154.468 154.571 155.005 154.906 154.554 154.597 154.489 154.506 154.601 154.651 154.471 154.341 154.376 154.294 154.115 154.131 154.149 154.195 154.191 154.125 154.069 154.045 153.949 153.734 153.685 153.589 153.228 152.74 152.871 155.903 155.502 153.737 153.568 153.234 153.21 153.335 153.254 153.462 -9999 153.222 153.271 153.356 153.353 153.319 153.342 153.994 156.264 158.543 157.324 156.065 154.296 153.887 153.942 154.351 154.493 154.241 154.399 154.608 154.882 155.295 155.052 155.531 158.179 158.167 158.498 156.102 155.597 155.55 154.603 154.149 153.977 154.154 155.523 157.747 157.389 155.67 153.632 153.685 154.065
123.913 127.359 126.824 125.423 129.173 130.902 131.011 128.261 124.806 127.542 127.986 126.469 126.333 125.647 125.312 125.321 125.514 126.297 127.16 128.324 128.763 130.216 132.3 131.909 127.361 126.876 128.046 128.138 132.591 129.024 127.432 128.507 128.316 127.962 128.681 129.39 129.879 130.066 130.025 130.047 131.028 130.765 132.104 132.987 132.193 131.242 131.034 131.305 131.685 132.124 133.107 133.932 132.707 132.587 132.631 133.025 133.096 133.113 134.534 139.203 140.478 140.197 137.473 134.385 133.977 133.867 -9999 133.949 134.082 134.608 136.334 137.873 136.821 138.191 137.722 137.189 137.251 138.678 140.156 142.188 142.869 142.411 141.478 140.35 138.109 138.185 139.923 139.712 139.102 -9999 -9999 138.779 138.852 138.973 139.122 139.237 139.24 139.225 139.134 139.074 139.091 139.055 139.265 139.425 139.546 139.944 140.358 140.599 140.802 140.984 141.077 141.38 141.621 141.668 141.711 142.005 142.196 142.431 142.731 142.933 143.119 143.088 143.193 143.225 143.141 142.915 142.679 142.72 142.755 142.884 143.193 143.797 144.422 144.499 144.528 144.635 -9999 144.853 144.955 145.228 145.746 145.921 145.779 145.823 145.93 -9999 -9999 147.217 147.248 146.963 146.697 146.909 146.934 146.99 148.001 149.696 149.904 150.207 150.258 150.528 150.13 149.763 148.512 147.749 147.517 147.601 147.608 147.75 147.854 147.9 147.946 148.143 148.289 148.384 148.628 148.86 148.971 149.148 149.249 149.338 149.448 149.47 149.497 149.609 150.272 150.61 151.669 151.573 153.734 157.101 151.916 151.076 151.065 151.363 151.512 151.691 152.006 153.718 154.984 154.967 153.78 152.791 152.759 153.538 153.639 153.089 152.894 152.409 152.909 153.558 153.75 154.414 154.278 155.006 154.474 155.404 156.682 157.135 159.634 160.619 160.358 159.484 157.208 160.145 161.018 160.422 158.214 158.567 160.225 161.22 161.543 160.194 156.817 160.139 162.346 162.389 162.639 161.513 159.053 160.943 162.735 163.125 161.77 159.901 160.69 162.232 163.205 163.794 162.535 157.89 156.89 156.698 156.856 157.202 157.201 157.38 157.575 158.665 162.919 163.44 162.27 164.333 161.749 158.448 158.019 157.796 157.743 157.843 157.678 157.711 157.751 157.722 157.753 157.789 157.85 157.74 157.562 157.487 157.609 157.672 159.371 161.9 164.826 158.504 156.987 156.883 156.741 156.748 156.825 159.433 162.261 162.6 159.751 157.201 157.485 156.963 -9999 -9999 155.355 155.29 155.382 155.355 154.915 155.107 158.501 161.54 161.394 157.941 155.017 154.805 154.455 154.406 154.379 154.44 154.482 154.339 154.373 154.331 154.406 154.453 154.378 154.296 154.364 154.271 154.09 154.039 154.044 154.059 154.049 154.04 154.02 153.914 154.206 153.876 154.534 153.796 153.429 152.875 152.705 154.147 158.731 157.55 156.361 154.724 153.15 153.056 152.981 153.149 -9999 -9999 153.221 153.184 153.323 153.247 153.217 153.15 153.431 153.956 155.321 154.187 153.998 153.785 153.768 153.81 153.953 154.061 154.206 154.333 154.329 154.49 154.819 155.168 155.154 157.73 158.408 158.034 156.639 154.028 153.931 154.088 154.747 154.737 155.137 157.889 159.329 158.847 156.625 154.417 153.603 153.633
123.363 123.819 124.149 124.333 128.926 132.119 128.713 125.596 125.191 126.2 129.05 130.861 125.742 124.973 124.887 125.789 125.504 126.885 128.958 126.736 128.002 129.064 130.314 131.257 127.81 127.505 131.565 130.92 129.68 127.833 127.179 131.557 128.886 128.181 128.364 128.644 129.304 129.587 129.874 129.937 130.086 129.957 130.38 130.98 131.209 131.146 132.286 133.765 132.559 131.849 133.178 134.357 134.169 133.728 134.489 135.836 135.271 133.255 132.616 135.492 138.339 139.252 137.266 133.861 133.816 134.007 -9999 134.101 133.87 133.986 136.051 138.598 138.382 137.564 136.868 137.36 138.643 140.961 142.339 142.649 142.572 141.75 140.672 139.715 138.21 138.122 139.419 139.344 138.738 138.54 138.492 138.768 138.841 139.039 139.158 139.308 139.322 139.282 139.372 139.305 139.212 139.132 139.244 139.364 139.483 139.824 140.056 140.397 140.626 140.962 141.098 141.15 141.368 141.391 141.551 141.818 142.011 142.075 142.465 142.679 142.788 142.878 142.955 143.027 142.84 142.625 142.348 142.481 142.679 142.788 143.216 143.746 144.701 144.683 -9999 -9999 -9999 144.739 144.688 144.674 145.242 145.748 145.801 145.707 -9999 -9999 -9999 -9999 146.903 146.451 146.156 146.685 146.887 147.164 148.054 148.943 150.051 150.113 150.375 150.945 150.845 150.945 149.352 147.839 147.818 148.546 148.141 147.562 147.705 147.818 147.85 147.986 148.082 148.113 148.372 148.58 148.737 148.877 149.077 149.174 149.246 149.363 149.549 149.874 150.261 151.851 156.714 152.487 153.067 156.739 153.476 150.855 151.003 151.171 151.313 151.499 151.886 154.082 154.508 154.454 153.252 152.363 151.975 151.704 -9999 152.573 152.778 152.62 152.421 152.316 152.523 152.685 153.163 153.271 153.462 152.844 152.867 153.582 157.478 158.356 157.88 157.048 155.088 158.277 160.404 160.289 156.93 158.466 158.348 160.08 159.517 158.34 157.827 160.614 161.042 159.805 161.03 160.502 159.844 160.865 162.63 162.677 161.927 161.418 161.02 161.8 162.745 163.059 160.883 157.249 156.633 156.605 156.883 157.886 157.219 157.168 157.391 158.52 160.005 162.234 158.882 159.506 160.111 158.819 158.053 157.518 157.576 157.571 157.502 157.639 157.564 157.991 157.94 157.785 157.813 157.683 157.539 157.442 157.489 157.815 160.628 163.037 163.256 158.875 157.337 157.15 157.351 156.793 156.487 157.181 161.861 162.85 159.405 156.873 156.524 156.469 156.331 -9999 155.132 154.951 154.846 154.89 155.039 156.078 159.326 161.201 160.996 159.772 156.976 154.733 154.441 154.302 154.17 154.31 154.8 154.332 154.256 154.194 154.179 154.219 154.137 154.139 154.186 153.986 153.954 154.01 153.952 153.954 153.995 153.957 153.775 153.751 154.825 154.918 155.475 153.81 153.454 153.016 152.978 156.498 158.985 158.753 157.598 153.934 152.994 152.901 152.926 153.019 -9999 153.392 153.271 153.107 153.07 153.629 154.869 153.21 153.781 154.334 154.006 153.467 153.658 153.775 153.756 153.752 153.854 153.912 154.136 154.207 154.275 154.459 155.289 155.905 155.62 157.168 157.641 157.096 155.276 154.415 153.753 153.797 154.051 154.849 157.418 158.846 160.65 159.617 158.48 155.073 154.064 153.711
123.085 123.187 123.576 126.047 129.234 128.924 128.98 128.551 128.616 128.624 129.823 129.643 125.963 125.775 125.383 128.832 128.13 129.954 129.516 126.953 127.196 129.123 129.582 131.422 129.493 129.093 132.938 132.911 131.467 128.67 126.969 127.893 130.444 128.389 129.242 128.455 128.797 129.412 129.545 130.33 130.446 129.834 129.855 130.084 131.437 133.397 136.222 133.785 133.455 131.888 131.992 134.204 134.914 135.96 136.497 138.063 138.385 134.938 133.039 136.083 136.212 137.971 134.884 134.093 133.832 134.326 -9999 134.659 134.885 135.017 135.681 137.153 137.431 136.37 136.729 137.922 139.479 140.639 141.867 142.404 141.98 140.729 138.591 138.174 137.866 138.098 138.537 138.446 138.219 138.332 138.382 138.716 138.923 139.105 139.247 139.408 139.483 139.424 139.435 139.491 139.455 139.354 139.313 139.343 139.486 139.533 139.635 139.987 140.293 140.656 140.921 141.125 141.316 141.34 141.451 141.745 141.984 142.175 142.643 142.49 142.437 142.6 142.751 142.715 142.638 142.39 142.165 142.275 142.627 142.752 143.2 143.496 143.916 144.266 -9999 -9999 -9999 144.622 144.651 144.704 145.078 -9999 -9999 -9999 -9999 -9999 -9999 -9999 -9999 146.534 146.553 -9999 147.135 147.388 147.476 147.91 148.539 148.864 149.612 151.131 151.24 151.067 150.25 150.339 149.845 150.222 149.507 148.211 147.697 147.739 147.772 147.86 147.911 147.998 148.197 148.371 148.452 148.645 148.919 148.98 149.012 149.337 150.015 150.589 150.027 150.661 152.622 151.48 151.552 156.993 154.116 151.239 150.919 150.941 151.11 151.308 151.516 151.796 152.109 152.972 152.63 151.999 151.932 151.725 151.391 151.68 152.052 152.154 152.045 151.882 151.789 152.127 152.201 152.113 152.417 152.208 152.496 153.313 154.028 155.836 155.463 155.614 154.588 156.269 158.914 158.724 156.505 157.624 155.244 156.118 156.735 157.196 157.026 157.232 159.197 156.622 157.132 157.737 156.87 159.016 161.252 160.257 160.431 159.894 158.148 160.098 161.236 161.232 160.081 157.417 156.699 156.489 156.739 157.336 157.012 157.043 157.271 158.598 159.861 160.412 160.109 159.575 159.806 158.165 157.724 157.466 157.426 157.391 157.394 157.575 157.775 159.367 158.22 157.673 157.564 157.436 157.651 157.625 157.345 157.551 159.552 162.393 161.432 159.018 158.117 157.62 157.887 156.663 156.249 157.804 161.764 162.124 161.013 158.572 156.898 156.211 156.095 155.778 155 154.859 154.745 155.161 155.703 156.164 158.851 160.53 161.014 160.445 157.982 154.699 154.27 154.131 154.008 154.392 154.823 154.46 153.964 153.937 153.999 154.048 154.045 154.02 153.973 153.922 153.848 153.827 153.75 153.771 153.74 153.713 153.563 153.57 153.59 153.268 153.56 153.241 153.85 153.036 155.074 158.473 158.992 158.33 157.716 155.271 154.247 153.661 153.247 -9999 153.43 153.664 153.521 153.136 153.172 155.861 157.875 156.692 157.148 157.051 155.571 153.327 153.376 153.784 153.774 153.77 153.835 153.898 153.908 154.08 154.489 154.968 155.444 155.061 155.406 156.798 157.696 157.065 155.08 154.805 153.866 153.74 154.121 155.273 157.138 159.975 160.51 159.171 155.776 154.153 154.378 154.127
122.769 129.8 125.511 125.212 125.801 128.94 130.358 130.151 131.885 129.708 130.274 131.277 127.945 125.582 125.025 130.649 130.168 132.418 129.691 128.2 129.806 128.722 129.145 133.848 130.999 129.051 130.849 132.288 131.38 129.407 126.283 126.496 127.443 127.423 132.811 134.366 132.911 134.089 131.327 130.223 130.297 130.265 129.818 129.577 130.658 133.458 136.456 136.856 136.39 134.512 131.827 132.544 134.175 136.002 138.635 139.226 139.325 137.778 133.218 132.951 133.49 133.732 133.52 135.045 135.085 134.928 134.6 135.154 135.64 136.104 135.656 135.739 136.224 136.58 138.718 138.682 139.702 139.785 140.847 141.291 141.003 139.688 138.252 137.875 137.897 137.957 138.273 138.322 138.192 138.257 138.457 138.727 138.929 139.124 139.312 139.509 139.586 139.559 139.582 139.529 139.588 139.599 139.524 139.483 139.633 139.616 139.684 139.912 140.139 140.495 140.718 141.102 141.23 141.253 141.409 141.595 141.785 141.941 142.277 142.254 142.41 142.517 142.541 142.498 142.476 142.134 141.986 142.051 142.276 142.589 143.231 143.438 143.735 -9999 -9999 -9999 -9999 -9999 -9999 -9999 -9999 -9999 -9999 -9999 -9999 145.097 145.494 -9999 -9999 -9999 -9999 147.181 147.436 147.968 147.324 147.212 147.273 147.385 147.637 150.089 151.107 151.361 151.185 150.998 150.923 150.732 150.298 148.393 147.755 147.691 147.698 147.72 147.854 147.916 147.974 148.088 148.299 148.571 148.812 148.844 148.959 149.138 149.376 149.835 149.623 149.382 149.964 152.734 155.701 151.608 151.632 151.021 150.661 150.717 150.959 151.148 151.531 152.676 153.027 153.132 155.728 154.309 152.203 151.485 151.295 151.181 151.302 151.534 151.594 151.516 151.454 151.585 151.92 151.676 151.811 151.823 152.183 152.43 152.853 153.128 153.113 154.074 153.807 153.622 154.808 155.702 154.599 154.578 154.637 154.632 154.954 156.278 156.575 156.288 156.583 156.251 156.228 155.93 155.946 156.645 157.188 157.314 157.308 157.317 157.161 157.988 157.589 157.66 158.81 157.519 156.857 156.434 156.497 156.609 156.562 156.661 157.012 158.319 159.986 161.225 162.202 162.397 161.493 159.045 157.603 157.377 157.407 157.379 157.905 158.006 158.283 158.261 157.665 157.248 157.097 157.753 158.481 157.741 156.795 157.074 157.648 159.909 159.905 159.37 158.122 157.123 156.377 156.289 156.131 157.287 158.74 161.117 161.97 161.161 157.252 156.028 155.872 -9999 -9999 154.749 154.822 155.251 155.787 155.935 155.765 159.202 160.291 160.517 157.215 154.296 154.122 154.003 154.065 154.682 155.135 154.443 153.876 153.834 153.87 153.902 153.855 153.86 153.915 153.883 153.761 153.661 153.574 153.615 153.49 153.512 153.524 153.469 153.294 153.224 153.18 152.979 152.92 152.729 153.757 158.013 159.129 158.182 156.159 156.016 156.705 154.261 153.921 153.993 153.512 153.847 153.883 153.12 153.608 157.502 158.311 159.096 160.201 158.282 154.408 153.26 153.48 153.797 153.767 153.838 153.887 153.74 153.844 153.996 154.259 155.429 155.177 155.026 154.368 155.478 155.784 155.663 155.462 154.917 153.775 153.707 154.229 156.146 158.858 160.339 160.117 157.417 153.938 154.254 153.792 153.715
125.533 130.453 125.364 123.689 125.111 128.306 131.02 129.32 129.806 129.716 132.221 132.874 133.033 125.037 124.337 127.038 135.025 133.419 130.123 128.708 129.157 127.106 128.204 129.613 127.908 127.855 131.485 132.734 128.998 127.203 126.591 127.062 127.334 128.215 134.517 137.896 137.96 137.65 133.477 129.362 129.557 129.896 129.546 129.451 129.539 131.312 133.325 136.795 136.875 134.356 131.977 131.864 132.991 135.675 138.933 139.107 138.317 138.166 135.272 132.695 133.003 132.957 133.432 135.869 136.351 135.149 134.564 134.717 135.37 135.054 135.399 136.197 136.321 137.091 141.08 141.866 141.876 142.205 141.345 140.152 139.134 137.742 137.568 137.674 137.733 137.792 -9999 -9999 138.209 138.192 138.383 138.563 138.697 138.856 139.031 139.307 139.444 139.551 139.697 139.762 139.757 139.783 139.846 139.77 139.817 139.805 139.842 139.905 140.094 140.189 140.359 140.728 140.966 141.06 141.218 141.38 141.548 141.737 141.865 142.136 142.422 142.681 142.37 142.393 142.437 141.912 141.883 142.012 142.154 142.97 143.56 143.651 143.739 -9999 -9999 143.866 -9999 -9999 -9999 -9999 -9999 -9999 -9999 -9999 144.918 144.947 145.068 145.219 -9999 145.63 -9999 -9999 147.161 147.385 147.002 147.049 147.127 147.125 147.319 148.868 151.05 151.268 151.44 151.461 151.393 151.202 150.471 149.328 148 147.65 147.66 147.763 147.808 147.846 147.906 148.011 148.178 148.399 148.594 148.665 148.742 148.817 149.071 149.232 149.343 149.618 149.579 151.222 152.484 150.646 150.242 150.377 150.443 150.594 150.928 150.983 151.523 153.465 155.635 156.986 157.295 156.983 155.409 151.885 151.205 151.078 150.93 151.003 151.286 151.476 151.546 151.613 151.75 151.812 151.863 151.82 151.916 151.85 152.076 152.311 152.397 152.744 152.848 153.116 154.167 154.37 154.241 154.312 154.198 154.166 154.705 156.387 157.136 157.494 157.721 157.675 157.615 156.607 155.896 155.931 155.978 156.054 155.943 156.414 156.66 156.822 156.796 156.868 156.95 156.865 156.519 156.302 156.259 156.103 156.251 156.414 156.908 158.125 159.658 162.558 163.507 163.762 163.382 160.189 157.55 157.346 157.361 157.498 158.107 162.408 158.866 157.962 157.452 157.006 157.261 158.455 162.467 158.109 156.864 156.85 157.278 157.897 159.159 159.37 157.056 155.906 155.954 156.152 155.917 156.605 159.155 159.741 160.446 159.55 156.689 155.506 155.543 -9999 154.64 154.476 154.643 154.804 155.048 154.945 154.82 156.23 159.017 158.501 155.977 154.382 154.166 153.948 154.013 154.135 154.593 154.122 153.772 153.738 153.729 153.753 153.703 153.752 153.706 153.628 153.595 153.596 153.543 153.385 153.403 153.428 153.376 153.628 153.538 153.213 153.022 152.767 152.642 152.647 154.236 158.825 159.323 158.729 157.613 154.629 154.758 154.452 154.034 -9999 -9999 153.468 153.459 153.272 153.771 157.624 158.803 160.552 161.63 159.056 154.685 153.192 153.524 153.684 153.715 153.762 153.818 153.833 153.899 153.923 154.013 154.206 154.185 154.133 153.859 153.85 153.921 154.19 155.016 154.892 153.953 153.772 154.907 156.81 160.616 160.317 159.253 154.862 154.033 154.53 153.722 153.354
127.442 128.171 123.241 123.3 125.51 127.001 125.611 127.206 133.322 130.459 132.906 133.497 128.038 124.366 124.19 125.422 127.852 126.274 128.115 129.719 128.657 125.364 127.578 126.867 129.648 129.286 129.768 129.368 126.657 126.114 126.962 128.125 129.226 135.34 130.849 129.813 130.21 134.448 130.81 129.445 129.612 130.109 129.564 129.362 129.172 129.378 130.594 134.747 135.886 133.376 131.226 132.988 134.454 136.299 138.28 137.772 135.904 137.236 134.702 134.072 133.924 132.937 133.572 135.616 135.924 134.432 133.88 133.974 134.756 134.921 134.99 136.474 136.032 137.469 141.701 142.864 143.306 142.866 141.787 138.01 138.115 137.395 137.471 137.456 137.576 -9999 -9999 138.095 138.158 138.241 138.373 138.426 138.458 138.618 138.799 139.019 139.293 139.459 139.783 139.967 139.929 139.887 140.142 140.012 139.984 140.034 140.085 140.035 140.113 140.209 140.275 140.378 140.693 140.797 140.946 141.224 141.418 141.535 141.672 141.903 142.408 142.802 142.18 142.194 142.133 141.803 141.716 142.059 142.459 142.987 144.008 143.935 -9999 -9999 143.7 143.652 143.696 -9999 -9999 -9999 -9999 -9999 -9999 144.777 144.854 144.827 145.154 145.189 145.174 145.331 145.698 146.108 146.565 146.881 146.935 147.131 147.223 147.179 147.142 147.737 149.409 151.057 151.241 151.498 151.59 151.415 151.068 150.695 148.622 147.669 147.618 147.682 147.679 147.741 147.873 147.92 148.072 148.264 148.345 148.452 148.634 148.642 148.665 149.111 151.035 153.618 150.117 149.533 149.703 149.743 149.841 150.121 150.312 150.476 150.747 150.86 151.097 151.949 155.919 158.005 157.608 156.974 154.642 151.557 151.034 150.873 150.792 150.86 -9999 -9999 -9999 -9999 -9999 -9999 -9999 -9999 151.721 151.579 151.743 151.972 152.09 152.146 152.309 152.573 153.207 153.768 153.833 154.53 153.858 154.407 156.411 156.716 157.088 158.039 158.614 158.61 159.401 158.378 156.343 155.462 155.632 155.807 155.865 156.074 156.227 156.282 156.321 156.515 156.793 156.561 156.198 156.145 156.116 156.085 156.179 156.267 156.737 157.432 159.014 162.95 164.03 164.359 163.315 159.674 157.51 157.259 157.168 157.075 158.345 159.225 158.216 159.763 157.956 157.062 157.17 157.431 158.394 157.242 156.631 156.741 156.95 157.185 156.924 156.607 156.028 155.738 155.83 155.933 155.858 155.893 156.49 156.844 157.282 157.045 156.1 154.786 154.935 154.497 154.246 154.215 154.405 154.503 154.426 154.567 154.471 154.974 155.474 155.127 154.762 154.084 153.9 153.902 154.052 154.179 154.322 153.622 153.857 153.691 153.616 153.526 153.466 153.507 153.451 153.417 153.437 153.417 153.796 153.363 153.289 153.289 153.219 153.644 154.088 153.403 152.916 152.801 152.637 152.788 156.391 158.953 159.738 158.431 155.647 152.909 152.671 153.321 -9999 -9999 152.795 153.043 153.182 153.19 154.365 157.941 159.576 161.02 160.223 156.448 153.303 153.278 153.461 153.508 153.594 153.626 153.698 153.842 153.933 154.126 154.27 153.829 153.668 153.808 153.647 153.62 153.591 153.655 153.752 154.14 155.008 154.151 154.115 155.792 158.884 159.262 155.766 153.292 153.467 153.629 153.173 153.234
124.851 125.443 123.162 126.505 131.713 124.57 124.688 128.494 130.547 131.987 132.693 127.903 124.012 123.767 124.171 124.378 124.71 125.839 129.058 130.523 131.304 127.286 129.622 129.495 132.135 131.583 127.119 125.899 125.646 125.692 125.674 126.424 131.406 128.51 130.051 127.423 127.424 128.566 128.283 128.855 130.043 129.497 129.629 130.656 129.67 129.058 129.499 130.786 132.953 131.236 130.746 131.637 133.665 135.269 136.385 133.295 133.202 134.079 132.553 133.212 134.343 133.732 134.513 134.257 134.185 134.047 133.708 133.918 134.335 134.886 134.953 135.548 136.056 136.537 140.697 142.045 143.178 142.128 139.786 138.017 137.435 137.238 137.31 137.396 -9999 -9999 137.693 137.902 138.057 138.16 138.221 138.313 138.353 138.44 138.659 138.732 138.999 139.234 139.535 139.774 139.877 139.984 140.081 140.049 140.096 140.164 140.229 140.185 140.105 140.263 140.312 140.369 140.485 140.586 140.565 140.947 141.175 141.406 141.493 141.696 141.739 141.81 141.749 142.005 141.934 141.654 141.683 141.957 142.528 142.932 143.385 143.527 -9999 143.488 143.543 143.675 143.671 143.69 -9999 -9999 -9999 -9999 -9999 -9999 144.714 144.818 145.042 145.093 145.131 145.241 145.396 145.749 145.898 146.313 146.887 147.253 147.477 147.501 147.219 147.218 147.601 149.272 149.917 151.313 151.567 151.46 151.36 150.617 148.745 147.628 147.534 147.569 147.561 147.732 147.752 147.829 147.962 148.057 148.145 148.242 148.456 148.595 148.634 149.185 151.897 157.307 150.548 149.369 149.251 149.363 149.598 149.823 150.047 150.303 150.56 150.721 150.895 151.835 155.913 157.18 156.257 156.093 153.992 151.479 151.258 151.237 151.039 150.947 -9999 -9999 -9999 -9999 -9999 -9999 -9999 151.868 151.771 151.624 151.637 151.632 151.965 152.121 152.227 152.321 152.586 152.94 153.172 153.698 153.58 154.34 155.078 155.472 155.33 156.138 157.306 158.095 159.673 157.709 155.789 155.063 155.353 155.643 155.768 155.7 155.821 155.863 155.836 156.025 156.244 156.039 155.836 155.967 156.031 156.076 156.121 156.208 156.36 156.786 159.86 163.252 162.358 162.012 162.517 158.489 157.405 157.146 157.014 156.815 156.832 157.78 159.732 160.782 157.414 157.747 157.718 157.115 157.597 157.928 156.724 156.545 156.817 157.753 156.847 156.235 155.832 155.786 155.786 155.774 155.784 155.803 155.845 155.926 155.938 155.687 154.737 154.728 154.278 154.259 154.283 154.234 154.332 154.415 154.456 154.787 154.401 154.026 154.144 154.02 153.477 153.527 153.252 153.439 153.919 154.139 153.803 153.608 154.104 153.5 153.379 153.371 153.299 153.32 153.353 153.313 153.203 153.649 155.969 155.981 154.329 153.069 153.008 153.112 153.395 152.99 152.835 152.813 152.61 152.618 155.014 157.493 157.538 157.036 153.489 152.642 152.625 152.796 152.794 152.71 152.669 152.734 152.761 153.042 155.82 158.235 160.045 161.062 159.001 154.562 153.764 153.379 153.519 153.503 153.566 153.536 153.5 153.532 153.97 155.384 155.485 153.84 153.609 153.565 153.481 153.485 153.609 153.489 153.214 153.438 153.536 153.649 153.712 155.349 155.758 156.371 153.8 153.389 153.314 153.115 153.069 153.441
124.55 123.053 122.5 124.083 127.448 122.904 124.798 128.77 129.182 130.018 127.181 123.774 123.842 123.82 123.821 124.171 124.395 125.926 129.429 126.747 126.7 126.906 128.418 130.086 131.012 127.71 126.624 128.903 126.223 126.038 125.679 126.055 127.853 127.128 126.757 127.643 127.698 127.464 127.986 128.559 132.267 130.58 129.513 129.938 129.357 128.908 128.836 129.156 129.845 129.999 130.409 130.92 131.389 132.401 133.103 131.987 131.737 132.225 132.082 132.292 133.251 135.944 136.074 134.546 133.5 134.086 134.131 134.597 134.357 134.248 134.619 134.997 135.367 136.232 137.379 139.169 141.46 140.97 137.833 137.21 137.043 137.033 137.182 -9999 -9999 137.432 137.627 137.762 137.865 138.002 138.086 138.168 138.263 138.35 138.467 138.549 138.764 139.087 139.389 139.627 139.812 140.026 140.055 139.963 140.109 140.252 140.457 140.362 140.292 140.351 140.397 140.417 140.47 140.539 140.556 140.707 140.994 141.081 141.317 141.509 141.459 141.435 141.492 141.463 141.613 141.545 141.545 141.725 142.48 142.812 143.045 143.115 143.167 143.309 143.488 143.629 143.664 -9999 -9999 -9999 -9999 -9999 -9999 144.441 144.48 144.61 144.78 -9999 145.064 145.189 145.33 145.62 145.629 145.926 -9999 147.197 147.607 147.627 147.118 147.163 147.343 147.58 148.022 150.187 151.403 151.566 151.199 150.681 148.447 147.615 147.438 147.443 147.498 147.613 147.597 147.731 148.489 149.688 148.707 148.122 148.111 148.362 148.484 148.906 149.78 149.904 149.143 149.119 149.148 149.277 149.892 151.091 151.022 150.343 150.829 152.061 151.361 151.519 153.441 156.332 154.529 154.333 153.47 151.94 151.552 151.511 151.069 150.977 150.869 -9999 -9999 -9999 151.184 151.384 151.687 152.005 152.161 151.746 151.82 151.781 152.087 152.18 152.25 152.333 152.495 152.655 152.982 153.105 153.007 153.737 154.427 154.653 154.611 154.674 155.163 155.8 155.709 155.436 155.159 155.053 155.243 155.721 155.641 155.51 155.635 155.533 155.483 155.579 155.744 155.772 155.815 155.943 155.972 156.022 156.118 156.155 156.307 156.78 158.596 159.817 158.915 158.362 158.634 157.924 157.23 157.005 156.852 156.583 156.81 159.072 160.793 158.084 156.717 157.44 160.604 157.953 159.093 161.963 157.652 156.134 156.461 158.695 157.21 157.546 156.812 155.926 155.705 155.826 155.916 155.855 155.531 155.1 155.644 157.012 157.459 155.084 154.038 154.351 -9999 154.688 -9999 154.262 154.19 154.319 154.136 153.599 153.48 153.099 152.771 153.106 153.017 153.04 153.226 153.51 153.317 153.057 153.402 153.514 153.404 153.322 153.306 153.239 153.192 153.165 153.06 153.777 157.966 159.138 156.034 152.922 152.996 153.64 153.032 152.828 152.747 152.552 152.481 152.471 152.529 153.256 153.675 153.853 152.927 152.618 152.786 152.993 152.814 152.64 152.603 152.643 152.688 153.408 157.24 158.404 160.18 160.234 156.275 153.937 153.408 153.593 154.162 153.663 153.556 153.565 153.607 153.819 154.219 154.889 154.144 153.546 153.378 153.297 153.403 153.353 153.421 153.555 153.087 153.659 154.147 153.537 153.534 153.921 154.046 153.451 153.359 153.256 152.952 152.94 153.093 153.671
123.417 122.125 126.838 123.858 122.899 122.501 123.275 126.822 126.589 123.882 124.589 124.372 124.828 123.895 123.624 123.869 124.36 124.798 129.053 126.864 125.501 126.094 126.965 127.391 126.218 125.222 125.74 127.186 126.205 126.56 127.682 127.11 125.952 126.024 126.601 128.854 131.139 127.89 127.467 129.104 130.142 129.16 129.114 129.132 128.73 128.58 128.678 128.862 128.926 128.739 129.499 130.24 131.165 131.42 132.911 131.498 131.4 132.453 132.087 132.138 133.125 134.636 135.62 134.203 133.109 133.311 133.592 133.997 134.129 133.624 133.929 134.67 135.282 136.167 137.224 138.163 140.15 137.276 136.779 136.645 136.794 136.896 -9999 -9999 137.229 137.276 137.457 137.677 137.7 137.894 137.974 138.065 138.168 138.247 138.274 138.368 138.593 138.837 138.982 139.246 139.643 139.813 140.059 140.128 140.36 140.441 140.52 140.61 140.686 140.689 140.621 140.555 140.539 140.55 140.62 140.634 140.807 140.803 140.95 141.226 141.3 141.401 141.443 141.443 141.508 141.487 141.353 141.705 142.172 142.837 142.899 142.851 143.008 143.282 143.419 143.538 143.627 143.695 143.747 143.802 143.874 -9999 144.178 144.266 144.265 144.477 144.601 144.752 144.902 145.031 145.086 145.495 145.686 145.963 -9999 146.398 146.636 146.3 146.861 147.158 147.349 147.425 147.632 148.773 151.305 151.455 150.72 148.65 147.743 147.43 147.325 147.401 147.506 147.495 147.471 148.003 151.127 155.435 150.021 148.248 148.049 148.185 148.353 148.59 148.599 148.984 148.945 148.948 149.034 149.426 152.892 157.268 156.386 150.849 150.849 156.986 154.155 151.891 152.946 152.852 151.974 152.696 152.864 151.505 151.085 150.869 150.945 150.877 150.785 -9999 -9999 151.125 151.15 151.247 151.716 152.018 152.969 152.761 152.176 151.987 152.384 152.403 152.312 152.437 152.568 152.711 152.889 153.11 153.191 153.481 153.715 154.095 154.149 154.389 154.589 154.836 154.787 154.796 154.847 155.01 155.11 155.371 155.484 155.415 155.446 155.385 155.33 155.449 155.614 155.74 155.917 155.932 155.962 156.068 156.165 156.187 156.265 156.702 157.255 157.096 156.857 156.955 157.036 156.924 156.888 156.828 156.644 156.409 156.694 158.235 161.08 157.401 156.045 157.484 161.906 158.014 157.247 157.856 157.261 155.913 156.158 156.84 157.625 161.319 157.805 155.977 155.491 155.831 156.032 155.895 154.822 154.32 156.311 158.587 158.546 156.137 154.518 154.818 155.45 -9999 -9999 154.004 153.783 153.676 153.518 153.226 153.272 153.498 153.614 154.375 155.61 154.34 152.99 152.923 153.005 153.133 153.533 153.715 153.468 153.209 153.251 153.087 153.064 153.03 153.042 153.779 155.512 156.243 154.044 152.727 153.386 155.257 153.386 152.632 152.399 152.035 152.355 152.403 151.981 152.113 152.265 152.273 152.611 152.604 152.743 152.841 152.72 152.555 152.577 152.671 152.621 154.136 157.683 158.542 159.877 159.883 155.73 153.109 152.929 153.137 153.804 153.9 153.482 154.411 154.768 154.704 154.84 154.58 153.76 153.301 153.202 153.18 153.201 153.23 153.256 153.351 153.899 156.638 157.374 154.62 153.462 153.894 153.938 153.771 153.257 152.953 152.912 152.916 -9999 153.542
