ncols 389
nrows 32
xllcorner    425214
yllcorner    439650
cellsize     2
NODATA_value -9999
191.08 192.926 196.212 197.376 197.377 196.342 191.704 190.867 190.886 190.843 190.84 190.788 190.902 190.937 190.701 190.313 190.189 190.408 190.562 190.537 190.536 190.631 190.685 190.784 190.558 190.615 190.763 190.513 190.616 190.783 190.706 191.227 191.681 191.079 190.48 189.99 -9999 -9999 -9999 -9999 190.223 190.316 190.146 190.499 191.516 193.439 194.557 194.707 191.725 190.813 189.848 189.23 189.467 189.565 189.971 191.192 190.253 189.942 190.043 190.369 191.375 191.68 192.021 191.362 190.871 190.855 190.802 190.491 190.02 190.698 190.941 191.852 191.305 189.64 188.915 189.126 189.083 189.157 189.114 189.052 189.454 189.985 189.783 190.253 190.941 192.456 193.27 192.349 190.338 189.491 189.848 190.389 190.194 190.103 190.163 -9999 -9999 -9999 191.084 191.117 191.192 191.17 191.383 192.369 193.779 195.487 196.45 196.694 196.086 195.664 194.588 193.989 193.758 193.59 193.011 193.404 193.16 194.318 194.998 194.122 193.506 194.38 194.333 194.056 193.86 193.62 193.704 193.497 193.517 193.432 193.348 193.378 193.485 193.554 193.514 193.439 193.448 193.458 193.429 193.441 193.665 193.965 194.06 194.004 194.077 194.293 194.378 194.368 194.551 194.663 194.775 194.876 -9999 195.136 195.086 195.027 194.986 195.224 197.245 199.758 198.993 197.903 196.803 195.758 195.159 195.034 194.998 195.109 196.887 197.102 196.014 195.436 195.606 195.754 195.58 195.497 195.608 195.668 196.154 195.967 195.686 -9999 195.516 195.445 195.42 195.367 195.275 195.221 195.16 195.122 195.197 195.254 195.199 195.142 195.162 195.125 195.069 194.791 194.387 194.272 194.324 -9999 193.778 193.664 193.664 193.567 193.708 193.79 193.623 193.32 192.973 192.687 192.403 192.23 191.968 191.753 191.618 191.413 191.314 191.093 190.893 190.804 190.606 190.425 190.246 190.089 189.962 189.783 189.78 189.545 189.398 189.329 189.173 189.095 188.935 188.805 188.755 188.736 188.652 188.483 188.336 188.287 188.219 188.118 187.883 187.794 187.647 187.585 187.512 187.309 187.234 187.089 187.036 186.969 186.874 186.855 186.801 186.724 186.627 186.573 186.559 186.501 186.457 186.384 186.42 186.321 186.251 186.225 186.222 186.269 186.245 186.139 186.107 186.103 186.081 186.114 186.081 186.034 186.097 186.108 186.079 186.043 185.935 185.985 185.973 185.89 185.81 185.725 185.641 185.594 185.521 185.451 185.395 185.346 185.246 185.176 185.124 185.061 184.949 184.833 184.785 184.644 184.586 184.505 184.385 184.298 184.105 184.039 184.017 184.029 183.897 183.832 183.741 183.574 183.462 183.393 183.336 183.225 183.096 183.059 182.974 182.95 182.91 182.915 182.76 182.52 182.52 182.379 182.291 182.272 -9999 -9999 -9999 -9999 -9999 -9999 -9999 -9999 -9999 -9999 -9999 -9999 -9999 -9999 -9999 -9999 -9999 -9999 -9999 -9999 -9999 -9999 -9999 -9999 -9999 -9999 -9999 -9999 -9999 -9999 -9999 -9999 -9999 -9999 -9999 -9999 -9999 -9999 -9999 -9999 -9999 -9999 -9999 -9999 -9999 -9999 -9999 -9999 -9999 -9999 -9999 -9999 -9999 -9999 -9999 -9999 -9999 -9999 -9999
193.199 194.891 197.417 197.679 196.844 193.302 190.974 190.835 191.033 191.029 190.87 190.786 190.893 -9999 190.397 190.289 190.284 190.47 190.56 190.781 190.824 190.906 190.8 192.642 192.146 192.466 191.806 190.99 190.651 190.546 190.729 191.94 193.101 191.392 190.406 190.049 189.886 189.924 -9999 -9999 -9999 190.128 190.109 190.143 190.055 190.386 191.335 192.832 191.519 190.437 189.458 189.169 189.401 189.722 190.062 190.954 189.538 190.927 191.979 190.507 190.879 191.181 192.289 192.12 190.708 190.608 190.57 189.779 189.075 189.264 189.28 189.138 189.116 188.918 188.901 188.953 189.038 189.469 190.227 190.495 190.164 189.77 189.423 189.841 190.512 192.341 192.738 191.22 190.19 189.445 189.651 189.747 189.851 189.942 189.995 189.931 189.915 -9999 191.061 191.244 191.464 192.017 191.399 191.789 193.253 194.849 195.646 196.512 195.977 195.408 194.887 194.102 193.871 193.929 193.477 193.994 194.537 196.847 196.983 195.234 193.692 193.504 193.78 193.947 194.535 195.004 194.398 193.749 193.163 193.204 193.27 193.302 193.438 193.389 193.365 193.308 193.354 193.407 193.353 193.366 193.506 193.914 194.074 194.128 194.174 194.199 194.139 194.039 194.348 194.546 -9999 194.96 195.133 195.214 195.112 195.011 194.892 195.238 196.613 197.671 196.014 196.681 195.728 195.196 195.003 195.392 196.085 196.346 197.453 197.217 195.925 196.085 196.491 196.266 195.666 195.417 195.402 195.449 195.717 195.661 195.604 195.691 -9999 195.501 195.439 195.436 195.281 195.248 195.202 195.131 195.182 195.271 195.285 195.207 195.24 195.157 195.077 194.863 194.614 194.438 194.378 194.127 193.764 193.566 193.55 193.508 193.524 193.808 193.652 193.375 193.068 192.816 192.472 192.206 191.942 191.76 191.622 191.413 191.29 191.031 190.875 190.708 190.515 190.414 190.216 190.101 189.957 189.805 189.719 189.493 189.45 189.359 189.188 189.071 188.926 188.867 188.681 188.559 188.587 188.444 188.373 188.251 188.149 188.03 187.88 187.818 187.63 187.545 187.435 187.242 187.185 187.045 186.909 186.864 186.817 186.738 186.717 186.627 186.488 186.472 186.37 186.326 186.344 186.371 186.329 186.199 186.159 186.119 186.152 186.162 186.114 186.046 186.002 186.021 185.982 186.011 185.963 185.946 186.013 186.055 185.99 185.932 185.907 185.935 185.934 185.794 185.733 185.627 185.51 185.502 185.496 185.445 185.348 185.267 185.143 185.086 185.002 184.856 184.785 184.699 184.643 184.471 184.301 184.304 184.274 184.194 184.047 184.01 183.984 183.946 183.856 183.726 183.659 183.567 183.484 183.348 183.264 183.177 183.138 183.03 182.935 182.934 182.778 182.718 182.651 182.59 182.48 182.388 182.306 182.125 181.96 -9999 -9999 -9999 -9999 -9999 -9999 -9999 -9999 -9999 -9999 -9999 -9999 -9999 -9999 -9999 -9999 -9999 -9999 -9999 -9999 -9999 -9999 -9999 -9999 -9999 -9999 -9999 -9999 -9999 -9999 -9999 -9999 -9999 -9999 -9999 -9999 -9999 -9999 -9999 -9999 -9999 -9999 -9999 -9999 -9999 -9999 -9999 -9999 -9999 -9999 -9999 -9999 -9999 -9999 -9999 -9999 -9999 -9999
195.61 197.439 197.525 196.218 194.856 192.997 191.352 190.928 191.37 191.624 191.192 191.271 -9999 190.345 190.352 190.39 190.427 190.529 190.653 191.169 192.193 192.123 193.292 195.154 194.986 194.958 195.044 193.178 191.14 190.338 190.427 190.599 191.043 190.467 190.101 189.95 189.863 189.914 189.942 189.925 189.907 189.967 189.994 190.005 189.806 189.71 190.08 190.358 190.81 189.959 190.439 190.99 192.189 190.202 189.8 189.861 189.54 191.284 193.985 192.359 190.122 190.097 192.469 193.714 191.921 189.758 189.395 188.924 188.694 188.796 188.707 188.662 188.667 188.862 188.938 189.095 189.122 189.787 190.883 191.757 190.765 189.636 189.365 190.395 192.28 191.783 190.588 189.524 189.588 189.441 189.595 189.977 190.64 190.058 189.995 189.865 189.836 190.108 -9999 191.306 191.953 192.523 191.452 191.196 191.528 193.06 194.713 195.419 194.9 194.55 193.707 193.281 193.896 195.201 194.959 195.573 197.7 199.064 198.687 196.434 193.602 192.959 193.547 193.961 194.767 195.789 195.294 193.635 193.063 193.07 193.186 193.213 193.206 193.158 193.195 193.214 193.254 193.272 193.223 193.318 193.401 193.673 194.004 194.12 194.202 194.189 194.134 194.105 194.346 194.594 -9999 194.942 195.033 195.29 195.353 194.868 194.761 194.734 195.552 197.033 196.705 196.475 196.277 195.246 195.036 196.562 198.8 198.896 199.091 198.289 196.179 197.952 198.046 196.259 195.516 195.278 195.329 195.346 195.37 195.373 195.505 195.679 195.707 195.596 195.475 195.451 195.42 195.367 195.294 195.228 195.194 195.21 195.268 195.216 195.272 195.173 195.104 195.001 194.812 194.569 194.346 194.153 193.742 193.532 193.434 193.371 193.5 193.633 193.738 193.361 193.128 192.876 192.489 192.277 191.874 191.74 191.603 191.402 191.256 190.997 190.861 190.627 190.481 190.396 190.25 190.117 189.91 189.75 189.64 189.384 189.379 189.279 189.193 189.073 188.922 188.84 188.635 188.519 188.473 188.372 188.327 188.174 187.995 187.899 187.845 187.786 187.69 187.483 187.322 187.125 187.094 186.984 186.871 186.786 186.727 186.555 186.471 186.483 186.41 186.402 186.236 186.183 186.22 186.242 186.21 186.094 186.069 186.035 186.052 186.028 186.003 185.971 185.932 185.898 185.846 185.857 185.832 185.828 185.856 185.895 185.875 185.851 185.832 185.826 185.833 185.719 185.68 185.557 185.459 185.442 185.454 185.359 185.235 185.151 185.039 185.045 184.878 184.782 184.6 184.503 184.489 184.363 184.249 184.176 184.161 184.066 183.997 183.974 183.931 183.891 183.839 183.709 183.554 183.468 183.38 183.297 183.254 183.127 183.063 182.908 182.828 182.818 182.706 182.634 182.48 182.424 182.323 182.243 182.19 181.826 181.788 181.763 -9999 -9999 -9999 -9999 -9999 -9999 -9999 -9999 -9999 -9999 -9999 -9999 -9999 -9999 -9999 -9999 -9999 -9999 -9999 -9999 -9999 -9999 -9999 -9999 -9999 -9999 -9999 -9999 -9999 -9999 -9999 -9999 -9999 -9999 -9999 -9999 -9999 -9999 -9999 -9999 -9999 -9999 -9999 -9999 -9999 -9999 -9999 -9999 -9999 -9999 -9999 -9999 -9999 -9999 -9999 -9999 -9999
197.273 197.545 196.791 193.261 191.586 191.484 191.505 191.402 191.026 192.229 192.319 191.908 191.219 190.627 190.469 190.4 190.441 190.525 190.73 191.523 195.218 195.679 196.178 197.055 196.274 195.654 195.637 194.576 191.346 190.468 190.42 190.117 190.428 190.298 189.979 189.811 189.851 189.87 189.959 190.082 189.874 -9999 189.848 189.762 189.504 189.386 189.67 190.049 190.953 190.339 192.382 193.739 193.513 192.186 190.539 189.225 188.989 189.472 191.557 190.955 189.524 189.38 190.42 192.109 192.464 189.424 188.711 188.488 188.478 188.541 188.565 188.6 188.752 188.887 189.187 189.707 189.812 189.308 188.994 189.535 189.511 189.567 190.05 190.55 190.297 190.319 189.9 189.581 189.477 189.569 189.591 189.708 190.082 189.957 189.886 189.832 189.81 189.965 190.577 190.83 190.399 191.028 191.256 191.068 191.212 191.472 192.715 193.482 192.996 192.791 192.604 192.747 193.042 193.824 194.219 197.021 199.011 199.471 198.254 194.459 193.183 192.934 193.014 193.267 192.997 193.765 194.056 193.12 193.048 193.021 193.06 193.107 193.034 193.002 193.118 193.182 193.21 193.238 193.243 193.259 193.208 193.362 193.768 193.994 194.141 194.206 -9999 194.37 194.569 194.63 194.668 194.823 194.933 195.32 195.243 194.841 194.741 194.736 194.825 195.813 196.78 197.139 196.013 195.271 195.759 198.414 199.022 199.359 199.501 198.322 197.734 198.873 197.76 195.934 195.53 195.426 195.868 196.048 195.356 195.406 195.613 195.848 195.823 195.749 195.495 195.453 195.483 195.456 195.396 195.348 195.251 195.288 195.291 195.287 195.257 195.206 195.138 195.152 195 194.601 194.368 194.241 193.759 193.493 193.298 193.175 193.356 193.428 193.537 193.446 193.31 192.897 192.58 192.341 191.948 191.813 191.587 191.43 191.25 190.986 190.84 190.571 190.449 190.377 190.228 190.11 189.902 189.793 189.611 189.392 189.327 189.141 189.139 189.022 188.871 188.798 188.615 188.521 188.401 188.305 188.268 188.14 187.985 187.833 187.735 187.673 187.583 187.514 187.26 187.163 187.031 186.954 186.831 186.704 186.638 186.512 186.437 186.36 186.29 186.262 186.143 186.146 186.142 186.171 186.084 186.009 185.968 185.948 185.986 185.862 185.846 185.872 185.888 185.787 185.692 185.661 185.651 185.689 185.731 185.712 185.738 185.738 185.694 185.689 185.677 185.651 185.636 185.486 185.383 185.329 185.288 185.228 185.18 185.085 184.932 184.906 184.72 184.646 184.46 184.422 184.356 184.272 184.182 184.044 184.038 183.99 183.974 183.953 183.883 183.78 183.678 183.603 183.495 183.432 183.274 183.16 183.14 183.039 182.992 182.828 182.717 182.715 182.668 182.594 182.459 182.373 182.199 182.154 182.02 181.821 181.791 181.705 181.616 -9999 -9999 -9999 -9999 -9999 -9999 -9999 -9999 -9999 -9999 -9999 -9999 -9999 -9999 -9999 -9999 -9999 -9999 -9999 -9999 -9999 -9999 -9999 -9999 -9999 -9999 -9999 -9999 -9999 -9999 -9999 -9999 -9999 -9999 -9999 -9999 -9999 -9999 -9999 -9999 -9999 -9999 -9999 -9999 -9999 -9999 -9999 -9999 -9999 -9999 -9999 -9999 -9999 -9999 -9999 -9999
196.371 195.46 196.059 193.836 190.777 190.909 191.488 191.32 191.231 191.645 191.922 191.429 190.663 190.52 190.677 190.505 190.376 190.504 190.713 192.99 195.965 197.055 196.779 196.529 194.785 193.675 193.189 192.196 190.493 190.299 190.964 192.279 192.936 190.256 190.259 190.1 190.172 190.143 189.827 189.803 189.723 -9999 -9999 189.518 189.155 188.976 189.371 189.574 191.011 193.332 194.389 195.067 195.172 194.345 193.09 190.16 189.07 189.012 189.297 189.242 188.871 188.831 189.494 190.295 189.706 188.536 188.55 188.485 188.471 188.604 188.809 189.151 189.41 189.249 189.028 189.074 189.274 188.855 188.481 188.459 188.772 189.419 190.492 190.753 189.486 189.438 189.52 189.937 190.488 190.741 190.622 190.01 189.565 189.615 189.813 189.866 189.963 190.041 -9999 190.672 190.465 190.801 191.046 191.057 191.128 191.291 191.752 192.058 191.828 192.208 192.061 192.075 192.262 192.475 193.355 197.328 199.09 199.521 197.754 193.958 192.913 193.382 193.278 192.866 192.841 192.995 193.282 193.082 192.876 192.858 192.831 192.846 192.852 192.953 193.015 193.121 193.183 -9999 -9999 193.268 193.247 193.331 -9999 -9999 -9999 -9999 194.399 194.525 194.769 194.681 194.599 194.62 194.894 195.689 194.845 194.686 194.804 195.105 194.929 195.349 196.846 197.18 195.908 195.409 195.776 197.866 198.272 198.312 198.523 197.613 197.327 200.362 197.878 196.645 196.075 196.118 196.32 196.648 195.589 195.465 195.587 195.714 195.766 195.786 195.536 195.387 195.225 195.361 195.482 195.475 195.277 195.321 195.312 195.235 195.191 195.147 195.097 195.093 195.018 194.667 194.461 194.289 193.997 193.666 193.321 193.167 193.229 193.294 193.392 193.468 193.346 193.05 192.864 192.5 192.017 191.853 191.56 191.401 191.197 191.006 190.866 190.575 190.48 190.354 190.217 190.072 189.875 189.812 189.578 189.428 189.328 189.209 189.172 189.023 188.926 188.758 188.581 188.503 188.317 188.285 188.228 188.136 187.935 187.791 187.691 187.528 187.448 187.477 187.153 187.093 186.877 186.839 186.765 186.632 186.553 186.501 186.463 186.321 186.252 186.196 186.132 186.11 186.061 186.015 185.885 185.926 185.916 185.86 185.836 185.759 185.747 185.713 185.708 185.674 185.646 185.559 185.522 185.575 185.617 185.633 185.613 185.64 185.509 185.562 185.558 185.543 185.491 185.426 185.346 185.237 185.213 185.144 185.126 185.024 184.902 184.829 184.707 184.601 184.365 184.377 184.255 184.181 184.103 184.039 184.002 183.946 183.932 183.869 183.824 183.704 183.574 183.544 183.457 183.369 183.181 183.116 183.051 182.974 182.948 182.86 182.822 182.672 182.631 182.594 182.545 182.448 182.222 182.151 181.952 181.843 181.752 181.592 181.568 -9999 -9999 -9999 -9999 -9999 -9999 -9999 -9999 -9999 -9999 -9999 -9999 -9999 -9999 -9999 -9999 -9999 -9999 -9999 -9999 -9999 -9999 -9999 -9999 -9999 -9999 -9999 -9999 -9999 -9999 -9999 -9999 -9999 -9999 -9999 -9999 -9999 -9999 -9999 -9999 -9999 -9999 -9999 -9999 -9999 -9999 -9999 -9999 -9999 -9999 -9999 -9999 -9999 -9999 -9999 -9999
192.84 193.232 194.183 191.548 190.884 191.505 190.78 191.049 191.175 191.218 190.576 190.48 190.347 190.712 191.669 190.969 190.728 190.674 190.448 192.657 195.592 196.322 195.591 195.1 192.468 190.892 190.671 190.273 189.956 190.167 192.49 193.503 194.146 193.058 191.454 190.555 190.255 190.456 189.737 189.607 189.627 189.607 -9999 -9999 189.146 189.043 189.085 188.773 189.829 191.605 193.876 194.889 195.544 195.242 194.185 192.063 189.903 188.776 188.726 188.392 188.646 189.659 190.955 189.924 189.205 188.58 188.498 188.441 188.433 188.708 189.205 189.624 189.901 189.336 188.502 188.227 188.247 188.231 188.504 188.694 189.149 189.531 190.502 190.678 190.643 189.552 190.042 191.248 191.799 192.782 193.154 191.234 189.948 189.616 189.724 189.857 190.245 190.242 190.09 -9999 190.671 -9999 -9999 191.046 191.137 191.313 191.315 191.671 191.865 191.594 191.804 191.884 192.183 192.765 194.064 197.991 199.001 195.531 194.253 192.913 192.93 194.048 194.208 193.564 192.947 192.786 192.746 192.73 192.651 192.601 192.595 192.634 192.645 192.79 192.956 193.055 -9999 193.843 193.768 193.659 193.479 193.372 193.362 193.525 -9999 194.251 194.314 194.429 194.533 194.516 194.462 194.481 194.966 196.229 196.107 194.851 194.826 194.985 195.317 196.815 198.21 198.514 196.514 195.445 195.9 196.665 195.87 196.401 196.105 197.801 199.639 198.797 196.527 196.489 198.535 197.616 195.617 195.388 195.422 195.473 195.557 195.609 195.729 195.84 195.732 195.455 195.284 195.405 195.507 195.462 195.345 195.349 195.386 195.262 195.175 195.125 195.092 195.028 194.941 194.734 194.491 194.251 194.021 193.882 -9999 193.112 192.959 193.097 193.313 193.365 193.254 193.071 192.92 192.482 192.054 191.814 191.544 191.335 191.111 191.027 190.884 190.587 190.477 190.301 190.224 190.087 189.841 189.796 189.542 189.415 189.343 189.254 189.155 188.909 188.832 188.685 188.541 188.45 188.238 188.195 188.146 188.075 187.921 187.746 187.636 187.437 187.381 187.316 187.159 186.987 186.736 186.707 186.67 186.607 186.487 186.381 186.348 186.232 186.176 186.133 186.122 186.062 186.001 185.935 185.883 185.901 185.838 185.827 185.719 185.68 185.694 185.68 185.656 185.6 185.6 185.504 185.463 185.531 185.545 185.479 185.388 185.428 185.462 185.488 185.434 185.424 185.387 185.356 185.26 185.153 185.169 185.08 185.026 184.893 184.815 184.754 184.705 184.556 184.368 184.314 184.225 184.193 184.034 183.965 183.935 183.879 183.862 183.773 183.712 183.558 183.5 183.458 183.415 183.319 183.094 183.071 182.992 182.955 182.909 182.826 182.768 182.604 182.577 182.503 182.425 182.34 182.197 182.179 181.98 181.891 181.701 181.541 181.538 181.535 -9999 -9999 -9999 -9999 -9999 -9999 -9999 -9999 -9999 -9999 -9999 -9999 -9999 -9999 -9999 -9999 -9999 -9999 -9999 -9999 -9999 -9999 -9999 -9999 -9999 -9999 -9999 -9999 -9999 -9999 -9999 -9999 -9999 -9999 -9999 -9999 -9999 -9999 -9999 -9999 -9999 -9999 -9999 -9999 -9999 -9999 -9999 -9999 -9999 -9999 -9999 -9999 -9999 -9999 -9999
191.511 191.419 190.839 190.69 190.648 190.68 190.23 190.512 190.783 190.86 190.831 191.282 191.535 191.785 191.482 191.822 191.531 190.652 190.472 191.144 193.915 193.842 192.11 190.95 191.085 190.84 190.391 190.017 189.893 190.554 193.206 193.804 195.322 195.794 194.567 190.622 190.183 190.049 190.379 190.171 189.617 189.293 189.272 -9999 -9999 -9999 188.958 189.047 189.309 189.58 192.34 194.293 195.037 195.236 194.942 193.58 190.697 189.055 188.376 188.122 188.242 189.058 189.83 189.184 189.016 188.616 188.604 188.511 188.553 188.817 189.385 189.246 188.364 188.255 188.103 188.08 188.111 188.518 189.845 190.393 190.492 190.714 190.473 189.868 189.86 189.412 189.983 191.689 191.967 193.476 194.483 192.363 190.375 189.637 189.715 189.813 190.078 190.122 -9999 190.076 -9999 -9999 -9999 191.175 191.161 191.311 191.552 191.538 191.489 191.428 191.583 191.729 191.934 192.387 193.49 195.149 195.527 194.165 192.933 192.933 193.305 193.313 193.669 192.875 192.841 192.612 192.317 192.211 192.282 192.375 192.466 192.561 192.639 192.778 192.936 -9999 193.916 193.949 193.895 193.925 193.773 193.355 193.191 193.465 193.828 194.095 194.195 194.223 194.311 194.33 194.387 194.487 195.598 197.384 197.886 195.563 194.86 195.185 196.564 198.425 199.24 199.24 197.59 196.336 197.351 198.373 196.781 195.266 195.886 198.656 198.635 197.42 196.098 197.376 198.989 198.204 196.485 195.438 195.14 195.204 195.442 195.672 195.855 196.032 195.742 195.549 195.458 195.504 195.569 195.513 195.419 195.363 195.334 195.232 195.219 195.143 195.045 194.986 194.879 194.763 194.545 194.216 194.057 193.942 193.512 193.094 192.796 192.939 193.2 193.198 193.136 193.056 192.94 192.431 192.067 191.807 191.511 191.31 191.094 191.08 190.838 190.594 190.432 190.238 190.178 190.035 189.871 189.731 189.495 189.407 189.279 189.191 189.071 188.787 188.763 188.619 188.524 188.438 188.223 188.113 188.062 188.01 187.823 187.595 187.536 187.367 187.289 187.244 187.156 186.898 186.67 186.672 186.569 186.526 186.367 186.23 186.169 186.055 186.071 185.987 186.017 185.989 185.972 185.923 185.875 185.823 185.686 185.614 185.604 185.577 185.614 185.665 185.599 185.558 185.548 185.501 185.462 185.473 185.451 185.379 185.34 185.366 185.41 185.369 185.329 185.31 185.268 185.247 185.1 184.996 185.007 185.013 184.941 184.789 184.747 184.66 184.604 184.416 184.318 184.287 184.159 184.105 184.022 183.973 183.887 183.805 183.749 183.683 183.632 183.464 183.37 183.346 183.337 183.268 183.141 183.089 182.959 182.924 182.856 182.767 182.697 182.552 182.493 182.332 182.282 182.183 182.117 182.083 181.98 182.02 181.733 181.648 181.558 181.479 181.43 -9999 -9999 -9999 -9999 -9999 -9999 -9999 -9999 -9999 -9999 -9999 -9999 -9999 -9999 -9999 -9999 -9999 -9999 -9999 -9999 -9999 -9999 -9999 -9999 -9999 -9999 -9999 -9999 -9999 -9999 -9999 -9999 -9999 -9999 -9999 -9999 -9999 -9999 -9999 -9999 -9999 -9999 -9999 -9999 -9999 -9999 -9999 -9999 -9999 -9999 -9999 -9999 -9999 -9999
191.633 190.561 190.575 190.437 190.298 190.209 190.128 190.246 190.273 190.832 191.411 191.832 191.951 192.381 191.406 192.377 192.083 191.127 190.39 190.838 191.196 191.17 190.372 190.464 190.948 191.32 190.471 189.989 189.902 190.037 190.059 191.91 194.113 195.623 195.068 194.081 190.942 189.877 190.139 190.249 189.499 189.113 189.218 189.094 -9999 -9999 -9999 189.358 189.29 189.066 190.087 191.845 193.927 194.419 194.155 193.28 189.874 188.608 188.005 187.891 187.885 188.116 188.503 189.106 190.273 190.066 189.715 189.79 188.683 188.511 188.716 188.451 188.094 187.973 188.029 188.164 188.534 189.059 191.274 192.106 191.969 191.655 190.688 188.994 189.372 189.374 189.367 189.132 190.611 191.863 192.912 -9999 -9999 189.874 189.569 189.686 189.791 189.911 189.919 189.963 190.095 -9999 -9999 191.14 191.124 191.24 191.776 191.441 191.186 191.304 191.464 191.573 191.642 191.89 192.339 192.59 192.773 192.842 192.603 193.337 193.776 192.688 192.767 192.561 192.846 192.488 192.06 192.099 192.171 192.235 192.344 192.526 192.639 192.981 193.051 193.426 193.884 194.203 194.02 194.082 194.01 193.595 193.322 193.563 193.843 193.972 194.172 194.247 194.278 194.353 194.501 196.034 197.024 197.326 197.308 196.428 195.293 195.29 197.904 198.597 198.71 197.895 196.512 195.653 198.128 201.09 198.82 195.937 196.06 197.343 196.174 197.432 197.649 198.454 199.541 198.746 197.384 195.55 195.134 195.041 195.315 195.609 195.721 195.701 195.625 195.619 195.579 195.584 195.589 195.565 195.545 195.451 195.354 195.295 195.176 195.081 194.991 194.938 194.792 194.618 194.48 194.215 194.098 193.83 193.335 193.146 193 192.94 193.05 193.033 193.006 192.97 192.86 192.577 192.202 191.808 191.523 191.303 191.273 191.136 190.78 190.584 190.358 190.114 190.137 189.977 189.869 189.68 189.507 189.392 189.218 189.102 188.994 188.906 188.804 188.596 188.525 188.431 188.334 188.133 188.018 187.934 187.716 187.579 187.486 187.374 187.205 187.11 187.035 186.815 186.64 186.564 186.437 186.372 186.31 186.183 186.082 186.026 186.044 185.879 185.897 185.849 185.852 185.83 185.797 185.722 185.605 185.582 185.589 185.47 185.511 185.523 185.482 185.46 185.493 185.492 185.438 185.357 185.338 185.312 185.312 185.301 185.284 185.247 185.2 185.184 185.12 185.074 184.956 184.881 184.808 184.82 184.771 184.628 184.605 184.57 184.532 184.361 184.309 184.254 184.135 184.075 184.012 184.028 183.898 183.803 183.695 183.633 183.599 183.556 183.432 183.34 183.299 183.223 183.167 183.089 182.951 182.897 182.827 182.778 182.702 182.573 182.442 182.264 182.196 182.141 182.072 182.025 181.874 181.847 181.697 181.623 181.484 181.422 181.412 -9999 -9999 -9999 -9999 -9999 -9999 -9999 -9999 -9999 -9999 -9999 -9999 -9999 -9999 -9999 -9999 -9999 -9999 -9999 -9999 -9999 -9999 -9999 -9999 -9999 -9999 -9999 -9999 -9999 -9999 -9999 -9999 -9999 -9999 -9999 -9999 -9999 -9999 -9999 -9999 -9999 -9999 -9999 -9999 -9999 -9999 -9999 -9999 -9999 -9999 -9999 -9999 -9999 -9999
190.513 190.333 190.242 190.357 190.468 190.343 190.176 190.208 190.086 190.616 191.355 190.835 191.187 194.003 194.956 193.72 192.381 192.039 191.06 190.391 190.471 190.636 190.436 190.384 190.554 190.498 190.421 190.17 189.934 189.727 189.713 190.017 192.27 195.242 195.563 195.076 193.725 191.023 189.442 189.623 189.364 189.274 189.173 189.055 188.955 -9999 -9999 -9999 189.063 189.09 189.268 189.588 191.35 193.341 192.574 190.782 188.482 187.999 188.3 188.111 187.566 187.866 188.02 188.563 189.785 191.027 190.058 188.774 188.361 187.964 187.822 187.889 187.975 188.094 188.095 188.467 190.284 192.46 191.897 192.671 190.974 189.938 189.363 188.809 188.912 188.977 189.003 189.094 189.762 190.482 191.481 191.964 191.33 190.302 189.549 189.515 189.749 189.964 189.919 189.736 190.032 190.622 -9999 -9999 191.258 191.316 191.28 191.124 191.324 191.386 191.451 191.516 191.592 191.635 191.845 192.185 192.478 193.214 194.007 193.309 192.918 192.462 192.276 192.262 192.306 192.082 191.914 192.059 192.136 192.235 192.327 192.507 192.6 192.904 193.113 193.342 193.811 194.527 195.314 194.66 194.41 194.021 193.698 -9999 193.847 193.899 194.193 194.254 194.287 194.412 195.318 197.735 197.86 197.702 197.929 197.678 196.099 195.032 196.409 197.52 197.057 196.263 194.939 195.772 200.034 199.908 197.907 196.119 197.556 197.755 196.312 196.635 197.41 198.401 199.102 199.097 198.383 196.681 195.222 195.282 195.45 195.568 195.522 195.451 195.549 195.606 195.683 -9999 195.618 195.634 195.649 195.517 195.379 195.266 195.141 195.032 194.935 194.889 194.729 194.562 194.467 194.318 194.171 193.765 193.245 193.158 -9999 -9999 192.864 192.911 192.899 192.895 192.8 192.54 192.251 191.806 191.55 191.384 191.242 191.102 190.769 190.596 190.336 190.145 190.132 189.941 189.837 189.646 189.449 189.351 189.173 189.09 188.99 188.887 188.771 188.561 188.486 188.37 188.258 188.118 188.002 187.878 187.672 187.561 187.428 187.293 187.167 187.006 186.981 186.718 186.605 186.423 186.256 186.238 186.152 186.062 185.994 185.923 185.868 185.792 185.763 185.7 185.7 185.64 185.636 185.514 185.494 185.466 185.424 185.424 185.41 185.379 185.301 185.361 185.347 185.284 185.269 185.241 185.191 185.128 185.168 185.181 185.159 185.089 185.064 184.974 184.891 184.786 184.72 184.646 184.556 184.524 184.488 184.427 184.375 184.334 184.272 184.227 184.207 184.172 184.11 183.968 183.885 183.918 183.88 183.765 183.655 183.585 183.532 183.449 183.42 183.335 183.272 183.116 183.109 183.016 182.912 182.86 182.803 182.845 182.686 182.621 182.429 182.256 182.201 182.179 182.239 182.029 181.889 181.795 181.657 181.571 181.415 181.447 181.41 181.375 181.364 -9999 -9999 -9999 -9999 -9999 -9999 -9999 -9999 -9999 -9999 -9999 -9999 -9999 -9999 -9999 -9999 -9999 -9999 -9999 -9999 -9999 -9999 -9999 -9999 -9999 -9999 -9999 -9999 -9999 -9999 -9999 -9999 -9999 -9999 -9999 -9999 -9999 -9999 -9999 -9999 -9999 -9999 -9999 -9999 -9999 -9999 -9999 -9999 -9999 -9999 -9999 -9999
190.274 190.154 190.07 190.409 190.691 190.378 190.177 190.349 190.602 191.064 190.87 190.554 191.205 195.15 196.467 196.234 193.853 192.273 191.022 190.439 190.86 191.548 190.675 190.382 190.393 190.915 190.524 190.339 190.18 189.684 189.709 189.938 191.26 191.898 194.683 196.125 195.812 193.743 191.174 189.933 189.504 189.367 189.253 189.017 188.805 188.605 188.532 -9999 188.799 189.175 189.294 189.244 189.078 189.647 189.324 188.772 188.019 188.001 190.833 190.192 188.246 187.799 187.82 187.896 188.17 188.928 190.002 189.335 188.516 187.833 187.819 187.804 188.127 189.258 190.342 190.125 190.241 191.026 190.854 190.573 188.68 188.26 188.185 188.344 188.609 188.741 188.83 189.056 189.824 189.95 190.826 191.909 192.439 191.017 190.027 189.684 190.003 190.257 190.259 190.176 190.641 191.074 -9999 -9999 -9999 191.436 191.374 191.373 191.472 191.466 191.424 191.484 191.557 191.507 191.716 192.205 192.974 193.705 193.527 192.481 192.237 192.081 192.123 192.012 192.06 191.933 191.957 192.067 192.154 192.245 192.384 192.502 192.689 192.9 193.059 193.199 193.46 194.095 194.854 194.831 194.53 194.014 193.887 -9999 193.859 193.834 193.817 194.106 194.332 194.627 195.344 197.331 197.883 198.314 198.383 198.863 197.501 195.443 195.175 195.913 195.469 195.177 194.834 195.249 196.456 196.978 197.383 196.723 201.607 200.122 196.296 195.763 197.286 197.833 198.735 198.366 198.17 197.018 196.478 196.104 196.205 196.136 195.464 195.45 195.68 195.843 195.766 195.725 195.666 195.653 195.606 195.552 195.457 195.299 195.116 195.004 194.886 194.878 194.741 194.634 194.483 194.373 194.115 193.745 193.489 193.431 193.163 192.76 192.599 192.717 192.785 192.738 192.694 192.566 192.196 191.896 191.69 191.383 191.177 190.962 190.686 190.584 190.317 190.171 190.107 189.982 189.816 189.573 189.484 189.343 189.182 189.117 189.049 188.896 188.695 188.507 188.428 188.323 188.22 188.047 187.877 187.727 187.526 187.459 187.291 187.205 187.07 186.936 186.822 186.556 186.491 186.306 186.112 186.061 186.017 185.898 185.869 185.82 185.753 185.682 185.613 185.541 185.549 185.477 185.425 185.313 185.286 185.263 185.206 185.261 185.192 185.218 185.053 185.112 185.131 185.079 185.057 185.038 185.03 184.984 185.004 184.99 184.991 184.851 184.819 184.761 184.695 184.592 184.434 184.432 184.337 184.297 184.172 184.127 184.18 184.164 184.118 184.086 184.052 183.956 183.914 183.76 183.752 183.747 183.673 183.642 183.571 183.561 183.372 183.306 183.245 183.236 183.137 182.974 182.912 182.854 182.798 182.737 182.645 182.633 182.513 182.484 182.316 182.163 182.127 182.091 182.129 182.006 181.945 181.814 181.69 181.55 181.453 181.438 181.377 181.358 181.335 -9999 -9999 -9999 -9999 -9999 -9999 -9999 -9999 -9999 -9999 -9999 -9999 -9999 -9999 -9999 -9999 -9999 -9999 -9999 -9999 -9999 -9999 -9999 -9999 -9999 -9999 -9999 -9999 -9999 -9999 -9999 -9999 -9999 -9999 -9999 -9999 -9999 -9999 -9999 -9999 -9999 -9999 -9999 -9999 -9999 -9999 -9999 -9999 -9999 -9999 -9999 -9999
190.174 190.141 190.167 190.293 190.286 190.08 189.966 190.22 190.976 191.322 190.867 190.979 192.512 196.489 197.74 196.669 193.13 190.969 190.682 191.254 191.788 192.513 191.03 190.374 190.397 190.723 190.706 190.528 190.353 190.042 189.868 189.926 190.1 190.008 192.749 194.692 194.621 193.172 191.148 189.832 189.501 189.268 189.658 189.04 188.644 188.388 188.354 188.307 -9999 189.009 189.118 188.943 188.47 188.394 188.43 188.57 188.986 190.291 193.168 192.436 189.03 187.662 187.736 187.632 187.657 187.787 188.849 189.667 189.411 188.458 188.053 187.84 188.127 189.924 192.057 191.321 188.51 188.138 188.122 187.944 187.819 187.854 188.007 188.305 189.106 189.862 188.826 188.713 189.804 191.137 192.067 190.917 191.401 191.086 190.523 191.687 191.836 191.491 190.848 190.928 191.679 191.577 191.345 -9999 -9999 -9999 191.655 191.991 192.094 191.343 191.362 191.416 191.472 191.556 191.858 192.528 193.208 193.225 192.906 192.307 191.993 191.988 191.921 191.814 191.872 191.846 191.914 192.054 192.159 192.265 192.41 192.565 192.817 192.939 193.011 193.103 193.154 193.256 194.042 194.771 194.308 193.997 193.934 193.982 194.019 193.928 193.9 194.098 194.379 195.271 195.314 196.408 197.782 198.351 198.225 198.063 197.289 195.502 194.959 195.035 195.037 194.868 194.766 194.793 195.124 195.649 197.075 198.117 201.695 202.488 198.713 195.731 196.176 197.957 197.941 196.292 196.386 197.147 197.886 197.04 196.494 196.703 195.642 195.506 195.557 195.713 195.7 -9999 195.639 195.631 195.615 195.638 195.552 195.335 195.182 195.091 194.99 194.869 194.722 194.68 194.53 194.371 194.151 193.903 193.673 193.435 193.116 192.595 192.361 192.555 192.659 192.674 192.61 192.525 192.305 192.08 191.749 191.331 191.135 190.873 190.602 190.585 190.321 190.174 190.116 190.044 189.801 189.55 189.511 189.338 189.165 189.056 188.914 188.794 188.625 188.495 188.413 188.334 188.169 187.978 187.849 187.606 187.397 187.355 187.212 187.083 186.917 186.81 186.673 186.456 186.373 186.168 185.992 185.951 185.891 185.836 185.796 185.705 185.659 185.591 185.503 185.505 185.445 185.308 185.306 185.184 185.196 185.159 185.084 185.078 185.063 185.045 184.804 184.906 184.916 184.929 184.883 184.928 184.902 184.807 184.81 184.792 184.793 184.669 184.592 184.633 184.544 184.442 184.329 184.257 184.166 184.108 184.01 183.985 183.961 183.913 183.888 183.857 183.835 183.781 183.719 183.623 183.598 183.617 183.555 183.458 183.302 183.308 183.218 183.163 183.099 182.994 182.947 182.884 182.794 182.75 182.724 182.585 182.515 182.449 182.293 182.32 182.155 182.133 182.014 181.928 181.958 181.902 181.891 181.779 181.702 181.528 181.441 181.411 181.372 181.335 181.322 181.277 -9999 -9999 -9999 -9999 -9999 -9999 -9999 -9999 -9999 -9999 -9999 -9999 -9999 -9999 -9999 -9999 -9999 -9999 -9999 -9999 -9999 -9999 -9999 -9999 -9999 -9999 -9999 -9999 -9999 -9999 -9999 -9999 -9999 -9999 -9999 -9999 -9999 -9999 -9999 -9999 -9999 -9999 -9999 -9999 -9999 -9999 -9999 -9999 -9999 -9999 -9999
190.096 190.078 190.129 -9999 189.958 189.768 189.797 189.998 190.242 190.367 190.964 193.818 196.133 197.686 197.539 192.742 190.639 190.441 190.736 192.161 192.436 191.66 190.686 190.421 190.445 190.656 190.965 190.569 190.515 190.425 190.566 189.818 189.446 189.573 190.003 193.097 192.027 189.88 189.586 188.669 188.75 188.926 188.986 188.652 188.513 188.27 188.179 188.102 188.204 -9999 188.654 188.544 188.357 188.257 188.265 188.454 191.048 192.387 193.793 193.133 191.394 188.731 187.615 187.543 187.683 187.936 188.075 189.007 189.76 188.512 188.233 188.289 187.992 188.135 188.821 188.819 187.823 187.636 187.687 187.666 187.765 188.3 188.719 188.557 188.715 189.178 188.552 188.705 190.013 191.295 190.792 189.826 190.133 191.408 192.542 193.62 193.526 193.143 191.233 190.645 191.121 191.703 191.464 190.972 -9999 -9999 191.658 191.983 191.923 191.431 191.327 191.16 191.294 191.568 192.131 193.073 193.127 192.783 192.039 191.77 191.731 191.846 191.822 191.739 191.89 191.927 191.857 192.011 192.146 192.326 192.476 192.608 192.82 193.117 193.02 192.929 192.986 193.28 193.346 193.891 194.239 194.448 193.852 194.03 194.354 194.359 194.161 194.118 194.267 196.036 194.963 195.347 197.112 197.901 196.681 196.914 195.968 195.067 194.769 194.759 194.972 194.962 194.9 194.918 194.971 196 197.175 197.797 200.216 199.823 197.702 195.675 196.008 196.944 197.078 197.213 197.876 198.849 198.738 197.024 195.433 195.553 195.488 195.357 195.445 195.528 195.543 195.546 -9999 195.585 195.579 195.588 195.587 195.355 195.194 195.149 195.119 194.892 194.686 194.649 194.524 194.46 194.249 193.989 193.697 193.339 193.165 192.758 192.483 192.444 -9999 192.522 192.542 192.52 192.418 192.212 191.781 191.29 191.093 190.739 190.524 190.45 190.303 190.184 189.991 189.878 189.732 189.497 189.44 189.263 189.082 188.945 188.781 188.73 188.567 188.463 188.378 188.25 188.102 187.855 187.783 187.556 187.292 187.245 187.149 187.026 186.801 186.673 186.565 186.478 186.313 186.156 186.009 185.881 185.85 185.791 185.738 185.627 185.516 185.455 185.371 185.344 185.358 185.327 185.241 185.166 185.147 185.121 185.049 185.003 184.956 184.919 184.83 184.796 184.805 184.824 184.764 184.796 184.784 184.715 184.598 184.56 184.616 184.546 184.533 184.543 184.431 184.295 184.238 184.077 183.946 183.903 183.78 183.856 183.775 183.769 183.732 183.672 183.669 183.616 183.594 183.54 183.52 183.487 183.445 183.281 183.188 183.16 183.121 183.076 183.041 182.948 182.809 182.73 182.713 182.644 182.625 182.504 182.362 182.344 182.337 182.213 181.958 181.995 181.971 181.905 181.85 181.797 181.764 181.717 181.592 181.467 181.387 181.369 181.404 181.378 181.26 181.207 -9999 -9999 -9999 -9999 -9999 -9999 -9999 -9999 -9999 -9999 -9999 -9999 -9999 -9999 -9999 -9999 -9999 -9999 -9999 -9999 -9999 -9999 -9999 -9999 -9999 -9999 -9999 -9999 -9999 -9999 -9999 -9999 -9999 -9999 -9999 -9999 -9999 -9999 -9999 -9999 -9999 -9999 -9999 -9999 -9999 -9999 -9999 -9999 -9999 -9999 -9999
189.902 190.053 -9999 -9999 189.923 189.633 189.914 190.121 190.035 191.162 192.362 196.309 197.723 197.177 193.842 190.894 190.43 190.394 190.347 190.958 191.245 190.797 190.295 190.315 190.556 191.006 191.534 190.998 190.599 190.666 190.218 189.729 189.455 189.478 189.882 191.452 191.307 190.004 189.304 188.193 188.605 189.042 188.645 188.353 188.166 188.146 188.091 187.955 187.973 188.066 -9999 188.266 188.179 188.112 188.082 188.088 188.397 190.895 192.957 193.688 193.289 190.972 188.307 187.619 188.027 188.998 188.908 188.617 188.071 188.011 188.257 188.348 187.871 187.714 187.515 187.522 187.538 187.576 187.683 187.675 187.83 188.424 189.579 188.511 188.53 188.608 188.619 188.735 189.436 189.815 189.727 190.575 190.148 191.482 193.623 195.761 194.836 193.649 191.974 190.854 190.393 191.089 190.936 190.57 190.792 -9999 -9999 -9999 191.621 191.494 191.387 191.043 191.445 191.863 192.12 193.406 192.736 191.971 191.424 191.451 191.549 191.563 191.544 191.687 191.983 192.097 191.833 192.113 192.196 192.712 192.723 192.565 192.672 192.87 192.842 192.798 193.198 194.007 194.16 193.848 194.025 194.185 193.943 194.206 195.144 195.04 194.456 194.392 194.624 195.041 194.931 195.035 195.947 195.857 194.799 194.899 194.63 194.657 195.033 195.208 195.146 195.283 195.03 195.687 195.416 195.914 196.565 196.881 195.907 195.916 195.657 195.264 195.665 196.101 196.412 198.187 198.904 199.883 199.435 197.874 195.993 195.522 195.433 195.499 195.646 195.533 195.478 195.503 195.529 195.521 195.532 195.449 195.451 195.388 195.238 195.111 194.994 194.874 194.755 194.67 194.466 194.398 194.244 193.982 193.587 193.285 193.131 192.974 -9999 -9999 192.227 192.376 192.373 192.394 192.393 192.291 191.771 191.259 191.016 190.668 190.455 190.308 190.219 190.112 189.889 189.783 189.637 189.513 189.398 189.229 189.064 188.884 188.745 188.673 188.588 188.535 188.285 188.169 188.03 187.844 187.701 187.482 187.312 187.189 187.107 186.961 186.737 186.656 186.456 186.282 186.229 186.155 185.994 185.785 185.76 185.72 185.673 185.539 185.378 185.347 185.259 185.261 185.275 185.266 185.219 185.16 185.107 185.058 184.991 184.958 184.926 184.86 184.808 184.741 184.755 184.755 184.7 184.703 184.702 184.55 184.472 184.448 184.448 184.447 184.425 184.363 184.267 184.179 184.118 183.985 183.996 183.882 183.755 183.731 183.645 183.605 183.585 183.6 183.561 183.535 183.497 183.442 183.394 183.353 183.308 183.158 183.098 183.068 183.03 183.018 182.962 182.886 182.701 182.616 182.612 182.597 182.565 182.546 182.413 182.264 182.151 182.1 181.977 181.959 181.968 181.875 181.768 181.676 181.634 181.591 181.538 181.375 181.269 181.31 181.359 181.308 181.186 181.131 181.066 181.028 -9999 -9999 -9999 -9999 -9999 -9999 -9999 -9999 -9999 -9999 -9999 -9999 -9999 -9999 -9999 -9999 -9999 -9999 -9999 -9999 -9999 -9999 -9999 -9999 -9999 -9999 -9999 -9999 -9999 -9999 -9999 -9999 -9999 -9999 -9999 -9999 -9999 -9999 -9999 -9999 -9999 -9999 -9999 -9999 -9999 -9999 -9999 -9999 -9999
189.997 190.323 -9999 190.566 190.236 189.958 190.123 190.155 190.204 192.745 195.814 197.389 197.161 195.327 191.183 190.902 191.335 190.843 190.27 190.196 190.176 190.103 190.164 190.284 190.408 190.715 190.749 190.657 190.612 190.118 189.734 189.594 189.526 189.432 189.492 189.799 191 191.014 190.33 190.052 190.419 191.584 191.773 189.467 188.365 187.973 188.018 188.064 188.061 187.893 187.849 -9999 -9999 187.867 187.554 187.431 187.75 188.05 190.275 192.958 193.949 192.658 190.603 188.725 188.182 188.428 188.836 188.033 187.193 187.298 188.212 189.445 188.636 187.614 187.511 187.554 187.531 187.554 187.67 187.701 187.94 188.391 188.769 188.492 188.332 188.469 188.713 189.277 190.128 191.2 191.566 191.546 191.449 191.607 192.929 195.012 195.795 193.852 192.526 191.133 190.495 190.452 190.39 190.137 190.468 191.14 -9999 -9999 -9999 191.616 191.696 192.377 192.948 193.389 192.023 191.774 191.347 191.294 191.174 191.222 191.321 191.347 191.465 191.461 191.93 193.256 192.653 192.232 192.751 193.375 192.887 192.688 192.641 192.651 193.192 194.312 195.422 195.629 195.368 193.385 193.862 193.912 193.883 194.22 195.486 195.234 194.748 -9999 194.604 194.586 194.587 194.696 195.143 195.001 194.536 194.519 194.406 194.749 196.18 196.514 195.957 195.993 196.292 196.826 196.396 196.554 196.172 196.057 195.201 195.087 195.465 195.869 195.538 195.463 196.498 197.048 197.962 199.507 200.074 198.54 197.245 195.898 195.562 195.926 195.918 195.579 195.589 195.536 195.596 -9999 195.497 195.433 195.474 195.5 195.284 195.092 195.004 194.871 194.677 194.604 194.45 194.319 194.275 193.963 193.622 193.291 193.084 192.875 192.659 192.287 192.093 192.229 192.3 192.339 192.42 192.224 191.759 191.258 190.975 190.652 190.54 190.346 190.193 190.047 189.892 189.778 189.604 189.502 189.37 189.226 189.088 188.868 188.752 188.683 188.633 188.474 188.194 188.062 188.01 187.88 187.669 187.532 187.29 187.186 187.06 186.908 186.688 186.663 186.313 186.277 186.105 186.048 185.949 185.769 185.688 185.641 185.548 185.484 185.436 185.344 185.272 185.221 185.238 185.236 185.22 185.137 185.088 185.052 185.017 184.952 184.906 184.818 184.688 184.704 184.713 184.697 184.649 184.634 184.631 184.553 184.426 184.48 184.384 184.323 184.301 184.286 184.182 184.102 184.036 183.898 183.899 183.816 183.715 183.62 183.59 183.549 183.482 183.485 183.44 183.376 183.388 183.369 183.315 183.259 183.216 183.102 183.099 183.04 182.978 182.945 182.921 182.805 182.672 182.644 182.573 182.544 182.427 182.337 182.303 182.144 182.139 182.024 181.999 181.914 181.797 181.747 181.674 181.622 181.557 181.5 181.443 181.338 181.269 181.259 181.229 181.116 181.017 181.038 181.003 180.966 -9999 -9999 -9999 -9999 -9999 -9999 -9999 -9999 -9999 -9999 -9999 -9999 -9999 -9999 -9999 -9999 -9999 -9999 -9999 -9999 -9999 -9999 -9999 -9999 -9999 -9999 -9999 -9999 -9999 -9999 -9999 -9999 -9999 -9999 -9999 -9999 -9999 -9999 -9999 -9999 -9999 -9999 -9999 -9999 -9999 -9999 -9999 -9999 -9999
-9999 190.761 190.971 190.805 190.541 190.042 189.928 189.884 190.16 191.498 194.514 194.588 193.65 191.783 190.836 191.634 192.952 191.658 190.282 190.17 190.085 190.105 190.142 190.31 190.344 190.278 190.205 190.398 191.285 192.867 190.096 189.573 189.648 189.412 189.679 189.344 189.207 189.662 190.049 190.374 192.232 193.446 190.924 190.282 188.531 187.932 187.994 188.235 188.147 187.547 187.655 187.775 -9999 187.683 187.562 187.681 187.992 187.564 187.948 190.835 193.168 193.084 191.629 188.613 187.561 186.814 187.042 187.081 187.007 187.136 187.8 188.827 189.123 188.984 188.681 187.83 187.645 187.822 187.892 187.986 188.123 188.426 188.557 188.402 188.182 188.428 188.976 190.087 192.235 194.03 193.874 192.592 191.25 190.249 192.358 193.623 194.157 193.483 192.064 190.313 190.302 190.273 190.406 190.602 191.341 191.682 -9999 -9999 -9999 -9999 192.048 192.467 192.611 192.654 191.978 191.535 191.148 191.112 191.076 191.136 191.258 191.309 191.379 191.44 191.717 192.36 192.478 192.345 192.678 194.022 193.17 192.686 192.626 192.852 194.7 196.51 197.365 197.091 195.909 194.784 194.698 193.502 193.539 194.485 195.203 194.399 194.476 194.252 194.236 194.298 194.239 194.279 194.443 194.543 194.537 194.598 194.581 194.822 196.481 197.173 195.88 196.627 197.955 199.673 196.818 199.018 197.956 196.219 195.066 195.106 195.361 195.618 195.39 195.394 195.924 196.338 196.738 198.181 199.338 198.765 196.962 195.892 196.034 197.328 196.381 195.882 195.726 195.687 195.702 195.683 -9999 195.463 195.477 195.434 195.326 195.192 195.013 194.907 194.731 194.579 194.484 194.38 194.25 194.011 193.61 193.362 193.046 192.772 192.662 192.104 191.842 192.081 192.221 192.287 192.319 192.188 191.731 191.419 191.045 190.721 190.585 190.398 190.262 190.056 189.904 189.784 189.539 189.524 189.34 189.164 189.086 188.937 188.77 188.626 188.574 188.446 188.227 188.109 188.007 187.74 187.603 187.496 187.362 187.177 187.008 186.861 186.78 186.598 186.321 186.241 186.049 186.002 185.897 185.795 185.653 185.532 185.457 185.373 185.336 185.338 185.318 185.277 185.277 185.203 185.193 185.164 185.069 185.051 185.025 185.084 184.962 184.781 184.71 184.727 184.665 184.59 184.592 184.585 184.592 184.491 184.397 184.415 184.383 184.255 184.094 184.053 184.026 183.99 183.926 183.819 183.77 183.626 183.575 183.508 183.452 183.457 183.42 183.38 183.338 183.333 183.295 183.263 183.207 183.165 183.138 183.097 183.115 183.081 182.98 182.867 182.762 182.707 182.616 182.565 182.473 182.475 182.264 182.13 182.111 181.928 181.974 181.948 181.886 181.816 181.654 181.63 181.56 181.615 181.494 181.479 181.377 181.287 181.229 181.204 181.151 180.944 180.889 180.93 180.964 180.948 180.95 180.985 -9999 -9999 -9999 -9999 -9999 -9999 -9999 -9999 -9999 -9999 -9999 -9999 -9999 -9999 -9999 -9999 -9999 -9999 -9999 -9999 -9999 -9999 -9999 -9999 -9999 -9999 -9999 -9999 -9999 -9999 -9999 -9999 -9999 -9999 -9999 -9999 -9999 -9999 -9999 -9999 -9999 -9999 -9999 -9999 -9999 -9999 -9999
-9999 190.997 191.11 190.973 190.79 190.02 189.833 189.657 190.034 190.672 191.826 192.143 191.008 190.336 190.493 190.831 191.593 191.121 190.31 190.244 190.241 190.269 190.504 190.851 190.435 190.179 189.947 190.093 191.946 190.715 190.247 189.847 190.104 190.472 190.006 189.148 188.447 188.204 188.581 189.44 192.632 194.966 194.576 192.632 189.109 188.028 188.426 188.868 188.516 187.882 187.916 187.735 187.326 -9999 187.458 187.693 187.662 187.361 187.574 190.197 192.274 191.499 188.258 187.621 186.896 186.573 186.299 186.488 186.842 186.889 187.063 188.002 188.961 190.046 189.848 188.007 187.776 188.396 188.979 188.145 188.403 188.741 188.467 188.091 188.085 188.931 190.254 191.942 193.27 195.071 192.298 192.822 191.555 191.081 192.563 192.903 193.258 193.268 192.364 191.072 190.331 190.062 190.461 191.419 193.727 192.117 191.37 191.053 190.856 -9999 -9999 191.867 191.258 190.831 191.284 191.078 190.88 190.883 190.868 191.048 191.278 191.301 191.297 191.335 191.691 191.888 192.147 192.125 192.168 192.516 192.579 192.55 192.617 193.032 195.785 197.238 197.917 197.347 196.141 195.447 194.374 193.447 193.535 194.402 194.707 194.305 194.117 194.066 194.137 194.234 194.304 194.365 194.429 194.443 194.617 194.682 194.733 194.912 196.348 195.521 196.118 198.925 200.367 201.69 200.551 199.515 197.704 195.729 195.193 195.124 195.173 195.377 195.453 195.458 195.488 195.662 195.929 196.936 198.594 199.213 196.515 196.64 196.302 196.714 196.286 195.967 195.826 195.806 195.807 195.795 195.652 195.463 195.498 195.382 195.358 195.196 195.061 194.867 194.723 194.583 194.419 194.33 194.291 193.991 193.723 193.601 193.161 192.901 192.712 192.233 191.875 191.899 192.047 192.178 192.253 192.118 191.773 191.534 191.077 190.716 190.554 190.386 190.274 190.065 189.928 189.747 189.596 189.603 189.295 189.163 189.069 188.939 188.737 188.552 188.56 188.441 188.288 188.12 187.911 187.716 187.521 187.487 187.328 187.1 186.977 186.823 186.739 186.529 186.319 186.224 186.179 186.02 185.841 185.734 185.603 185.436 185.357 185.297 185.265 185.263 185.253 185.231 185.11 185.115 185.137 185.113 185.034 184.971 184.929 184.913 184.878 184.758 184.705 184.663 184.593 184.484 184.565 184.458 184.439 184.355 184.311 184.288 184.226 184.09 183.914 183.862 183.807 183.805 183.769 183.729 183.634 183.482 183.448 183.512 183.52 183.373 183.319 183.29 183.257 183.252 183.183 183.148 183.116 183.101 183.048 183.032 183.005 182.97 182.899 182.785 182.711 182.575 182.496 182.454 182.357 182.355 182.27 182.22 182.092 181.962 181.945 181.94 181.878 181.735 181.649 181.558 181.482 181.497 181.41 181.447 181.28 181.16 181.147 181.144 181.09 180.94 180.871 180.895 180.888 180.915 180.952 180.966 -9999 -9999 -9999 -9999 -9999 -9999 -9999 -9999 -9999 -9999 -9999 -9999 -9999 -9999 -9999 -9999 -9999 -9999 -9999 -9999 -9999 -9999 -9999 -9999 -9999 -9999 -9999 -9999 -9999 -9999 -9999 -9999 -9999 -9999 -9999 -9999 -9999 -9999 -9999 -9999 -9999 -9999 -9999 -9999 -9999 -9999 -9999
190.643 190.855 191.157 190.783 190.172 190.281 190.794 190.949 190.832 190.328 190.446 190.735 190.304 190.436 190.288 190.293 190.538 191.035 190.265 190.274 190.171 190.095 190.242 190.013 190.022 189.932 189.817 189.889 189.898 190.015 190.261 190.283 191.225 190.434 190.129 188.574 189.189 188.985 188.095 188.344 190.565 193.004 193.845 194.136 191.659 189.778 189.271 188.954 188.839 187.943 187.83 187.449 187.08 187.076 -9999 187.326 187.356 187.165 187.07 188.003 189.164 188.427 187.377 186.791 187.673 186.626 186.567 186.15 186.399 186.633 186.828 187.012 187.239 188.346 188.954 188.713 187.853 188.126 188.321 188.122 188.188 188.213 188.133 188.005 188.578 190.426 192.211 192.18 191.933 190.957 189.446 190.309 190.38 190.179 191.793 192.488 191.68 193.737 193.214 191.929 191.14 190.518 190.2 191.094 191.89 191.194 191.341 190.665 190.591 -9999 -9999 191.353 191.029 190.763 190.729 190.61 190.745 190.801 190.819 190.951 191.18 191.251 191.3 191.517 191.973 192.818 192.414 192.032 191.928 191.973 192.215 192.673 192.889 194.279 196.246 197.495 197.036 196.364 194.195 193.652 193.279 193.249 193.492 194.439 194.251 194.06 194.005 194.086 194.171 194.307 194.342 194.426 194.484 194.504 194.596 194.54 194.6 194.824 194.903 194.989 195.387 197.422 200.434 201.663 201.528 200.733 198.105 195.681 195.151 195.152 195.161 195.611 196.65 196.511 195.611 195.456 195.579 196.695 196.688 198.944 199.107 198.821 197.903 196.187 195.97 195.903 195.885 195.907 195.812 195.801 195.648 195.467 195.431 195.384 195.449 195.297 195.069 194.869 194.689 194.543 194.472 194.143 194.037 193.96 193.849 193.64 193.211 192.994 192.827 192.337 191.91 191.711 191.812 191.77 191.976 192.017 191.855 191.584 191.084 190.777 190.55 190.398 190.315 190.024 189.879 189.699 189.535 189.439 189.217 189.081 189.025 188.99 188.738 188.489 188.573 188.389 188.22 188.014 187.834 187.623 187.364 187.269 187.165 187.064 186.941 186.798 186.693 186.477 186.292 186.132 186.039 185.916 185.775 185.667 185.584 185.459 185.345 185.242 185.191 185.24 185.238 185.225 185.107 185.051 185.062 185.025 184.998 184.928 184.844 184.811 184.696 184.66 184.668 184.604 184.504 184.452 184.464 184.407 184.343 184.237 184.2 184.149 184.095 183.945 183.798 183.769 183.648 183.673 183.627 183.61 183.521 183.376 183.382 183.414 183.421 183.345 183.2 183.187 183.135 183.102 183.109 183.088 183.078 182.934 182.923 182.936 182.908 182.841 182.786 182.719 182.714 182.513 182.441 182.424 182.383 182.306 182.249 182.232 182.026 181.939 181.924 181.829 181.783 181.671 181.581 181.519 181.434 181.391 181.382 181.353 181.255 181.175 181.105 181.103 181.089 181.059 180.932 180.84 180.883 180.932 181.004 180.988 180.968 180.917 -9999 -9999 -9999 -9999 -9999 -9999 -9999 -9999 -9999 -9999 -9999 -9999 -9999 -9999 -9999 -9999 -9999 -9999 -9999 -9999 -9999 -9999 -9999 -9999 -9999 -9999 -9999 -9999 -9999 -9999 -9999 -9999 -9999 -9999 -9999 -9999 -9999 -9999 -9999 -9999 -9999 -9999 -9999 -9999 -9999
190.442 190.653 190.92 191.279 190.564 192.425 195.062 194.117 193.118 189.965 189.972 190.618 190.449 190.245 190.108 190.263 190.843 191.376 190.55 190.609 190.685 190.617 190.083 189.854 189.752 189.618 189.64 189.548 189.596 189.613 189.57 190.157 190.887 189.973 188.646 188.402 188.817 188.412 187.978 187.966 189.636 191.766 192.21 194.894 193.473 191.925 192.274 190.01 188.713 187.721 187.434 187.139 186.937 186.858 186.706 186.824 -9999 187.163 187.354 187.172 187.508 187.036 187.172 189.055 191.12 189.756 188.325 186.837 186.515 186.584 186.686 186.73 186.978 187.922 188.169 188.163 187.662 187.911 187.702 187.835 187.967 187.568 187.757 187.93 189.412 191.063 192.472 192.048 189.789 189.095 188.806 188.911 189.215 189.47 190.327 190.791 190.368 192.441 192.227 191.974 192.524 192.327 191.057 190.627 190.443 190.429 191.388 190.496 190.514 -9999 -9999 -9999 -9999 190.588 190.457 190.513 190.652 190.793 190.698 190.812 191.101 191.226 191.232 191.646 192.736 193.416 192.245 192.194 191.917 192.843 193.364 193.391 193.781 195.136 195.762 196.472 196.013 195.246 193.721 193.255 193.606 194.217 194.426 193.652 193.724 194.02 194.172 194.312 194.232 194.393 194.46 194.515 194.504 194.594 194.647 194.624 194.645 194.577 194.712 194.767 195.143 195.919 199.753 201.262 201.966 201.018 198.047 195.276 195.129 195.168 195.225 195.833 197.461 197.004 195.704 195.588 195.931 196.421 196.779 198.496 199.673 199.314 197.623 196.487 196.635 195.953 195.992 196.083 196.292 195.979 195.449 195.448 195.472 195.355 195.317 195.309 195.07 194.826 194.672 194.535 194.442 194.218 194.098 193.951 193.879 193.653 193.203 192.955 192.782 192.426 191.736 191.443 191.671 191.766 191.981 191.961 191.909 191.59 191.137 190.862 190.536 190.374 190.225 189.975 189.862 189.654 189.45 189.335 189.186 189.09 188.848 188.843 188.685 188.43 188.398 188.282 188.149 187.929 187.726 187.569 187.269 187.198 187.023 186.985 186.857 186.711 186.601 186.368 186.157 186.05 185.954 185.805 185.642 185.604 185.477 185.434 185.328 185.175 185.135 185.156 185.187 185.135 185.029 184.996 184.982 184.926 184.832 184.811 184.755 184.718 184.626 184.551 184.715 184.521 184.45 184.419 184.416 184.372 184.235 184.124 184.051 184.03 183.927 183.864 183.831 183.723 183.613 183.617 183.53 183.51 183.374 183.293 183.295 183.288 183.263 183.194 183.108 183.048 183.046 182.994 182.964 182.995 182.998 182.904 182.817 182.8 182.747 182.701 182.673 182.633 182.602 182.504 182.418 182.256 182.153 182.158 182.156 182.135 181.981 181.952 181.857 181.801 181.699 181.521 181.502 181.483 181.449 181.39 181.365 181.335 181.305 181.235 181.119 181.088 181.06 181.004 180.929 180.736 180.794 180.885 180.929 180.966 180.907 180.885 180.802 -9999 -9999 -9999 -9999 -9999 -9999 -9999 -9999 -9999 -9999 -9999 -9999 -9999 -9999 -9999 -9999 -9999 -9999 -9999 -9999 -9999 -9999 -9999 -9999 -9999 -9999 -9999 -9999 -9999 -9999 -9999 -9999 -9999 -9999 -9999 -9999 -9999 -9999 -9999 -9999 -9999 -9999 -9999 -9999
190.11 190.527 192.044 191.77 194.644 195.455 196.789 194.483 191.53 189.791 189.806 191.152 190.893 190.115 189.977 190.042 190.151 190.15 190.727 191.017 191.514 191.175 189.929 189.769 189.661 189.464 189.462 189.473 189.392 189.277 189.186 189.467 190.105 189.619 188.523 188.185 188.165 188.167 187.934 188.036 188.161 188.093 188.885 190.83 191.539 190.915 190.73 189.5 188.173 186.94 186.896 187.159 186.863 186.54 186.308 186.487 -9999 -9999 187.267 187.504 187.711 187.288 188.813 191.389 192.45 192.288 190.383 187.552 186.896 186.665 186.643 186.773 186.837 187.058 187.597 187.88 188.43 188.609 187.756 187.783 187.655 187.598 187.834 188.259 190.633 191.648 191.14 190.027 188.988 188.787 188.653 188.688 188.79 189.067 189.903 190.231 190.865 190.906 190.548 191.224 193.922 195.062 193.023 191.255 190.233 190.326 190.604 191.347 191.796 -9999 -9999 -9999 -9999 190.309 190.301 190.289 190.459 190.483 190.536 190.854 191.063 191.241 191.318 191.836 191.873 192.294 192.635 193.225 193.885 196.389 196.827 195.851 194.568 193.535 194.96 195.604 195.256 194.775 193.26 193.211 194.115 195.041 194.931 193.83 193.938 194.802 194.677 194.536 194.628 194.816 194.599 194.587 194.496 194.642 194.723 194.908 194.988 194.606 194.777 194.962 195.119 195.993 199.164 200.515 201.647 201.177 197.901 195.327 194.968 195.16 195.244 195.459 195.874 196.232 196.338 196.439 196.54 196.273 196.411 198.386 199.948 199.635 198.207 198.49 197.521 196.253 196.199 196.463 196.259 195.727 195.568 195.601 195.584 195.373 195.199 195.112 195.07 194.878 194.71 194.553 194.454 194.309 194.141 193.983 193.912 193.716 193.291 192.999 192.66 192.496 192.009 191.603 191.665 191.689 191.708 191.881 191.855 191.6 191.285 190.995 190.547 190.299 190.116 189.962 189.859 189.599 189.465 189.305 189.171 189.051 188.855 188.802 188.623 188.499 188.319 188.205 188.151 187.828 187.646 187.484 187.31 187.231 187.009 186.917 186.703 186.617 186.422 186.174 186.162 186.005 185.92 185.747 185.629 185.537 185.347 185.31 185.296 185.174 185.082 185.136 185.129 185.099 185.01 184.912 184.981 184.847 184.776 184.737 184.697 184.682 184.624 184.573 184.597 184.494 184.426 184.383 184.33 184.256 184.103 183.97 183.975 183.96 183.858 183.782 183.684 183.579 183.533 183.522 183.44 183.405 183.276 183.297 183.189 183.169 183.121 183.066 182.977 182.892 182.846 182.828 182.866 182.906 182.889 182.777 182.697 182.666 182.56 182.526 182.565 182.596 182.476 182.331 182.243 181.991 181.993 182.046 182.091 182.048 181.924 181.897 181.846 181.7 181.619 181.514 181.463 181.471 181.387 181.356 181.323 181.297 181.279 181.188 181.078 181.063 181.027 181.015 180.928 180.855 180.782 180.803 180.809 180.854 180.899 180.898 180.668 180.548 -9999 -9999 -9999 -9999 -9999 -9999 -9999 -9999 -9999 -9999 -9999 -9999 -9999 -9999 -9999 -9999 -9999 -9999 -9999 -9999 -9999 -9999 -9999 -9999 -9999 -9999 -9999 -9999 -9999 -9999 -9999 -9999 -9999 -9999 -9999 -9999 -9999 -9999 -9999 -9999 -9999 -9999 -9999
189.681 190.046 193.212 193.589 194.599 196.263 196.052 192.493 189.72 189.728 189.981 191.228 191.673 191.147 190.318 189.879 189.9 189.92 192.105 191.372 190.2 189.898 189.741 189.691 189.475 189.298 189.277 189.207 189.198 189.172 189.07 189.187 189.142 189.018 188.825 188.339 188.143 187.927 187.815 187.854 187.802 187.767 187.714 188.229 189.41 189.987 189.705 188.358 188.022 186.868 186.884 187.329 187.027 186.577 186.326 186.313 -9999 -9999 187.077 187.317 187.473 186.868 189.965 191.889 193.021 192.99 192.161 191.162 188.462 186.831 186.74 187.514 187.772 187.67 187.982 188.064 188.579 189.286 188.674 188.061 187.883 188.389 189.085 191.752 192.876 192.407 190.604 188.701 188.591 188.478 188.58 188.709 188.894 189.561 191.826 192.144 191.378 190.36 190.466 190.526 192.597 194.374 193.869 191.479 190.159 190.597 191.993 194.223 194.231 -9999 -9999 -9999 -9999 190.219 190.197 190.167 190.234 190.452 190.668 190.826 191.02 191.154 191.395 191.827 192.465 192.771 193.42 195.004 196.873 198.149 198.663 197.743 195.441 193.742 194.288 194.652 194.383 193.912 193.209 193.194 194.127 194.146 194.04 193.704 193.958 195.685 194.985 194.774 194.905 195.327 194.64 194.61 194.623 194.67 194.788 195.05 195.199 194.96 195.012 195.099 195.024 195.224 196.436 199.371 200.817 200.998 198.195 195.918 195.88 195.39 195.332 195.449 195.66 196.08 196.803 196.686 196.369 196.088 196.237 197.156 198.871 199.18 198.512 198.338 197.266 196.426 196.881 196.836 196.057 195.756 195.662 195.784 195.774 195.501 195.155 195.066 195.141 195.001 194.808 194.641 194.496 194.334 194.202 193.896 193.931 193.722 193.436 192.983 192.668 192.524 192.351 -9999 191.67 191.678 191.715 191.865 191.811 191.577 191.294 191.02 190.495 190.328 190.112 189.989 189.831 189.511 189.449 189.267 189.112 189.018 188.919 188.78 188.563 188.434 188.271 188.139 188.046 187.766 187.667 187.47 187.316 187.19 186.98 186.827 186.53 186.479 186.297 186.128 186.055 185.948 185.874 185.666 185.594 185.496 185.355 185.236 185.219 185.152 185.032 185.079 185.054 185.033 184.992 184.922 184.871 184.747 184.725 184.683 184.689 184.69 184.678 184.563 184.464 184.369 184.388 184.341 184.244 184.131 184.027 183.986 183.939 183.878 183.821 183.72 183.612 183.443 183.519 183.466 183.327 183.294 183.238 183.223 183.117 183.071 183.055 183.036 182.98 182.856 182.782 182.683 182.731 182.713 182.7 182.669 182.62 182.554 182.536 182.487 182.409 182.343 182.332 182.291 182.157 181.97 181.917 181.984 182.018 181.894 181.815 181.796 181.752 181.687 181.545 181.488 181.436 181.309 181.311 181.301 181.276 181.24 181.194 181.054 180.972 180.978 180.954 180.956 180.904 180.841 180.811 180.765 180.771 180.793 180.834 180.718 180.527 180.465 180.314 180.193 -9999 -9999 -9999 -9999 -9999 -9999 -9999 -9999 -9999 -9999 -9999 -9999 -9999 -9999 -9999 -9999 -9999 -9999 -9999 -9999 -9999 -9999 -9999 -9999 -9999 -9999 -9999 -9999 -9999 -9999 -9999 -9999 -9999 -9999 -9999 -9999 -9999 -9999 -9999 -9999 -9999
189.89 190.769 193.512 195.947 196.447 194.966 191.918 190.117 189.623 189.58 189.822 190.124 190.946 191.998 190.48 190.026 189.658 189.928 191.35 190.744 189.799 189.68 189.585 189.423 189.465 189.321 189.132 189.051 189.114 188.998 189.021 189.238 188.89 188.705 188.942 188.918 188.307 187.808 187.841 187.75 187.835 187.841 188.049 187.688 188.094 188.298 187.873 187.809 187.49 186.888 187.589 188.201 187.517 186.509 186.281 186.337 186.319 -9999 186.731 186.838 186.8 186.792 189.23 191.38 192.154 192.797 192.809 192.081 189.486 187.356 186.952 188.732 189.043 188.926 188.659 188.325 187.64 189.84 189.309 188.493 188.051 190.049 192.359 195.407 195.84 193.078 191.42 189.518 188.426 188.471 188.512 188.644 188.898 189.272 191.141 192.729 191.51 190.196 190.464 190.005 191.027 193.068 193.553 190.285 190.012 190.312 193.503 196.135 195.665 -9999 -9999 -9999 190.105 190.186 190.199 190.112 190.139 190.233 190.594 190.721 190.993 191.231 191.401 192.092 193.328 193.216 195.528 196.618 198.341 198.886 198.712 197.441 194.499 192.709 194.072 193.697 193.667 193.352 193.285 193.993 194.257 193.963 194.383 195.152 195.189 195.874 195.438 194.907 194.601 195.011 195.179 194.525 194.61 194.661 194.709 194.776 194.778 194.955 194.931 194.979 194.927 194.832 195.26 195.858 197.82 197.2 197.974 197.815 197.521 196.377 195.413 195.462 195.72 196.138 197.563 196.932 196.533 196.277 195.997 196.289 197.747 198.728 197.114 197.181 196.366 196.976 197.587 197.628 196.377 195.841 195.813 195.937 195.911 -9999 195.347 195.096 195.077 195.061 194.913 194.737 194.545 194.391 194.182 193.95 193.928 193.743 193.4 193.036 192.712 192.584 192.437 -9999 -9999 191.659 191.66 191.693 191.697 191.548 191.303 190.918 190.516 190.344 190.114 189.984 189.798 189.59 189.494 189.222 189.146 188.996 188.875 188.739 188.493 188.389 188.196 188.124 187.963 187.697 187.612 187.419 187.313 187.12 186.827 186.706 186.477 186.394 186.235 186.082 185.913 185.798 185.718 185.593 185.552 185.468 185.385 185.244 185.162 185.114 185.057 185.064 184.978 184.935 184.941 184.928 184.818 184.701 184.696 184.657 184.673 184.664 184.707 184.59 184.44 184.351 184.393 184.259 184.15 184.097 184.012 183.953 183.921 183.899 183.793 183.661 183.549 183.478 183.476 183.371 183.337 183.242 183.195 183.131 183.063 183.039 182.971 182.964 182.917 182.842 182.725 182.626 182.631 182.63 182.586 182.544 182.531 182.458 182.396 182.391 182.342 182.255 182.215 182.227 182.132 181.968 181.943 181.93 181.813 181.746 181.716 181.727 181.703 181.632 181.505 181.447 181.362 181.325 181.258 181.215 181.21 181.199 181.145 181.013 180.954 180.915 180.877 180.872 180.828 180.829 180.825 180.816 180.781 180.757 180.757 180.531 180.447 180.427 180.164 180.099 -9999 -9999 -9999 -9999 -9999 -9999 -9999 -9999 -9999 -9999 -9999 -9999 -9999 -9999 -9999 -9999 -9999 -9999 -9999 -9999 -9999 -9999 -9999 -9999 -9999 -9999 -9999 -9999 -9999 -9999 -9999 -9999 -9999 -9999 -9999 -9999 -9999 -9999 -9999 -9999 -9999
190.212 191.488 193.585 196.554 195.779 193.931 191.023 189.823 189.644 189.871 189.907 189.813 189.874 190.149 190.331 189.96 189.757 189.803 190.095 189.596 189.538 189.43 189.328 189.32 189.311 189.077 189.066 188.983 188.98 188.889 188.807 188.661 188.409 188.445 188.648 189.965 190.063 188.164 187.798 187.787 187.73 188.267 189.213 189.122 187.75 187.186 187.241 187.566 186.952 186.954 188.288 188.019 187.024 186.069 186.214 186.288 186.229 186.352 186.36 186.042 186.286 186.494 187.123 189.751 191.112 192.033 192.984 192.655 190.354 188.925 188.207 189.23 193.258 189.89 188.692 188.502 188.112 188.444 188.341 187.849 188.496 190.671 191.948 193.167 192.67 190.411 190.857 190.288 189.457 188.819 188.705 188.712 189.597 189.414 189.24 190.275 190.825 190.797 190.967 191.174 190.413 190.244 190.448 190.074 190.011 190.922 195.308 197.115 196.709 195.146 -9999 -9999 -9999 190.151 190.194 190.117 190.224 190.383 190.636 191.126 191.785 191.968 191.947 192.649 195.325 192.596 192.632 196.331 198.63 199.114 197.561 193.74 192.709 192.329 192.755 193.526 193.119 193.047 193.757 194.696 194.492 193.925 195.477 197.201 197.464 197.816 197.294 195.523 194.324 194.62 194.838 194.57 194.536 194.581 194.606 194.593 194.697 194.803 194.798 194.881 195.008 194.74 194.998 195.484 196.179 196.334 197.362 197.769 197.569 196.506 195.673 195.553 195.777 196.379 197.77 198.176 198.937 196.673 196.055 196.059 196.23 196.631 196.41 196.649 196.681 197.71 197.28 196.69 196.299 195.9 195.865 195.75 195.857 195.753 195.479 -9999 195.068 195.065 195.02 194.952 194.547 194.404 194.19 193.958 193.866 193.667 193.412 192.976 192.748 192.604 192.329 192.246 -9999 191.639 191.578 191.542 191.548 191.382 191.248 190.854 190.514 190.319 190.062 189.931 189.772 189.627 189.399 189.232 189.199 188.962 188.858 188.646 188.424 188.327 188.102 187.95 187.746 187.61 187.504 187.275 187.103 186.948 186.849 186.594 186.446 186.317 186.125 185.994 185.806 185.724 185.628 185.509 185.49 185.317 185.258 185.215 185.152 185.079 185.009 184.995 184.948 184.971 184.886 184.853 184.778 184.672 184.68 184.655 184.663 184.58 184.608 184.524 184.41 184.283 184.194 184.17 184.076 184.101 183.974 183.923 183.905 183.832 183.723 183.635 183.55 183.517 183.424 183.212 183.209 183.149 183.015 182.988 182.987 182.96 182.821 182.829 182.776 182.763 182.666 182.561 182.54 182.548 182.524 182.467 182.437 182.298 182.251 182.267 182.237 182.169 182.128 182.1 182.015 181.923 181.921 181.983 181.867 181.672 181.661 181.681 181.674 181.566 181.494 181.396 181.305 181.189 181.229 181.212 181.184 181.19 181.146 180.988 180.928 180.876 180.814 180.797 180.735 180.757 180.794 180.815 180.803 180.788 180.74 180.511 180.525 180.316 180.048 180.074 180.059 180.008 -9999 -9999 -9999 -9999 -9999 -9999 -9999 -9999 -9999 -9999 -9999 -9999 -9999 -9999 -9999 -9999 -9999 -9999 -9999 -9999 -9999 -9999 -9999 -9999 -9999 -9999 -9999 -9999 -9999 -9999 -9999 -9999 -9999 -9999 -9999 -9999 -9999 -9999 -9999
190.879 192.13 192.406 192.838 192.053 190.546 190.662 189.807 190.046 189.881 189.918 190.292 190.054 189.93 190.611 190.3 189.92 189.699 189.91 189.338 189.104 189.143 189.089 189.014 189.039 189.129 188.843 188.756 188.833 188.688 188.543 188.402 188.354 188.281 188.417 189.04 189.234 187.987 187.746 187.746 187.75 188.594 189.348 188.347 187.17 187.188 186.726 190.19 190.554 190.227 189.914 187.257 187.137 187.084 186.843 186.259 186.213 -9999 186.27 186.183 186.592 186.834 186.683 187.45 188.272 190.664 191.77 191.261 188.167 187.216 188.086 189.984 191.549 189.263 188.48 188.382 188.46 188.295 187.801 187.315 188.016 190.704 191.36 189.977 188.224 188.008 188.307 190.223 191.288 191.43 189.181 189.457 190.985 190.885 190.205 189.861 191.313 191.451 191.766 191.23 190.315 190.506 189.832 189.728 189.932 190.679 194.326 196.346 195.818 193.811 191.846 190.402 189.895 190.152 190.236 190.224 190.37 190.538 190.866 191.981 192.872 192.68 192.637 193.959 194.801 193.738 193.755 197.608 198.311 197.878 196.413 192.894 192.135 192.174 192.524 193.13 193.348 193.7 193.619 193.978 194.097 194.314 196.265 197.39 198.548 199.064 198.785 197.083 195.587 194.78 194.638 194.538 194.47 194.528 194.525 194.468 194.618 194.736 194.725 195.068 195.268 195.18 195.397 195.856 196.75 196.946 197.913 197.748 197.321 196.15 195.704 195.689 195.943 196.648 197.404 197.549 197.686 196.903 196.676 196.204 196.267 197.329 198.549 198.158 198.452 198.351 196.87 196.088 195.878 195.923 195.877 195.822 195.898 195.766 195.523 195.221 195.056 195.056 195.061 194.875 194.574 194.462 194.192 194.043 193.854 193.644 193.351 193.001 192.772 192.377 191.988 192.127 -9999 -9999 191.596 191.578 191.481 191.304 191.23 190.886 190.577 190.283 190.016 189.876 189.667 189.493 189.329 189.221 189.147 188.889 188.828 188.646 188.475 188.307 188.02 187.819 187.605 187.426 187.327 187.182 186.978 186.733 186.546 186.386 186.3 186.172 186.049 185.898 185.742 185.672 185.576 185.481 185.436 185.279 185.16 185.182 185.107 185.012 184.964 184.936 184.872 184.825 184.809 184.802 184.863 184.761 184.649 184.572 184.538 184.452 184.514 184.381 184.293 184.225 184.168 184.072 183.997 184.002 183.929 183.881 183.793 183.703 183.633 183.574 183.483 183.43 183.351 183.165 183.113 183.095 183.005 182.905 182.898 182.9 182.847 182.806 182.71 182.675 182.598 182.534 182.475 182.476 182.416 182.254 182.256 182.204 182.211 182.194 182.173 182.082 181.986 181.994 181.975 181.962 181.86 181.841 181.76 181.557 181.576 181.631 181.63 181.478 181.374 181.329 181.234 181.199 181.22 181.222 181.16 181.125 181.086 180.95 180.905 180.908 180.904 180.793 180.708 180.725 180.759 180.779 180.782 180.795 180.636 180.393 180.341 180.221 180.214 180.134 180.017 179.983 -9999 -9999 -9999 -9999 -9999 -9999 -9999 -9999 -9999 -9999 -9999 -9999 -9999 -9999 -9999 -9999 -9999 -9999 -9999 -9999 -9999 -9999 -9999 -9999 -9999 -9999 -9999 -9999 -9999 -9999 -9999 -9999 -9999 -9999 -9999 -9999 -9999 -9999 -9999
-9999 191.753 191.82 190.833 190.164 189.697 189.694 189.476 189.816 190.071 189.707 189.725 189.897 189.734 190.119 190.161 189.605 189.498 189.086 188.765 188.783 188.816 188.77 188.842 188.905 188.906 188.737 188.607 188.543 188.485 188.413 188.161 188.153 188.176 188.162 188.194 188.316 187.865 187.491 187.588 187.658 188.001 187.695 187.01 186.833 186.529 186.66 190.765 192.641 191.358 189.621 187.859 187.18 187.06 186.796 186.362 186.25 -9999 -9999 186.372 186.625 186.462 186.425 186.575 186.745 189.164 190.899 189.606 186.609 186.361 186.685 188.198 188.265 186.769 187.056 188.095 188.422 188.276 188.299 187.484 187.69 188.579 189.248 188.571 188.805 188.347 187.934 188.276 190.826 193.315 191.334 189.778 191.43 192.002 193.517 192.834 192.098 191.875 192.122 191.975 191.343 191.084 189.745 189.645 190.227 191.018 191.949 192.737 192.402 191.339 190.18 189.658 189.763 190.092 190.32 190.423 190.542 191.521 191.2 192.095 193.349 194.084 194.469 195.742 195.675 194.594 194.34 194.978 197.138 195.767 193.974 192.288 192.297 192.431 192.502 193.051 193.539 194.557 193.398 193.476 193.846 194.214 194.957 196.001 197.8 198.55 198.73 197.936 196.684 196.19 194.901 194.693 194.623 194.584 194.531 194.631 194.873 195.16 195.216 195.173 195.319 195.471 195.991 198.173 200.69 200.922 200.927 198.717 196.192 195.798 195.892 195.814 195.979 197.482 197.284 196.469 196.333 196.516 197.429 196.43 196.273 197.729 199.162 199.627 199.854 199.37 198.26 196.765 195.971 195.965 195.878 195.808 195.783 195.716 195.319 195.063 194.998 194.979 194.962 194.796 194.6 194.491 194.213 194.065 193.875 193.71 193.471 193.089 192.818 192.337 192.062 192.062 -9999 -9999 191.591 191.637 191.475 191.316 191.12 190.847 190.574 190.304 190.134 189.889 189.63 189.501 189.368 189.288 189.104 188.878 188.816 188.534 188.44 188.202 187.959 187.811 187.529 187.387 187.214 187.11 186.91 186.668 186.513 186.21 186.176 186.032 185.894 185.822 185.688 185.627 185.524 185.453 185.406 185.346 185.177 185.071 185.022 184.983 184.966 184.896 184.81 184.711 184.657 184.711 184.783 184.718 184.519 184.475 184.456 184.435 184.425 184.338 184.271 184.238 184.146 184.051 184.014 183.928 183.85 183.803 183.709 183.64 183.557 183.511 183.378 183.305 183.236 183.1 183.072 182.994 183.012 182.903 182.88 182.88 182.872 182.778 182.629 182.572 182.509 182.455 182.411 182.287 182.283 182.217 182.169 182.128 182.11 182.084 182.065 181.969 181.879 181.905 181.947 181.918 181.79 181.741 181.654 181.567 181.563 181.583 181.575 181.421 181.369 181.249 181.172 181.197 181.227 181.205 181.154 181.114 181.042 180.908 180.911 180.962 180.911 180.807 180.789 180.754 180.758 180.759 180.754 180.694 180.55 180.441 180.355 180.149 180.119 180.068 180.003 179.984 179.835 179.706 179.649 -9999 -9999 -9999 -9999 -9999 -9999 -9999 -9999 -9999 -9999 -9999 -9999 -9999 -9999 -9999 -9999 -9999 -9999 -9999 -9999 -9999 -9999 -9999 -9999 -9999 -9999 -9999 -9999 -9999 -9999 -9999 -9999 -9999 -9999 -9999 -9999
192.646 191.274 190.928 190.749 190.611 189.9 189.675 189.524 189.704 190.491 189.911 189.859 189.989 189.866 189.622 189.43 189.286 188.968 188.762 188.641 188.598 188.583 188.709 188.726 188.731 188.81 188.745 188.559 188.324 188.296 188.158 188.03 188.068 188.405 189.12 189.256 188.068 187.475 187.063 187.181 187.155 186.997 186.883 186.7 186.396 185.93 188.416 191.878 193.027 191.689 189.115 187.447 186.352 186.345 186.375 186.282 186.124 -9999 186.005 186.191 186.762 187.081 187.005 186.589 187.678 187.039 187.748 187.353 186.843 186.598 186.108 185.929 186.441 186.1 186.431 187.203 187.866 187.929 188.051 187.643 187.558 187.458 187.925 187.96 188.889 188.365 187.71 187.782 188.763 190.512 190.777 190.602 191.905 194.024 194.678 194.568 194.048 192.869 191.82 190.659 190.015 189.493 189.395 190.043 190.388 190.333 189.839 190.054 190.03 189.878 189.671 189.572 189.707 -9999 190.916 191.228 192.159 193.342 192.703 191.517 192.185 194.161 196.148 196.906 197.026 196.446 194.415 193.488 194.75 194.415 192.747 192.465 192.958 193.96 193.687 194.073 194.038 193.517 193.147 193.451 193.61 193.667 193.721 194.287 196.675 197.78 198.483 197.54 196.727 195.444 194.819 194.675 194.704 194.657 194.638 194.852 195.369 195.399 195.964 195.702 195.427 195.619 197.212 200.526 201.891 203.029 202.154 199.249 196.346 195.832 195.897 195.881 196.184 197.457 197.696 196.839 196.369 196.555 196.954 196.351 196.385 197.948 198.649 199.492 200.346 199.689 198.608 197.89 196.413 196.141 195.819 195.777 195.605 195.396 195.292 194.943 194.974 195.007 194.903 194.845 194.781 194.638 194.248 194.117 193.899 193.729 193.533 193.251 192.895 192.332 192.087 192.022 -9999 -9999 191.522 191.501 191.446 191.196 191.014 190.79 190.625 190.262 190.05 189.846 189.653 189.518 189.363 189.288 189.065 188.854 188.701 188.463 188.325 188.104 187.941 187.707 187.488 187.302 187.09 187.019 186.836 186.645 186.491 186.182 186.08 185.927 185.813 185.725 185.632 185.559 185.472 185.411 185.354 185.278 185.162 185.053 185.019 184.978 184.917 184.831 184.705 184.63 184.575 184.651 184.651 184.646 184.443 184.398 184.42 184.433 184.423 184.343 184.208 184.156 184.12 184.023 183.955 183.811 183.791 183.732 183.645 183.59 183.534 183.505 183.347 183.312 183.189 183.081 183.015 182.934 182.953 182.929 182.867 182.837 182.805 182.692 182.577 182.518 182.453 182.386 182.325 182.28 182.234 182.205 182.138 182.067 182.047 182.005 181.955 181.927 181.909 181.862 181.833 181.803 181.725 181.69 181.644 181.643 181.568 181.554 181.508 181.334 181.314 181.194 181.147 181.163 181.222 181.188 181.166 181.091 181.022 180.993 180.896 180.878 180.832 180.751 180.734 180.743 180.74 180.728 180.722 180.673 180.479 180.421 180.285 180.143 180.107 179.99 179.99 179.969 179.734 179.62 179.645 179.612 -9999 -9999 -9999 -9999 -9999 -9999 -9999 -9999 -9999 -9999 -9999 -9999 -9999 -9999 -9999 -9999 -9999 -9999 -9999 -9999 -9999 -9999 -9999 -9999 -9999 -9999 -9999 -9999 -9999 -9999 -9999 -9999 -9999 -9999 -9999
193.024 191.649 190.63 190.67 191.608 190.21 189.703 189.518 189.567 189.693 189.744 189.906 190.231 189.751 189.458 189.109 188.813 188.635 188.541 188.516 188.462 188.527 188.559 188.6 188.659 188.682 188.62 188.529 188.348 188.178 188.038 187.924 187.987 190.162 192.611 193.375 188.569 187.328 187.047 186.732 186.546 187.002 187.461 186.361 186.102 186.053 189.749 193.094 193.261 190.855 187.021 186.075 185.853 185.914 186.091 185.896 185.819 -9999 185.77 185.799 185.812 187.285 189.314 188.866 189.927 190.564 187.819 187.098 186.792 186.879 185.859 185.788 185.768 185.817 186.063 186.151 186.448 186.833 187.093 187.485 188.011 187.357 187.982 188.743 189.403 188.105 187.663 187.706 188.049 188.23 188.979 190.094 192.515 194.201 195.175 194.899 194.314 193.424 190.739 188.847 188.889 188.769 188.852 190.472 190.166 189.576 189.329 189.296 189.324 189.352 189.478 189.554 189.778 190.204 191.039 192.178 193.431 193.958 194.359 192.203 191.556 193.066 196.56 197.757 198.03 197.146 194.364 192.05 193.36 193.191 192.583 192.579 193.062 194.181 194.556 193.944 193.627 193.085 193.107 193.549 193.849 193.645 193.714 194.212 194.914 196.725 197.488 195.746 195.02 194.391 194.747 194.718 194.741 194.692 194.677 195.027 195.614 195.736 195.722 195.541 195.508 195.794 197.261 201.189 202.233 203.047 202.049 198.126 196.297 195.939 195.968 196.006 196.229 197.682 197.844 196.687 196.358 196.633 197.005 196.354 196.768 197.92 198.26 199.105 199.633 198.852 197.323 197.085 196.704 197.245 196.443 195.873 195.634 195.458 195.476 195.529 195.255 195.052 194.839 194.878 194.88 194.662 194.349 194.192 193.888 193.745 193.521 193.225 192.77 192.334 192.12 191.989 191.887 -9999 -9999 191.461 191.515 191.336 191.018 190.778 190.674 190.217 190.033 189.772 189.638 189.52 189.322 189.215 188.97 188.783 188.605 188.416 188.286 188.067 187.831 187.652 187.465 187.246 187.014 186.893 186.744 186.549 186.314 186.076 185.972 185.876 185.707 185.608 185.522 185.464 185.407 185.327 185.311 185.254 185.153 185.09 184.99 184.904 184.826 184.76 184.664 184.634 184.7 184.636 184.531 184.491 184.374 184.379 184.377 184.44 184.416 184.325 184.187 184.088 184.007 183.921 183.886 183.728 183.769 183.669 183.609 183.563 183.509 183.458 183.362 183.318 183.207 183.088 182.959 182.862 182.923 182.948 182.882 182.804 182.751 182.673 182.609 182.481 182.411 182.342 182.277 182.262 182.216 182.149 182.063 182.03 182.005 181.963 181.924 181.873 181.859 181.798 181.799 181.714 181.629 181.619 181.595 181.584 181.481 181.459 181.391 181.259 181.231 181.158 181.131 181.113 181.101 181.114 181.102 181.062 180.954 180.917 180.826 180.776 180.743 180.652 180.678 180.689 180.687 180.714 180.714 180.61 180.471 180.363 180.162 180.071 180.078 179.953 179.895 179.865 179.73 179.705 179.622 179.549 179.481 -9999 -9999 -9999 -9999 -9999 -9999 -9999 -9999 -9999 -9999 -9999 -9999 -9999 -9999 -9999 -9999 -9999 -9999 -9999 -9999 -9999 -9999 -9999 -9999 -9999 -9999 -9999 -9999 -9999 -9999 -9999 -9999 -9999 -9999
193.02 191.164 190.814 191.005 191.508 191.344 189.925 189.322 189.517 189.408 189.402 189.53 189.596 189.461 189.063 188.96 188.771 188.561 188.504 188.475 188.424 188.437 188.487 188.503 188.528 188.534 188.59 188.401 188.171 188.12 187.925 187.787 188.712 190.354 195.511 194.312 188.599 187.186 186.845 186.674 186.596 186.83 186.567 186.157 186.485 187.496 191.311 193.416 193.081 189.822 186.092 185.942 185.837 185.985 186.406 185.879 185.74 -9999 185.709 185.708 185.914 187.227 188.763 187.927 189.258 190.977 190.856 187.928 186.091 185.994 185.818 185.708 185.694 185.725 185.773 185.858 186.04 186.066 186.426 186.795 187.424 188.098 189.143 188.653 188.046 187.744 188.046 187.931 187.846 188.967 188.805 189.921 191.841 193.713 194.374 194.496 194.081 191.644 189.064 188.837 188.721 188.83 189.159 189.285 189.081 189.191 189.215 189.252 189.291 189.392 189.522 189.554 189.759 190.039 190.914 191.484 193.57 194.582 195.75 194.438 191.936 193.922 197.309 198.326 197.529 196.297 193.518 191.8 192.064 193.268 192.643 192.651 193.957 194.346 194.191 193.029 193.096 192.793 193.046 193.775 194.178 193.712 193.925 194.105 194.852 195.896 195.622 195.163 194.851 194.897 194.938 194.911 194.805 194.76 194.92 195.405 195.506 195.523 195.356 195.415 195.543 196.04 198.187 201.096 202.244 202.639 201.029 197.495 196.343 196.158 196.254 196.245 196.685 197.958 196.72 196.324 196.22 196.356 196.39 196.257 196.85 197.987 197.813 198.613 198.712 197.452 196.593 197.181 198.005 198.246 197.614 196.145 195.76 195.669 195.59 195.597 195.269 194.851 194.825 194.801 194.815 194.663 194.465 194.189 193.914 193.717 193.329 193.246 192.841 192.395 192.111 191.779 191.712 191.607 191.378 191.335 191.341 191.27 190.958 190.674 190.538 190.256 190.023 189.739 189.627 189.448 189.243 189.124 188.835 188.715 188.527 188.399 188.235 187.971 187.77 187.576 187.459 187.176 186.832 186.701 186.681 186.507 186.182 185.967 185.821 185.66 185.659 185.527 185.41 185.384 185.379 185.267 185.161 185.169 185.136 185.028 184.954 184.877 184.808 184.713 184.601 184.635 184.663 184.604 184.538 184.456 184.447 184.427 184.39 184.41 184.437 184.274 184.136 184.025 183.914 183.867 183.861 183.798 183.733 183.633 183.576 183.528 183.489 183.396 183.337 183.334 183.169 183.063 182.948 182.924 182.975 182.966 182.848 182.742 182.648 182.598 182.563 182.417 182.36 182.322 182.302 182.261 182.221 182.084 181.979 182.005 181.972 181.927 181.879 181.79 181.786 181.694 181.645 181.651 181.646 181.59 181.562 181.51 181.369 181.313 181.228 181.198 181.196 181.167 181.121 181.055 181.041 181.048 181.05 180.953 180.8 180.798 180.701 180.714 180.733 180.715 180.691 180.678 180.698 180.694 180.725 180.609 180.382 180.33 180.119 180.08 180.027 179.99 179.918 179.807 179.75 179.703 179.591 179.585 179.453 179.336 179.292 -9999 -9999 -9999 -9999 -9999 -9999 -9999 -9999 -9999 -9999 -9999 -9999 -9999 -9999 -9999 -9999 -9999 -9999 -9999 -9999 -9999 -9999 -9999 -9999 -9999 -9999 -9999 -9999 -9999 -9999 -9999 -9999
190.208 189.871 190.355 190.96 190.83 190.624 189.458 189.221 189.387 189.291 189.384 189.463 189.316 189.046 188.741 188.757 188.615 188.404 188.394 188.432 188.287 188.394 188.494 188.501 188.447 188.372 188.317 188.168 188.094 187.895 187.595 187.947 190.896 193.611 194.499 193.853 187.58 186.904 186.577 186.566 186.615 186.671 186.628 185.893 185.844 186.9 191.052 193.076 192.302 187.849 186.009 185.803 185.848 185.957 186.707 186.04 185.742 185.688 185.614 185.437 185.88 186.779 187.384 187.706 188.713 189.435 189.283 187.594 186.136 185.83 185.713 185.632 185.598 185.602 185.604 185.605 185.793 185.842 186.21 186.496 186.798 188.467 190.078 188.539 187.181 187.677 188.773 188.706 189.539 191.509 191.976 190.988 190.141 191.166 192.96 193.32 192.284 189.893 188.872 189.018 189.638 189.259 189.305 189.164 189.049 189.165 189.177 -9999 189.319 189.4 189.497 189.641 189.824 190.164 190.957 190.747 191.656 195.227 197.829 198.524 194.251 196.842 197.658 197.35 196.406 193.995 191.992 191.787 192.625 193.974 193.563 193.211 193.415 193.773 193.877 193.205 192.921 192.95 193.16 193.616 193.954 195.398 194.076 193.998 194.199 194.432 194.229 194.643 194.804 195.804 195.613 195.145 194.952 194.891 195.224 195.638 195.569 195.578 195.385 195.376 195.534 196.038 199.332 200.926 201.327 202.397 200.845 196.65 196.131 196.097 196.221 196.391 196.65 197.106 196.504 196.211 196.23 196.312 196.396 196.417 196.48 196.64 197.57 198.245 197.539 197.279 199.207 198.896 198.916 198.399 197.1 195.975 195.984 195.85 195.55 195.426 195.03 194.696 194.785 194.744 194.682 194.585 194.492 194.241 193.94 193.715 193.37 193.224 192.81 192.431 192.159 191.84 191.696 191.518 191.253 191.222 191.254 191.233 191.03 190.74 190.465 190.298 189.982 189.689 189.597 189.365 189.185 188.987 188.765 188.626 188.463 188.414 188.198 187.925 187.645 187.478 187.33 187.046 186.771 186.636 186.504 186.341 186.063 185.912 185.789 185.673 185.638 185.423 185.355 185.292 185.311 185.233 185.136 185.084 185.122 185.017 184.925 184.885 184.784 184.733 184.668 184.633 184.646 184.595 184.583 184.502 184.472 184.416 184.375 184.358 184.291 184.186 184.069 183.989 183.898 183.84 183.822 183.774 183.673 183.582 183.514 183.487 183.454 183.361 183.23 183.205 183.147 183.036 182.93 182.957 182.959 182.896 182.763 182.697 182.621 182.539 182.468 182.35 182.327 182.286 182.305 182.21 182.104 182.076 182.011 182.003 181.876 181.86 181.807 181.813 181.741 181.612 181.579 181.489 181.579 181.544 181.515 181.422 181.303 181.226 181.15 181.109 181.126 181.099 181.063 180.964 180.983 180.983 180.949 180.813 180.775 180.727 180.632 180.666 180.73 180.755 180.697 180.668 180.627 180.562 180.592 180.521 180.492 180.351 180.088 179.987 179.971 179.908 179.914 179.755 179.698 179.637 179.561 179.513 179.356 179.264 179.249 179.192 -9999 -9999 -9999 -9999 -9999 -9999 -9999 -9999 -9999 -9999 -9999 -9999 -9999 -9999 -9999 -9999 -9999 -9999 -9999 -9999 -9999 -9999 -9999 -9999 -9999 -9999 -9999 -9999 -9999 -9999 -9999
189.097 188.89 189.186 189.885 189.887 189.549 189.184 189.358 189.786 189.679 189.481 189.281 189.05 188.924 188.643 188.567 188.48 188.341 188.271 188.304 188.268 188.377 188.474 188.517 188.445 188.266 188.096 187.946 187.693 187.598 187.387 187.689 189.865 193.666 194.516 192.706 187.581 186.532 186.416 186.513 186.728 186.592 186.302 185.921 185.941 187.647 191.673 192.839 191.733 187.194 185.797 186.323 186.274 186.148 185.727 185.31 185.495 -9999 185.743 185.775 186.072 186.569 186.587 186.593 187.021 187.51 187.336 186.377 185.608 185.511 185.485 185.389 185.312 185.401 185.463 185.541 185.619 185.691 185.906 186.201 187.426 188.999 189.038 187.222 186.936 187.303 188.528 189.554 191.089 193.124 193.405 193.314 189.365 188.7 190.67 192.113 189.176 188.821 188.712 189.677 190.814 189.693 -9999 -9999 -9999 189.168 -9999 189.212 189.291 189.367 189.4 189.624 189.91 190.732 191.278 190.81 190.951 195.848 197.485 196.4 193.725 195.125 196.657 195.148 193.748 192.102 192.614 192.107 192.215 193.25 194.229 193.945 192.907 193.057 193.21 193.148 192.973 193.377 193.473 193.827 194.201 195.102 194.92 194.828 194.914 194.565 194.66 194.904 195.016 195.713 195.156 195.082 195.017 194.986 195.074 195.788 196.929 196.193 195.609 195.424 195.699 196.077 197.601 197.503 197.55 200.854 199.255 196.306 196.106 196.102 196.181 196.394 196.654 197.226 196.724 196.312 196.252 196.337 196.65 196.681 196.411 196.263 196.519 196.894 197.6 198.703 199.587 200.463 199.92 198.771 196.814 196.07 195.96 195.818 195.516 195.184 195.064 194.881 194.851 194.775 194.639 194.569 194.482 194.275 193.957 193.667 193.41 193.247 192.82 192.472 192.155 191.845 191.665 191.511 191.214 191.129 191.037 191.023 190.924 190.69 190.336 190.163 189.913 189.69 189.641 189.33 189.164 188.878 188.64 188.575 188.395 188.337 188.106 187.831 187.65 187.439 187.286 187.038 186.824 186.599 186.367 186.189 185.986 185.874 185.853 185.663 185.544 185.42 185.337 185.29 185.304 185.21 185.15 185.085 185.023 184.925 184.881 184.825 184.701 184.667 184.663 184.673 184.626 184.55 184.548 184.53 184.488 184.396 184.341 184.288 184.227 184.111 183.986 183.878 183.831 183.787 183.818 183.731 183.641 183.582 183.534 183.469 183.427 183.356 183.253 183.159 183.097 183.039 182.968 182.928 182.865 182.809 182.684 182.671 182.576 182.496 182.415 182.316 182.32 182.159 182.162 182.107 182.073 182.063 182.045 181.926 181.833 181.825 181.73 181.691 181.653 181.569 181.55 181.518 181.54 181.487 181.465 181.388 181.276 181.241 181.162 181.123 181.06 181.019 180.998 180.97 180.968 180.971 180.891 180.738 180.663 180.662 180.629 180.624 180.66 180.677 180.632 180.591 180.564 180.466 180.397 180.4 180.323 180.297 180.107 180.025 179.953 179.951 179.872 179.679 179.649 179.51 179.47 179.46 179.295 179.294 179.244 179.134 179.068 179.002 -9999 -9999 -9999 -9999 -9999 -9999 -9999 -9999 -9999 -9999 -9999 -9999 -9999 -9999 -9999 -9999 -9999 -9999 -9999 -9999 -9999 -9999 -9999 -9999 -9999 -9999 -9999 -9999 -9999
188.827 188.751 188.802 188.933 189.157 189.155 189.282 189.789 190.425 190.131 189.284 188.923 188.914 188.735 188.503 188.497 188.441 188.378 188.434 188.351 188.447 188.43 188.428 188.343 188.211 188.209 188.094 187.872 188.378 187.804 187.4 187.206 187.364 188.84 190.455 189.113 186.881 186.128 185.632 186.287 186.672 186.488 186.136 186.406 186.38 188.761 192.009 192.025 190.77 186.669 185.658 185.861 186.566 186.256 185.233 185.168 185.195 185.289 185.908 186.371 186.636 186.617 185.805 185.89 186.507 186.788 185.835 185.326 185.194 185.287 185.306 185.32 185.314 185.359 185.494 185.39 185.455 185.541 185.701 186.266 188.085 189.167 189.054 186.896 186.606 186.769 188.276 189.621 190.731 193.416 194.332 193.868 192.645 189.764 189.553 189.711 189.22 189.461 190.322 189.822 189.431 189.16 -9999 -9999 -9999 -9999 -9999 189.194 189.246 189.338 189.398 189.576 189.874 190.098 190.513 190.919 191.641 195.172 196.774 195.901 194.113 193.045 193.433 192.157 191.935 192.041 192.736 193.021 192.368 192.474 193.127 193.248 192.583 192.819 192.71 193.836 194.1 194.243 193.546 193.95 194.113 194.8 195.382 195.514 195.878 195.458 195.402 195.49 195.516 195.688 195.101 195.017 194.989 195.011 195.237 195.576 196.458 195.842 196.266 196.877 197.438 196.788 196.311 196.359 197.134 199.026 198.264 196.503 196.127 196.204 196.305 196.422 197.42 200.065 197.684 196.61 196.373 196.469 197.029 197.949 196.853 196.448 196.294 196.263 196.883 198.143 199.263 200.215 200.289 198.712 196.685 196.229 195.965 195.792 195.642 195.404 195.309 195.293 194.876 194.926 194.786 194.567 194.542 194.309 194.075 193.701 193.478 193.297 192.944 192.545 192.131 191.873 191.752 191.601 191.253 191.033 190.932 190.943 190.948 190.721 190.405 190.08 189.813 189.634 189.515 189.262 189.014 188.823 188.727 188.575 188.396 188.275 188.025 187.834 187.613 187.423 187.196 186.896 186.758 186.464 186.253 186.066 185.916 185.892 185.759 185.628 185.48 185.408 185.298 185.203 185.186 185.21 185.14 185.074 185.012 184.91 184.842 184.749 184.631 184.581 184.646 184.654 184.611 184.527 184.497 184.495 184.444 184.354 184.291 184.182 184.123 184.044 183.96 183.853 183.77 183.775 183.745 183.648 183.633 183.64 183.54 183.408 183.378 183.298 183.247 183.155 183.106 183.018 182.984 182.914 182.812 182.721 182.665 182.659 182.557 182.48 182.421 182.375 182.3 182.187 182.123 182.013 182.065 182.012 181.958 181.891 181.819 181.801 181.721 181.638 181.613 181.603 181.582 181.563 181.508 181.45 181.472 181.352 181.275 181.249 181.231 181.167 181.086 181.014 180.984 180.982 180.948 180.906 180.875 180.753 180.697 180.657 180.6 180.576 180.595 180.594 180.545 180.534 180.505 180.457 180.416 180.306 180.271 180.194 180.112 180.037 179.917 179.892 179.775 179.631 179.604 179.42 179.377 179.391 179.332 179.283 179.155 179.063 179.051 178.978 178.944 -9999 -9999 -9999 -9999 -9999 -9999 -9999 -9999 -9999 -9999 -9999 -9999 -9999 -9999 -9999 -9999 -9999 -9999 -9999 -9999 -9999 -9999 -9999 -9999 -9999 -9999 -9999 -9999
188.767 188.759 188.698 188.748 188.998 189.088 189.217 189.459 190.082 189.314 189.04 188.9 188.724 188.546 188.35 188.361 188.22 188.374 188.531 188.447 188.376 188.347 188.297 188.24 188.109 188.035 187.826 187.547 187.942 187.661 187.278 187.13 186.927 186.88 186.982 186.863 186.507 185.773 185.51 186.032 186.732 186.712 186.303 186.091 186.091 188.101 188.762 188.359 188.225 186.25 185.504 185.255 186.181 185.537 185.246 184.949 184.817 185.11 185.788 186.22 186.113 185.498 185.278 185.366 185.793 186.15 185.541 185.349 185.05 185.378 185.237 185.283 185.33 185.394 185.524 185.456 185.193 185.201 185.598 186.724 189.139 188.488 186.846 186.199 186.309 186.417 187.172 188.256 189.671 190.877 193.73 193.271 192.188 190.131 189.054 189.211 188.942 189.463 191.958 189.635 188.821 188.89 -9999 -9999 -9999 189.037 189.089 189.126 189.211 189.335 189.36 189.5 189.781 190.646 191.117 192.883 194.306 196.415 196.867 196.651 195.672 193.64 192.755 193.735 192.405 191.895 192.318 192.641 192.347 192.296 192.53 192.454 192.546 193.076 193.33 193.804 193.857 193.863 193.649 193.996 194.137 194.543 194.673 194.575 194.835 196.204 195.995 195.748 195.664 195.156 194.946 194.918 194.937 195.041 195.174 195.577 195.961 197.187 198.759 199.183 199.11 198.331 197.663 196.338 197.835 198.325 198.036 196.728 196.77 196.764 196.867 197.087 197.82 199.662 198.912 197.378 196.908 196.71 196.769 198.013 198.737 197.832 196.662 196.389 196.321 196.907 198.691 199.935 199.325 198.237 198.396 196.805 196.201 196.301 196.312 195.82 195.427 195.424 195.25 195.217 -9999 194.601 194.474 194.482 194.202 193.815 193.556 193.319 192.985 192.622 192.063 191.887 191.814 -9999 191.117 190.946 190.892 190.882 190.891 190.74 190.509 190.182 189.74 189.53 189.383 189.242 189.034 188.846 188.735 188.546 188.385 188.201 188.016 187.765 187.541 187.354 187.073 186.768 186.654 186.322 186.211 185.986 185.884 185.812 185.685 185.529 185.354 185.324 185.244 185.156 185.113 185.216 185.126 185.014 184.959 184.897 184.798 184.718 184.651 184.67 184.657 184.683 184.6 184.501 184.469 184.464 184.386 184.309 184.221 184.136 184.124 184.014 183.942 183.839 183.734 183.754 183.755 183.591 183.612 183.55 183.468 183.421 183.349 183.242 183.16 183.135 183.081 182.955 182.936 182.916 182.813 182.675 182.617 182.664 182.53 182.502 182.435 182.386 182.324 182.288 182.185 182.063 182.028 181.97 181.929 181.846 181.813 181.791 181.772 181.714 181.611 181.601 181.563 181.504 181.463 181.373 181.383 181.283 181.201 181.196 181.181 181.165 181.131 181.005 180.981 180.966 180.914 180.862 180.8 180.763 180.733 180.693 180.632 180.52 180.482 180.512 180.493 180.465 180.431 180.421 180.392 180.316 180.259 180.148 180.078 179.984 179.835 179.847 179.72 179.669 179.604 179.413 179.369 179.364 179.342 179.291 179.114 179.081 179.033 178.929 178.889 178.796 -9999 -9999 -9999 -9999 -9999 -9999 -9999 -9999 -9999 -9999 -9999 -9999 -9999 -9999 -9999 -9999 -9999 -9999 -9999 -9999 -9999 -9999 -9999 -9999 -9999 -9999 -9999
188.951 188.933 188.628 188.625 188.772 188.962 189.03 189.498 189.917 189.244 189.561 189.758 188.856 188.53 188.418 188.347 188.274 188.313 188.385 188.286 188.234 188.165 188.197 188.151 187.847 187.687 187.576 187.438 187.436 187.207 187.101 186.8 186.635 186.765 187.329 188.087 186.867 186.18 185.825 186.1 186.561 186.485 185.986 185.765 185.824 185.944 185.922 186.205 186.31 185.515 185.61 185.772 185.346 185.275 184.972 184.66 184.77 184.98 185.615 186.007 185.291 184.873 184.737 184.861 184.975 185.247 184.966 185.042 185.777 185.22 185.098 185.055 185.128 185.815 186.204 185.505 185.182 185.602 186.098 186.654 187.227 186.582 185.884 185.84 186.072 186.131 186.455 186.874 187.728 188.702 189.361 190.941 190.079 188.685 187.998 188.121 188.273 188.329 189.298 188.484 188.42 188.629 188.843 -9999 -9999 189.104 189.1 189.063 189.207 189.318 189.248 189.307 189.545 191.699 194.532 195.331 196.737 197.099 196.972 195.79 194.298 192.08 193.584 195.473 196.269 193.598 192.398 192.149 192.075 192.114 192.103 192.126 192.556 193.337 193.697 193.706 193.401 193.407 193.66 194.494 195.109 195.642 195.339 194.963 194.967 195.658 195.446 195.707 195.371 195.166 195.072 194.896 194.941 194.973 195.145 195.708 196.945 198.61 199.664 200.228 199.886 198.682 197.06 196.774 197.418 198.096 197.95 197.376 198.387 199.735 199.099 199.761 201.458 201.062 201.448 197.539 198.554 197.442 196.287 197.21 198.551 198.768 196.899 196.562 196.42 196.5 198.03 198.68 197.965 197.298 198.768 197.823 199.346 200.104 199.925 197.526 195.77 195.489 195.959 195.666 195.201 194.49 194.47 194.433 194.278 193.879 193.635 193.298 192.975 192.508 192.05 191.865 191.766 191.544 191.172 190.874 190.853 190.823 190.912 190.719 190.461 190.176 189.732 189.559 189.27 189.121 189.012 188.837 188.692 188.362 188.252 188.144 188.007 187.813 187.478 187.324 187.101 186.873 186.66 186.351 186.187 185.912 185.844 185.717 185.588 185.441 185.299 185.296 185.207 185.129 185.113 185.119 185.093 185.034 184.941 184.903 184.841 184.751 184.759 184.731 184.688 184.706 184.602 184.514 184.37 184.331 184.306 184.267 184.176 184.092 184.14 183.935 183.866 183.758 183.686 183.699 183.694 183.619 183.605 183.504 183.344 183.366 183.399 183.148 183.113 183.109 183.068 182.982 182.953 182.926 182.783 182.63 182.545 182.556 182.492 182.467 182.426 182.376 182.298 182.274 182.177 182.081 182.022 181.956 181.917 181.828 181.772 181.723 181.695 181.709 181.647 181.634 181.552 181.516 181.441 181.393 181.333 181.264 181.207 181.186 181.117 181.153 181.123 181.014 180.932 180.932 180.826 180.761 180.67 180.638 180.644 180.601 180.6 180.465 180.424 180.377 180.413 180.375 180.303 180.332 180.281 180.284 180.239 180.085 180.011 179.909 179.81 179.772 179.679 179.671 179.6 179.508 179.44 179.369 179.325 179.272 179.124 179.087 178.971 178.882 178.857 178.706 178.638 178.559 -9999 -9999 -9999 -9999 -9999 -9999 -9999 -9999 -9999 -9999 -9999 -9999 -9999 -9999 -9999 -9999 -9999 -9999 -9999 -9999 -9999 -9999 -9999 -9999 -9999
