ncols 452
nrows 30
xllcorner    425084
yllcorner    434798
cellsize     2
NODATA_value -9999
90.915 90.621 89.972 89.696 89.375 89.133 88.916 88.599 88.042 87.212 86.908 87.1 87.095 86.996 86.974 86.9 86.692 86.423 85.988 85.911 85.406 85.142 85.635 86.021 83.653 82.44 82.42 81.933 81.299 80.594 80.289 80.161 80.298 81.146 83.814 82.144 85.142 85.617 81.861 81.103 81.183 80.246 79.416 79.323 79.058 78.966 78.234 78.284 78.325 78.251 78.163 78.053 78.13 78.312 78.385 78.289 78.343 78.215 77.928 77.823 77.792 77.704 77.617 77.496 77.314 77.26 77.13 77.879 77.678 77.46 78.966 78.928 77.551 77.108 77.112 77.38 77.325 77.384 77.326 76.896 77.32 77.439 77.029 76.883 76.637 76.655 76.809 76.765 76.792 76.6 76.397 -9999 -9999 -9999 -9999 -9999 -9999 -9999 -9999 -9999 -9999 -9999 -9999 76.648 76.703 77.231 78.695 82.257 82.817 82.387 82.312 81.255 81.623 82.347 81.005 81.998 83.53 82.214 82.757 82.05 81.522 79.879 81.602 81.684 80.275 81.515 80.5 79.205 77.438 77.13 77.178 76.756 76.8 76.876 77.086 77.227 77.311 77.564 77.558 77.583 77.423 77.531 77.31 77.43 77.587 77.861 77.292 77.418 77.722 77.65 77.468 77.147 77.195 77.117 76.982 77.1 76.947 77.232 77.327 77.253 76.812 76.712 76.723 77.339 77.269 76.938 76.769 76.57 76.45 76.201 75.995 75.779 76.163 77.168 75.85 75.663 75.727 75.777 75.856 76.01 77.199 78.132 78.152 76.638 75.248 75.123 74.29 73.951 73.38 73.309 75.387 79.293 79.239 79.923 80.337 79.789 78.957 77.229 73.654 72.88 72.86 72.861 72.857 72.906 70.79 70.178 70.108 70.018 69.981 70.07 70.114 70.013 69.828 69.776 69.67 69.511 69.269 68.981 68.725 68.7 68.185 67.86 67.446 67.218 67.302 71.409 75.134 71.061 73.023 66.698 66.352 66.328 66.231 66.074 65.962 65.826 65.641 65.507 65.419 65.21 65.121 65.093 64.968 65 64.986 65.635 65.33 65.86 65.613 64.938 64.815 64.68 64.439 64.331 66.937 69.075 69.947 70.543 70.939 65.177 64.365 68.304 71.195 71.703 72.222 72.204 71.833 66.586 68.218 71.887 72.353 72.16 71.838 71.33 71.082 66.897 65.796 67.848 67.511 64.52 64.284 63.466 63.141 63.007 62.979 62.948 62.903 62.77 62.435 62.132 66.403 65.688 61.034 60.534 60.509 60.584 60.569 60.727 60.698 60.814 60.804 60.751 60.57 60.336 60.358 60.087 60.124 60.259 60.072 60.098 60.133 60.05 59.983 59.881 59.742 59.499 59.427 59.216 58.939 58.735 58.489 58.344 65.746 66.467 67.738 67.958 68.233 68.254 67.99 67.767 66.313 65.304 58.861 64.206 64.163 65.118 64.58 65.972 64.748 65.503 60.23 59.582 62.578 59.194 58.019 57.766 57.426 57.107 56.918 56.937 56.817 56.827 56.806 56.862 57.042 57.154 57.025 56.964 57.427 56.765 56.624 56.654 56.852 57.547 58.909 65.731 66.918 66.484 64.99 57.593 56.45 56.078 55.758 55.93 58.091 60.116 59.848 59.063 60.128 60.159 60.233 60.108 59.505 59.005 55.383 55.428 55.619 56.089 55.799 55.92 55.661 55.876 56.911 62.424 62.834 61.644 56.365 56.063 56.276 56.036 55.878 55.728 55.773 55.642 56.435 55.937 56.014 56.162 56.595 61.338 61.291 58.595 58.013 57.936 57.7 56.09 61.014 59.911 59.422 65.668 67.77 67.199 68.282 69.644 71.793 72.698 72.731 70.616 58.709 57.613 56.536 55.664 55.581 62.035 65.513 66.897 62.732 59.858 55.27 55.016 55.087 55.05 54.966 54.989 55.205 55.173 56.111 55.159 54.953 57.699 61.482 62.991
90.914 90.894 90.668 90.174 89.878 89.494 89.135 88.66 88.202 87.743 87.407 87.401 87.333 87.371 87.249 87.052 86.855 86.717 86.373 86.183 85.316 84.395 85.051 85.364 83.64 82.643 83.352 83.499 81.917 81.074 80.798 80.54 80.462 80.807 81.542 82.039 84.119 81.387 80.997 82.502 84.924 83.955 81.729 80.042 79.414 79.176 78.656 78.513 78.648 78.348 78.186 77.933 77.98 77.991 77.947 78.006 78.073 78.071 -9999 77.841 77.76 77.692 77.656 77.518 77.363 77.335 77.388 77.506 77.396 77.148 77.584 77.292 77.382 77.155 77.328 77.397 77.406 77.383 77.312 77.109 77.671 77.947 77.228 77.015 76.708 76.591 76.728 76.769 76.734 76.693 -9999 -9999 -9999 76.436 76.41 -9999 -9999 -9999 -9999 -9999 -9999 -9999 -9999 76.797 76.78 76.858 77.618 80.354 84.01 84.085 83.817 84.022 83.901 83.595 83.743 84.005 83.982 83.752 84.099 83.877 83.733 83.914 83.451 83.894 84.082 83.72 83.117 80.292 77.632 77.257 77.714 77.686 77.683 77.747 77.231 77.341 77.525 77.619 77.892 78.239 78.105 78.03 77.88 78.088 78.761 83.065 78.173 77.816 78.02 78.153 78.083 77.757 77.739 77.556 77.635 77.461 77.502 77.561 78.122 77.781 77.316 77.096 77.298 77.694 78.057 77.476 76.916 76.844 76.743 76.562 76.543 76.375 77.592 77.725 76.493 75.846 75.784 75.881 75.932 75.98 76.156 77.471 78.62 76.021 75.366 75.23 74.753 74.706 74.697 73.38 73.044 74.278 77.695 78.934 79.524 80.317 80.093 79.315 78.583 74.033 72.871 72.842 72.835 72.858 72.865 71.11 70.246 70.21 70.241 70.311 70.294 70.159 70.032 70.041 70.061 69.58 68.805 68.609 68.496 68.594 68.359 67.657 67.364 67.147 74.055 77.58 79.61 72.371 78.915 70.241 66.321 66.338 66.204 66.045 65.939 65.815 65.593 65.473 65.408 65.213 65.169 65.132 65.053 65.178 65.954 66.139 65.577 65.683 65.21 65.074 65.011 64.894 64.708 64.706 64.906 64.821 65.705 66.105 69.398 65.727 64.413 67.89 70.034 70.595 71.105 71.446 68.889 64.779 69.359 70.615 70.991 71.564 72.04 72.147 71.833 65.372 68.58 70.639 70.056 69.56 68.068 66.248 64.467 64.167 63.271 63.168 63.08 62.898 62.747 62.486 62.066 62.03 61.265 60.854 60.731 60.8 60.826 60.878 60.955 61.004 61.061 61.058 61.001 60.821 60.691 60.658 60.612 60.64 60.685 60.69 60.529 60.544 60.473 60.314 60.088 60.04 59.739 59.461 59.181 58.882 58.528 58.974 63.905 64.965 66.216 67.046 67.353 67.673 67.837 67.955 67.646 63.641 58.382 65.765 66.458 67.229 67.737 67.45 67.25 67.377 67.434 65.756 65.637 60.069 58.091 57.934 57.809 57.618 57.471 57.253 57.106 56.986 57.117 57.227 57.382 57.373 57.231 57.124 57.35 56.917 56.867 57.043 57.066 57.424 64.014 66.009 67.181 66.642 65.32 58.079 57.032 56.802 55.843 55.649 59.826 61.715 61.688 61.512 61.653 61.783 61.666 61.693 61.698 61.582 55.313 55.751 56.525 57.079 56.782 56.064 55.855 56.029 59.022 62.495 62.9 60.501 56.659 56.142 56.238 55.959 55.932 55.869 55.845 55.85 56.176 56.275 56.689 56.309 60.702 62.28 62.923 61.501 56.759 58.258 58.465 58.448 57.629 56.491 56.6 62.966 64.564 66.976 60.67 70.147 71.658 72.606 72.204 65.587 60.359 57.481 57.629 57.368 57.219 68.133 69.487 69.237 69.469 64.601 56.419 55.08 55.046 55.07 54.948 55.008 55.197 55.262 56.414 55.503 54.924 57.623 61.371 63.118
90.837 90.84 90.722 90.512 90.377 89.973 89.347 89.002 88.699 88.36 88.171 88.017 87.858 87.91 87.743 87.378 87.201 87.034 87.117 86.701 85.442 84.888 84.584 84.718 83.728 82.774 83.936 84.702 82.383 81.591 81.297 80.99 80.748 80.616 80.719 80.432 80.923 80.674 81.292 84.512 86.409 86.405 85.025 83.221 80.911 79.496 79.072 78.822 78.767 78.658 78.654 78.364 78.172 77.874 77.636 77.72 77.699 77.839 -9999 -9999 -9999 -9999 77.571 -9999 77.366 77.306 77.418 77.365 77.308 77.206 77.342 77.444 77.42 77.243 77.319 77.345 -9999 -9999 -9999 -9999 77.527 77.584 -9999 -9999 -9999 -9999 -9999 -9999 -9999 77.021 77.069 77.078 76.763 76.539 76.409 76.533 -9999 -9999 -9999 -9999 -9999 -9999 -9999 77.246 77.094 77.031 77.291 79.413 84.121 83.647 83.298 84.109 82.783 83.087 82.919 82.596 84.273 83.885 83.925 83.407 83.916 83.306 83.186 83.707 82.595 83.591 83.135 79.488 77.476 77.458 77.748 78.179 77.921 77.983 77.998 77.889 77.698 77.775 77.938 78.408 78.859 78.682 78.459 78.51 85.258 84.736 80.356 78.548 78.601 79.076 78.657 78.902 78.346 78.132 78.235 78.156 78.192 78 78.611 78.056 77.811 77.498 77.798 77.907 78.189 78.032 77.211 77.409 77.489 77.167 77.329 76.732 76.625 77.392 77.236 76.105 75.952 75.956 75.992 76.045 76.081 76.308 78.711 79.162 76.924 75.747 75.427 74.771 74.322 74.309 73.365 73.388 73.805 77.983 78.8 79.464 80.166 79.955 79.465 77.689 74.013 72.917 72.82 72.82 72.853 71.644 70.718 70.602 70.566 70.516 70.436 70.813 70.312 70.253 70.126 69.467 68.92 68.337 68.348 68.106 67.887 67.603 67.594 74.036 79.037 79.517 80.951 79.923 78.986 71.716 66.313 66.249 66.205 66.063 65.883 65.755 65.6 65.495 65.397 65.288 65.16 65.193 65.366 65.615 66.104 66.494 66.277 65.617 65.379 65.372 65.209 65.072 64.922 65.135 65.33 65.286 65.098 64.86 64.777 64.42 64.564 64.673 64.72 65.77 67.239 70.001 70.111 64.739 64.798 67.6 68.807 70.055 70.744 71.35 71.082 64.942 70.106 70.616 70.874 70.605 70.56 69.662 69.2 67.95 65.002 64.193 63.224 63.073 62.891 62.615 62.35 62.009 61.653 61.981 61.043 61.013 61.026 61.07 61.06 61.116 61.188 61.239 61.278 61.249 61.138 61.105 61.058 61.118 61.049 60.956 60.885 60.833 60.803 60.72 60.547 60.439 60.243 59.941 59.45 59.08 58.634 58.34 58.384 58.623 59.62 59.7 60.703 66.696 66.755 66.387 66.587 64.629 58.466 67.573 67.997 68.174 68.384 68.154 68.321 68.241 68.188 67.625 62.626 59.467 58.183 58.088 58.034 57.979 57.977 57.823 57.61 57.546 57.637 57.616 57.662 57.599 57.432 57.338 57.258 57.149 57.187 57.309 57.35 57.341 63.009 66.128 67.232 66.186 61.207 57.07 56.846 56.614 56.126 55.644 60.744 62.287 62.41 62.402 62.19 62.331 62.389 62.167 62.176 62.105 56.824 56.908 57.437 56.948 56.829 58.056 58.082 56.825 60.167 62.991 62.614 61.244 56.255 57.23 56.193 55.989 55.984 55.951 55.932 56.317 56.078 56.743 57.028 58.953 61.346 63.009 62.448 59.615 56.96 56.624 56.82 57.744 56.496 56.511 56.537 58.62 57.874 58.016 57.88 67.777 70.684 71.123 71.379 69.342 56.493 55.873 56.056 55.933 56.359 67.961 67.38 69.308 69.878 63.479 56.141 55.102 55.118 55.063 54.995 55.014 55.231 55.231 55.345 55.24 54.996 57.739 61.706 62.684
90.817 90.771 90.712 90.619 90.544 90.438 89.877 89.478 89.376 89.105 88.804 88.633 88.516 88.445 88.276 87.888 87.643 87.466 87.397 87.178 86.17 85.718 84.961 84.295 83.717 82.645 83.617 84.383 83.362 82.528 82.239 82.458 81.481 80.912 80.57 80.833 80.242 80.654 81.834 84.249 85.519 86.001 85.903 85.976 83.541 80.097 79.414 79.308 79.534 79.202 78.898 78.808 78.519 78.209 77.849 77.7 77.637 77.861 77.912 -9999 -9999 -9999 -9999 -9999 -9999 -9999 -9999 -9999 -9999 -9999 -9999 -9999 -9999 -9999 77.313 -9999 -9999 -9999 -9999 -9999 -9999 -9999 -9999 -9999 76.812 -9999 -9999 76.872 76.964 77.099 77.275 77.185 76.927 76.562 76.354 76.569 76.698 -9999 -9999 -9999 -9999 -9999 -9999 77.538 77.579 77.624 77.513 79.793 83.323 80.495 82.384 82.021 80.454 82.812 80.606 79.956 82.462 83.107 82.799 81.511 81.688 79.681 81.679 81.192 79.401 82.818 81.686 78.078 77.69 77.929 78.121 77.995 78.099 78.272 78.229 78.065 77.982 78.055 78.107 78.479 78.775 78.836 78.755 78.991 80.094 81.616 78.895 79.114 79.128 78.953 79.321 78.575 78.688 78.581 78.633 78.53 78.524 78.535 78.384 78.393 79.097 77.742 77.239 78.075 77.992 78.038 77.979 77.329 77.477 77.678 77.254 78.287 77.96 77.91 76.599 76.374 76.169 76.076 76.067 76.12 76.163 76.19 76.299 79.031 77.068 76.058 78.155 75.964 74.617 74.687 75.365 73.453 73.122 73.377 75.634 78.838 79.619 80.099 80.159 79.438 78.662 75.692 72.855 72.808 72.918 71.91 71.371 71.116 70.872 70.865 71.586 74.749 71.97 70.378 69.673 69.291 68.932 68.231 68.127 67.819 67.585 67.32 66.963 69.988 79.01 79.073 80.542 72.279 78.632 71.772 66.262 66.27 66.17 65.969 65.873 65.697 65.613 65.544 65.413 65.357 65.384 65.396 65.344 66.272 66.583 66.995 66.222 65.667 65.573 65.509 65.733 66.475 65.304 66.02 66.136 65.587 65.609 65.129 64.805 64.787 64.859 64.951 64.962 64.904 65.125 65.463 65.428 64.804 64.83 64.766 65.494 67.628 67.791 67.272 66.996 66.253 69.143 69.558 69.672 70.4 70.551 70.948 70.465 70.289 69.795 68.296 64.108 63.187 63.095 62.785 62.493 62.221 61.958 62.403 61.677 61.23 61.234 61.215 61.256 61.266 61.275 61.38 61.478 61.471 61.52 61.497 61.421 61.402 61.386 61.25 61.172 61.166 61.062 60.993 60.965 60.783 60.548 60.265 60.047 59.546 58.99 58.786 58.433 58.36 58.491 58.323 58.218 58.232 60.582 64.614 64.543 60.311 58.415 65.85 66.554 67.152 67.317 67.376 67.453 67.243 67.544 66.945 65.847 58.331 58.164 58.13 61.243 59.742 58.411 58.304 58.125 58.118 58.008 58.082 58.072 57.834 57.724 57.622 57.474 57.356 57.444 57.544 57.632 57.642 60.408 63.861 65.165 65.707 61.45 57.189 57.128 56.613 55.998 56.13 60.304 61.255 61.119 61.41 61.195 61.241 61.247 61.038 61.128 60.846 57.253 57.486 57.23 56.861 57.369 58.765 58.534 56.533 60.83 62.889 62.44 60.795 56.445 56.682 56.203 56.05 56.056 56.052 56.07 56.932 56.491 56.395 56.498 61.014 62.089 62.964 61.87 59.98 59.27 56.516 56.165 56.17 56.279 56.352 56.488 56.511 56.606 56.614 58.235 60.243 66.522 67.465 67.429 57.385 56.292 55.78 55.822 55.732 55.674 64.344 68.686 70.193 69.181 55.301 55.107 55.237 55.217 55.047 54.991 55.097 55.2 55.317 56.486 55.631 54.98 58.608 61.023 61.744
90.841 90.725 90.679 90.615 90.53 90.416 90.311 90.07 89.798 89.556 89.223 88.973 88.927 88.996 88.849 88.433 88.192 87.796 87.494 87.162 86.636 86.256 85.891 85.19 84.116 83.516 84.465 85.026 84.718 84.462 83.961 83.75 81.231 81.128 80.573 81.482 81.067 80.332 80.185 80.473 81.988 84.338 85.566 85.767 84.105 80.497 80.277 82.366 81.472 79.861 79.629 79.11 78.744 78.547 78.148 77.896 77.958 78.023 77.971 77.951 77.907 77.915 77.92 77.99 77.957 -9999 -9999 77.675 77.668 77.626 -9999 -9999 -9999 -9999 -9999 -9999 -9999 -9999 -9999 -9999 -9999 -9999 -9999 76.974 76.85 76.823 -9999 76.879 76.886 77.02 77.321 77.266 76.989 76.798 76.696 76.674 76.754 76.867 -9999 -9999 -9999 -9999 77.683 77.69 77.853 78.756 78.262 78.603 80.533 79.434 78.608 78.001 79.086 79.42 78.947 79.661 80.219 80.222 80.243 78.288 77.797 78.862 81.786 81.344 78.166 79.453 78.632 77.929 78.156 78.205 78.217 78.297 78.299 78.379 78.342 78.158 78.125 78.21 78.332 78.378 78.566 78.752 79.017 79.508 79.757 79.467 79.77 79.776 79.684 79.494 79.514 79.121 79.686 80.021 79.19 79.324 79.501 79.57 79.758 79.69 77.331 76.889 76.829 76.816 76.758 77.274 76.746 76.916 76.674 76.655 76.756 76.622 76.739 76.55 76.53 76.455 76.413 76.292 76.229 76.25 76.203 76.276 76.925 80.367 78.115 77.877 77.674 76.791 75.145 76.129 74.648 73.904 73.565 72.972 72.95 74.178 79.081 79.644 79.945 80.254 79.698 78.682 75.983 73.033 72.777 72.446 71.889 71.403 71.125 74.289 77.503 77.265 77.254 73.064 70.536 68.991 68.674 68.273 67.953 67.751 67.494 67.258 67.308 74.939 78.887 79.354 72.696 77.239 75.278 70.664 66.265 66.199 66.066 66.085 65.844 65.761 65.596 65.491 65.462 65.622 65.315 65.739 65.794 66.483 66.933 67.356 66.617 65.763 65.718 68.83 71.37 67.92 65.582 65.921 66.646 66.008 65.666 65.315 65.036 65.078 65.151 65.198 65.163 66.076 65.458 65.085 65.031 65.118 65.017 64.935 64.86 65.253 65.045 65.676 65.082 63.597 64.483 66.69 68.766 69.21 69.728 70.146 70.594 70.848 70.672 66.668 63.259 63.224 63.074 62.844 62.552 62.283 62.038 61.981 62.102 61.39 61.385 61.344 61.344 61.373 61.418 61.454 61.542 61.623 61.673 61.823 61.848 61.78 61.596 66.037 61.76 61.37 61.335 61.223 61.166 61.085 60.943 60.645 60.405 60.077 59.644 59.321 59.129 58.799 58.506 58.337 58.289 58.283 58.232 58.328 58.195 58.209 58.388 63.877 62.673 65.929 65.514 62.418 66.534 64.95 64.721 65.587 63.717 58.24 58.327 64.049 65.798 64.373 58.958 58.801 58.76 58.617 58.531 58.394 58.24 58.069 57.973 58.211 57.715 57.598 57.702 57.774 57.689 58.981 61.472 63.528 64.601 64.303 60.24 57.482 57.438 56.833 56.03 56.677 56.011 57.96 58.82 58.369 58.139 58.894 58.438 57.128 58.495 56.641 56.935 57.997 58.175 57.178 57.034 58.327 56.848 56.497 61.678 63.254 62.068 58.738 56.658 56.311 56.236 56.178 56.124 56.17 56.113 56.322 56.348 56.392 56.941 61.351 62.907 62.738 61.395 59.386 57.852 56.218 56.144 56.232 56.396 56.499 56.544 56.582 56.62 56.676 57.218 56.698 56.067 56.747 56.745 57.819 60.694 59.347 58.311 57.49 55.793 55.662 59.263 67.509 63.506 55.391 55.235 55.247 55.168 55.115 54.978 54.987 55.193 55.282 56.25 55.449 54.947 57.998 59.669 58.348
-9999 90.673 90.591 90.487 90.449 90.281 90.11 90.159 90.046 89.84 89.533 89.274 89.356 89.349 88.972 88.703 88.558 88.144 87.707 87.222 86.849 86.426 86.087 85.612 84.561 85.164 87.653 86.855 85.93 84.58 83.717 82.039 81.678 81.087 81.137 81.157 81.009 80.355 80.065 79.993 80.157 80.885 82.844 84.633 85.117 81.176 80.274 84.404 84.765 83.859 82.058 80.338 79.464 78.811 78.45 78.115 78.089 78.04 78.033 77.938 77.842 77.94 77.923 77.967 77.966 77.912 77.82 77.753 77.666 77.632 77.692 77.689 -9999 77.692 77.701 -9999 -9999 -9999 -9999 77.463 77.297 77.257 77.23 77.028 76.731 76.815 76.903 76.925 76.84 76.986 77.205 77.272 77.222 77.037 77.004 76.746 76.828 76.973 77.022 77.129 -9999 -9999 77.737 77.668 77.641 77.97 77.951 77.879 78.143 77.733 77.48 77.773 77.743 77.914 77.863 78.322 78.258 77.973 78.392 77.682 77.744 78.403 78.718 79.04 77.926 77.822 77.702 78.565 78.52 78.296 78.431 78.535 78.475 78.644 78.671 78.421 78.364 78.445 78.448 78.569 78.718 78.828 78.961 79.251 79.524 79.689 79.749 80.034 80.053 79.557 80.172 79.504 79.507 79.642 79.181 79.336 79.332 79.438 79.875 80.195 77.551 76.898 76.893 76.901 76.858 76.812 76.788 76.745 76.779 76.755 76.744 76.706 76.704 76.675 76.591 76.576 76.545 76.489 76.469 76.435 76.366 76.404 78.66 81.271 78.892 76.938 78.13 77.211 78.821 79.028 74.932 74.334 73.806 73.593 73.153 72.966 76.137 78.647 79.247 79.861 80.241 79.752 78.833 75.524 72.71 72.435 71.992 71.642 71.471 76.567 79.46 81.088 80.388 76.219 71.784 69.159 68.739 68.308 67.836 67.698 67.401 67.055 66.821 67.027 72.626 75.387 78.266 74.404 74.005 66.165 66.278 66.279 69.351 66.397 65.812 65.697 65.621 65.554 65.638 65.592 65.563 65.547 65.63 66.086 66.745 66.512 65.97 65.783 65.801 68.032 71.342 66.594 65.819 65.903 66.19 65.777 65.741 65.427 65.268 65.362 65.409 65.484 65.383 65.539 65.354 65.37 65.297 65.324 65.422 65.065 64.939 64.768 64.858 64.643 64.326 63.874 63.548 65.191 65.744 65.315 67.928 68.937 69.488 69.583 70.377 68.46 63.376 63.161 63.011 62.794 62.533 62.344 62.164 63.348 62.704 61.5 61.452 61.448 61.449 61.483 61.502 61.592 61.653 61.709 61.794 61.891 62.014 62.175 77.375 78.114 71.618 75.789 61.953 61.499 61.377 61.295 61.208 61.013 60.824 60.494 60.267 60.007 59.718 59.458 59.225 58.786 58.677 58.495 58.392 58.446 58.245 58.222 58.377 58.311 58.348 58.359 58.346 58.31 58.296 58.337 59.384 59.31 60.869 58.391 58.539 64.253 65.633 64.292 59.559 59.183 59.052 58.974 58.876 58.653 58.45 58.384 58.089 58.514 57.9 57.907 58.106 58.915 58.581 59.587 62.505 63.897 64.767 64.061 61.28 57.744 57.242 56.905 56.416 55.915 55.73 55.526 55.429 55.425 55.501 55.516 55.707 55.688 55.639 55.705 56.508 57.021 56.934 56.839 56.503 56.542 56.561 58.903 62.279 62.926 61.768 57.019 56.431 56.407 56.367 56.355 56.248 56.24 56.233 56.264 57.498 57.814 56.659 61.743 63.21 62.263 58.635 56.687 56.718 56.145 56.164 56.378 56.344 56.542 56.54 56.578 56.641 56.618 56.774 56.682 56.163 55.946 55.886 56.86 61.92 63.194 63.123 61.703 57.75 55.822 55.741 55.84 55.763 55.197 55.251 55.343 55.315 55.197 55.091 55.028 55.096 55.294 55.579 57.616 56.229 57.201 55.803 54.691
-9999 -9999 90.408 90.296 90.169 90.185 90.205 90.214 90.206 89.986 89.812 89.665 89.618 89.524 89.154 88.832 88.796 88.473 87.976 87.428 87.055 86.728 86.308 85.815 85.197 85.686 88.131 87.679 87.276 83.907 82.659 82.201 81.713 81.52 81.234 81.16 81.123 80.865 80.299 80.182 80.04 80.027 80.337 81.277 81.675 80.555 80.255 83.336 85.985 86.138 85.616 84.087 82.466 79.846 78.479 78.289 78.282 78.258 78.11 78.091 78.022 78.003 77.938 78.015 77.909 77.93 77.88 77.694 77.696 77.62 77.762 77.731 77.675 77.657 77.688 77.761 77.775 77.652 77.513 77.459 77.302 77.161 77.335 77.261 76.988 76.937 77.104 76.992 77.138 77.35 77.409 77.399 77.437 77.313 77.198 77.018 76.894 77.066 77.108 77.171 -9999 -9999 -9999 77.686 77.614 77.65 77.838 78.035 78.234 78.044 77.972 78.218 78.077 78.134 77.928 78.429 78.415 78.358 78.644 78.309 78.566 78.776 78.576 78.734 78.554 78.477 78.578 78.965 78.802 78.708 78.94 78.951 78.865 78.738 78.564 78.609 78.635 78.703 78.793 78.784 78.846 78.971 79.07 79.214 79.429 79.712 79.869 79.91 79.929 79.844 79.955 79.807 79.867 79.726 79.735 79.754 79.641 79.669 79.989 80.61 78.507 76.987 76.934 76.967 76.95 76.919 76.915 76.864 76.909 76.879 76.852 76.847 76.85 76.801 76.77 76.813 76.755 76.76 76.869 76.928 76.747 76.982 80.958 80.329 77.056 79.878 81.724 82.02 79.734 76.372 75.239 74.779 74.405 73.99 73.614 73.227 73.261 73.678 78.309 79.212 79.577 79.288 74.004 72.858 72.609 72.36 71.899 71.71 75.02 77.499 77.735 81.675 80.444 75.828 70.085 69.113 68.837 68.388 67.769 67.575 67.366 67.039 66.991 67.303 66.863 66.641 66.563 66.406 66.324 66.246 66.425 71.313 70.794 68.241 66.006 65.705 65.664 65.654 65.73 65.849 66.285 65.78 65.696 65.936 66.318 65.818 65.739 65.848 65.918 65.868 66.413 65.859 65.881 65.915 65.877 65.841 65.908 65.733 65.66 65.658 65.735 65.642 65.584 65.578 65.671 65.76 65.523 65.441 65.247 65.099 64.9 64.697 64.546 64.314 64.1 63.911 63.628 63.546 63.494 63.381 63.47 66.077 66.597 68.346 68.811 64.02 63.274 63.085 62.942 62.726 62.566 62.32 62.177 64.88 65.934 61.695 61.541 61.531 61.541 61.57 61.61 61.66 61.769 61.857 61.908 61.932 62.065 62.246 73.176 79.355 81.36 67.852 67.785 62.417 61.721 61.626 61.554 61.246 61.128 60.964 60.72 60.47 60.296 59.998 59.731 59.5 59.44 59.017 58.788 58.708 58.598 58.533 58.556 58.454 58.523 58.444 58.371 58.428 58.484 58.571 58.481 58.554 58.6 58.615 58.753 59.269 62.392 61.084 59.348 59.363 59.331 59.246 59.046 58.96 58.702 58.539 58.41 58.325 58.312 58.261 58.445 58.319 57.978 59.933 62.635 64.138 64.718 63.886 61.557 58.142 57.258 57.019 56.728 56.51 56.151 56.029 55.96 56.034 55.964 55.99 55.949 56.264 56.012 56.058 56.072 57.355 58.651 57.425 56.683 56.658 56.56 56.511 61.522 61.906 60.551 56.478 56.416 56.489 56.53 56.544 56.575 56.614 56.41 56.42 56.569 58.241 59.489 62.494 63.052 61.711 56.531 56.726 56.418 56.369 56.542 56.551 56.429 56.47 56.599 56.633 56.587 56.576 56.57 56.347 56.262 56.061 55.946 58.784 62.051 63.284 63.09 61.739 56.424 55.841 55.706 55.621 55.418 55.316 55.339 55.352 55.315 55.258 55.106 55.088 55.175 55.3 56.208 55.506 59.746 61.112 58.032 54.932
91.258 90.875 90.507 90.188 90.137 90.166 90.183 90.195 90.115 90.04 89.97 89.844 89.816 89.806 89.512 89.297 88.98 88.685 88.255 87.905 87.373 86.885 86.529 86.077 85.792 86.084 87.26 87.926 87.426 85.014 82.823 82.354 82.148 81.992 81.523 81.461 81.418 81.283 81.02 80.735 80.379 80.065 80.221 80.585 80.588 80.304 82.195 84.953 86.8 86.635 86.718 85.254 84.064 80.681 79.144 78.544 78.506 78.507 78.323 78.383 78.297 78.137 78.417 78.599 78.234 78.059 78.011 77.981 77.922 77.991 77.915 77.776 77.669 77.581 77.704 77.84 77.825 77.531 77.594 77.316 77.436 77.477 77.566 77.424 77.393 77.507 77.584 77.324 77.518 77.561 77.632 77.677 77.633 77.518 77.247 77.142 77.165 77.242 77.217 77.271 77.381 77.453 -9999 77.565 77.524 77.509 77.887 78.149 78.394 78.406 78.506 78.66 78.831 79.113 78.524 78.992 79.007 79.016 79.08 78.97 79.18 79.173 79.366 79.282 78.836 79.552 79.599 79.564 79.703 79.869 79.548 79.157 79.367 78.881 78.96 79.026 78.875 79.081 79.193 79.117 79.077 79.085 79.162 79.384 79.558 79.763 79.934 80.167 80.233 80.214 80.267 80.224 80.266 80.16 80.129 80.086 80.143 80.096 80.45 81.125 78.437 77.033 77.043 77.016 77.118 77.048 78.016 77.401 77.12 77.259 77.05 77.077 76.978 78.546 77.184 77.629 77.978 77.7 77.924 78.082 78.429 77.981 79.376 80.575 80.003 78.016 81.31 81.503 79.951 78.74 75.694 75.191 74.978 74.383 74.061 73.605 73.414 72.967 74.014 78.087 78.896 75.304 72.79 72.764 72.488 72.376 72.081 71.886 73.514 76.654 78.959 79.26 79.414 76.543 70.783 68.901 68.486 68.205 67.731 67.423 67.23 67.418 67.122 66.958 66.87 66.752 66.649 66.485 66.343 66.275 66.415 67.306 72.12 67.152 66.043 65.942 65.765 65.747 66.04 66.083 66.469 66.348 66.26 66.097 66.494 65.925 65.87 65.893 65.956 65.907 65.918 65.932 65.97 65.958 65.953 65.945 66.203 65.999 65.931 65.913 65.946 65.9 65.818 65.788 68.706 67.244 66.693 65.611 65.285 65.196 64.975 64.809 64.587 64.363 64.164 64.016 63.873 63.983 63.625 63.534 63.482 63.891 63.425 63.555 64.12 63.871 63.866 64.357 63.083 63.119 62.736 63.44 62.232 64.269 62.384 61.67 61.652 61.618 61.648 61.65 61.685 61.753 61.802 61.894 62.018 61.99 62.081 62.167 65.494 69.097 74.648 74.077 63.906 63.567 62.179 62.043 61.994 61.668 61.546 61.372 61.382 61.162 60.807 60.676 60.552 60.288 59.997 59.768 59.544 59.237 59.071 59.029 58.877 58.828 58.821 58.899 58.883 58.779 58.806 58.832 58.83 58.747 58.876 59.003 59.21 59.279 59.431 59.547 59.555 59.574 59.519 59.447 59.277 59.125 58.933 58.747 58.622 58.63 58.628 58.536 58.459 58.062 57.874 59.696 63.206 64.363 64.576 63.412 60.478 57.787 57.795 57.212 57.358 56.937 56.484 56.689 56.6 56.491 56.21 56.302 56.786 56.422 56.461 56.434 56.351 59.564 58.002 57.027 56.833 57.052 57.066 56.802 56.828 56.965 57.795 56.476 56.578 56.869 56.751 56.612 56.737 56.667 56.625 56.54 56.429 56.433 61.454 62.438 62.482 59.448 56.802 56.624 56.719 56.381 56.426 56.559 56.921 56.801 56.564 56.649 56.579 56.552 57.133 56.382 56.188 55.978 55.941 59.622 62.322 63.459 62.762 61.459 55.881 55.826 55.681 55.776 55.865 55.377 55.361 55.381 55.385 55.34 55.162 55.22 55.281 55.242 55.634 55.802 55.837 58.254 58.2 59.057
91.345 91.21 90.506 90.396 90.149 90.152 90.161 90.123 89.993 89.935 90.039 90.059 90.064 89.81 89.597 89.326 89.145 88.948 88.633 88.384 87.773 87.223 86.705 86.24 85.815 85.387 85.114 86.358 87.534 87.272 83.642 83.381 82.584 82.384 82.171 82.028 81.789 81.536 81.295 81.094 80.807 80.682 80.779 80.672 80.216 80.255 82.887 83.894 84.927 85.713 85.97 83.275 80.861 79.784 79.365 78.892 78.697 78.587 78.544 78.665 78.843 78.399 79.075 79.773 78.612 78.13 78.171 78.143 78.189 78.157 78.152 78.01 77.755 77.75 77.976 77.942 77.898 77.834 77.876 77.778 78.224 78.007 77.752 77.721 77.772 77.815 77.693 77.625 77.879 78.265 78.104 77.971 78.435 78.75 77.903 77.455 77.573 77.687 77.477 77.422 77.388 77.578 -9999 -9999 77.646 77.768 78.074 78.312 78.987 79.092 79.038 78.987 79.147 79.286 79.599 80.138 79.7 79.505 79.517 79.427 79.321 79.622 79.766 79.71 79.998 79.963 79.977 80.352 80.39 80.165 79.948 79.591 79.53 79.38 79.463 79.487 79.454 79.513 79.425 79.353 79.403 79.237 79.307 79.507 79.663 79.903 80.064 80.276 80.428 80.615 80.571 80.6 80.687 80.563 80.639 80.578 80.626 80.521 81.311 81.544 78.722 77.317 77.381 78.222 78.428 79.253 79.74 79.709 79.216 79.419 79.254 79.659 79.414 78.905 79.591 79.725 79.719 79.337 79.282 78.219 79.204 79.436 79.57 79.917 79.534 77.925 78.785 77.74 79.1 77.366 75.999 75.738 75.244 74.879 74.391 74.402 73.751 73.383 72.891 72.943 75.121 73.712 72.873 72.73 72.548 72.463 72.243 71.762 71.157 72.538 75.661 75.935 75.656 73.437 80.011 70.926 71.621 68.218 67.682 67.492 67.446 67.451 67.345 67.086 66.974 66.911 66.642 66.511 66.426 66.405 66.382 67.245 68.551 66.032 66.07 65.819 66.581 66.634 66.747 67.059 67.095 68.096 70.123 69.359 66.546 66.097 66.021 66.04 66.358 66.043 65.996 66.012 66.035 66.028 66.02 66.022 66.033 66.124 66.734 66.383 66.316 66.099 66.011 66.088 70.933 70.164 66.807 65.5 65.359 65.211 65.039 64.828 64.739 64.491 64.284 64.12 64.02 64.397 63.675 63.604 63.549 63.517 63.512 63.42 63.289 64.496 64.66 64.435 63.538 63.242 62.535 62.427 62.207 61.816 61.717 61.697 61.686 61.682 61.699 61.709 61.756 61.788 61.869 61.917 61.954 62.059 62.126 62.188 62.217 63.509 65.953 64.048 62.316 62.582 62.369 62.339 62.209 62.108 61.92 61.949 61.82 61.583 61.465 61.202 61.049 60.83 60.569 60.236 60.212 60.025 59.758 59.675 59.464 59.373 59.295 59.357 59.309 59.342 59.396 59.213 59.236 59.366 59.42 59.348 59.651 59.754 59.749 59.759 59.703 59.736 59.67 59.544 59.391 59.218 59.128 58.913 58.943 58.92 58.879 58.764 58.692 58.131 57.754 59.541 63.528 64.59 64.212 63.243 58.868 57.649 57.579 57.637 57.561 57.288 57.119 56.958 57.093 57.05 57.163 57.174 57.259 56.993 57.052 57.1 56.949 60.103 61.193 57.882 57.749 57.875 57.487 57.153 56.896 56.622 56.701 56.688 59.748 61.817 58.019 56.827 56.898 56.826 56.8 56.582 56.491 56.379 57.325 61.475 61.549 57.939 56.333 56.442 56.493 56.659 56.694 56.562 56.569 56.521 56.792 56.824 57.095 56.582 56.602 56.304 56.146 56.03 55.924 59.948 62.37 63.483 62.623 61.306 55.891 55.845 55.835 55.858 55.696 55.424 55.477 55.483 55.46 55.348 55.397 55.443 55.549 55.425 55.51 55.772 55.375 60.775 61.925 61.724
90.924 91.651 90.664 90.508 90.352 -9999 -9999 89.994 89.894 89.859 90.04 90.097 89.942 89.785 89.53 89.335 89.293 89.304 89.002 88.638 88.202 87.777 87.171 86.402 85.669 85.084 84.695 84.804 85.373 86.667 85.657 86.049 83.101 82.638 82.651 82.755 82.36 82.013 81.583 81.361 81.226 81.09 81.883 81.235 80.677 80.259 80.711 80.587 82.297 83.829 82.167 80.317 79.688 79.283 79.191 79.455 79.487 79.125 78.642 78.878 78.926 78.673 79.105 79.609 78.955 78.542 78.483 78.449 78.402 78.331 78.401 78.411 77.995 78.13 78.18 78.27 78.163 78.169 78.067 78.239 78.838 78.316 78.236 77.953 77.888 78.015 78.1 79.606 80.113 81.382 80.751 79.802 81.179 80.423 78.612 77.91 77.909 77.948 77.747 77.712 77.66 77.813 77.889 -9999 -9999 -9999 78.457 78.911 79.464 79.456 79.377 79.458 79.245 79.357 79.879 80.446 79.919 79.709 79.895 79.786 79.618 79.684 79.947 79.961 80.2 80.385 81.016 80.372 80.304 80.173 80.07 80.023 79.826 79.813 79.724 79.671 79.795 79.747 79.637 79.591 79.609 79.487 79.521 79.597 79.786 80.161 80.213 80.401 80.554 80.76 80.813 80.921 80.936 80.989 81.001 81.02 81.065 80.895 81.444 81.721 80.836 78.918 79.693 79.844 79.629 79.667 79.762 79.773 79.766 79.744 79.761 79.761 79.743 79.739 79.734 79.752 79.784 80.301 80.036 80.162 80.063 80.117 79.852 79.617 78.922 77.338 77.747 77.247 77.131 77.053 76.719 76.14 75.664 75.256 77.686 78.363 77.982 75.03 73.134 73.129 73.886 73.087 72.868 72.736 72.511 72.285 71.996 71.223 70.778 70.293 70.461 76.837 80.447 85.867 86.292 76.315 68.385 68.506 67.681 67.673 67.898 67.625 67.508 67.224 67.093 66.965 66.864 66.871 66.533 66.516 66.642 66.489 66.247 66.226 66.698 66.629 67.438 70.113 70.097 68.215 70.156 71.75 71.689 69.992 69.152 67.272 66.29 66.235 66.428 66.245 66.184 66.122 66.107 66.101 66.108 66.114 66.159 66.136 66.15 66.152 66.156 66.121 66.041 66.082 67.762 70.185 65.681 65.474 65.358 65.201 65.075 64.898 64.73 64.575 64.39 64.278 64.102 64.127 63.852 63.711 63.59 63.566 63.64 63.84 63.215 63.043 62.898 62.766 62.628 62.404 62.236 62.077 61.941 61.844 61.797 61.807 61.743 61.752 61.788 61.956 64.645 65.639 64.196 62.677 62.127 62.067 62.126 62.205 62.262 62.28 62.311 62.311 62.305 62.315 62.354 62.351 62.425 62.35 62.274 62.215 62.187 62.146 61.854 61.702 61.488 61.321 61.133 60.885 60.704 60.481 60.283 60.232 60.183 59.935 59.89 59.841 59.861 59.782 59.769 59.834 59.868 59.871 60.099 60.166 60.146 60.202 60.092 59.998 59.947 59.904 59.774 59.665 59.47 59.327 59.206 59.196 59.242 59.149 59.191 58.978 58.89 58.842 58.664 58.961 61.8 60.984 63.884 59.258 57.663 57.695 57.707 57.717 57.839 57.892 57.655 57.599 57.507 58.26 57.737 57.406 57.448 57.462 57.388 57.352 57.327 59.594 58.689 58.521 58.124 58.105 57.878 57.865 56.938 57.707 57.351 57.219 61.924 62.788 61.4 58.499 58.617 58.602 59.644 59.327 56.639 56.518 56.533 58.279 56.998 56.477 56.516 56.516 56.978 57.085 56.744 56.545 56.543 56.566 56.591 56.536 56.421 56.557 56.35 56.122 56.078 55.988 55.969 61.503 62.78 63.45 62.445 58.534 55.862 55.863 55.9 55.964 55.756 55.524 55.513 55.513 55.522 55.404 55.378 55.568 55.556 55.482 55.885 55.908 55.537 60.201 62.924 63.64
95.315 95.154 91.85 90.549 90.744 90.24 89.929 89.802 89.811 89.844 89.989 90.008 89.832 89.703 89.408 89.435 89.434 89.42 89.206 88.81 88.519 88.041 87.353 86.562 85.809 85.219 84.653 84.571 86.2 86.005 84.647 85.034 83.795 82.926 82.853 82.869 82.727 83.002 82.574 82.214 81.79 81.769 81.955 81.413 80.887 80.623 80.373 80.263 80.313 80.717 79.885 79.843 79.41 79.011 79.965 81.722 81.666 80.17 78.9 79.188 79.953 79.728 80.376 80.314 80.278 79.76 79.015 79.034 78.634 78.445 78.466 78.444 78.831 79.841 80.118 79.88 78.911 79.04 78.819 78.449 79.163 80.887 80.643 78.778 79.012 79.487 79.74 80.51 80.161 83.072 83.616 83.427 83.741 80.958 78.201 77.964 78.116 78.271 78.105 78.022 77.95 77.907 78.045 78.144 78.155 -9999 78.858 79.049 79.201 79.119 79.145 79.668 79.374 79.376 79.401 79.804 79.724 79.726 79.852 79.903 79.788 79.984 80.102 80.171 80.363 80.182 80.684 80.397 80.271 80.149 80.169 80.377 80.305 80.018 79.802 79.77 79.792 79.754 79.727 79.89 79.825 79.753 80.466 79.785 79.949 80.284 80.423 80.399 80.507 80.778 80.967 81.106 81.178 81.191 81.214 81.274 81.247 81.273 81.378 81.791 81.309 81.295 81.313 80.913 81.573 80.678 80.226 80.982 80.226 80.94 80.413 81.014 80.785 80.484 81.655 80.502 81.246 81.18 80.876 80.822 80.629 80.596 80.253 79.826 79.412 78.573 77.95 77.347 77.274 77.391 77.368 76.623 76.307 76.087 78.76 79.82 79.485 76.484 74.656 74.023 73.627 73.081 72.946 72.691 72.453 72.067 71.605 71.057 70.73 70.205 69.858 78.063 83.326 85.918 89.051 81.72 84.103 70.304 67.967 67.937 67.88 67.778 67.7 67.61 67.259 67.268 67.217 67.004 66.693 66.678 66.856 66.646 66.486 66.963 67.268 66.401 67.486 70.69 71.369 68.492 69.339 71.504 71.857 71.915 72.526 71.038 70.608 70.058 66.429 66.324 66.168 66.239 66.262 66.292 66.492 67.967 66.243 66.246 66.226 66.209 66.161 66.133 66.07 66.015 65.946 65.801 65.679 65.511 65.44 65.248 65.104 64.912 64.751 64.623 64.472 64.235 64.09 63.962 63.811 63.677 63.576 63.499 63.426 63.182 63.142 62.956 62.783 62.632 62.521 62.31 62.269 62.107 62.038 61.964 61.941 61.859 61.912 61.865 63.801 67.86 66.839 66.901 67.227 66.114 64.355 66.039 64.868 62.265 62.243 62.267 62.327 62.347 62.342 62.322 62.319 62.326 62.325 62.353 62.373 62.349 62.37 62.292 62.277 62.14 61.982 61.81 61.618 61.46 61.135 61.071 60.889 64.866 62.012 60.669 60.589 60.278 60.317 60.259 60.271 60.239 60.433 60.619 60.653 60.616 60.53 60.494 60.421 60.325 60.203 60.053 59.878 59.753 59.59 59.486 59.444 59.516 59.482 59.443 59.278 59.485 59.228 59.157 58.971 58.975 58.912 59.07 59.571 59.131 57.898 57.862 57.957 58.054 59.977 60.335 61.022 58.86 58.204 58.267 57.959 57.565 57.704 57.857 57.902 57.539 57.604 58.321 58.347 58.641 58.235 57.573 57.984 57.969 57.298 59.305 59.038 57.272 62.614 62.853 62.136 61.825 61.581 61.92 62.683 59.45 56.718 57.987 56.563 56.492 56.706 56.836 56.629 56.567 56.95 56.968 56.843 56.58 56.577 56.626 56.597 56.489 56.435 56.253 55.905 55.82 55.834 55.95 58.574 61.688 62.879 63.195 62.069 58.384 55.831 55.85 55.965 56.245 57.132 55.497 55.58 55.606 55.602 55.485 55.505 55.641 55.664 55.539 56.935 55.918 55.728 61.167 62.729 63.883
98.739 96.687 93.602 91.564 91.13 90.148 90.183 89.889 89.801 89.77 -9999 89.828 89.698 89.61 89.551 89.61 89.531 89.428 89.31 89.077 88.763 88.272 87.723 86.897 86.097 85.468 85.009 84.828 84.888 84.724 84.298 84.368 84.228 83.385 82.983 82.844 82.872 83.198 82.927 82.703 82.243 81.849 82.003 81.501 81.108 80.923 80.612 80.441 80.234 80.172 80.145 80.579 79.815 79.397 81.34 83.556 84.323 80.255 79.205 79.225 81.178 82.995 84.14 84.538 83.167 81.172 80.658 81.257 80.792 79.908 79.11 78.855 80.439 83.097 83.684 83.692 82.892 82.773 82.009 79.861 81.008 83.786 83.906 82.784 83.262 82.741 81.068 79.513 82.865 83.821 84.647 85.122 83.814 81.544 78.471 78.235 78.359 78.449 78.427 78.386 78.291 78.23 78.203 78.098 78.357 -9999 -9999 -9999 79.156 79.052 79.067 79.248 79.325 79.388 79.517 79.693 79.725 79.807 79.947 79.947 79.969 80.164 80.336 80.872 80.273 80.232 80.284 80.468 80.363 80.2 80.325 80.605 80.627 80.4 80.289 80.3 80.024 79.869 80.021 80.087 80.035 80.881 80.728 80.572 80.52 80.469 80.513 80.578 80.63 80.774 81.086 81.228 81.562 81.891 81.475 81.93 81.443 81.385 81.533 81.657 81.518 82.012 81.353 81.848 81.448 81.778 81.538 81.36 81.329 81.302 81.362 81.395 81.431 81.323 81.235 81.249 81.315 81.301 81.236 81.16 81.032 80.875 80.513 80.175 79.67 79.101 78.287 77.336 77.268 77.249 77.129 76.829 76.451 76.514 79.265 79.512 78.954 76.038 74.033 73.542 73.476 73.085 72.981 72.613 72.312 71.924 71.546 71.332 70.797 70.355 70.021 70.439 81.665 85.032 87.982 88.164 83.899 68.484 68.158 68.071 67.979 67.845 67.815 70.992 67.664 67.661 67.29 67.164 66.889 66.901 67.587 67.696 67.768 68.362 67.883 67.185 67.717 68.276 69.901 68.117 67.749 69.565 68.72 72.217 73.716 73.375 72.656 72.249 71.82 67.846 66.236 66.293 66.348 66.42 66.559 69.028 66.836 66.724 66.364 66.288 66.237 66.187 66.131 66.094 65.991 65.872 65.726 65.589 65.447 65.301 65.146 64.985 64.789 64.67 64.488 64.325 64.141 64.017 63.826 63.715 63.619 63.531 63.427 63.243 63.068 62.933 62.811 62.655 62.55 62.39 62.248 62.221 62.115 62.089 62.091 62.193 62.223 65.477 67.637 69.999 68.708 67.071 67.534 67.11 67.032 68.151 65.159 64.735 62.417 62.288 62.328 62.281 62.344 62.384 62.377 62.33 62.354 62.326 62.312 62.356 62.382 62.405 62.409 62.378 62.318 62.167 62.089 61.874 61.662 61.387 61.511 69.441 70.445 64.797 63.002 62.853 62.074 60.871 60.789 60.878 60.927 60.921 60.979 60.977 60.882 60.834 60.733 60.551 60.431 60.222 59.971 59.874 59.738 59.787 59.741 59.788 59.679 59.59 59.467 59.609 59.553 59.369 59.336 59.273 59.161 59.062 59.007 58.874 59.079 59.189 58.89 59.55 59.362 58.147 58.322 59.874 59.758 57.719 57.976 57.593 57.559 57.653 57.661 57.801 58.092 57.605 57.505 57.727 57.773 57.685 57.736 59.145 58.67 57.471 57.114 59.475 62.492 62.994 63.208 63.203 63.143 62.638 62.782 57.533 56.912 58.634 57.371 57.72 57.144 56.979 56.952 56.856 57.001 56.913 56.897 56.578 56.623 56.646 56.629 56.487 56.386 56.148 55.847 55.806 55.755 56.162 56.989 57.737 57.264 59.557 59.318 56.403 55.961 56.13 57.809 63.527 64.71 55.796 55.92 55.682 55.618 55.471 55.487 55.746 55.699 55.615 56.662 55.877 55.498 61.11 63.056 63.417
99.129 98.5 97.346 94.838 92.662 90.447 90.537 90.027 89.674 89.786 89.963 89.688 89.634 89.599 89.603 89.597 89.511 89.392 89.355 89.304 89.13 88.764 88.132 87.484 86.719 85.823 85.439 85.241 84.946 84.501 84.246 84.24 84.171 83.726 83.137 83.096 82.996 82.918 82.97 82.83 82.434 81.882 81.814 81.598 81.34 81.209 80.958 80.727 80.545 80.517 80.675 80.821 80.31 80.43 83.174 82.686 81.673 79.371 79.119 80.097 84.284 85.332 85.855 85.607 85.264 81.711 81.904 84.836 84.638 83.68 81.513 79.153 80.37 84.357 85.117 84.952 85.421 84.878 84.073 80.771 82.408 84.036 84.934 84.949 84.998 84.31 82.142 80.128 81.726 84.004 84.363 83.897 84.123 82.516 79.469 78.768 78.69 78.795 78.859 78.641 78.629 78.633 78.524 78.421 78.58 78.715 78.818 -9999 79.085 79.075 79.076 79.01 79.112 79.336 -9999 -9999 -9999 80.211 80.397 80.542 80.554 80.494 80.722 81.662 80.859 80.469 80.659 81.526 81.791 82.47 81.78 81.326 81.184 81.55 81.904 81.863 82.064 81.7 81.224 81.606 81.502 81.18 81.085 80.721 80.877 80.914 80.773 80.775 80.905 80.86 81.111 81.336 81.929 82.17 82.169 82.125 82.217 82.31 82.184 81.53 83.254 84.185 85.704 84.683 85.995 83.728 85.578 85.389 83.045 85.46 83.643 86.277 84.432 85.39 85.13 82.621 85.46 83.965 84.348 84.238 81.895 82.324 80.862 80.311 79.857 79.315 78.812 78.203 77.192 77.306 77.274 77.086 76.627 76.216 77.788 77.59 77.577 74.365 73.909 73.619 73.434 73.197 72.895 72.557 72.325 71.966 71.311 70.906 70.715 70.649 70.239 69.861 70.202 72.582 73.341 74.227 71.552 68.382 68.471 68.249 68.154 67.984 72.633 75.889 76.556 72.466 68.368 67.209 67.13 67.193 67.757 67.896 67.592 68.429 67.682 67.794 67.887 68.31 69.691 69.527 68.923 69.99 67.528 72.996 73.716 73.982 73.945 73.616 73.275 72.565 66.307 66.338 66.437 66.592 66.528 66.489 66.522 66.538 66.519 66.413 66.401 66.533 66.536 66.464 66.292 66.55 66.267 66.226 65.824 65.47 65.756 65.269 65.44 65.282 64.627 64.457 64.649 64.138 63.986 63.813 63.7 63.548 63.493 63.393 63.407 63.206 62.841 62.692 62.566 62.51 62.384 62.279 62.226 66.038 65.924 68.446 69.011 70.098 71.692 71.746 68.514 68.443 68.074 67.284 68.658 69.936 69.014 65.9 65.43 63.455 63.274 62.347 62.317 62.293 62.327 62.352 62.377 62.385 62.352 62.345 62.357 62.345 62.343 62.339 62.326 62.339 62.283 62.16 62.034 62.09 69.768 72.594 76.674 76.094 75.103 72.699 64.612 61.375 61.47 61.218 61.28 61.376 61.357 61.352 61.242 61.173 61.015 60.846 60.623 60.385 60.143 59.996 60.085 60.063 60.055 60.035 59.908 59.664 59.566 59.615 59.667 59.819 59.725 59.516 59.54 59.365 59.255 59.177 59.066 58.865 58.748 59.011 58.647 58.193 58.149 59.85 59.946 57.797 57.712 57.894 57.622 57.757 57.768 57.71 58.064 57.722 57.599 57.827 57.813 57.814 57.77 57.784 57.594 57.299 57.14 57.085 58.508 58.496 61.755 62.062 62.77 62.991 62.236 57.564 56.863 57.338 57.156 57.479 56.983 56.885 56.862 56.9 58.039 56.931 56.761 56.648 56.667 56.703 56.693 56.493 56.401 56.127 55.848 55.717 55.739 56.546 55.794 55.796 55.813 55.915 56.701 55.934 55.991 61.015 65.187 69.08 70.424 67.633 65.161 55.804 55.611 55.576 55.643 55.756 55.702 55.866 56.661 55.826 55.461 61.5 63.601 63.535
98.8 98.873 98.757 98.047 96.646 94.34 92.525 90.86 90.392 90.363 -9999 -9999 -9999 89.595 89.581 89.572 89.458 89.38 89.44 89.499 89.381 89.304 88.954 88.245 87.253 86.494 86.018 85.645 85.357 85.074 84.758 84.433 84.309 84.042 83.759 83.633 83.363 83.189 83.257 83.176 82.809 82.371 82.187 81.785 81.488 81.4 81.162 81.046 81.054 80.98 81.617 81.325 80.453 79.553 80.961 80.461 79.473 79.289 79.135 79.504 83.34 84.678 84.937 84.773 83.745 80.509 80.587 85.018 85.332 85.476 84.476 79.849 78.995 80.895 84.484 85.344 85.782 85.375 83.483 79.511 80.984 83.689 85.049 84.804 84.729 84.764 82.594 80.06 80.752 81.936 82.759 79.96 81.037 80.366 79.686 79.338 79.02 79.008 79.052 79.021 78.978 78.925 78.817 78.77 78.713 78.848 78.881 78.997 -9999 -9999 79.099 79.03 79.075 -9999 -9999 -9999 -9999 80.672 80.816 81.077 81.066 80.934 80.738 80.707 81.135 81.197 81.89 82.651 82.878 82.63 82.226 82.298 82.046 82.245 82.71 82.63 82.35 81.804 81.485 82.312 81.892 82.496 81.192 81.096 81.485 82.04 81.331 81.147 81.082 81.209 81.21 81.387 81.658 81.884 82.106 82.193 82.084 82.041 81.861 81.511 87.092 87.654 87.882 87.646 87.956 87.81 87.793 87.599 87.668 87.648 87.56 87.726 87.691 87.732 87.481 87.846 87.598 87.613 87.634 87 83.81 81.475 80.955 80.451 80.049 79.433 78.898 78.495 78.109 77.375 77.304 77.275 77.067 76.442 76.058 75.796 75.004 74.598 74.126 73.737 73.39 73.21 72.903 72.384 72.037 71.425 71.231 71.014 71.433 70.889 70.599 70.149 70.176 69.412 68.802 68.875 68.796 68.677 68.496 68.43 68.388 68.374 74.17 78.498 79.483 77.064 68.89 68.02 67.474 67.489 68.162 67.953 68.174 68.785 68.583 80.035 71.064 69.095 71.976 72.482 70.159 67.037 69.116 71.865 72.324 72.829 73.201 73.343 74.054 67.497 66.334 67.331 69.429 66.997 66.554 66.579 66.596 66.602 66.732 66.532 67.516 66.76 66.818 66.874 67.056 68.034 66.88 69.088 67.097 66.058 65.467 65.418 65.783 65.83 65.935 65.984 65.93 65.467 65.872 65.595 65.371 64.682 63.602 63.548 63.723 63.769 62.932 67.072 63.743 63.243 62.818 67.884 69.052 69.405 68.986 69.639 67.614 70.748 71.657 71.322 70.695 67.942 67.701 67.74 69.067 69.372 67.36 65.156 65.034 65.029 65.339 64.41 64.057 66.356 62.531 62.369 62.361 62.337 62.362 62.353 62.381 62.374 62.342 62.314 62.304 62.316 62.323 62.298 62.269 63.928 72.316 74.765 76.477 75.158 77.309 75.476 66.324 61.966 62.703 61.88 61.631 61.569 61.646 61.577 61.596 61.451 61.38 61.186 60.833 60.528 60.267 60.218 60.333 60.299 60.296 60.245 60.062 59.784 59.681 61.805 61.526 60.975 59.84 59.706 59.684 60.617 59.819 59.472 59.212 59.034 58.754 58.862 58.573 58.33 58.22 58.298 58.608 57.948 57.886 57.849 57.827 57.851 57.88 57.828 57.83 57.699 57.762 57.867 57.785 57.728 57.654 57.75 57.726 57.291 57.166 56.989 57.053 56.944 57.063 58.475 58.528 61.751 61.703 57.403 56.902 57.145 56.887 56.846 57.039 56.877 56.908 56.986 57.482 57.132 56.743 56.652 56.641 56.695 56.672 56.511 56.449 56.199 55.917 55.834 55.9 57.288 56.092 55.903 57.148 55.901 55.945 55.959 55.991 61.53 61.024 69.523 67.858 68.174 62.304 55.898 55.703 55.68 55.585 55.678 55.81 56.118 56.061 55.66 55.393 61.128 61.575 61.855
96.8 98.253 99.019 98.966 99.036 98.13 95.897 92.298 91.306 91.4 90.879 -9999 -9999 -9999 89.558 89.52 89.484 89.475 89.547 89.627 89.517 89.473 89.416 89.039 88.255 87.502 86.737 86.309 85.933 85.564 85.274 85.174 84.847 84.568 84.375 84.13 83.623 83.596 83.652 83.604 83.014 82.728 82.593 82.296 81.876 81.8 81.762 83.061 82.187 81.202 81.491 81.114 80.387 79.835 79.892 79.602 79.307 79.341 79.278 79.089 80.229 81.644 83.303 82.888 80.12 79.507 80.181 83.993 84.481 83.938 81.685 78.891 79.168 80.907 82.989 84.437 82.921 83.771 83.445 80.056 79.104 82.35 83.248 81.347 82.837 82.516 80.07 78.758 79.389 80.284 79.99 78.983 78.964 78.602 79.127 79.21 79.069 79.1 79.272 79.295 79.281 79.23 79.167 79.142 79.108 79.047 78.927 79.154 79.277 -9999 -9999 79.127 -9999 -9999 -9999 80.785 80.839 80.88 80.948 81.111 81.252 81.167 81.073 81.047 81.306 81.558 82.309 82.807 83.038 82.736 82.114 82.538 81.891 81.903 82.463 82.961 82.772 82.133 82.096 82.773 82.921 82.927 81.848 81.442 81.728 81.851 81.98 81.742 81.407 81.392 81.402 81.493 81.646 81.85 82.09 82.426 82.743 82.502 82.291 83.142 88.253 88.202 88.309 88.296 88.189 88.42 88.313 88.424 88.241 88.336 88.529 88.221 88.48 88.269 88.316 88.385 88.326 88.402 88.249 88.335 84.939 82.2 80.961 80.629 80.089 79.623 79.142 78.677 78.274 77.882 77.376 77.374 77.207 76.72 76.041 75.557 75.163 74.565 74.171 73.742 73.444 73.226 72.79 72.314 71.713 71.413 71.234 71.064 71.189 70.971 70.6 70.254 69.826 69.341 69.116 69.189 68.916 68.875 68.885 69.591 68.772 68.971 74.189 77.758 74.375 72.836 69.027 69.395 68.049 67.935 73.049 74.888 71.521 69.246 78.533 86.429 81.646 75.46 70.768 71.828 68.611 66.462 66.355 66.457 67.637 71.068 71.622 72.151 72.747 67.698 66.453 70.802 73.236 72.564 70.649 67.274 68.09 66.677 67.003 67.114 67.221 67.225 70.777 71.062 71.624 72.492 72.574 72.887 67.694 66.008 65.892 65.512 65.839 65.92 65.936 66.2 66.734 67.593 69.491 68.903 66.331 65.472 64.83 64.64 63.86 67.04 69.258 69.767 70.867 68.192 70.317 71.067 67.854 70.817 70 72.13 72.224 71.111 69.779 69.085 68.244 67.701 67.685 67.888 71.47 71.98 68.677 65.777 65.56 65.599 65.409 65.372 65.222 65.113 65.076 64.62 63.848 62.848 62.312 62.343 62.353 62.367 62.355 62.367 62.347 62.339 62.327 62.257 62.288 66.617 72.46 75.698 77.385 76.421 77.272 76.329 64.34 69.217 70.985 72.094 68.447 63.458 61.794 61.839 61.732 61.661 61.622 61.42 61.257 60.876 60.492 60.37 60.468 60.556 60.533 60.44 60.278 59.931 59.97 67.619 67.059 67.335 65.936 64.161 60.607 60.384 59.778 59.679 59.483 59.134 58.923 58.949 58.399 58.349 58.359 58.21 58.644 58.09 58.055 58.011 58.03 58.128 58.075 57.978 57.989 57.98 58.045 58.028 57.821 57.919 57.723 58.163 57.966 57.471 57.257 57.065 57.085 57.031 57.209 57.612 57.295 57.01 56.955 56.945 56.917 56.883 56.787 56.804 56.921 57.013 56.963 57.056 56.918 56.927 56.848 56.748 56.772 56.76 56.655 56.546 56.542 56.432 56.38 56.155 58.133 61.061 60.405 60.913 59.207 57.322 56.185 56.153 56.204 56.053 63.725 65.067 67.456 61.503 58.905 55.816 55.765 55.68 55.706 55.758 55.89 55.94 57.032 55.943 55.257 56.7 58.251 57.866
94.348 96.101 97.746 98.332 99.296 98.785 97.043 92.979 91.851 91.688 91.438 -9999 -9999 -9999 -9999 89.501 89.491 89.495 89.513 89.555 89.574 89.565 89.554 89.338 88.642 88.293 87.777 87.05 86.382 86.3 86.128 85.94 85.42 85.149 85.265 84.461 84.197 84.106 84.07 83.944 83.452 83.048 82.857 82.604 82.297 82.202 83.285 85.547 83.802 81.792 81.277 80.976 80.549 80.491 80.169 79.965 79.854 79.623 79.472 79.207 79.17 79.227 80.674 81.082 79.509 79.293 80.015 80.448 81.702 79.968 79.101 78.804 79.884 82.489 81.431 80.925 79.308 80.092 81.143 78.985 78.697 79.501 79.787 78.864 80.289 79.751 78.506 78.711 79.011 79.195 79.007 78.903 79.017 79.717 80.214 79.126 79.061 79.393 79.457 79.483 79.408 79.375 79.369 79.386 79.403 79.325 79.307 79.386 79.461 -9999 -9999 -9999 -9999 -9999 -9999 80.891 80.823 80.772 81.032 81.183 81.491 81.54 81.233 80.978 81.728 82.219 82.705 82.932 82.943 82.859 82.802 81.999 81.424 81.489 81.91 82.733 82.79 82.674 82.729 82.799 82.89 82.944 82.531 82.382 82.259 82.223 82.165 82.181 82.371 81.789 81.927 81.695 81.729 81.93 82.127 82.669 83.111 83.061 83.008 82.233 87.143 87.167 87.284 87.118 87.616 87.512 87.542 87.359 87.334 87.485 87.391 87.547 87.388 87.42 87.53 87.962 87.601 87.38 87.418 87.326 83.936 82.166 81.06 80.755 80.239 79.77 79.31 78.687 78.351 77.971 77.589 77.234 77.249 76.799 76.062 75.627 75.029 74.492 74.1 73.655 73.231 72.972 72.533 72.102 71.705 71.391 71.256 71.436 71.343 70.925 70.611 70.225 69.765 69.478 69.515 69.364 69.183 69.293 76.837 78.101 75.749 71.918 71.502 72.511 77.158 77.85 72.96 76.031 71.16 70.526 76.11 78.798 72.717 79.564 85.341 86.417 85.67 80.495 72.098 69.939 67.541 66.863 66.546 66.474 66.781 67.325 66.605 68.673 66.958 66.64 66.683 71.47 74.202 73.994 73.535 72.687 71.94 68.093 66.734 67.002 67.144 71.273 73.222 73.59 73.677 73.803 74.127 74.36 68.797 66.243 66.131 65.684 65.867 65.926 66.075 69.942 71.247 73.509 72.411 68.678 65.939 65.585 65.304 64.985 64.994 66.837 69.86 71.243 71.05 71.34 69.248 69.158 69.947 71.543 70.842 71.465 70.612 68.553 70.565 70.82 70.583 67.726 67.66 67.587 72.099 71.924 68.138 66.439 66.357 66.356 65.972 65.783 65.67 65.386 65.186 65.099 65.066 65.085 64.785 63.037 62.447 62.368 62.326 62.334 62.366 62.381 62.368 62.313 62.278 67.304 72.237 74.547 75.747 76.309 77.63 75.962 71.782 68.209 66.332 75.326 66.819 64.986 61.879 61.974 61.98 61.894 61.83 61.723 61.485 61.1 60.865 60.646 60.546 60.64 60.755 60.747 60.454 60.073 59.929 69.617 69.227 69.117 68.726 68.494 68.093 63.426 61.6 60.36 59.695 59.398 59.066 59.459 58.699 58.548 58.513 58.629 58.676 58.24 58.224 58.144 58.179 58.204 58.26 58.16 58.162 58.082 58.121 58.24 58.033 57.924 57.817 58.401 58.029 58.054 58.201 57.589 57.741 57.343 58.422 57.16 57.033 57.045 56.978 56.935 57.038 56.938 56.936 56.883 56.906 57.021 57.089 57.094 56.938 57.181 56.89 56.859 56.797 56.8 56.754 56.68 56.649 56.546 56.478 56.451 56.644 62.325 63.63 63.963 62.928 58.642 56.278 56.233 56.244 56.214 56.378 58.071 57.922 57.776 55.939 55.9 55.883 55.755 57.829 56.41 55.849 55.914 56.984 56.5 56.92 56.936 55.731 56.582
92.697 92.724 94.829 96.445 98.091 97.544 95.772 91.988 91.889 91.89 -9999 -9999 -9999 -9999 -9999 -9999 -9999 89.516 89.546 89.58 89.618 89.618 89.636 89.656 89.491 89.041 88.385 88.166 87.545 87.347 87.782 87.748 87.534 86.778 86.879 85.804 85.049 84.619 84.635 84.338 84.004 83.48 83.26 82.752 82.603 82.937 83.635 83.95 83.374 82.575 81.623 81.474 81.447 81.18 80.917 80.82 80.56 80.492 80.258 79.8 79.632 79.801 80.388 81.169 80.109 79.457 79.6 79.761 80.283 79.64 79.122 79.094 79.99 80.554 79.638 78.569 78.6 78.872 79.155 78.778 78.668 78.64 78.8 79.064 79.195 79.119 78.833 79.004 79.131 79.219 79.119 79.449 80.69 83.067 83.713 80.493 79.111 79.413 79.496 79.445 79.411 79.479 79.543 79.604 79.662 79.691 79.686 79.55 79.593 79.762 -9999 -9999 -9999 -9999 -9999 81.037 80.965 81.016 81.166 81.248 81.691 81.782 81.789 81.655 82.356 82.878 82.942 82.94 82.951 82.991 83.186 82.098 81.227 81.466 82.111 82.865 82.922 82.866 82.766 82.784 82.828 82.97 82.97 82.786 82.864 82.798 82.786 82.279 84.219 84.476 84.559 82.1 81.961 82.075 82.208 82.346 82.678 83.788 83.173 82.065 81.982 83.82 83.807 82.361 85.489 82.64 83.899 82.994 83.146 85.253 84.146 84.295 82.547 84.843 84.216 85.087 86.175 86.23 86.185 85.985 83.534 81.844 81.098 80.744 80.332 79.83 79.284 78.797 78.467 78.106 77.793 77.453 77.409 76.583 76.168 76.759 75.949 74.409 74.139 73.432 73.153 72.68 72.348 71.982 71.737 71.514 71.327 71.145 70.921 70.876 70.595 69.951 69.789 69.817 69.979 69.837 69.537 71.437 80.076 83.296 81.175 78.779 72.775 77.749 77.71 80.359 81.272 77.754 75.89 74.681 70.699 73.528 70.236 74.84 83.196 84.94 84.588 82.442 71.277 69.181 67.594 67.313 67.067 66.894 67.198 66.842 66.331 66.273 66.329 67.098 67.001 72.283 73.422 73.83 74.262 74.312 69.92 66.507 66.771 67.228 70.969 74.469 74.581 74.683 74.857 74.277 74.03 73.707 69.869 66.504 66.247 66.337 66.463 66.179 66.031 67.018 72.387 73.551 73.063 70.996 66.065 66.528 66.012 65.897 67.293 68.68 69.576 68.276 70.965 71.715 68.362 68.652 72.556 71.862 71.534 70.193 71.871 67.903 70.049 72.266 71.802 70.836 68.903 70.415 69.862 68.941 67.793 67.664 67.426 67.079 66.911 66.531 66.344 66.021 65.73 65.616 65.24 65.177 65.437 64.716 64.582 64.745 63.415 62.49 62.35 62.347 62.346 62.346 62.354 62.354 65.363 71.685 74.144 76.35 76.633 74.341 66.638 73.314 72.38 72.621 74.144 65.69 64.082 62.176 62.132 62.075 62.008 61.906 61.774 61.567 61.33 61.06 61.001 60.914 60.925 60.973 60.769 60.328 60.168 69.525 69.902 69.921 69.744 69.69 67.673 65.846 65.56 64.773 61.758 59.782 59.272 59.135 58.943 58.827 58.751 59.021 59.784 58.432 58.313 58.281 58.33 58.451 58.483 58.371 58.324 58.435 58.347 58.333 58.234 58.205 58.013 58.096 58.047 58.08 57.992 57.862 57.936 57.948 57.645 57.397 57.276 57.159 57.05 57.036 57.002 56.962 56.914 56.876 57.009 57.034 57.152 57.179 57.265 57.745 56.931 56.856 56.909 56.894 56.712 56.634 56.701 56.621 56.574 56.617 60.244 62.738 63.855 63.881 62.778 57.733 56.406 56.352 56.295 56.356 56.529 56.604 56.084 55.984 55.995 55.953 55.867 55.805 57.495 56.282 55.92 56.008 56.194 57.87 58.512 55.831 56.017 55.743
92.858 92.598 92.931 92.962 95.474 95.902 93.183 92.756 92.464 -9999 -9999 -9999 -9999 -9999 89.815 89.767 89.691 89.568 89.522 89.523 89.582 89.617 89.641 89.666 89.659 89.573 89.297 88.895 88.248 88.311 88.368 88.492 89.049 88.674 88.759 87.252 85.962 85.456 85.271 84.803 84.272 83.855 83.382 83.198 82.936 82.861 83.269 83.106 82.825 82.321 82.187 82.162 82.051 81.838 81.612 81.357 81.201 81.135 81.093 81.705 82.162 81.531 80.87 81.223 81.115 80.866 80.163 80.299 80.46 80.345 79.681 79.61 79.725 79.571 79.324 79.57 79.826 79.375 79.341 79.974 79.416 78.987 79.155 79.397 79.36 79.353 79.338 79.31 79.344 79.463 79.467 80.024 83.388 83.274 83.239 80.771 79.372 79.484 79.712 79.78 79.645 79.759 79.677 79.669 79.945 79.87 79.822 79.769 79.582 80.198 80.138 80.388 -9999 -9999 -9999 -9999 81.298 81.362 81.352 81.518 81.944 81.972 82.024 82.14 82.45 83.263 83.613 83.711 83.703 83.884 85.459 83.771 81.962 82.396 82.783 83.204 83.24 82.932 82.903 82.937 83.039 83.054 83.161 83.199 82.995 83.171 83.142 83.027 83.167 83.702 83.245 82.534 82.114 82.213 82.344 82.531 82.634 83.274 84.568 83.369 82.508 82.031 82.989 81.866 81.667 81.306 81.542 81.782 81.583 83.227 83.036 82.776 81.313 81.837 81.254 81.383 81.27 83.222 84.071 83.915 81.947 81.266 81.117 80.804 80.399 79.928 79.454 79.025 78.631 78.26 77.845 77.732 77.495 76.654 75.606 79.572 82.835 78.466 78.748 76.667 73.367 72.662 72.406 72.076 71.892 71.611 71.576 71.153 70.945 70.582 70.363 70.137 70.186 70.472 70.293 70.222 69.801 69.681 80.772 83.91 83.317 77.745 73.819 76.483 79.872 75.324 81.006 79.094 78.299 75.759 69.509 69.546 69.874 76.41 81.186 82.416 80.988 80.299 70.422 68.32 68.073 67.755 67.617 67.451 67.151 67.085 66.814 66.622 67.668 67.29 67.064 71.183 71.844 72.641 73.344 73.262 69.308 66.56 66.923 67.303 68.163 74.326 74.53 73.86 73.763 72.854 72.388 72.359 71.034 67.174 66.981 66.442 66.376 66.211 66.215 66.515 71.867 74.098 74.091 72.646 67.458 67.05 66.752 66.513 66.137 69.735 68.061 67.525 69.937 71.827 70.883 72.428 71.092 72.35 72.284 70.601 69.489 69.371 71.372 71.39 71.996 72.179 71.925 70.721 69.365 69.96 68.343 68.064 68.044 68.055 67.632 67.385 67.116 66.79 66.372 66.011 65.974 65.592 65.371 65.09 64.964 64.9 64.991 65.363 64.102 62.499 62.39 62.299 62.34 62.307 62.301 64.139 67.775 66.067 65.681 65.27 64.142 70.624 71.469 73.325 73.491 73.028 62.373 62.277 62.276 62.24 62.15 62.126 62.069 61.806 61.725 61.467 61.378 61.311 61.256 61.148 60.957 60.273 66.579 68.47 68.655 69.078 69.271 69.502 67.667 66.683 66.5 66.204 65.576 64.22 59.629 59.219 58.987 59.095 60.291 59.595 60.505 58.92 58.804 58.514 58.578 58.599 58.676 58.711 58.781 58.612 58.913 58.402 58.397 58.268 58.292 58.252 58.138 58.112 58.103 58.198 59.42 58.48 58.095 57.929 57.773 57.525 57.463 57.236 57.123 57.069 57.104 58.555 57.296 56.948 56.998 57.205 57.444 57.207 57.016 56.969 56.984 56.898 56.772 56.766 56.759 56.694 56.604 56.811 60.439 62.797 64.084 63.738 62.622 58.169 56.469 56.407 56.289 56.586 56.711 56.648 56.173 56.011 56.051 55.993 55.959 55.914 56.424 56.239 56.026 56.084 57.805 58.42 59.759 57.104 59.569 59.29
93.289 93.712 93.215 92.768 92.95 92.613 93.442 93.235 -9999 -9999 -9999 -9999 -9999 90.291 90.083 89.799 89.71 89.549 89.486 89.459 89.433 89.515 89.614 89.65 89.655 89.612 89.581 89.57 89.295 89.006 88.788 88.44 88.831 88.524 88.284 87.557 86.558 85.71 85.621 85.291 84.543 84.363 83.873 83.739 83.361 82.972 83.064 82.935 82.642 82.657 82.908 83.183 82.744 82.286 82.017 81.868 81.834 81.634 81.934 84.827 88.075 85.604 82.487 81.427 83.264 82.198 80.958 80.502 80.527 80.311 80.06 79.94 79.834 79.783 80.732 83.407 83.7 83.082 83.651 85.598 83.544 80.077 79.586 79.543 79.69 79.659 79.628 79.555 79.533 79.514 79.605 80.284 81.592 80.836 80.569 79.869 79.906 79.97 80.181 80.41 80.413 80.258 79.952 80.247 80.264 80.439 80.542 80.525 80.49 80.577 80.313 80.638 80.694 80.746 -9999 -9999 81.448 81.533 81.656 81.872 81.998 82.091 82.413 82.4 83.254 85.386 85.52 -9999 -9999 86.295 87.558 85.706 83.159 83.149 83.466 84.456 84.426 83.832 83.37 83.685 83.541 83.858 84.199 85.968 86.214 85.598 86.231 84.983 85.139 83.238 83.242 82.598 82.355 82.405 82.419 82.641 82.753 82.928 83.129 83.973 84.367 83.18 84.018 83.416 82.913 81.998 82.353 82.079 81.827 81.853 81.752 81.887 81.823 82.186 82.069 81.784 81.672 82.268 82.484 81.757 81.366 81.32 81.106 80.923 80.543 80.012 79.445 79.109 78.628 78.25 77.854 77.86 77.421 76.434 75.5 77.882 81.991 79.372 79.119 80.504 76.497 72.769 72.479 72.418 72.107 71.637 71.343 71.208 71.093 70.627 70.42 70.826 70.958 70.542 70.258 70.194 69.966 70.629 79.016 80.765 81.276 73.547 72.137 78.235 81.908 83.23 76.237 82.478 79.688 76.36 71.449 70.299 70.72 71.289 74.062 78.39 77.151 72.706 70.19 68.679 68.515 68.284 68.011 67.946 68.198 67.511 67.297 67.16 67.221 68.205 68.278 66.655 68.96 70.424 71.738 72.121 66.645 66.722 67.035 67.013 67.198 72.135 72.8 72.556 71.899 68.834 68.148 66.744 67.176 66.859 66.911 67.376 66.563 67.014 66.992 67.404 72.685 74.126 74.712 73.29 70.171 67.194 67.009 66.732 68.309 72.973 67.457 67.821 71.087 72.449 72.558 72.285 72.747 72.282 71.776 70.435 68.386 68.574 70.853 69.532 71.31 72.067 71.749 70.301 69.083 69.531 68.259 68.239 68.258 68.245 68.155 67.96 67.769 67.557 67.39 66.921 66.595 66.196 65.863 66.583 65.673 65.063 64.846 64.584 64.436 64.477 64.214 62.482 62.442 62.382 62.301 62.267 62.311 62.326 62.315 62.3 62.309 64.512 64.448 71.91 70.897 63.505 62.389 62.391 62.392 62.327 62.324 62.32 62.223 62.14 61.959 61.776 61.714 61.591 61.544 61.425 61.223 60.577 61.451 61.543 63.919 66.78 68.14 68.421 66.855 66.109 66.636 67.015 66.617 64.859 60.329 62.369 63.76 63.411 62.758 60.28 59.139 59.05 59.071 58.876 58.782 59.377 59.015 58.899 58.833 58.873 58.704 58.567 58.597 58.466 58.94 58.419 58.584 58.352 58.165 58.169 59.616 58.453 58.181 58.08 57.945 58.034 57.999 58.28 58.113 58.626 60.794 58.427 57.078 57.033 57.166 57.379 57.408 57.186 57.02 56.999 57.019 56.964 56.797 56.758 56.725 56.71 56.678 56.715 60.39 63.084 64.078 63.653 62.277 57.117 56.462 56.415 56.517 56.719 56.841 57.324 56.429 61.982 58.761 58.304 56.211 55.936 56.094 56.176 56.112 56.492 56.556 55.758 59.089 58.608 58.179 59.479
94.399 93.872 93.056 92.35 92.684 93.199 93.403 -9999 -9999 -9999 -9999 -9999 -9999 90.463 90.215 89.873 89.629 89.595 89.559 89.378 89.243 89.394 89.43 89.545 89.631 89.62 89.671 89.662 89.599 89.535 89.529 88.941 88.875 88.301 88.776 89.888 88.428 86.345 86.007 85.626 85.246 84.842 84.524 84.068 83.789 83.538 83.239 83.132 82.993 82.905 83.061 83.18 82.988 82.547 82.431 82.376 82.319 82.025 82.332 84.773 90.286 86.947 85.539 81.64 81.739 81.324 81.225 80.976 80.928 80.719 80.56 80.644 80.358 80.501 83.343 87.797 90.91 82.605 87.425 93.126 84.013 80.965 79.837 79.832 79.902 79.932 79.998 79.875 79.785 79.877 79.929 79.719 80.057 79.89 80.044 80.877 81.557 80.968 81.468 83.007 83.584 81.149 80.267 80.887 81.979 83.033 83.245 82.955 83.443 81.969 80.632 80.807 80.741 80.814 -9999 -9999 81.55 81.623 81.8 81.965 81.957 81.958 82.279 82.606 83.592 86.215 86.751 87.181 87.707 86.948 87.045 86.216 -9999 85.284 85.931 86.625 86.911 85.046 84.133 84.635 85.591 85.541 86.523 87.704 88.792 89.341 88.299 88.242 86.774 84.101 83.116 82.826 82.681 82.7 82.698 82.744 82.904 83.135 83.221 83.533 84.146 85.639 86.574 83.494 83.191 82.754 82.629 82.649 82.795 82.789 82.441 82.463 82.177 82.92 82.427 82.04 81.981 81.861 81.758 81.656 81.561 81.45 81.205 80.909 80.551 80.04 79.618 79.227 78.727 78.287 77.812 77.486 76.904 76.036 75.252 74.708 73.973 79.023 80.891 80.612 78.745 73.392 72.665 72.7 72.162 71.747 71.465 71.252 70.898 70.686 70.615 71.285 71.018 70.739 70.458 70.238 70.148 71.933 77.752 78.557 74.552 70.849 76.157 81.624 82.893 83.54 82.283 82.229 82.309 79.961 71.747 71.281 71.261 71.887 74.534 77.814 77.656 72.872 71.035 69.818 69.423 68.748 68.668 68.348 68.45 67.974 67.85 67.614 67.619 67.625 67.346 67.172 67.797 67.738 66.706 66.554 67.13 67.033 67.855 67.054 67 68.154 68.396 67.631 67.035 67.097 67.105 67.227 67.151 67.377 67.105 66.835 66.927 67.128 67.256 67.353 70.996 73.821 74.698 70.314 69.53 67.181 67.074 67.099 69.119 73.458 72.174 70.588 73.061 72.341 71.685 72.78 71.114 71.712 72.328 69.263 68.581 68.478 68.663 68.599 68.97 70.453 71.38 72.063 68.845 68.425 68.242 68.37 69.291 68.437 68.269 68.215 68.135 68.072 68.062 67.241 67.203 66.909 66.42 66.087 65.806 65.525 65.326 64.991 64.841 64.605 64.481 63.885 62.886 62.527 62.44 62.434 62.384 62.302 62.314 62.344 62.334 62.309 62.419 62.88 62.318 62.348 62.388 62.395 62.405 62.425 62.411 62.453 62.394 62.342 62.204 62.131 62.021 61.955 61.799 61.683 61.545 61.852 60.685 60.555 60.3 60.098 61.357 63.274 64.692 63.805 65.23 66.469 66.875 65.666 59.62 63.752 65.789 65.557 65.688 65.383 64.061 63.951 63.529 62.945 59.881 59.069 64.28 63.597 63.448 63.947 61.884 61.557 61.46 59.047 59.46 59.008 58.581 58.554 58.333 58.582 58.251 58.714 58.557 58.252 58.354 58.057 58.071 57.914 57.951 59.631 60.162 59.666 57.899 57.309 58.229 57.265 57.632 57.145 57.059 57.018 57.01 56.897 56.776 56.752 56.783 56.788 56.693 56.603 60.577 63.01 64.291 63.402 62.088 57.183 56.498 56.562 56.707 56.897 63.178 61.376 69.431 65.921 61.843 61.071 57.166 56.071 56.215 56.21 56.159 56.47 56.758 55.859 60.537 62.065 62.093 62.034
95.073 94.91 94.349 93.388 93.3 93.348 93.413 -9999 -9999 -9999 -9999 91.884 91.453 90.886 90.388 90.136 90.016 90.197 89.692 89.669 89.457 89.391 89.234 89.434 89.565 89.652 89.709 89.674 89.658 89.691 89.729 89.48 89.371 89.681 90.385 90.382 89.799 87.408 86.707 86.307 85.916 85.632 85.153 84.718 84.367 84.133 83.918 83.707 83.271 83.232 83.251 83.107 82.96 82.722 82.61 82.584 82.539 82.362 82.245 83.263 86.796 89.23 88.962 83.226 82.023 81.934 82.269 81.877 81.531 81.254 81.14 81.129 81.643 84.03 85.721 84.175 82.202 82.772 84.983 86.646 81.917 81.106 80.073 80.012 80.327 80.74 80.528 80.345 80.14 80.233 80.262 80.105 79.978 80.002 80.395 81.944 85.547 84.87 85.465 85.649 84.998 82.023 80.707 83.535 85.941 86.541 86.337 86.151 86.183 83.609 81.349 81.148 80.706 80.881 80.989 81.161 -9999 -9999 81.851 81.907 81.884 81.854 82.255 82.858 83.122 83.557 85.861 87.769 88.623 87.074 86.745 85.669 85.333 86.039 88.639 87.948 87.118 86.154 85.483 86.22 88.35 87.988 87.915 88.716 89.098 89.393 89.13 89.132 86.695 83.934 83.052 83.215 83.394 82.987 83.016 82.971 83.045 83.172 83.317 83.475 83.75 86.87 87.062 83.918 84.056 83.912 83.995 83.208 83 83.402 83.088 83.915 82.62 83.061 82.581 82.26 82.157 82.143 81.885 81.788 81.666 81.505 81.196 80.919 80.547 80.137 79.663 79.33 78.825 78.402 77.796 77.237 76.608 76.102 75.577 74.631 73.722 77.598 79.055 78.773 75.133 72.724 72.591 72.817 72.247 71.884 71.504 71.264 70.898 70.824 71.05 71.008 70.952 70.755 70.889 70.845 74.891 77.461 79.67 80.327 78.157 71.588 79.955 82.253 84.186 83.017 79.857 80.178 83.693 75.646 78.808 77.872 72.405 72.092 72.236 78.885 79.338 78.682 79.318 76.867 72.624 70.04 71.709 68.903 68.553 68.427 68.242 68.123 67.993 67.954 67.812 67.702 67.473 67.274 67.149 66.811 67.134 67.301 67.599 67.602 67.131 67.036 67.3 67.053 67.293 67.442 67.411 67.514 67.789 67.79 67.65 67.577 67.661 67.566 69.048 69.965 70.981 68.525 71.284 67.445 68.619 69.139 69.148 69.64 69.157 72.076 72.198 71.21 72.782 72.2 70.533 71.97 71.441 72.808 72.877 70.086 68.961 68.877 69.084 69.071 69.02 68.78 69.39 71.976 70.425 68.419 68.367 68.518 73.689 71.142 72.177 68.49 68.331 68.327 68.443 67.84 67.725 67.463 67.186 66.881 66.475 66.021 65.743 65.336 65.113 65.959 64.205 64.162 64.059 64.222 64.193 63.718 63.023 62.446 62.339 62.362 62.313 62.37 62.35 62.387 62.327 62.331 62.342 62.309 62.349 62.383 62.404 62.423 62.402 62.417 62.431 62.369 62.279 62.178 62.063 61.986 61.767 62.03 61.336 61.153 60.747 60.55 60.287 60.294 60.497 60.536 62.691 65.259 65.598 61.92 59.669 64.622 65.95 65.273 65.61 65.927 65.891 66.205 65.773 64.662 59.155 59.938 64.203 65.301 65.282 65.117 65.448 64.723 64.394 63.986 63.877 62.777 59.228 59.203 59.277 59.08 58.794 59.154 58.67 58.517 58.36 58.152 58.029 57.73 57.8 57.976 59.082 58.312 57.306 57.231 57.199 57.31 58.126 57.23 57.111 57.014 57.011 56.933 56.886 56.71 56.644 56.568 56.577 58.247 61.959 63.39 63.933 63.033 59.382 56.646 56.507 56.745 57.008 57.267 67.028 71.057 71.484 71.916 70.365 57.648 56.157 56.081 56.279 56.222 56.196 56.608 56.186 55.897 60.402 62.58 63.79 62.955
95.29 95.547 95.157 94.759 94.256 -9999 -9999 -9999 -9999 -9999 92.267 92.139 91.882 91.493 90.77 90.628 90.594 92.864 92.597 91.169 89.852 89.906 89.595 89.758 -9999 -9999 89.683 89.666 89.682 89.724 89.782 89.769 89.742 90.06 90.424 89.95 88.432 87.861 87.293 86.809 86.496 86.341 85.863 85.162 85.115 84.89 84.632 84.348 84.068 84.144 83.976 83.585 83.252 83.033 82.856 82.79 82.691 82.62 82.639 82.906 89.922 91.037 87.695 82.852 83.473 85.895 85.802 83.276 82.699 81.857 81.651 81.601 81.696 89.143 86.975 82.795 81.272 81.02 81.571 81.137 82.331 81.005 80.434 80.364 80.772 80.976 80.763 80.624 80.471 80.49 80.45 80.338 80.307 80.262 80.796 83.281 86.185 87.342 87.248 87.184 87.362 84.395 82.221 86.359 87.09 87.388 87.188 87.154 86.543 82.14 82.323 81.762 81.052 81.01 81.077 81.292 81.485 81.652 -9999 -9999 81.938 82.12 82.351 82.948 83.036 83.545 86.678 86.752 85.829 85.805 87.723 84.559 83.823 84.676 86.654 86.641 87.697 86.075 84.523 86.245 87.182 86.67 88.279 88.567 87.432 87.96 87.787 87.15 85.866 83.309 83.055 83.789 83.93 83.331 83.296 83.218 83.28 83.308 83.432 83.617 83.768 83.969 84.952 84.458 85.149 84.477 84.418 83.663 83.545 83.841 83.592 85.485 84.786 85.005 84.227 82.686 82.569 82.538 82.486 81.95 81.777 81.476 81.226 81.006 80.613 80.183 79.824 79.541 78.739 78.4 77.593 77.085 76.575 75.912 75.711 75.273 74.236 73.903 73.257 73.56 72.868 72.946 72.719 72.486 72.107 71.83 71.541 71.174 71.263 71.332 71.416 71.178 71.325 71.029 70.836 70.72 74.687 80.821 83.178 82.649 75.526 77.854 82.206 87.131 88.623 87.401 79.499 82.775 82.303 81.63 82.808 82.979 82.097 72.951 74.587 78.132 78.469 78.497 80.526 78.124 77.136 77.533 73.984 71.071 70.279 69.608 68.666 68.722 68.441 68.341 68.169 68 67.904 67.816 67.719 67.622 67.636 67.803 67.84 67.576 67.804 67.899 67.553 67.432 68.098 68.472 67.932 67.873 67.925 68.077 68.11 68.16 72.411 70.298 72.486 72.995 71.475 70.173 71.441 70.59 70.149 69.963 69.968 69.911 69.303 71.078 70.73 69.959 71.246 70.084 70.082 72.941 70.833 70.994 71.23 69.799 69.337 69.348 69.342 69.389 69.074 68.909 68.962 69.503 69.759 68.583 68.477 72.703 75.933 75.42 74.833 74.429 72.576 68.615 68.326 68.226 68.258 67.851 67.728 67.274 67.105 66.739 66.321 66.002 65.666 66.325 64.544 64.362 64.255 64.049 63.858 63.69 63.706 63.254 62.528 62.511 62.445 62.406 62.289 62.331 62.325 62.324 62.349 62.334 62.326 62.321 62.336 62.328 62.367 62.381 62.415 62.409 62.359 62.326 62.304 62.176 62.177 61.946 62.063 61.722 61.403 61.094 60.896 61.016 60.591 60.733 60.193 59.996 60.833 60.359 60.591 63.105 63.577 64.109 63.92 62.097 64.343 64.942 65.838 64.652 59.36 63.718 64.766 64.881 64.432 64.754 64.638 65.169 65.145 65.486 65.552 65.025 64.843 64.696 64.566 63.529 63.205 62.027 62.426 61.493 58.635 58.203 58.016 57.908 57.866 57.775 58.227 57.342 57.3 57.31 57.251 57.435 57.407 57.316 57.191 57.137 57.045 57.002 56.92 56.756 56.518 56.473 56.464 56.963 58.416 56.875 59.61 60.07 57.171 56.705 56.668 56.999 57.175 57.428 70.268 71.851 64.266 73.133 64.112 58.144 56.249 56.123 56.343 56.572 56.37 57.081 56.433 55.961 61.351 62.883 64.057 62.665
95.081 95.353 95.546 95.694 95.04 -9999 -9999 -9999 -9999 -9999 92.368 92.684 92.167 91.612 91.392 91.49 93.701 96.695 97.081 95.213 92.559 90.97 89.749 90.503 91.246 91.066 -9999 -9999 89.724 89.774 89.82 89.85 89.852 89.896 89.946 89.568 88.952 88.396 88.269 87.412 87.181 87.112 86.673 86.227 85.831 85.717 85.477 85.456 85.869 86.095 86.172 85.02 83.828 83.446 83.215 83.052 82.903 82.859 82.764 83.25 86.435 86.446 83.655 84.613 86.247 89.083 86.235 84.094 83.633 83.095 82.905 83.017 82.672 85.299 84.056 81.686 81.247 80.902 80.961 81.18 81.249 81.166 80.943 80.759 80.707 80.815 80.803 80.722 80.713 80.685 80.654 80.652 80.583 80.399 81.16 83.981 86.277 86.65 85.98 86.353 86.516 83.769 81.349 84.998 84.943 85.748 86.954 87 85.744 83.799 82.545 82.092 81.277 81.126 81.228 81.358 81.555 81.819 81.885 -9999 -9999 82.283 82.167 82.62 82.89 83.028 84.578 84.454 83.218 83.728 85.252 83.708 82.966 83.276 83.711 83.822 85.241 84.187 83.25 84.33 84.908 84.424 85.379 85.574 83.646 84.48 84.062 84.585 83.609 83.305 83.261 84.171 83.971 83.619 83.569 83.522 83.56 83.526 83.628 83.656 83.864 83.997 84.09 84.418 84.957 84.635 84.654 83.904 83.982 84.262 83.918 83.902 84.811 83.987 84.456 83.178 83.086 82.654 82.514 82.154 81.895 81.57 81.321 81.097 80.722 80.348 79.781 79.234 78.634 78.049 77.351 76.902 76.356 75.832 75.594 74.752 74.455 74.283 73.536 72.778 72.682 72.897 72.656 72.356 72.008 71.613 71.422 71.368 71.461 71.517 71.663 74.825 72.661 71.443 71.172 71.812 76.265 79.73 81.939 81.995 79.736 83.181 84.913 87.645 89.471 89.062 84.835 77.544 81.935 84.154 84.586 84.295 82.557 79.217 79.208 79.542 79.197 79.42 79.934 76.679 78.953 77.718 75.742 74.987 73.979 72.59 69.727 70.73 68.915 68.722 68.644 68.698 68.337 68.357 68.169 68.214 68.111 68.141 68.5 68.423 68.43 68.81 68.324 68.54 68.566 68.525 68.549 68.416 68.85 69.281 68.748 71.001 73.243 73.241 72.33 72.716 71.836 71.786 71.593 70.827 70.467 70.534 70.633 70.33 70.487 70.752 70.94 70.957 70.291 70.059 70.195 71.082 70.438 70.266 70.453 69.909 69.58 69.545 69.774 69.161 69.576 70.962 69.481 69.866 69.3 68.889 68.482 73.02 75.569 75.889 75.898 75.588 75.123 72.127 71.374 68.374 68.476 68.205 68.05 67.107 67.102 67.105 66.815 66.634 66.257 65.692 64.713 64.552 64.368 64.084 63.835 63.799 64.886 63.908 64.159 64.296 63.191 62.509 62.484 62.402 62.32 62.346 62.338 62.336 62.328 62.333 62.344 62.318 62.308 62.318 62.331 62.295 62.288 62.278 62.223 62.237 62.185 62.401 62.386 61.973 61.965 61.988 61.667 61.413 61.411 61.15 60.861 60.458 60.401 60.288 60.321 59.574 59.334 60.549 60.774 59.909 59.463 63.811 63.713 64.577 59.373 59.949 60.506 63.782 61.262 60.172 63.483 63.031 63.964 64.328 64.554 64.889 64.892 65.227 66.283 65.599 65.355 65.154 65.022 61.322 58.441 58.312 58.147 58.151 58.157 57.98 58.361 57.807 57.883 57.47 57.306 57.391 57.482 57.405 57.268 57.21 57.17 57.078 56.935 56.638 56.527 56.485 56.617 56.847 56.485 56.57 56.54 56.627 56.652 56.666 56.672 57.178 57.325 67.529 69.268 72.816 72.881 72.226 68.832 58.25 56.288 56.254 56.389 56.809 56.476 57.408 56.25 55.817 60.533 62.951 64.255 62.816
94.28 94.797 95.448 95.621 95.288 -9999 -9999 -9999 -9999 -9999 92.407 92.46 92.14 92.329 92.773 92.932 95.762 97.943 98.3 97.852 96.639 94.945 92.595 92.763 92.127 90.794 90.857 -9999 -9999 89.731 89.795 89.861 89.874 89.806 89.758 89.766 89.668 89.301 89.207 88.595 88.225 87.931 87.506 87.2 86.933 86.487 86.92 87.557 88.828 88.326 89.874 87.53 84.789 83.857 83.526 83.536 83.402 83.286 83.131 83.237 83.412 83.391 83.93 87.517 90.61 84.2 83.951 83.066 83.176 82.821 82.926 83.139 82.376 81.986 82.063 81.671 81.569 81.362 81.31 81.763 81.669 81.457 81.313 81.142 81.04 81.021 80.936 80.921 81.027 80.979 80.892 80.922 80.898 80.727 81.03 82.357 84.808 82.97 82.311 84.637 83.52 81.1 80.884 81.986 81.716 84.305 84.869 84.222 84.859 84.739 82.318 82.073 81.56 81.461 81.477 81.586 81.839 82.144 82.031 -9999 -9999 82.43 82.587 82.957 83.159 83.091 83.293 83.249 83.319 83.416 83.607 83.424 83.154 83.317 83.42 83.38 83.443 83.115 83.221 83.832 83.973 83.692 83.655 83.228 83.052 83.215 83.271 83.312 83.235 83.497 84.218 84.592 84.111 83.882 83.753 83.796 83.835 83.757 83.881 83.842 83.983 84.063 84.182 84.299 84.528 85.103 85.958 85.033 84.694 85.693 84.674 84.39 83.928 83.755 83.571 83.436 83.244 82.992 82.769 82.469 82.012 81.731 81.508 81.726 81.367 80.664 80.29 79.477 78.855 78.25 77.737 77.192 76.396 75.562 75.233 74.451 74.55 74.456 73.674 73.112 72.723 72.602 72.491 72.365 71.977 71.692 71.653 71.727 71.67 72.232 79.615 80.396 81.251 76.36 72.652 72.457 73.703 76.834 79.435 79.91 78.697 83.009 85.441 88.738 89.802 90.044 85.091 85.08 83.905 85.825 84.762 84.711 83.558 80.299 78.404 80.562 79.63 79.993 80.146 78.916 79.423 78.632 75.956 75.412 75.989 75.772 76.138 74.218 73.837 71.879 70.502 72.303 69.541 68.704 68.57 68.552 68.483 68.495 68.416 68.446 68.441 68.476 68.489 68.574 68.565 68.599 70.311 69.591 71.591 72.627 72.972 73.062 73.582 73.383 72.677 72.612 72.043 71.77 71.38 71.455 73.448 71.406 71.363 72.149 71.657 71.629 71.873 71.575 70.756 70.749 70.717 70.583 70.549 70.386 70.268 69.984 69.709 69.553 69.699 69.296 70.075 71.571 72.133 70.145 69.586 68.666 68.629 72.872 73.796 74.337 75.056 75.538 71.799 72.919 74.463 73.613 72.039 69.54 68.178 67.274 67.18 67.113 67.088 66.948 66.608 65.021 64.8 64.618 64.424 64.096 63.768 67.832 70.332 70.257 65.969 64.034 63.623 63.226 62.553 62.534 62.476 62.371 62.323 62.324 62.347 62.342 62.367 62.339 62.311 62.327 62.271 62.253 62.212 62.185 62.176 62.149 62.103 62.065 62.046 62.002 62.07 62.847 61.95 62.025 61.988 61.777 61.346 61.155 60.972 61.18 61.164 59.64 59.53 59.699 59.643 59.525 59.579 59.442 59.483 60.211 59.445 59.218 59.176 59.094 59.101 59.145 59.168 59.035 59.938 62.539 63.419 63.814 63.959 63.748 64.023 64.561 64.493 65.125 64.954 61.322 58.787 62.836 63.033 60.995 60.429 60.296 59.617 58.256 58.121 58.216 58.146 58.012 57.808 57.472 57.338 57.257 57.311 57.215 57.064 56.852 56.699 56.564 58.879 59.155 57.158 56.942 56.983 56.759 56.688 56.687 56.902 57.247 57.347 60.066 69.414 72.133 72.962 72.415 58.269 57.748 56.401 56.331 56.375 56.535 56.479 57.424 56.173 55.773 61.263 62.898 63.568 62.597
95.795 95.633 95.536 -9999 -9999 -9999 -9999 93.002 93.047 92.986 92.754 92.154 91.708 91.889 91.662 91.879 92.628 96.388 98.612 98.774 98.194 97.812 96.75 96.151 93.338 90.663 91.313 90.895 90.163 89.619 89.721 89.826 89.86 89.837 89.873 89.938 89.998 89.872 89.684 89.587 89.33 88.962 88.62 88.41 87.841 87.386 87.347 89.087 87.968 86.09 89.061 88.526 84.777 84.105 83.941 83.936 83.87 83.586 83.466 83.394 83.252 83.236 84.107 86.751 88.548 84.131 82.966 82.913 82.881 82.666 82.565 82.659 82.229 82.063 82.031 82.021 81.905 81.677 81.593 81.777 81.837 81.787 81.623 81.439 81.377 81.411 81.347 81.535 81.472 81.381 81.242 81.166 81.244 81.261 81.144 81.152 81.808 81.135 80.996 81.875 81.275 80.888 81.558 82.463 81.528 81.794 82.057 81.561 81.366 81.896 81.439 81.788 81.746 81.743 81.741 82.152 81.862 81.968 82.088 82.276 -9999 -9999 82.857 83.028 83.165 83.176 83.2 83.285 83.504 83.705 83.591 83.498 83.385 83.522 83.734 83.707 83.608 83.559 83.584 83.608 83.945 83.896 83.716 83.602 83.534 83.695 83.537 83.702 83.953 84.083 84.219 84.607 84.443 84.191 84.149 84.23 84.164 84.09 84.197 84.131 84.223 84.223 84.334 84.402 84.516 84.822 86.059 85.408 85.156 85.075 84.532 84.373 84.384 84.165 84.021 83.898 83.589 83.4 83.115 82.637 82.286 82.194 82.532 82.199 81.858 80.725 80.015 79.648 78.696 78.427 77.622 76.924 76.043 75.274 75.108 74.655 74.656 74.41 73.786 73.214 72.842 72.584 72.334 72.242 71.957 71.921 72.522 72.472 72.331 73.667 80.025 82.318 81.569 78.176 78.781 77.278 73.071 76.913 80.951 76.138 79.843 82.646 84.834 90.288 89.873 89.149 85.165 85.275 83.131 85.235 85.988 83.8 81.082 77.559 78.58 80.916 81.767 81.322 80.355 80.037 80.464 79.879 79.147 76.375 75.935 76.17 75.684 75.993 76.004 74.614 72.917 73.479 72.03 69.252 71.888 69.015 68.908 68.783 68.601 68.575 68.63 69.016 71.214 71.667 72.171 72.938 73.783 74.177 74.009 73.893 73.745 73.565 73.596 73.705 72.786 72.503 72.74 72.86 72.714 72.364 73.887 72.742 71.917 71.719 71.872 71.755 71.58 71.327 71.077 71.303 71.096 70.813 70.713 70.573 70.351 70.067 69.829 69.646 69.419 69.349 70.52 71.781 71.697 70.35 69.642 69.179 68.938 68.534 69.765 71.482 71.057 74.173 68.567 75.925 75.778 75.037 74.843 74.397 72.688 68.524 68.874 67.371 67.175 67.115 66.04 65.061 64.907 64.705 64.383 63.976 63.885 69.498 70.9 71.279 70.408 68.88 63.733 63.316 63.147 62.92 63.183 62.462 62.379 62.369 62.354 62.326 62.289 62.32 62.307 62.287 62.27 62.281 62.257 62.266 62.185 62.1 62.036 62.041 62.009 62.014 61.999 61.973 61.928 61.89 62.159 62.103 62.067 61.882 61.554 61.346 61.305 60.785 60.507 60.172 60.659 59.994 59.781 59.613 59.508 59.481 59.566 59.435 59.361 59.364 59.306 59.236 59.777 59.187 59.136 59.165 59.252 59.271 61.739 60.014 60.423 59.129 62.846 64.27 64.32 59.479 60.971 64.307 64.963 65.103 64.843 64.5 63.171 63.341 62.256 61.851 58.126 58.056 57.64 57.581 57.463 57.452 57.277 57.27 57.113 57.12 56.922 56.951 61.372 63.079 62.442 62.51 60.294 56.899 56.897 56.87 56.921 57.352 57.423 57.382 57.625 64.462 63.257 61.229 56.696 56.501 56.436 56.406 56.409 56.425 56.604 57.819 56.16 55.776 61.675 62.229 61.955 62.082
96.069 95.968 -9999 -9999 -9999 -9999 93.012 92.969 92.878 93.016 93.059 92.613 91.919 91.588 91.745 91.535 91.492 94.167 97.219 98.126 98.689 98.601 98.257 97.288 95.525 92.538 91.997 90.625 90.427 89.663 89.66 89.836 -9999 89.892 89.946 90.026 90.002 89.92 89.797 89.815 89.911 89.796 89.417 89.274 88.662 88.173 87.945 88.201 87.069 86.263 87.806 88.625 85.535 84.743 84.526 84.278 84.083 83.919 83.788 83.627 83.524 83.336 83.708 85.45 84.49 83.687 83.221 83.176 83.155 83.86 83.561 82.804 82.551 82.468 82.496 82.428 82.355 82.161 81.744 81.912 81.972 81.83 81.84 81.775 81.779 81.838 81.915 81.893 81.863 81.85 81.682 81.519 81.708 81.507 81.266 81.329 81.249 81.17 81.277 81.268 81.289 81.856 82.635 82.395 81.799 81.435 81.461 81.394 81.321 81.348 81.454 81.76 81.769 81.85 81.85 82.001 82.032 82.514 82.52 82.3 82.505 82.656 -9999 -9999 83.151 83.218 83.245 83.4 83.501 83.731 83.813 83.796 83.695 83.754 83.896 84.044 84.37 84.274 84.074 83.876 84.087 84.226 84.084 84.209 84.242 84.105 84.023 84.182 84.234 84.346 84.468 84.76 85.096 84.573 84.618 84.701 84.523 84.546 84.494 84.502 84.544 84.507 84.398 84.477 84.6 84.724 84.847 85.065 85.441 85.067 85.068 85.046 84.962 84.71 84.474 84.338 84.089 83.82 83.417 83.081 83.29 83.43 83.247 82.68 82.071 80.911 80.47 80.435 79.576 86.144 81.859 77.144 76.105 75.326 75.151 75.02 75.128 74.198 73.756 73.24 72.958 72.758 72.359 72.232 72.164 76.699 77.332 76.132 73.468 74.767 79.829 80.318 81.455 81.165 81.485 77.142 74.131 78.002 83.338 83.461 81.33 81.186 83.118 89.721 81.074 87.72 85.517 84.299 83.982 80.082 81.858 81.959 81.045 78.553 76.548 80.645 81.478 81.729 82.754 81.563 80.831 81.458 81.111 78.109 76.463 75.388 75.622 75.762 75.777 75.91 75.891 74.928 75.042 72.751 73.585 71.569 73.858 70.928 70.524 72.743 72.776 74.677 74.756 75.108 74.699 74.295 74.089 73.921 74.286 73.509 73.676 74.05 74.218 73.737 73.601 73.779 73.56 73.549 73.049 72.725 72.369 72.272 72.068 71.951 71.867 71.813 71.676 71.421 71.371 71.269 71.047 70.868 70.835 70.585 70.426 70.302 70.054 69.805 69.615 69.445 69.459 69.375 69.222 69.285 69.257 69.072 68.789 68.745 68.87 68.447 68.589 69.215 71.365 74.882 75.354 75.884 75.979 75.393 74.255 73.398 73.066 71.439 68.405 67.388 65.352 65.164 64.967 64.569 64.277 63.891 66.541 70.07 71.362 71.127 69.582 64.98 63.621 63.387 63.186 63.002 62.762 62.556 62.46 62.46 62.425 62.427 62.344 62.329 62.334 62.351 62.312 62.251 62.249 62.223 62.188 62.124 62.1 62.047 61.992 61.955 61.947 61.908 61.929 61.866 61.839 61.798 61.761 61.705 61.848 61.673 61.775 61.141 61.435 60.391 61.041 60.244 60.59 61.154 60.017 59.941 60.087 59.649 59.567 59.607 59.523 59.48 59.443 59.308 59.32 59.884 59.49 59.413 59.601 60.259 59.909 59.149 58.985 58.994 58.998 59.421 61.079 64.277 64.797 64.176 65.063 64.722 65.191 65.115 64.954 62.717 58.206 58.125 57.727 57.601 57.533 57.489 57.387 57.299 57.334 57.297 57.154 57.113 60.72 63.492 64.677 63.949 62.747 58.006 56.992 56.999 56.916 57.435 57.532 57.548 57.546 57.234 62.973 62.99 63.798 58.77 56.551 56.474 56.519 56.554 57.088 56.585 56.143 55.649 57.06 58.83 60.385 60.301
96.222 -9999 -9999 -9999 -9999 -9999 93.01 92.988 92.822 93 93.261 93.407 92.597 91.855 91.714 91.591 92.173 93.271 94.904 96.254 97.38 98.119 98.87 98.123 97.366 93.186 93.745 90.841 90.959 90.516 90.404 90.308 89.915 -9999 89.954 89.989 89.952 89.878 89.865 89.783 89.714 89.809 89.776 89.738 89.346 89.213 90.276 89.936 89.608 87.455 86.54 86.477 85.798 85.216 84.889 84.523 84.318 84.11 84.088 83.923 83.776 83.728 83.66 83.886 83.752 83.681 83.619 83.567 84.19 87.212 85.993 83.717 82.983 82.843 82.846 82.612 82.61 82.489 82.508 82.395 82.232 82.161 82.086 82.032 82.181 82.269 82.205 82.251 82.391 82.172 82.081 82.012 81.863 81.874 81.823 81.617 81.856 82.079 81.742 81.552 81.459 81.766 82.011 82.073 81.72 81.511 81.581 81.522 81.489 81.657 81.839 81.98 82.641 84.161 83.272 82.634 83.623 84.115 82.596 82.607 82.596 82.75 82.919 83.053 -9999 -9999 83.359 83.521 83.617 83.776 83.906 84.012 83.962 83.988 84.241 84.798 85.633 85.51 85.596 86.123 84.869 84.521 84.422 84.394 84.423 84.431 84.576 84.78 84.661 84.818 84.913 85.074 85.301 85.005 85.07 85.016 84.949 85.052 84.974 85.082 85.026 84.811 84.677 84.6 84.736 84.807 84.898 85.008 85.611 85.397 85.44 85.487 85.399 85.207 85.036 84.81 84.502 84.204 83.842 83.603 83.778 84.388 83.928 82.781 81.846 80.942 81.495 85.24 85.73 89.047 89.609 82.962 76.596 75.363 75.265 75.072 74.781 74.141 73.772 73.439 73.113 73.161 72.535 72.418 76.41 79.046 79.623 78.338 74.537 73.862 78.048 81.467 82.166 82.279 82.267 78.72 74.782 77.301 82.358 79.135 81.641 81.791 82.705 84.013 83.833 85.957 84.737 81.135 81.259 80.843 81.429 82.479 80.227 77.528 77.39 77.733 79.492 80.823 80.86 81.445 81.218 79.232 78.555 77.616 76.786 76.249 76.018 76.03 75.527 75.37 75.974 75.423 75.712 77.053 75.721 74.726 75.609 74.931 75.6 75.301 75.408 75.099 75.129 74.964 74.413 74.599 74.943 74.261 74.374 74.299 74.155 74.338 74.681 74.554 74.615 74.808 74.74 73.824 73.3 72.877 72.697 72.683 72.286 72.138 72.013 71.923 71.784 71.683 71.498 71.382 71.21 71.032 70.899 70.809 70.617 70.451 70.16 69.905 69.766 69.367 69.326 69.263 69.366 69.433 70.118 69.248 69.024 69.387 69 68.715 68.6 68.478 72.13 71.006 74.093 74.397 74.792 74.927 74.795 74.813 74.434 73.917 73.474 68.778 65.401 65.214 64.989 64.477 64.03 63.769 67.982 70.44 71.587 70.488 69.162 66.046 63.702 63.362 63.195 63.017 62.884 62.65 62.557 62.539 62.503 62.484 62.515 63.896 63.973 62.526 62.383 62.35 62.308 62.202 62.195 62.124 62.119 62.074 62.025 62.017 61.957 61.885 61.85 61.758 61.729 61.664 61.729 61.682 61.634 61.592 61.564 61.503 61.438 61.426 61.406 61.308 61.982 61.869 60.969 60.714 60.527 60.206 60.205 59.998 59.871 59.893 59.959 59.481 59.504 59.274 59.573 59.571 59.27 59.707 59.451 59.205 59.201 59.393 59.674 59.975 59.431 62.486 63.402 63.105 59.875 62.401 63.797 64.642 64.636 60.775 58.197 58.014 57.865 57.698 57.654 57.583 57.446 57.324 57.348 57.3 57.192 57.177 61.167 63.74 64.509 63.784 62.507 57.167 57.127 57.12 57.104 57.435 57.549 57.62 58.011 60.35 69.641 71.893 71.098 59.363 62.42 56.679 56.546 56.703 56.87 56.391 56.186 58.141 55.687 56.01 55.832 55.435
96.411 -9999 -9999 -9999 -9999 -9999 93.022 93.023 92.953 93.082 93.956 93.7 93.014 92.491 92.059 91.909 92.281 92.055 92.355 92.558 95.006 96.823 97.933 98.078 98.317 97.32 97.001 95.031 93.995 92.684 90.956 90.616 90.555 -9999 -9999 89.973 89.966 89.971 89.895 89.832 89.832 89.865 89.87 89.807 89.671 89.669 89.886 90.461 91.247 90.149 87.788 86.455 86.139 85.595 85.099 84.695 84.476 84.453 84.36 84.306 84.138 83.976 83.991 83.864 84.035 83.921 83.808 83.822 84.273 86.256 86.4 83.988 83.181 83.107 83.084 83.052 83.016 83.03 82.857 82.794 82.677 82.533 82.393 82.471 82.543 82.514 82.499 82.64 82.566 82.471 82.383 82.286 82.191 82.261 82.205 82.189 82.979 83.432 82.316 81.928 81.68 81.973 82.21 82.336 82.142 81.999 81.887 81.876 82.172 82.22 82.193 82.821 85.682 88.009 87.251 86.932 87.66 87.453 83.506 82.858 82.724 82.862 82.967 83.086 -9999 -9999 -9999 83.584 83.709 83.82 83.909 84.145 84.185 84.129 84.589 85.301 85.936 85.954 86.359 87.44 86.952 85.03 84.802 84.84 84.947 85.119 85.37 85.264 85.181 85.546 85.217 85.673 85.822 85.772 85.558 85.45 85.417 85.428 85.668 85.732 85.357 85.079 84.995 84.864 84.824 84.86 85.061 85.11 85.235 85.436 85.637 85.763 85.741 85.614 85.433 85.169 84.865 84.557 84.319 83.919 83.636 84.998 83.827 82.597 82.11 81.75 86.816 90.716 91.745 91.186 88.782 88.202 76.87 75.438 75.396 75.162 74.63 74.245 73.757 73.477 73.15 72.842 72.686 72.855 77.027 79.285 80.064 78.9 75.063 79.395 81.517 83.154 81.508 81.884 80.035 77.232 75.661 78.979 80.847 81.205 80.672 83.724 83.042 77.673 83.866 83.551 81.996 81.894 83.064 82.585 81.815 78.831 78.496 78.538 78.263 78.638 78.976 79.241 79.909 80.827 80.579 79.924 78.631 77.974 77.642 77.681 76.852 76.946 76.65 76.134 76.693 76.057 77.343 78.906 75.561 75.923 75.567 76.058 75.866 75.482 75.199 75.2 75.049 75.522 75.104 75.238 75.245 75.505 75.305 75.477 75.269 75.296 75.151 75.359 74.92 74.581 74.317 73.813 73.41 73.156 72.928 72.835 72.634 72.463 72.345 72.233 72.028 71.833 71.749 71.617 71.399 71.363 71.061 70.948 70.727 70.607 70.159 69.936 70.741 71.853 69.722 70.602 70.022 69.735 70.069 69.342 69.243 69.819 69.055 68.883 68.741 68.698 68.584 68.488 70.426 70.491 73.788 73.439 73.646 74.06 74.823 74.875 70.852 67.057 65.396 65.221 64.919 64.342 63.958 63.826 69.728 71.119 71.512 70.143 68.542 64.873 63.618 63.407 63.279 63.11 62.934 62.722 62.663 62.637 62.581 62.718 65.464 65.478 65.323 63.414 62.957 62.688 62.558 62.322 62.297 62.235 62.173 62.101 62.003 61.949 61.937 61.872 61.824 61.789 61.756 61.706 61.677 61.637 61.573 61.505 61.44 61.379 61.498 62.339 62.157 61.294 61.146 61.145 61.109 61.032 60.967 60.944 60.836 60.776 60.62 60.547 60.148 60.261 60.073 60.147 59.984 59.741 59.696 60.1 60.136 59.278 59.453 60.872 61.561 59.765 58.927 58.702 58.705 58.49 58.76 58.571 61.668 63.182 63.505 59.243 58.441 58.147 57.979 57.926 57.833 57.664 57.501 57.385 57.342 57.272 57.21 57.202 62.547 64.023 64.84 63.758 58.892 57.116 57.17 57.206 57.367 57.389 57.868 58.092 70.853 73.466 72.778 73.544 72.169 68.695 58.116 56.602 56.705 57.444 57.387 56.499 56.155 55.995 55.883 55.791 56.184 55.67
-9999 -9999 -9999 -9999 -9999 -9999 93.661 93.536 93.104 92.964 92.865 92.945 92.965 92.773 92.376 92.213 92.129 92.073 91.938 91.448 92.301 93.067 96.637 97.476 98.006 98.496 97.938 97.679 96.868 95.986 92.902 90.657 90.286 90.623 -9999 -9999 89.915 89.93 89.909 89.899 89.931 89.928 89.924 89.873 89.83 89.79 89.823 90.411 91.803 91.643 89.637 87.373 86.712 86.18 85.341 84.95 84.802 84.715 84.678 84.536 84.553 84.47 84.391 84.455 84.586 84.396 84.232 84.253 84.019 84.458 84.218 83.481 83.569 83.521 83.374 83.386 83.435 83.351 83.276 83.153 83 82.862 82.931 82.946 82.905 82.979 82.931 82.872 82.899 82.707 82.673 82.62 82.651 82.607 82.528 82.52 82.645 83.317 82.665 82.199 82.111 82.337 82.812 82.601 82.459 82.456 82.407 82.527 82.656 83.732 83.47 83.643 87.735 88.322 88.961 89.437 88.412 86.525 83.191 82.708 83.049 83.04 83.009 83.212 83.424 83.466 -9999 -9999 -9999 83.967 84.147 84.346 84.438 84.477 84.68 84.854 85.252 85.503 85.474 85.692 86.089 85.438 85.108 85.327 85.48 85.638 85.674 85.695 85.584 85.542 85.472 85.59 85.924 85.821 85.931 85.848 85.6 85.628 85.546 85.55 85.407 85.281 85.175 85.179 85.158 85.354 85.311 85.307 85.352 85.429 85.684 85.812 85.892 85.894 85.79 85.579 85.038 84.941 84.745 83.725 83.753 83.631 83.122 82.443 82.332 81.654 87.734 91.844 91.988 91.408 89.843 87.041 83.194 75.449 75.233 74.919 74.708 74.082 73.838 73.508 73.222 73.062 73.168 73.021 74.743 78.327 78.202 75.191 76.869 82.32 82.914 79.698 78.715 79.211 76.787 77.717 80.26 82.808 82.693 83.051 86.84 85.702 85.811 84.062 84.936 81.952 81.292 81.076 81.827 83.322 83.214 79.736 78.786 78.793 78.719 78.801 78.991 79.118 79.182 78.997 79.228 78.768 78.766 78.894 78.791 78.51 78.321 77.905 78 77.862 77.917 76.958 77.36 77.449 75.381 75.517 75.15 75.718 75.634 75.604 75.698 75.722 76.127 76.049 75.752 75.984 76.502 76.232 76.448 76.392 75.735 75.403 75.128 74.868 74.732 74.482 74.245 73.857 73.717 73.516 73.327 72.984 72.856 72.742 72.576 72.388 72.255 72.07 71.88 71.703 71.59 71.503 71.234 71.062 70.89 70.676 70.615 70.581 70.353 72.529 70.724 70.324 70.187 71.148 70.406 74.39 72.456 70.47 69.297 73.897 69.119 68.821 68.715 68.577 68.81 68.907 68.528 69.091 72.477 72.974 73.43 73.434 68.127 65.972 65.446 65.285 64.938 64.267 67.365 69.721 71.293 71.514 70.96 69.439 66.178 64.03 63.538 63.411 63.284 63.081 62.981 62.771 62.751 62.706 62.678 62.773 63.121 63.067 63.077 63.231 68.136 63.688 63.18 63 62.798 62.645 62.452 62.467 62.136 62.079 61.997 61.893 61.814 61.722 61.721 61.736 61.695 61.646 61.604 61.554 61.486 61.389 61.302 61.225 61.292 61.214 61.066 61.031 61.006 60.982 60.905 60.884 60.859 60.808 60.75 60.712 60.653 60.601 60.427 60.429 60.496 60.36 60.208 60.475 59.926 59.868 59.79 60.933 60.868 59.723 59.595 59.218 58.848 58.59 58.704 58.572 58.5 58.445 59.166 58.741 58.372 58.231 58.094 57.948 57.904 57.797 57.612 57.335 57.129 57.059 57.065 57.223 62.49 64.142 64.424 63.167 58.719 57.147 57.151 57.75 62.26 60.982 63.238 61.045 71.712 74.47 74.247 74.157 74.155 64.433 56.793 56.691 56.82 56.912 56.979 56.593 56.252 58.782 59.011 58.275 58.66 55.945
-9999 -9999 -9999 94.224 94.134 94.66 94.678 95.047 95.158 94.399 93.198 92.574 92.625 92.635 92.411 92.205 92.294 92.088 91.84 91.717 91.986 92.741 94.571 96.203 95.735 97.766 97.999 98.24 98.425 97.299 96.284 93.11 90.576 91.117 90.343 -9999 -9999 -9999 89.92 89.945 89.998 89.976 89.95 89.906 89.897 89.87 89.897 90.08 90.736 90.45 89.413 88.361 87.499 86.512 85.9 85.614 85.313 85.112 84.978 84.932 84.831 85.004 84.876 84.956 84.904 84.849 84.721 84.547 84.353 84.057 84.051 84.058 84.02 84.002 83.923 83.851 83.671 83.657 83.725 83.575 83.544 83.456 83.385 83.283 83.403 83.261 83.19 83.139 83.187 83.098 83.038 83.023 82.942 82.849 82.788 82.718 82.715 82.802 82.602 82.48 82.529 82.705 82.847 82.539 82.604 82.667 82.817 82.953 82.938 83.601 84.231 84.716 86.232 87.587 88.113 87.791 86.3 86.324 82.822 83.113 83.283 83.187 83.279 83.471 83.673 83.647 -9999 -9999 -9999 -9999 84.418 84.586 84.649 84.808 84.931 85.068 85.449 85.627 85.583 85.86 85.892 85.555 85.444 85.764 85.906 85.78 85.831 85.761 85.83 85.588 85.672 85.985 86.042 85.91 85.841 86.203 85.814 85.712 85.689 85.923 85.557 85.477 85.454 85.428 86.393 85.357 85.604 85.488 85.479 85.534 85.649 85.809 86.002 86.081 85.961 85.775 85.569 85.358 84.686 83.591 83.523 83.628 82.807 82.014 81.344 82.716 87.85 91.474 92.043 92.956 91.335 90.94 81.43 75.467 74.917 74.763 74.448 74.13 73.963 73.65 73.516 73.705 73.766 73.754 73.628 75.057 74.341 74.262 77.531 82.672 82.719 80.418 83.203 79.33 81.335 82.953 83.32 85.939 86.75 86.578 86.309 85.765 84.505 82.834 80.003 81.515 83.244 82.994 82.212 82.958 82.267 78.833 78.833 78.834 78.825 78.861 78.983 78.977 79.032 79.179 79.019 78.993 79.195 79.308 79.725 79.499 80.019 79.415 78.668 78.851 78.462 78.256 77.649 77.043 76.719 76.756 76.217 75.977 76.359 76.434 76.625 76.482 77.184 76.396 76.505 76.6 76.673 77.149 76.663 76.381 75.872 75.203 74.933 74.876 74.591 74.625 74.45 74.317 73.929 73.728 73.422 73.262 73.128 72.884 72.774 72.624 72.453 72.364 72.195 72.045 71.864 71.709 71.529 71.295 71.316 71.233 71.165 71.009 70.832 71.231 71.496 70.792 70.448 71.792 71.353 73.545 70.289 69.622 71.876 75.315 70.554 69.403 68.836 68.611 68.505 68.624 68.63 67.702 67.448 68.575 68.552 71.547 67.199 65.675 65.525 65.326 64.796 64.777 70.174 71.403 72.411 71.258 67.402 68.254 63.86 63.757 63.534 63.422 63.284 63.127 62.987 62.842 62.859 62.823 62.783 62.883 64.108 64.253 63.729 67.219 69.62 70.691 68.48 64.818 63.231 62.912 64.545 65.671 63.127 62.223 62.308 62 61.858 61.828 61.794 61.724 61.617 61.599 61.541 61.535 61.445 61.408 61.327 61.281 61.232 61.158 61.1 61.057 60.964 60.916 60.84 60.798 60.736 60.686 60.665 60.668 61.545 60.699 60.485 60.423 60.387 60.428 60.371 60.331 60.384 60.299 60.14 60.06 60.077 60.008 59.805 59.497 59.153 58.902 58.972 58.779 58.709 58.634 58.59 58.507 58.406 58.541 58.381 58.2 58.123 58.005 57.729 57.424 57.072 57.034 57.092 61.236 63.2 64.282 64.34 63.209 57.796 57.175 59.184 68.771 74.468 73.469 69.552 68.44 73.534 74.867 75.155 73.457 72.956 64.658 57.033 56.841 56.928 57.78 57.202 56.657 56.308 59.839 62.661 62.709 62.554 61.976
