ncols 411
nrows 30
xllcorner    426088
yllcorner    432472
cellsize     2
NODATA_value -9999
83.705 84.516 84.146 81.283 78.851 80.745 81.209 81.653 81.209 82.506 82.589 83.445 83.2 84.248 89.089 89.935 89.919 86.294 84.58 83.867 84.074 83.822 84.112 83.945 83.835 83.853 83.842 83.887 84.646 84.529 84.65 84.909 85.323 85.252 85.496 85.238 85.34 85.502 85.619 85.816 85.897 86.541 87.085 86.844 87.173 87.318 88.251 88.391 87.807 86.916 87.978 87.324 89.179 89.117 89.111 86.972 87.216 87.618 89.607 91.861 93.269 91.97 90.868 90.513 88.56 89.121 89.385 89.376 89.383 89.421 89.45 89.574 89.512 89.749 90.46 90.453 90.143 90.353 90.881 91.478 90.595 90.705 90.768 91.425 91.261 91.993 93.123 92.503 91.93 92.476 94.188 93.954 92.833 92.646 98.112 100.598 101.02 100.842 99.058 95.131 94.825 98.408 95.545 94.821 94.866 94.937 94.979 95.446 95.697 96.277 96.65 101.212 103.972 104.768 103.778 100.141 99.263 100.39 100.018 100.66 100.835 101.587 101.72 102.364 103.041 103.503 104.29 108.973 110.233 107.77 106.449 108.678 108.964 107.972 109.442 110.28 110.823 110.584 110.633 110.599 110.64 110.557 110.62 110.69 110.671 110.78 110.799 110.868 110.873 110.946 110.923 110.953 110.948 110.975 110.977 110.981 110.988 110.913 111.012 110.892 110.967 110.897 110.93 110.883 111.072 111.121 112.731 113.363 113.66 113.151 112.78 111.457 111.511 115.117 116.826 117.127 114.565 111.604 111.357 111.25 111.068 111.088 111.051 111.484 111.99 111.518 111.103 110.914 116.541 117.284 118.066 117.801 116.986 113.61 112.958 111.845 116.501 117.971 118.05 117.855 116.811 113.934 111.804 110.913 110.85 112.428 116.15 111.316 110.819 111.435 111.587 110.771 110.903 110.389 110.272 110.306 110.366 110.696 112.526 112.476 110.999 110.318 110.675 111.496 111.574 110.863 110.473 110.145 110.09 110.054 110.007 110.088 110 109.967 109.913 109.833 109.903 109.846 109.803 109.817 109.775 109.857 109.795 109.79 109.798 109.871 109.868 109.815 109.825 109.815 109.781 109.766 109.733 109.692 109.691 109.697 109.682 109.713 109.819 109.694 109.687 109.697 109.728 109.755 109.773 110.222 110.825 110.571 110.937 110.162 111.043 110.744 109.85 109.524 109.346 109.315 109.357 109.33 109.259 109.329 110.043 109.394 109.828 114.896 116.064 116.454 115.582 113.513 109.091 109.081 109.053 110.005 109.743 110.129 108.859 108.469 108.839 109.306 114.288 114.533 114.491 114.336 109.281 108.303 109.803 111.684 108.719 108.567 109.476 108.165 108.108 108.073 108.026 108.158 108.226 111.586 114.027 112.675 109.218 109.113 109.124 109.629 110.694 110.664 110.562 117.064 112.934 108.319 108.164 108.171 109.552 109.854 108.202 109.138 112.826 107.433 108.094 108.899 110.432 109.988 114.744 114.141 108.299 106.887 106.845 106.845 106.781 107.125 106.814 112.041 112.673 111.878 107.41 105.847 105.5 105.153 105.313 104.827 105.273 107.887 105.094 104.626 105.807 108.335 106.22 107.35 107.687 106.239 107.108 105.381 103.32 107.212 109.324 105.991 102.581 103.116 101.918 101.368 101.259 101.297 102.188 103.411 106.912 103.1 100.934 100.825 100.3 102.141 101.541 102.994 101.693 98.954 99.681 100.044 99.964 99.938 101.529 101.422 98.403 98.014 97.425 97.063 97.216 95.52 94.775 94.661 94.639 94.536 94.569 94.516 94.456
80.319 80.155 78.788 81.863 83.957 79.708 79.204 79.321 80.211 82.583 83.749 84.108 83.333 83.134 87.376 86.199 83.996 83.582 83.506 83.571 83.91 83.764 83.918 84.226 83.909 83.86 83.855 83.883 83.991 84.2 84.492 84.656 84.741 84.764 84.943 85.092 85.261 85.44 85.643 86.99 86.001 87.501 88.361 88.78 87.526 86.905 88.052 88.476 87.44 86.572 88.19 89.779 90.301 88.475 90.219 87.023 87.322 87.672 89.738 93.151 94.457 94.689 94.072 91.521 88.456 90.362 89.225 89.367 89.306 89.407 89.413 89.384 89.49 89.822 89.804 89.906 90.069 90.418 90.315 90.515 92.548 92.589 91.074 91.381 91.316 91.248 92.585 93.676 93.786 93.677 94.415 94.518 92.738 92.678 92.996 93.306 94.55 96.372 96.051 94.664 95.565 98.681 95.207 94.733 94.777 94.862 94.974 95.197 95.593 95.951 96.683 101.469 104.141 104.404 103.48 98.043 98.577 99.974 100.95 99.792 99.984 100.955 101.88 102.252 103.366 104.086 104.455 106.045 107.689 107.123 108.515 109.02 108.108 108.293 110.86 110.749 110.744 110.513 110.497 110.433 110.442 110.454 110.423 110.501 110.523 110.605 110.575 110.645 110.645 110.681 110.748 110.728 110.791 110.742 110.768 110.743 110.76 110.729 110.738 110.697 110.691 110.677 110.664 110.644 110.738 110.903 111.026 112.724 113.047 113.465 113.396 114.252 116.656 117.669 118.057 117.809 116.502 112.188 112.474 111.69 110.911 110.992 110.937 111.925 111.195 111.46 110.902 110.814 113.926 116.246 116.82 117.088 115.837 113.4 113.232 112.418 115.808 117.065 116.849 116.862 116.363 114.376 111.589 111.141 110.913 110.63 110.654 110.799 110.814 110.817 110.838 111.575 110.531 110.202 110.199 110.279 110.169 110.132 110.674 110.927 112.551 111.999 112.066 110.807 110.749 110.31 110.013 109.953 109.888 109.931 109.889 109.88 109.869 109.791 109.864 109.806 109.842 109.865 109.865 109.797 109.825 109.794 109.819 109.775 109.785 109.78 109.788 109.772 109.73 109.751 109.851 109.836 109.826 109.785 109.704 109.773 109.768 112.136 110.992 110.261 109.811 109.975 110.503 110.415 110.218 110.12 109.864 109.748 109.684 109.694 109.668 109.679 109.702 109.535 109.41 109.247 109.254 109.25 109.207 109.22 109.588 111.093 110.114 114.79 116.766 116.814 115.818 111.688 110.408 110.382 110.744 110.799 113.348 111.012 110.362 110.342 109.832 109.705 109.909 113.386 113.121 113.11 109.118 108.042 108.259 108.152 108.251 108.329 109.43 108.179 108.027 108.021 107.981 107.974 111.059 115.149 116.471 116.036 110.259 108.598 108.877 109.922 110.667 110.681 110.68 112.115 110.482 108.229 108.197 108.19 110.329 110.843 108.259 109.308 113.641 111.751 112.259 113.734 113.52 111.92 112.254 109.07 106.966 106.917 106.818 106.764 106.72 106.762 106.838 109.686 111.335 111.021 107.462 107.07 106.316 106.297 106.858 104.847 106.741 106.969 106.397 104.942 104.652 106.479 104.027 103.241 103.581 105.454 104.055 103.634 104.047 106.644 106.417 104.703 102.548 103.475 104.029 101.604 101.275 101.884 103.021 101.06 100.628 100.18 101.218 102.047 102.677 103.513 103.711 103.378 102.39 98.614 99.344 100.044 99.943 99.123 98.414 99.833 99.585 99.173 98.999 98.15 96.042 95.389 94.785 94.583 94.53 94.388 94.471 94.404 94.379
81.923 84.504 84.409 85.273 85.318 80.412 79.151 79.315 79.629 83.091 84.304 84.878 83.603 82.988 83.075 84.008 83.779 83.579 83.499 87.306 88.67 83.456 83.801 83.968 84.251 83.852 83.892 83.901 83.92 83.971 84.19 84.347 84.485 84.642 84.889 85.022 85.632 86.524 85.946 85.933 88.896 88.698 87.398 88.469 87.442 87.811 88.511 88.356 87.552 89.325 89.769 90.808 91.176 91.448 92.012 88.667 87.076 88.186 87.514 93.537 94.824 95.319 94.06 91.757 88.756 90.98 91.228 89.468 89.31 89.358 89.412 89.446 89.544 89.77 89.887 89.865 90.281 95.857 95.482 94.901 91.269 91.113 91.007 90.916 91.154 91.482 91.719 92.134 93.891 94.04 94.145 92.134 92.387 92.736 94.882 94.055 93.638 93.901 94.128 94.42 94.629 94.67 94.658 94.708 94.819 94.814 94.964 95.297 95.637 95.967 96.372 101.752 103.454 103.702 101.823 97.919 98.222 98.47 101.158 101.381 100.328 102.135 102.096 101.999 103.147 103.956 104.882 105.703 107.061 108.335 109.835 110.782 108.277 110.55 111.074 110.554 110.424 110.427 110.312 110.3 110.304 110.315 110.373 110.383 110.464 110.453 110.506 110.491 110.56 110.544 110.601 110.602 110.585 110.631 110.622 110.631 110.646 110.675 110.591 110.549 110.542 110.564 110.512 110.536 110.565 110.683 110.877 112.506 112.275 111.188 112.384 113.131 115.525 117.373 118.673 118.257 116.756 112.695 111.43 112.073 110.915 110.825 110.841 110.835 110.842 111.673 110.81 110.984 110.923 110.897 114.974 116.514 112.346 112.389 113.047 111.051 114.178 115.045 113.216 112.36 112.539 112.048 111.775 110.889 110.866 110.806 110.541 110.598 111.126 110.872 111.335 111.073 110.218 110.13 110.224 110.223 110.145 110.126 110.053 110.148 110.09 109.989 109.987 109.92 109.901 109.875 109.854 109.861 109.86 109.871 109.846 109.858 109.884 109.865 109.833 109.84 109.844 109.816 109.765 109.803 109.81 109.733 109.76 109.915 109.87 109.877 109.757 109.717 109.821 109.801 110.421 109.868 110.696 110.039 109.934 109.841 109.893 112.238 112.077 110.666 109.699 110.475 110.176 109.742 109.667 109.545 109.618 109.53 109.617 109.631 109.978 109.579 109.528 109.696 109.522 109.191 109.187 109.158 109.116 109.137 109.413 109.126 109.201 114.947 115.885 116.406 115.44 111.03 109.134 108.907 109.148 108.806 111.866 110.802 110.238 109.811 109.519 111.486 109.794 109.584 111.767 108.475 109.054 108.022 108.034 108.175 108.124 108.171 108.16 109.777 108.146 107.97 107.904 107.899 108.026 115.438 116.024 116.065 111.348 109.218 108.398 111.159 109.182 109.208 111.405 112.38 110.347 108.593 108.196 108.159 108.149 108.812 114.703 111.154 110.507 111.287 110.576 111.055 108.458 108.277 107.494 107.13 107.067 106.942 106.846 106.78 108.297 107.634 109.324 108.215 107.248 108.157 109.227 110.073 109.671 108.038 107.359 104.951 105.826 106.398 105.116 103.921 103.905 103.966 103.459 103.184 103.214 105.196 105.076 103.539 104.075 105.834 106.467 105.136 103.221 103.442 103.333 100.582 102.092 101.895 101.075 100.378 99.924 100.299 101.757 101.532 100.934 100.811 99.568 99.611 100.239 98.57 98.551 99.947 99.745 99.415 97.85 98.097 99.289 98.825 99.058 97.829 96.242 95.341 94.765 94.441 94.435 94.313 94.367 95.13 94.844
80.274 85.464 85.329 85.201 84.831 83.417 79.408 80.512 81.993 82.999 84.71 84.295 83.04 83.633 83.328 83.302 86.242 88.876 89.245 89.46 89.688 84.491 83.541 84.03 84.935 83.987 83.904 83.916 83.932 84.035 84.122 84.278 84.395 84.563 84.774 85.617 86.353 87.751 86.049 85.905 86.615 87.996 85.951 86.784 86.478 88.58 88.648 88.191 86.743 87.203 88.381 89.625 87.536 87.351 91.632 89.806 87.392 87.481 87.702 93.504 95.269 95.536 93.957 91.052 89.622 92.527 92.604 89.485 89.31 89.331 89.376 89.44 89.567 90.138 89.838 89.907 94.008 96.755 97.203 96.118 91.202 90.503 90.571 90.643 90.904 91.313 91.798 91.724 92.052 92.15 92.47 92.07 97.722 99.443 99.126 99.565 94.289 94.514 94.288 94.437 94.586 94.621 94.612 94.644 95.545 95.264 95.017 95.436 96.079 95.998 96.327 96.589 97.382 98.613 98.985 99.286 98.365 99.216 101.296 99.897 100.264 101.365 103.283 104.196 104.567 104.234 105.894 107.361 106.845 110.06 110 110.284 108.74 109.537 111.222 110.435 110.3 110.287 110.208 110.189 110.247 110.234 110.287 110.307 110.333 110.362 110.422 110.434 110.434 110.499 110.495 110.547 110.534 110.537 110.55 110.555 110.541 110.51 110.513 110.527 110.473 110.45 110.438 110.439 110.429 110.497 110.704 111.484 112.149 113.132 113.242 113.194 114.159 116.933 118 117.928 117.309 113.89 112.04 112.63 110.844 110.742 110.798 110.671 110.733 110.768 111.195 110.839 111.3 110.704 111.534 110.58 111.329 111.261 111.561 111.006 110.664 110.793 110.843 110.788 110.814 110.481 110.981 110.827 110.763 110.859 110.793 110.46 110.552 110.363 110.238 110.115 110.091 110.119 110.141 110.142 110.094 110.07 110.02 109.966 109.942 109.937 109.955 109.901 109.937 109.881 109.903 109.857 109.857 109.893 109.847 109.824 109.805 109.808 109.837 109.772 109.861 109.838 109.817 109.909 109.837 109.83 109.85 110.72 110.001 110.196 109.868 109.842 110.668 110.207 110.052 110.146 109.849 109.791 109.808 110.198 110.603 109.83 109.821 110.812 109.952 109.819 110.282 109.645 109.531 109.474 109.793 114.408 113.349 110.331 110.195 109.504 109.52 109.519 109.273 109.163 109.108 109.111 109.012 109.065 109.41 109.072 109.164 114.936 115.372 115.352 115.206 109.909 109.839 109.386 109.155 108.782 110.562 110.716 109.403 108.22 108.137 111.442 114.112 114.265 114.183 114.135 109.022 108.119 108.165 108.174 108.197 108.151 108.176 111.008 108.407 107.93 107.909 107.848 107.951 109.899 115.043 113.816 109.933 109.449 113.282 114.105 111.931 108.955 110.941 112.091 110.838 109.003 108.204 108.164 108.141 108.058 113.8 117.244 110.604 107.678 108.39 107.485 107.417 107.349 107.276 109.619 109.727 109.911 110.62 111.595 112.257 112.698 112.338 107.951 105.76 106.923 109.805 107.052 105.128 107.418 107.439 105.359 104.385 106.382 104.686 103.942 103.863 103.841 103.724 103.178 103.171 104.935 105.107 103.071 102.815 106.101 107.356 104.375 101.863 103.611 102.63 100.038 100.27 100.108 100.079 100.022 99.97 100.979 101.005 101.054 100.307 99.801 98.832 99.267 99.57 98.447 98.458 98.12 97.916 97.847 98.927 98.228 98.763 97.161 97.378 96.99 97.396 95.415 94.679 94.356 94.341 94.231 94.303 96.075 94.409
78.773 84.545 84.289 79.67 81.445 80.813 79.632 79.839 81.183 82.875 86.721 86.605 82.938 83.023 83.005 83.747 87.842 89.713 89.337 89.024 88.486 87.316 83.477 83.569 83.867 83.975 84.64 84.205 83.915 83.956 84.006 84.154 84.328 84.452 84.603 87.071 88.515 88.708 85.42 85.336 85.146 85.068 87.037 85.608 86.181 88.271 88.629 88.058 86.801 86.094 85.819 86.194 85.977 86.192 87.474 89.267 86.641 86.839 87.423 93.21 95.008 95.098 94.047 90.1 88.679 91.161 90.029 89.421 89.27 89.314 90.216 89.829 89.452 89.807 89.908 90.19 95.234 96.751 97.627 96.53 91.482 91.701 91.248 90.732 90.676 91.175 94.2 91.824 91.607 91.629 91.81 92.471 99.806 100.998 101.033 100.46 94.584 94.92 95.227 94.979 94.633 95.346 94.537 94.614 94.869 94.831 95.442 95.524 96.334 101.892 100.936 97.824 96.889 99.326 98.999 99.847 99.947 99.822 101.635 101.799 100.48 101.183 103.564 104.749 105.763 106.248 107.096 108.019 107.725 109.424 110.136 110.09 109.519 110.418 110.681 110.255 110.224 110.106 110.138 110.137 110.167 110.206 110.155 110.249 110.245 110.265 110.271 110.358 110.364 110.38 110.372 110.436 110.433 110.465 110.458 110.455 110.41 110.44 110.382 110.36 110.346 110.347 110.355 110.291 110.36 110.369 110.498 113.52 112.884 112.95 111.818 111.103 114.136 116.342 116.971 116.59 113.545 111.602 110.874 110.814 110.687 110.631 110.639 110.625 110.549 110.682 111.123 111.172 110.518 110.589 110.504 111.683 115.262 111.644 111.322 110.493 110.357 110.95 110.614 110.532 110.746 110.241 110.253 110.268 110.185 110.262 110.153 110.126 110.071 110.163 110.006 110.053 110.11 110.079 110.11 110.063 110.082 110.012 110.001 109.977 109.924 109.924 109.954 109.891 109.871 109.863 109.853 109.852 109.792 109.893 109.879 109.894 109.882 109.836 109.828 109.877 109.888 109.999 110.295 110.015 109.895 109.91 111.438 110.803 110.283 109.895 109.681 109.786 110.055 109.702 109.722 109.8 109.628 109.604 109.739 110.049 110.472 110.036 113.273 110.072 110.655 110.525 111.683 110.213 109.465 109.381 113.347 115.905 115.221 110.691 109.419 109.466 109.439 109.408 109.227 109.077 109.032 109.051 108.936 108.915 108.951 109.62 109.166 111.259 111.892 111.353 110.753 110.884 110.831 111.05 111.056 110.931 110.744 110.662 110.433 108.324 108.23 111.184 114.165 114.068 114.28 114.071 109.533 108.119 108.12 108.116 108.082 108.101 108.086 108.138 108.499 107.973 107.822 107.786 107.727 107.746 108.232 108.28 108.323 109.642 114.566 114.992 113.85 109.966 108.906 110.138 110.676 110.249 108.259 108.162 108.137 112.766 109.505 113.198 108.803 108.455 107.606 108.589 108.804 108.694 113.012 113.875 114.923 114.926 112.946 112.803 112.84 112.104 110.155 108.041 105.943 105.874 107.366 106.562 106.023 107.544 106.146 105.094 104.356 106.415 104.936 103.944 103.915 103.667 103.479 103.15 103.178 103.493 103.679 102.901 102.809 103.755 104.187 105.049 105.35 106.051 105.181 100.117 100.097 100.097 99.984 99.974 100.012 101.473 100.389 100.041 99.734 99.572 100.428 101.149 99.889 98.369 98.294 97.96 97.935 97.81 99.404 100.089 99.272 97.261 97.121 96.812 96.684 96.172 94.81 94.449 94.228 94.142 94.092 95.785 96.953
78.58 79.518 80.065 79.459 79.147 79.851 80.098 79.81 80.269 84.391 86.189 86.756 83.128 82.933 83.031 82.885 83.628 88.636 84.965 84.464 83.095 85.944 83.528 83.511 83.799 84.021 84.655 84.895 83.884 83.949 83.975 84.119 84.182 84.302 84.689 89.25 89.832 88.855 85.369 87.922 88.739 89.097 86.692 84.999 85.107 86.353 87.573 87.413 87.895 85.849 85.81 85.867 85.964 86.129 86.295 86.521 86.64 86.813 90.185 93.686 94.332 94.192 93.765 89.6 88.256 89.61 89.589 89.363 89.237 89.248 89.739 89.534 89.651 89.794 89.868 91.531 95.594 96.966 97.709 96.453 94.124 91.42 90.602 90.593 90.808 94.74 96.822 95.313 91.712 92.577 91.965 92.324 99.281 101.34 101.852 100.465 94.377 94.35 95.086 94.724 94.596 94.975 94.493 94.737 94.831 95.544 95.829 96.052 99.41 103.018 103.588 103.219 99.552 97.682 99.88 98.812 101.114 100.036 100.756 100.481 101.05 101.173 103.935 104.492 105.787 106.88 108.501 108.235 108.743 108.338 108.686 108.012 109.88 109.882 110.023 110.155 110.114 110.056 110.015 110.092 110.058 110.113 110.154 110.192 110.187 110.202 110.242 110.268 110.267 110.319 110.357 110.389 110.399 110.355 110.395 110.393 110.381 110.304 110.295 110.328 110.295 110.271 110.275 110.209 110.225 110.243 110.309 111.083 110.914 110.661 110.657 110.969 113.77 113.222 112.403 110.862 110.889 111.361 111.353 110.586 110.736 110.585 110.55 110.536 110.47 110.416 110.503 110.637 110.834 111.165 111.068 110.971 111.68 111.006 110.226 110.191 110.144 110.219 110.25 110.201 110.159 110.122 110.058 110.089 110.055 110.028 110.05 110.082 110.032 110.08 110.023 110.041 110.089 110.034 110.014 110.009 109.952 109.97 109.925 109.894 109.89 109.902 109.959 109.985 110.018 109.983 109.925 109.884 109.895 109.977 110.431 110.557 110.411 109.861 109.977 110.014 110.2 110.115 109.695 109.955 109.721 110.473 109.74 109.698 109.535 109.601 109.52 109.659 110.137 109.751 109.88 113.513 110.715 112.609 109.68 114.239 114.817 114.783 115.516 115.724 113.867 111.119 112.104 110.016 109.353 112.511 115.669 116.676 117.045 115.282 112.081 109.761 109.367 109.343 109.311 109.904 109.233 108.952 108.849 108.84 108.814 108.994 108.921 108.901 108.74 109.141 108.97 108.763 109.017 110.485 109.773 110.853 110.717 110.65 110.624 110.6 108.216 108.06 109.127 109.532 112.237 109.878 108.51 108.014 108.024 107.987 107.973 107.958 107.941 107.948 110.482 108.916 107.755 107.692 107.667 107.629 107.686 108.192 108.284 108.685 113.856 114.917 114.389 112.824 108.491 110.742 109.935 108.43 108.359 108.148 113.4 116.55 116.308 113.683 113.075 110.943 108.168 107.929 107.868 107.509 112.484 113.567 112.936 108.925 108.766 108.45 109.572 108.382 107.938 107.627 105.803 105.433 105.95 106.005 105.485 105.143 104.952 105.273 104.324 104.533 103.837 103.963 103.907 103.512 103.67 103.206 103.137 103.113 103.172 103.05 102.924 103.739 104.429 105.15 106.129 107.025 106.341 100.799 100.205 101.667 101.285 101.854 102.306 101.426 102.063 100.501 98.558 98.432 99.145 100.724 99.984 98.306 98.132 98.069 97.893 99.021 100.338 102.216 98.81 97.512 100.513 98.292 99.844 101.345 101.593 98.956 95.944 94.039 93.999 94.92 96.943
78.731 78.909 79.344 79.086 82.141 84.275 84.164 79.548 80.117 80.174 80.454 85.301 83.336 82.839 83.061 83.618 82.91 82.911 85.808 87.98 87.857 88.639 83.783 83.378 83.636 83.828 83.957 84.142 83.839 83.842 83.888 83.899 84.005 85.287 84.963 86.376 86.532 87.085 90.314 90.933 91.168 91.435 89.903 87.704 85.622 86.604 85.924 86.515 86.564 85.652 85.73 85.769 85.934 86.082 88.113 89.386 89.174 87.63 88.17 89 89.18 89.513 92.915 90.161 88.601 89.011 89.905 89.153 89.169 89.227 89.257 89.307 89.373 89.616 89.808 91.883 95.046 96.079 96.198 96.077 91.491 91.165 90.617 90.741 90.751 95.189 96.923 93.908 92.05 91.765 91.849 92.772 99.897 101.115 101.539 100.312 94.627 94.278 94.455 94.695 95.144 94.405 94.5 95.316 94.911 95.236 95.754 96.068 99.588 103.355 104.024 102.995 98.465 97.819 98.069 98.295 98.803 99.99 100.916 102.941 102.012 102.374 104.986 104.104 105.19 107.98 108.972 109.184 107.909 108.082 109.073 111.015 110.561 110.108 109.902 110.091 110.049 110.058 109.926 109.971 110.059 110.062 110.118 110.115 110.15 110.14 110.177 110.22 110.261 110.204 110.288 110.313 110.306 110.303 110.282 110.289 110.236 110.21 110.196 110.188 110.214 110.175 110.156 110.14 110.144 110.155 110.233 110.442 110.69 111.625 112.669 112.649 111.346 110.886 111.372 110.645 111.096 112.748 111.481 110.279 110.445 110.604 110.474 110.459 110.447 110.352 110.337 110.442 110.393 110.34 110.312 110.284 110.267 110.13 110.091 110.079 110.082 110.104 110.128 110.068 110.049 110.066 110.03 110.041 110.065 110.028 110.069 110.064 110.034 110.033 110.016 110.021 109.962 110.018 109.977 110.003 110.017 110.007 110.102 110.006 109.938 109.925 110.123 111.076 110.03 110.317 109.97 109.926 109.975 110.06 111.008 110.566 109.801 109.744 110.472 110.146 110.003 110.362 109.62 109.703 109.569 110.792 109.941 109.463 109.552 109.384 109.555 109.607 112.899 115.163 115.171 115.557 115.487 114.126 109.78 113.327 115.789 116.489 116.565 115.971 114.095 111.117 112.077 109.843 111.939 114.806 115.754 116.676 116.808 115.819 115.184 111.205 109.286 109.67 109.053 108.947 109.065 108.816 108.753 108.74 109.1 108.664 108.662 110.942 112.578 112.006 112.538 110.584 109.267 109.783 108.46 108.348 108.495 110.541 110.604 110.623 108.619 108.62 109.189 108.379 108.099 108.818 108.349 108.382 108.153 108.204 108.235 108.075 108.069 107.937 108.226 107.847 107.781 107.606 107.573 107.554 107.572 108.073 108.328 108.209 109.3 114.166 114.987 111.081 108.965 110.254 109.42 108.179 110.809 110.681 113.975 115.538 115.8 113.875 112.482 109.173 109.219 107.271 107.227 107.237 108.248 111.436 106.983 106.725 106.708 106.576 107.03 107.061 105.606 105.398 105.46 105.432 106.929 106.907 105.022 104.911 105.169 106.318 104.501 103.834 103.742 103.794 103.874 103.847 103.853 103.265 103.074 103.2 102.912 102.876 102.9 102.763 104.391 105.139 106.114 106.948 106.338 100.792 100.457 100.545 100.792 103.583 100.201 99.95 101.848 100.361 99.185 102.587 103.598 104.314 103.365 104.352 103.607 98.645 97.884 102.274 103.256 104.114 104.248 103.944 103.813 98.372 99.459 100.693 104.175 104.501 100.883 94.069 93.911 94.887 94.475
78.535 78.783 81.923 83.982 85.376 85.758 85.099 79.465 80.668 81.095 83.867 85.987 85.397 83.771 82.793 83.717 84.907 85.322 89.068 89.62 89.495 89.337 87.731 83.248 84.578 83.725 83.896 83.804 83.787 83.779 83.829 83.738 83.912 84.907 84.511 85.188 88.537 88.352 91.495 91.633 91.133 90.908 90.549 87.792 87.345 86.402 85.469 86.647 87.682 87.472 86.365 86.339 86.457 87.571 88.707 89.254 89.387 88.647 87.307 87.365 87.619 87.89 88.134 88.776 88.792 88.963 89.142 89.126 89.165 89.204 89.235 89.238 89.884 89.813 90.326 90.087 90.044 91.081 90.675 90.755 90.785 90.414 92.226 92.395 92.956 96.014 93.827 92.088 93.199 93.28 91.847 92.097 98.856 100.627 100.642 100.331 93.965 94.14 95.525 94.629 95.522 94.437 94.433 94.527 94.638 95.432 95.863 96.404 102.2 103.92 104.086 102.67 97.603 98.274 98.821 98.723 99.191 99.398 100.215 101.169 101.669 104.492 105.656 104.411 104.84 105.827 107.962 109.416 107.356 107.559 108.012 109.724 111.996 111.657 109.659 109.94 109.969 109.896 109.929 109.915 109.973 109.991 110.066 110.066 110.101 110.101 110.177 110.175 110.205 110.231 110.217 110.23 110.217 110.241 110.21 110.238 110.145 110.111 110.125 110.202 110.102 110.093 110.102 110.107 110.035 110.137 110.157 110.32 111.035 111.055 113.114 113.091 111.073 110.912 110.173 112.961 115.414 116.255 115.24 110.652 110.337 110.475 110.479 110.302 110.354 110.353 110.358 110.234 110.23 110.185 110.169 110.159 110.161 110.15 110.153 110.098 110.145 110.144 110.148 110.104 110.576 110.074 110.774 110.145 111.061 110.817 110.041 110.031 110.024 110.095 110.113 110.099 110.084 110.001 109.99 110.005 110.145 109.998 110.108 110.474 109.963 109.983 115.143 113.956 109.803 109.679 109.687 110.197 109.929 110.093 110.735 109.95 109.73 110.021 109.671 109.851 110.062 110.167 110.419 110.392 109.494 109.427 111.102 114.395 114.72 114.661 112.532 110.344 110.793 115.438 116.35 116.713 116.194 114.55 110.154 109.787 115.652 116.735 116.842 116.214 114.332 110.877 109.658 110.802 112.243 112.666 114.362 115.646 115.92 115.235 113.204 112.739 109.842 109.411 108.948 109.336 108.918 108.73 108.67 108.715 108.805 109.299 108.819 114.517 115.158 115.367 114.719 111.808 109.931 108.437 108.311 108.323 108.47 110.152 110.586 110.557 109.401 108.72 110.898 108.446 112.225 111.002 110.114 109.115 108.899 110.972 108.107 107.933 107.908 107.893 107.845 107.827 107.865 107.617 107.534 107.538 108.86 109.423 107.764 108.202 108.209 112.64 114.272 109.916 109.743 108.289 108.106 111.346 115.228 113.989 114.712 116.025 115.018 114.063 110.319 108.273 107.314 107.669 107.253 107.359 107.327 108.188 106.987 106.678 106.706 106.566 107.435 107.501 105.469 105.401 105.49 105.405 105.746 105.741 104.984 104.87 104.834 105.137 104.483 103.797 103.635 103.997 103.673 103.795 103.738 105.385 105.198 106.31 103.34 102.888 104.927 105.313 104.263 104.972 105.972 107.043 106.347 101.285 99.87 100.18 99.784 100.269 100.918 99.871 100.765 100.694 99.509 103.172 104.904 105.548 106.804 105.57 104.524 98.631 97.922 101.635 104.413 105.315 105.331 105.17 103.927 98.524 96.407 100.03 103.12 104.167 103.854 95.595 93.82 93.843 94.269
78.393 78.691 83.235 85.645 85.387 85.064 84.591 79.443 80.269 81.587 83.871 86.514 86.212 83.448 82.921 83.493 85.33 85.937 89.247 88.886 88.255 84.876 84.576 84.583 84.237 83.688 83.902 83.799 83.736 83.748 83.711 83.724 84.115 84.269 84.379 84.501 88.561 88.412 90.352 90.682 87.197 86.437 86.271 87.549 87.3 85.785 85.389 85.77 87.007 86.03 85.826 85.686 85.797 85.873 87.185 89.203 89.31 87.915 88.737 87.605 91.324 88.133 91.407 88.368 88.605 88.948 89.14 89.136 89.143 89.209 89.221 89.2 89.341 90.521 90.309 90.696 90.907 90.098 90.81 90.386 90.2 90.4 92.568 92.88 94.312 95.803 92.011 93.859 94.126 93.829 91.82 92.392 94.486 95.67 95.93 95.907 94.226 94.308 94.752 94.827 94.574 94.301 94.325 94.471 94.657 95.18 96.03 97.198 102.946 103.595 103.483 98.556 97.536 98.134 98.52 98.957 99.287 99.417 106.102 106.582 101.754 103.875 106.299 105.009 105.693 108.73 109.727 109.443 108.104 107.281 107.575 107.926 109.429 108.962 109.632 109.869 109.882 109.827 109.869 109.878 109.904 109.969 109.978 110.021 110.016 110.088 110.099 110.142 110.124 110.166 110.131 110.187 110.19 110.21 110.173 110.203 110.138 110.084 110.084 110.086 110.074 110.057 110.035 110.061 110.041 110.096 110.081 110.167 110.791 110.744 112.158 112.044 112.077 110.026 113.125 115.975 116.811 116.924 116.33 114.138 110.321 110.374 110.458 110.305 110.268 110.301 110.32 110.294 110.25 110.2 110.177 110.189 110.143 110.126 110.128 110.121 110.106 110.079 110.058 110.669 110.667 110.242 110.463 110.149 110.149 110.042 110.031 110.092 110.05 110.501 110.316 110.522 110.337 110.026 109.983 110.051 110.377 110.368 109.917 109.768 109.683 109.648 109.503 112.733 110.112 109.405 109.798 110.483 110.612 109.714 110.024 109.816 109.654 110.634 109.734 109.568 114.321 114.212 114.693 114.099 109.49 110.198 113.794 115.586 116.22 115.806 114.467 110.247 109.817 115.173 116.335 116.982 116.396 114.668 109.982 112.676 115.573 115.984 115.766 115.562 114.725 110.581 109.783 109.29 110.252 112.173 112.724 114.727 115.171 113.572 112.03 111.596 109.334 108.868 108.736 109.551 108.984 108.653 108.615 108.621 108.897 109.717 110.177 114.585 115.781 116.108 114.762 111.543 109.955 108.381 108.539 108.392 108.562 108.968 108.369 108.946 108.681 113.14 114.174 114.229 114.384 114.265 109.259 110.643 108.801 112.61 110.761 109.628 109.087 108.793 107.978 109.805 110.441 107.783 107.511 107.468 107.4 108.542 107.644 107.982 109.186 109.698 110.609 108.733 107.924 108.122 109.612 112.296 113.365 112.982 114.36 115.068 114.481 112.891 110.452 108.274 107.307 107.334 107.62 107.324 108.488 109.39 108.998 107.029 106.694 106.518 107.619 107.531 105.585 105.396 105.496 105.375 105.506 105.219 104.945 104.906 104.813 104.806 104.153 103.804 103.7 105.621 105.878 105.78 106.287 108.627 108.616 109.073 104.109 103.441 105.869 105.806 104.456 104.928 105.528 107.482 106.723 104.01 99.991 100.246 99.871 100.014 99.721 100.481 99.774 101.256 98.869 102.38 105.045 105.57 105.729 105.561 104.634 99.694 98.595 101.624 104.333 104.872 104.785 104.848 103.813 97.843 96.219 97.527 104.092 104.24 103.696 98.476 93.748 93.672 94.02
78.513 79.331 79.378 84.664 80.412 80.54 79.766 82.359 80.314 80.421 81.039 84.278 85.588 83.722 82.894 83.037 83.344 82.613 86.552 84.428 83.068 86.9 85.869 84.444 83.282 83.629 83.83 83.716 83.659 83.597 83.604 83.597 84.597 84.172 84.163 84.676 87.019 87.672 86.164 85.833 84.369 84.453 84.96 85.547 85.211 85.078 85.65 86.27 85.661 86.036 85.487 85.843 85.765 85.997 85.973 86.205 86.428 86.805 91.034 93.416 93.834 93.671 93.211 88.457 88.322 88.948 89.478 89.163 89.094 89.14 89.673 89.274 89.51 89.892 90.147 91.525 94.658 94.16 94.133 94.288 92.709 92.157 92.149 92.664 92.636 94.359 93.586 93.763 92.553 91.565 91.798 94.16 92.553 92.749 93.11 94.042 93.561 93.989 94.226 94.167 94.182 94.247 94.321 94.449 94.585 95.369 96.328 95.924 97.959 102.292 102.529 97.003 97.632 97.672 98.11 99.049 99.658 107.207 110.909 111.45 104.555 105.202 104 104.112 106.38 108.347 109.428 111.526 111.917 109.554 107.594 108.4 108.659 108.961 109.595 109.82 109.789 109.833 109.809 109.853 109.884 109.93 109.938 109.957 110.012 110.035 110.046 110.068 110.09 110.1 110.078 110.107 110.125 110.136 110.126 110.081 110.098 110.03 110.023 110.022 110.024 110.016 109.986 110.008 110.066 110.072 110.018 110.102 110.873 110.276 110.395 112.093 111.171 110.124 113.27 115.585 117.219 117.577 116.691 115.637 110.649 110.168 110.246 110.364 110.649 110.306 110.24 110.159 110.169 110.606 110.169 111.149 110.078 110.146 110.07 110.128 110.145 110.106 110.101 110.119 110.062 110.128 112.688 110.605 110.456 110.423 110.079 110.527 110.121 110.054 110.052 110.043 110.007 109.793 109.804 109.757 109.801 110.119 109.736 109.548 109.455 109.395 109.377 109.899 110.424 111.071 109.268 110.261 109.889 112.155 113.704 114.849 114.105 110.598 109.476 111.296 114.894 115.988 115.998 114.22 112.834 110.687 113.641 115.323 116.471 116.118 114.961 111.217 109.608 114.548 115.888 115.847 115.581 115.331 110.771 111.979 114.937 113.607 113.186 113.182 112.375 109.641 109.955 109.301 110.077 110.227 110.115 111.608 111.872 109.529 110.104 109.026 108.569 108.564 108.61 108.812 108.709 108.563 108.513 108.703 111.166 110.349 110.785 114.505 115.83 116.209 115.034 112.081 109.264 108.723 108.478 109.522 109.484 108.434 108.16 108.46 110.728 112.98 114.069 114.262 114.136 114.366 112.292 113.55 112.838 112.292 110.395 108.776 108.428 108.621 108.357 110.977 112.043 110.944 109.442 107.478 107.346 107.259 107.253 107.51 109.716 110.486 108.041 107.768 107.987 110.491 109.675 110.549 110.573 109.807 112.73 111.87 111.423 110.412 110.165 109.047 107.285 107.281 107.532 106.935 108.167 109.364 108.757 108.43 106.711 106.531 107.419 106.906 105.571 106.789 107.19 105.521 105.006 105.141 104.923 105.194 106.097 104.854 104.23 105.001 103.688 106.279 108.117 108.718 109.04 109.747 110.073 109.851 105.871 102.767 103.475 106.807 107.117 104.765 105.769 106.726 106.668 102.435 99.986 99.854 99.833 100.062 99.714 101.078 99.633 101.748 98.836 102.263 104.561 104.353 104.529 104.434 104.422 98.963 98.395 101.711 103.658 103.589 104.082 103.706 103.44 97.953 96.475 102.225 104.401 104.321 102.239 95.314 93.554 93.54 94.291
79.043 78.373 78.76 78.885 82.22 83.471 85.03 85.185 80.983 81.286 80.591 81.237 85.625 86.802 83.414 84.337 84.524 83.349 85.957 85.781 88.178 89.168 89.496 88.063 83.174 83.453 83.757 83.592 83.556 83.525 83.467 83.653 84.631 83.968 84.438 84.246 84.078 84.292 85.256 88.356 89.147 84.361 85.158 85.462 85.077 85.568 85.852 86.336 86.27 86.836 85.667 88.323 87.437 85.634 85.845 86.258 86.417 86.828 89.06 93.375 94.73 94.548 93.492 89.487 87.933 89.486 89.333 89.729 89.164 89.134 89.924 89.459 89.549 89.708 89.809 89.97 94.901 96.523 96.653 96.384 93.832 92.596 90.666 91.435 91.598 92.278 92.268 92.945 92.102 93.397 97.906 98.299 98.471 98.099 98.263 96.205 94.383 94.699 94.141 94.066 94.183 94.232 95.239 95.595 94.707 95.082 96.584 96.112 96.126 96.383 96.534 97.835 98.2 97.779 98.361 99.403 103.657 109.849 111.757 112.288 110.999 106.196 105.986 104.733 107.469 108.162 108.801 112.155 112.751 113.423 110.669 108.779 108.717 108.968 109.636 109.79 109.747 109.78 109.788 109.782 109.818 109.858 109.922 109.893 109.918 109.962 110.023 110.024 110.04 110.068 110.073 110.041 110.073 110.053 110.058 110.023 109.992 109.962 109.952 109.98 110.001 109.985 110.011 110.003 110.025 110.017 110 109.99 110.187 109.919 110.265 110.369 109.995 110.061 110.654 114.6 116.082 116.85 116.299 114.423 110.009 109.97 109.896 110.283 112.324 111.981 110.73 110.245 110.158 110.288 111.69 112.012 110.158 110.157 110.158 110.363 110.525 110.365 110.225 110.299 110.47 110.014 110.284 110.849 110.674 109.975 110.552 110.162 110.136 109.679 110.171 109.879 109.88 109.782 109.545 109.585 109.777 110.351 112.133 109.699 109.402 109.378 112.994 114.519 114.643 114.204 110.247 109.205 109.43 113.815 115.796 116.002 115.472 110.404 109.577 112.898 114.833 116.262 116.369 115.182 113.229 109.814 113.094 115.257 115.807 115.727 115.032 113.317 109.527 112.396 114.354 111.747 111.148 112.73 110.229 112.158 112.4 112.435 112.459 112.418 112.365 109.854 110.434 109.697 109.629 109.356 109.327 109.892 109.329 110.527 110.669 109.864 108.514 108.579 108.562 108.466 108.561 108.505 108.445 108.569 109.961 109.256 112.16 114.49 114.866 114.948 114.879 112.422 109.653 108.218 108.804 109.116 109.054 108.206 108.161 108.143 108.12 108.521 109.582 112.746 111.311 110.432 111.488 113.228 114.078 113.595 112.327 107.969 107.885 107.906 107.841 110.96 111.763 110.832 109.939 107.728 107.233 107.191 107.185 107.162 107.797 109.003 111.833 111.165 111.107 109.451 110.167 109.578 110.83 111.332 109.868 109.214 109.382 109.454 109.481 108.892 107.355 107.251 107.551 106.89 108.787 108.537 108.683 108.024 106.129 106.094 105.945 106.64 105.415 106.567 107.608 105.378 104.875 105.204 105.024 106.942 109.654 105.869 104.833 104.162 103.587 106.298 108.402 109.806 110.468 110.927 111.357 110.344 106.135 102.683 104.881 106.808 106.513 104.696 105.508 106.536 106.792 103.81 100.302 100.727 100.053 99.914 99.679 99.672 99.558 101.645 99.003 99.23 100.096 99.82 102.763 103.485 98.712 97.595 97.831 98.573 98.846 99.238 100.316 98.799 98.214 98.768 99.994 102.337 103.468 103.999 104.286 95.343 93.489 93.398 93.677
78.102 78.339 78.642 82.972 85.638 86.178 86.109 86.064 84.219 81.735 82.325 83.125 85.842 86.738 82.626 84.474 83.969 82.772 83.366 88.997 89.387 89.318 88.869 87.092 84.799 83.658 84.024 83.517 83.462 83.424 83.396 83.473 84.181 83.706 83.935 84.695 89.254 90.183 90.524 90.595 87.675 85.508 85.418 86.161 86.462 85.709 85.342 85.905 85.708 86.546 86.24 87.229 86.623 85.907 86.918 86.425 87.276 86.637 91.444 93.728 95.205 95.233 93.398 88.56 88.125 88.957 89.475 89.812 89.347 89.146 89.372 89.311 90.236 89.996 89.758 89.872 94.978 96.871 98.504 96.541 93.817 92.852 90.705 90.87 91.735 93.965 95.448 93.649 91.455 97.088 100.148 100.173 100.235 99.384 94.224 94.403 94.374 94.747 94.106 94.053 94.12 94.293 94.685 94.559 95.115 95.247 97.039 101.549 100.709 96.907 97.77 98.014 99.305 102.729 101.972 104.755 99.916 107.093 110.536 110.465 109.985 103.512 104.708 108.271 110.845 109.984 109.167 111.479 112.66 112.013 110.52 108.861 108.632 109.005 109.66 109.708 109.744 109.729 109.72 109.719 109.819 109.81 109.86 109.843 109.865 109.89 109.943 109.946 109.987 109.985 109.996 110.012 110.005 110.04 109.986 109.984 109.965 109.926 109.882 109.914 109.948 109.953 109.967 109.96 109.934 109.978 109.953 109.951 110.051 109.892 110.001 109.949 109.884 110.177 109.951 110.304 115.389 116.091 115.223 110.551 109.84 109.857 111.312 109.753 110.256 112.471 110.832 110.151 110.135 110.566 112.769 113.018 110.664 110.362 110.046 109.986 109.969 109.932 110.174 109.972 110.036 109.994 110.14 109.822 110.117 109.848 110.384 109.635 109.636 109.674 110.975 112.481 110.964 109.488 109.451 112.475 114.972 114.601 115.198 115.037 109.726 110.425 113.676 115.968 116.073 116.236 114.745 109.467 112.16 114.833 115.803 116.64 115.439 113.848 109.731 113.051 114.823 115.753 115.7 115.209 113.418 109.802 112.857 114.835 114.485 111.954 111.683 111.912 110.18 112.318 112.241 110.355 109.602 110.261 109.763 111.541 112.147 109.764 110.794 109.496 109.452 109.533 110.449 109.982 110.253 110.778 110.957 110.407 110.427 110.254 108.805 108.527 108.518 108.45 108.432 108.384 108.477 108.489 108.327 108.4 109.811 108.502 108.567 110.343 109.99 109.931 112.785 109.433 108.768 108.329 108.262 108.86 108.213 108.357 108.179 108.238 109.381 108.371 109.558 108.356 108.492 108.019 107.985 112.54 112.127 112.895 112.029 108.008 107.758 107.745 108.136 109.349 110.985 110.978 107.988 107.434 107.229 107.111 107.115 107.066 107.239 114.637 116.369 116.492 114.454 111.707 110.641 109.917 110.6 110.979 108.932 108.92 108.482 109.533 109.469 109.034 107.372 107.191 107.496 107.041 108.83 108.816 108.575 107.199 106.074 105.988 106.343 106.125 105.601 105.578 108.241 109.218 109.193 109.604 110.89 110.966 111.405 106.071 104.814 104.528 103.537 103.985 104.49 109.553 110.366 110.39 109.819 109.596 108.927 103.721 104.444 106.121 107.503 105.43 105.522 106.598 106.954 105.566 100.828 100.363 99.959 99.796 103.238 104.307 101.854 101.698 101.373 98.155 98.584 98.496 98.778 98.27 99.145 97.572 97.074 98.322 97.708 97.688 98.629 97.303 97.346 98.785 98.841 95.871 99.42 102.297 101.929 94.489 93.416 93.315 93.369
78.067 78.43 78.737 79.171 85.854 85.544 85.292 84.757 80.904 80.663 81.051 81.145 84.706 86.895 85.478 84.223 84.338 83.054 82.364 86.966 88.397 85.173 84.177 82.757 86.986 83.282 83.511 83.525 83.381 83.343 83.334 83.252 83.621 83.909 83.913 84.017 88.602 90.586 90.205 89.847 86.624 84.958 86.366 86.421 86.382 85.384 84.981 86.279 85.536 85.108 85.192 85.342 85.765 85.626 86.094 85.863 86.473 86.785 91.284 93.509 95.082 94.753 93.366 89.078 88.255 89.165 89.243 89.56 89.271 89.11 89.095 89.25 90.215 89.892 89.809 89.852 94.95 96.747 98.125 96.512 93.631 90.987 90.871 92.323 92.543 94.442 95.248 94.185 94.263 96.402 100.12 101.248 101.207 96.415 96.047 94.4 94.97 94.405 94.029 93.998 94.09 94.246 94.4 95.689 95.791 95.663 100.672 103.948 104.325 103.026 96.647 97.965 100.673 106.846 108.963 103.752 108.128 113.401 114.191 111.877 107.802 103.035 104.265 108.333 110.791 109.845 108.679 109.462 109.647 109.39 110.092 108.385 108.763 109.377 109.667 109.658 109.686 109.67 109.691 109.684 109.755 109.75 109.76 109.794 109.832 109.801 109.851 109.894 109.914 109.912 109.929 109.981 109.995 109.982 109.971 109.975 109.905 109.903 109.862 109.9 109.905 109.964 109.922 109.909 109.872 109.877 109.896 109.886 109.953 109.977 109.888 109.956 109.874 109.879 111.531 112.95 113.353 111.481 110.431 109.837 109.786 112.638 115.729 114.573 110.228 109.889 110.129 110.298 110.067 109.935 111.867 110.356 109.858 111.12 110.018 109.713 109.664 110.45 110.026 109.814 109.81 109.658 112.163 112.695 113.888 113.474 109.834 109.579 111.014 114.716 115.638 115.777 112.688 112.252 109.522 113.825 115.81 116.303 116.212 115.492 110.317 109.29 113.985 116.228 116.74 116.514 115.231 109.987 110.024 114.66 115.732 115.953 115.429 113.879 110.455 109.584 114.629 113.62 113.314 112.783 112.122 110.126 110.292 112.248 109.454 109.504 109.768 110.286 110.371 109.565 109.717 109.369 109.542 109.149 109.139 109.31 109.457 109.428 109.633 109.377 110.559 111.431 111.482 110.749 110.789 109.581 110.703 110.69 108.683 110.198 108.676 111.424 108.713 108.85 108.421 108.279 108.346 108.355 108.249 108.251 108.283 108.301 108.087 108.002 108.174 109.492 108.465 108.031 108.51 109.659 109.774 109.372 109.366 107.99 108.502 108.209 107.666 108.812 109.323 107.761 107.681 107.644 109.192 110.889 110.765 110.737 108.428 107.733 107.755 107.755 107.884 107.884 108.312 110.975 109.436 107.684 107.249 107.005 107.001 106.993 110.968 116.264 117.626 116.187 116.911 115.519 112.465 109.46 109.467 108.148 108.122 108.278 108.328 109.288 109.49 108.382 107.511 107.559 107.103 107.282 108.411 107.324 108.671 109.04 109.334 109.279 109.065 106.55 105.919 105.129 111.518 111.84 111.904 112.199 112.327 112.325 112.486 104.955 104.7 103.731 103.579 104.085 103.431 108.351 109.545 109.083 107.49 106.938 105.454 102.767 103.741 105.022 107.138 104.722 105.299 106.248 106.927 105.48 100.315 100.376 100.41 102.241 103.082 104.288 103.89 101.836 100.794 97.805 98.405 98.579 99.077 98.313 98.424 96.836 96.433 96.823 97.527 97.366 97.263 97.258 97.106 97.207 96.451 95.573 94.225 93.921 93.605 93.506 93.378 93.232 93.171
78.349 78.316 78.683 78.991 83.126 79.861 79.622 83.568 82.738 80.738 80.324 80.597 83.707 83.005 85.984 84.757 84.46 84.469 84.085 82.517 85.272 82.759 86.768 88.026 87.787 83.139 83.215 83.455 83.277 83.229 83.275 83.244 83.651 83.672 83.916 83.959 84.385 89.416 85.929 84.471 86.729 85.161 84.515 84.348 84.349 84.729 84.954 85.233 85.349 85.1 85.197 85.274 85.448 85.644 85.798 85.938 86.517 86.565 91.225 93.693 94.479 94.514 93.14 88.561 88.148 88.668 89.278 89.948 89.133 89.108 89.048 89.283 89.432 89.729 89.845 90.452 95.263 96.734 97.222 96.253 93.739 91.297 90.679 93.139 93.201 93.483 93.739 94.176 93.604 96.607 100.261 101.218 100.91 99.082 98.226 97.943 97.216 94.329 93.908 93.954 94.166 95.087 94.817 95.448 95.948 96.903 102.885 105.159 103.877 102.743 98.199 97.432 97.707 104.386 108.596 108.509 111.467 114.512 115.381 115.242 107.475 103.83 104.327 112.189 107.608 107.056 109.633 108.085 109.792 111.739 111.326 109.257 108.86 109.493 109.635 109.657 109.648 109.636 109.628 109.671 109.677 109.69 109.702 109.766 109.724 109.795 109.785 109.82 109.846 109.913 109.895 109.942 109.938 109.963 109.911 109.919 109.903 109.837 109.834 109.839 109.897 109.849 109.852 109.825 109.803 109.815 109.775 109.829 109.824 110.111 109.899 109.964 109.935 109.876 110.577 111.012 110.336 110.326 110.031 109.753 112.693 115.082 116.494 116.188 115.481 113.532 110.859 110.087 109.861 109.802 109.802 112.412 110.563 110.151 109.667 110.951 114.702 115.213 115.058 112.292 109.808 109.675 114.364 115.692 116.046 115.751 110.855 109.605 110.618 115.535 117.058 117.046 116.088 113.795 109.533 113.211 115.915 116.73 116.791 115.895 110.421 109.284 113.895 115.771 115.806 115.786 115.27 110.071 109.569 114.08 114.871 114.84 114.298 113.323 109.639 109.623 112.362 112.403 112.022 111.766 112.088 109.577 110.669 110.059 109.37 109.51 109.202 109.2 109.396 111.802 110.014 109.105 109.06 109.031 109.005 110.04 109.438 109.392 109.463 109.468 109.716 111.525 111.109 110.687 110.703 109.09 108.808 110.177 113.681 116.601 114.855 112.813 109.729 109.182 108.391 108.198 108.239 108.254 108.225 108.146 108.204 108.078 107.972 109.877 110.304 110.83 110.769 108.337 109.809 110.321 109.821 109.245 109.788 108.897 107.673 107.707 107.528 109.396 109.476 107.723 107.582 107.567 109.117 110.478 111.04 109.918 108.023 107.888 107.727 107.657 107.695 109.069 110.172 108.779 108.114 107.718 107.299 106.98 106.928 107.077 113.983 116.538 117.95 117.674 112.327 115.535 116.07 116.833 110.174 108.294 108.24 108.279 107.998 107.963 107.839 107.982 106.982 106.678 107.093 107.919 107.004 106.484 107.479 109.547 110.59 110.821 109.848 106.929 105.806 105.097 113.013 113.077 113.289 113.483 113.25 113.338 113.334 108.888 104.999 103.857 103.717 104.246 103.353 106.29 105.253 103.714 103.178 102.656 102.779 102.573 101.486 103.154 104.505 104.394 105.117 106.247 106.934 105.277 101.688 100.878 101.955 100.72 100.771 99.76 98.997 99.513 98.611 97.623 97.788 97.494 97.272 97.076 97.391 96.657 96.162 96.015 96.126 95.625 95.371 95.255 95.684 95.175 94.603 94.343 94.056 93.815 93.642 93.516 93.329 93.113 93.062
78.564 78.289 79.608 80.058 79.355 83.718 85.532 85.984 86.336 81.883 80.027 80.604 81.486 81.543 86.026 83.291 84.543 84.573 83.499 84.901 88.57 88.984 89.135 89.392 88.306 84.034 82.982 83.252 83.21 83.196 83.215 83.165 83.422 84.097 84.243 84.361 84.335 83.915 86.898 89.07 89.896 90.26 87.084 86.159 84.409 84.484 89.33 89.434 89.653 85.144 85.208 85.31 85.444 86.876 88.857 88.299 89.056 87.112 90.794 93.072 93.101 93.231 93.065 88.687 88.597 88.905 89.169 89.501 89.198 89.103 89.112 89.437 89.511 89.663 89.747 91.312 95.118 96.556 97.235 96.221 91.109 90.136 92.14 93.188 93.218 93.217 93.296 91.567 92.763 97.836 100.111 100.301 100.17 98.855 94.398 97.861 95.819 93.884 93.889 93.914 94.075 94.44 94.931 95.323 95.814 99.496 103.42 104.785 103.291 100.472 98.308 97.605 97.788 98.072 106.715 102.672 102.553 113.495 115.365 115.197 112.765 104.426 112.371 107.395 105.824 106.928 110.513 114.696 111.484 111.126 111.379 108.969 109.279 109.609 109.593 109.62 109.623 109.61 109.596 109.619 109.658 109.683 109.697 109.7 109.71 109.716 109.776 109.815 109.816 109.867 109.823 109.851 109.871 109.894 109.896 109.848 109.838 109.797 109.83 109.794 109.8 109.783 109.768 109.722 109.727 109.733 109.72 109.701 109.812 110.159 109.857 109.867 109.785 109.937 109.905 109.998 110.14 109.91 110.085 111.476 114.924 116.255 117.245 116.988 116.277 115.452 110.912 109.936 114.384 114.904 115.014 115.599 114.621 110.419 109.768 114.018 116.152 117.576 116.802 115.551 111.601 109.704 114.473 116.603 117.329 116.443 114.096 109.627 110.49 114.683 116.789 117.019 116.33 112.302 109.488 110.533 115.562 115.916 115.887 115.48 112.101 109.279 113.803 114.776 114.738 112.69 112.858 111.781 110.756 111.932 112.23 112.214 112.143 112.163 110.2 109.675 111.882 111.939 110.507 109.196 109.266 109.71 109.322 109.042 109.107 109.132 109.136 110.05 109.214 111.73 110.069 109.066 110.094 109.016 108.921 109.017 109.355 109.159 109.843 109.783 109.691 111.445 110.438 108.525 108.418 109.095 108.779 113.465 115.382 116.54 115.658 114.404 109.576 108.593 108.321 108.156 108.161 108.152 108.119 108.081 108.174 109.838 108.06 111.567 112.608 114.869 113.221 109.557 108.568 108.425 107.919 108.615 108.838 108.321 107.643 107.486 107.516 107.842 109.268 107.859 107.538 107.5 107.556 110.534 111.131 110.191 107.898 107.727 107.626 107.61 107.655 107.676 110.102 109.845 108.088 107.758 107.412 106.988 106.848 106.862 112.957 116.868 117.473 117.801 117.214 115.387 113.56 115.224 110.932 109.345 108.249 107.925 107.609 107.467 107.377 107.432 109.159 109.187 109.238 109.227 109.276 106.45 107.86 109.535 110.83 111.34 110.324 107.114 105.561 104.999 111.679 112.997 112.843 112.692 113.303 113.219 113.227 110.407 105.288 103.485 103.654 103.19 102.965 102.954 102.999 102.976 102.93 102.574 102.74 102.45 101.253 101.665 103.73 104.382 102.471 101.692 101.845 101.59 100.202 99.574 99.571 98.88 98.564 98.381 98.143 97.98 97.808 97.596 97.376 97.231 96.985 96.792 96.573 96.348 96.2 95.965 95.759 95.556 95.379 95.143 94.887 94.745 94.48 94.279 94.079 93.918 93.701 93.53 93.342 93.086 92.922
78.118 78.186 78.735 78.816 80.688 86.087 86.413 85.97 85.88 85.158 81.369 82.068 82.089 85.033 85.065 83.971 82.958 82.648 82.973 85.215 88.978 89.069 88.626 88.202 85.163 83.153 82.824 83.801 83.305 83.151 83.133 83.104 83.104 83.256 83.443 83.828 83.814 87.628 90.079 90.329 90.295 89.779 88.971 86.338 85.7 86.29 89.639 90.556 89.997 87.163 85.566 86.5 87.149 87.875 88.6 88.996 89.101 87.539 87.004 87.192 87.377 87.585 88.776 88.151 88.506 88.934 89.011 88.966 89.016 89.046 89.097 89.14 89.279 89.601 89.699 90.375 94.813 96.178 96.588 96.014 90.85 90.106 90.513 93.155 92.192 91.832 92.043 91.621 96.744 94.86 98.438 98.866 98.803 95.237 95.253 95.706 94.64 93.757 93.797 93.886 93.962 94.107 94.34 94.633 95.802 101.944 103.653 104.219 102.901 100.126 98.395 98.234 98.346 98.467 99.324 99.912 102.574 111.039 112.992 107.249 111.734 108.838 107.381 109.606 108.055 108.044 111.828 110.672 111.296 109.571 109.231 109.097 109.46 109.599 109.589 109.596 109.574 109.603 109.584 109.582 109.592 109.633 109.65 109.64 109.617 109.646 109.715 109.785 109.785 111.172 111.013 109.824 109.778 109.78 109.82 109.796 109.802 109.767 109.754 109.716 109.738 109.709 109.712 109.692 109.683 109.643 109.656 109.698 109.753 109.906 109.824 111.095 112.074 111.915 110.803 110.569 111.028 110.65 110.47 110.349 115.141 115.812 117.192 116.804 116.074 112.277 110.231 110.562 113.361 116.056 116.763 116.573 115.965 112.406 110.165 113.603 116.357 116.989 116.71 115.765 111.415 110.368 115.379 116.351 116.636 116.143 115.558 110.708 109.66 115.303 115.614 115.575 115.347 115.062 109.664 109.472 114.552 112.038 111.869 112.926 112.157 109.395 110.744 111.984 111.551 109.924 109.334 110.764 110.384 111.52 112.163 112.148 111.885 111.875 110.709 109.713 111.251 111.709 109.923 109.101 109.123 110.446 109.602 110.041 109.061 109.055 109.013 109.007 109.023 110.995 111.142 109.002 109.816 108.874 108.855 109.178 109.334 109.084 109.034 110.154 108.984 110.035 110.215 110.308 108.414 110.322 111.384 113.417 115.335 116.441 115.625 114.52 108.717 108.57 108.113 108.008 108.067 108.094 107.993 108.021 108.098 109.263 108.182 111.545 113.975 114.89 113.941 111.523 110.055 108.021 107.854 108.304 110.896 107.536 107.488 109.597 110.826 109.376 109.571 108.077 107.481 107.47 107.487 110.124 110.945 109.904 109.188 108.156 107.596 107.55 107.616 107.578 109.537 110.064 108.105 107.799 107.479 107.019 106.827 106.769 108.568 113.45 114.788 115.785 110.861 114.776 112.119 110.964 109.514 109.636 108.251 107.938 108.599 108.725 107.371 108.081 109.159 109.739 109.872 109.924 109.667 107.2 106.997 108.77 110.608 110.812 110.336 107.306 105.293 104.985 110.486 111.718 111.545 111.256 112.464 113.11 108.7 107.341 104.054 103.627 103.5 103.337 102.704 102.592 102.739 102.659 102.547 102.248 101.795 101.421 101.023 100.802 100.869 100.479 100.138 100.017 99.817 99.588 99.398 99.203 98.998 98.835 98.673 98.47 98.257 98.046 97.833 97.606 97.43 97.24 96.964 96.886 96.615 96.407 96.21 95.991 95.831 95.611 95.391 95.173 94.947 94.758 94.559 94.332 94.073 93.918 93.72 93.564 93.329 93.152 92.976
78.155 78.263 78.433 78.848 79.081 84.402 85.354 82.294 81.274 80.485 80.565 81.094 80.355 81.584 81.565 82.613 82.296 82.373 82.791 85.453 87.191 85.054 83.871 83.023 82.514 87.061 83.389 83.108 83.172 83.061 83.019 83.049 83.005 83.578 83.536 86.567 83.848 83.923 89.796 89.672 89.201 84.887 83.96 85.843 86.206 86.5 89.477 89.89 89.958 86.426 86.009 85.957 86.161 87.764 88.69 88.936 89.018 86.938 87.174 91.209 87.572 91.233 89.165 88.147 88.643 89.057 88.97 88.905 89.007 89.034 89.047 89.116 89.192 89.332 89.946 89.97 90.845 91.662 91.803 92.725 90.661 90.121 91.306 91.278 91.828 91.657 91.609 91.629 93.832 94.048 93.466 94.88 94.976 95.297 93.729 94.798 94.343 93.765 93.771 93.854 94.004 94.214 94.623 94.799 95.207 97.372 104.211 103.652 102.409 99.212 97.951 98.831 98.77 99.745 100.131 100.266 100.489 100.729 107.994 110.113 105.416 105.784 105.249 108.955 107.323 112.113 113.163 110.505 110.737 108.819 108.993 109.271 109.519 109.55 109.557 109.525 109.591 109.573 109.6 109.587 109.625 109.598 109.603 109.588 109.606 109.615 109.682 109.688 109.723 109.674 109.626 110.1 109.756 109.733 109.765 109.76 109.724 109.687 109.677 109.676 109.675 109.634 109.615 109.639 109.667 109.598 109.604 109.659 109.711 109.76 109.833 111.837 112.344 112.357 111.904 109.952 111.904 112.062 111.017 112.008 113.053 114.529 115.085 116.077 115.503 110.465 109.981 110.199 113.638 116.325 117.135 117.006 116.175 114.564 109.708 113.476 116.134 116.163 116.116 115.819 112.387 110.49 114.197 115.507 115.48 115.264 115.213 110.854 109.652 113.137 113.032 111.979 110.16 111.105 109.87 109.523 112.572 109.752 109.773 112.052 110.35 109.611 109.679 110.999 111.196 109.298 109.122 109.73 110.104 110.955 111.795 111.786 111.743 111.792 111.502 110.144 109.061 109.03 108.973 108.968 108.929 109.026 110.596 111.192 109.307 108.997 108.803 108.822 108.923 110.069 108.815 108.879 109.871 109.957 109.986 111.378 111.27 109.443 108.953 108.859 108.743 108.732 109.679 109.062 110.063 111.017 111.448 113.345 115.901 116.168 115.948 114.58 109.479 108.097 107.994 107.944 107.972 108.019 107.932 107.931 110.508 112.184 108.622 108.863 113.838 114.868 114.214 112.039 110.681 108.319 107.859 108.551 108.356 107.244 107.414 111.263 111.175 109.116 108.246 109.207 107.455 107.456 107.401 107.257 107.245 108.301 108.276 107.954 107.501 107.516 107.497 107.553 108.409 109.919 107.977 107.789 107.556 107.055 106.755 106.691 106.675 106.597 107.892 112.394 114.993 116.116 115.16 113.991 108.883 108.243 107.652 107.806 109.034 109.509 108.083 107.496 109.222 110.587 110.924 110.971 109.946 107.117 106.633 108.162 109.87 109.707 109.267 108.892 105.202 104.833 105.854 107.327 107.971 105.917 105.135 104.757 104.671 104.191 103.725 103.316 103.135 103.412 102.675 102.228 102.486 102.131 102.016 101.623 101.319 101.139 100.879 100.701 100.51 100.373 100.18 100.029 99.82 99.641 99.457 99.245 99.092 98.814 98.642 98.432 98.279 98.023 97.857 97.641 97.391 97.241 97.088 96.793 96.601 96.425 96.202 95.955 95.823 95.579 95.337 95.163 94.937 94.697 94.508 94.333 94.086 93.864 93.715 93.537 93.366 93.15 92.978
78.204 78.303 78.357 78.706 79.572 80.265 79.889 79.808 84.939 85.916 84.502 82.517 80.183 80.485 81.497 85.745 85.698 83.011 83.939 83.092 82.51 85.143 86.652 88.449 88.055 88.819 84.097 83.069 83.128 83.017 82.972 83.002 83.763 84.5 85.667 85.536 83.906 83.749 84.423 86.277 84.667 86.697 89.257 86.16 85.688 84.001 84.867 86.192 89.316 86.252 85.671 85.67 85.846 87.311 87.253 87.718 87.401 86.891 91.086 93.446 94.167 94.003 93.395 88.716 88.24 88.853 89.173 88.951 88.955 89.035 89.059 89.138 89.189 89.345 89.541 89.819 90.026 90.163 90.302 90.993 90.639 90.286 91.01 91.143 91.608 91.743 93.807 94.802 97.274 93.504 94.002 93.441 93.77 94.497 94.664 94.071 93.556 93.619 93.763 94.51 94.335 95.244 95.27 95.932 95.547 95.654 95.924 97.42 97.278 98.429 97.673 98.367 98.486 99.309 99.836 100.848 101.401 101.828 112.091 111.792 107.734 110.758 111.835 105.637 109.497 112.651 111.74 110.318 108.699 108.62 109.902 109.403 109.575 109.539 109.523 109.517 109.558 109.566 109.581 109.582 109.575 109.544 109.557 109.53 109.522 109.568 109.614 109.61 109.58 109.564 109.584 109.667 109.65 109.71 109.68 109.71 109.693 109.668 109.658 109.671 109.616 109.625 109.584 109.592 109.605 109.583 109.601 109.605 109.627 109.799 109.943 110.423 112.353 112.393 111.712 109.911 111.973 110.369 109.817 110.432 112.711 112.786 113.266 115.187 110.775 109.676 109.653 110.218 113.065 115.916 116.214 115.987 115.805 115.348 109.68 112.013 115.115 115.179 113.155 114.414 112.752 110.676 112.155 113.223 112.572 109.756 111.709 109.882 109.798 111.986 110.366 110.447 109.832 109.911 109.602 110.681 110.093 109.494 110.696 109.932 109.565 110.461 110.657 110.036 109.142 109.145 109.013 109.15 110.02 109.709 109.751 111.162 110.154 109.642 111.422 110.596 108.967 108.902 108.938 109.324 108.818 108.929 110.283 110.956 110.829 109.549 108.719 108.72 109.657 109.288 109.489 109.666 110.853 110.136 110.625 110.576 110.759 109.532 108.947 109.192 109.454 109.915 109.403 108.834 108.78 108.792 110.028 111.935 114.702 115.751 115.976 114.777 110.775 108.186 107.99 107.822 107.829 107.875 107.83 107.756 108.544 111.023 108.317 108.787 113.791 114.802 114.324 113.103 110.734 110.935 109.205 110.186 113.459 108.727 107.218 110.886 111.584 110.802 109.05 109.043 107.012 107.547 107.082 106.92 107.141 108.716 108.708 108.751 107.537 107.464 107.43 107.531 107.914 107.567 107.738 107.706 107.478 106.981 106.693 106.596 106.561 106.566 110.257 107.307 112.215 114.159 114.14 112.082 109.659 110.446 110.322 110.975 111.566 111.653 108.434 108.185 109.118 110.551 111.411 111.169 110.242 107.133 106.753 106.593 106.773 106.715 106.882 105.571 105.008 104.732 104.587 104.917 104.744 104.577 104.392 104.338 104.311 104.193 103.262 103.058 102.929 102.69 102.575 102.015 101.954 101.742 101.522 101.356 101.19 101.003 100.854 100.7 100.597 100.425 100.211 100.023 99.808 99.642 99.392 99.245 99.03 98.788 98.669 98.486 104.277 100.05 97.915 97.651 97.461 97.217 97.082 96.739 96.605 96.426 96.157 95.97 95.739 95.579 95.331 95.132 94.884 94.687 94.445 94.272 94.027 93.891 93.677 93.482 93.344 93.162 92.999
78.289 78.252 78.355 78.666 79.332 79.467 84.089 86.214 86.33 86.549 83.592 80.282 81.735 82.181 81.589 86.069 88.492 86.913 84.467 83.229 82.361 87.055 89.107 89.21 88.845 88.455 84.44 82.975 83.057 82.977 82.873 82.944 83.103 83.394 84.899 83.414 84.296 84.019 84.097 89.178 89.766 89.837 89.948 87.778 83.849 85.364 86.581 88.07 89.666 88.711 85.66 85.629 85.668 85.707 85.804 86.854 86.772 87.339 90.934 93.641 95.058 94.841 93.316 89.712 88.147 88.756 89.047 88.936 88.929 88.997 89.049 89.077 89.207 89.278 89.463 89.698 89.919 90.01 90.207 90.4 90.608 90.753 90.936 91.091 91.255 91.558 92.128 92.163 92.118 92.634 92.897 93.315 93.506 93.413 93.318 93.397 93.518 93.634 93.739 94.568 94.079 95.241 95.358 98.106 101.584 97.124 96.447 96.569 97.053 98.785 99.278 98.606 98.963 99.813 99.971 100.324 102.437 102.623 113.092 110.961 113.186 114.047 114.998 113.741 108.137 113.204 109.534 108.487 108.031 108.763 109.849 109.52 109.55 109.489 109.5 109.551 109.534 109.549 109.531 109.553 109.504 109.484 109.483 109.509 109.481 109.515 109.492 109.551 109.476 109.516 109.473 109.537 109.573 109.569 109.622 109.637 109.663 109.633 109.67 109.585 109.598 109.548 109.562 109.56 109.542 109.541 109.569 109.583 109.577 109.752 109.914 110.017 110.68 109.821 109.263 109.165 109.599 109.313 109.286 110.785 111.622 110.82 112.691 113.193 112.224 110.85 110.167 109.739 113.252 115.1 114.807 113.641 113.316 113.245 110.164 110.891 112.397 112.363 110.58 111.85 111.8 110.94 111.227 110.267 110.524 109.756 109.382 110.783 111.083 109.989 109.557 109.592 109.809 110.789 111.706 110.726 110.008 109.733 110.479 109.979 109.684 109.482 111.511 110.887 109.338 110.672 109.402 109.087 109.968 109.009 108.939 109.227 109.855 109.873 111.895 113.57 109.783 109.518 108.825 108.873 109.533 109.179 109.274 110.518 112.032 111.965 110.998 109.304 112.693 110.853 110.197 110.05 109.813 108.958 109.709 109.21 111.679 110.482 108.502 109.646 109.033 109.757 109.102 108.541 108.315 108.353 108.521 110.253 114.438 115.613 115.909 114.895 110.596 108.235 108.004 107.759 107.711 107.779 107.747 107.643 109.495 111.694 110.994 109.321 113.724 112.586 113.249 111.692 111.36 112.629 111.876 111.356 113.896 108.899 107.213 110.301 111.453 110.97 109.485 109.139 107.326 109.36 108.023 106.879 107.06 107.318 107.077 107.541 107.357 107.402 107.865 109.087 109.37 107.338 107.62 107.628 107.532 107.021 106.648 106.496 106.488 106.57 112.097 114.798 107.371 113.231 114.256 111.509 111.476 111.531 111.508 111.451 111.329 111.897 110.524 108.094 109.072 110.318 110.555 110.276 110.023 107.336 105.94 106.299 105.925 105.71 105.417 105.384 104.788 104.751 104.479 104.544 104.971 104.655 105.048 104.29 104.211 103.967 103.019 103.17 102.67 102.502 102.213 101.977 101.82 101.693 101.583 101.411 101.248 101.064 100.886 100.697 100.577 100.348 100.193 100.01 99.751 99.662 99.479 99.236 99.041 99.009 100.202 99.133 106.913 100.224 98.812 98.27 97.699 97.922 98.5 97.382 97.531 96.715 97.555 97.222 96.216 96.105 95.581 95.222 95.072 94.853 95.205 94.472 94.252 93.985 93.7 93.596 93.451 93.349 93.155
78.284 78.303 78.395 78.669 79.133 79.317 85.003 86.164 85.742 85.373 81.918 80.201 82.194 82.151 81.404 86.712 88.044 87.516 82.115 82.055 82.138 85.629 88.496 88.153 84.012 84.032 83.339 83.157 82.991 83.049 82.819 82.883 82.832 82.824 83.357 83.182 83.93 83.799 83.964 90.215 90.073 89.766 89.339 88.605 86.201 86.056 86.111 88.426 88.402 88.485 86.935 86.525 85.983 86.674 86.589 87.223 86.457 87.498 88.604 93.61 95.261 95.382 93.488 89.66 88.247 88.603 89.001 88.899 88.931 88.967 89.02 89.075 89.209 89.317 89.463 89.612 89.771 89.971 90.117 90.355 90.581 90.731 90.928 91.037 91.251 91.406 91.67 91.85 92.099 93.588 92.636 92.657 92.898 93.004 93.222 93.371 93.472 93.673 94.188 94.215 94.894 95.207 95.57 99.574 102.967 103.329 101.859 99.635 97.818 97.403 99.971 100.216 100.609 101.15 101.654 100.171 101.812 102.296 107.478 113.919 111.109 111.86 113.672 112.427 107.795 114.071 109.28 108.451 108.307 110.457 109.536 109.502 109.514 109.502 109.501 109.497 109.486 109.502 109.498 109.481 109.468 109.466 109.429 109.418 109.453 109.465 109.487 109.469 109.442 109.408 109.438 109.476 109.513 109.509 109.567 109.536 109.57 109.536 109.578 109.536 109.539 109.511 109.502 109.494 109.527 109.52 109.48 109.515 109.508 109.598 109.873 109.907 109.745 109.352 109.202 109.15 109.109 109.121 109.481 110.961 110.476 109.688 110.077 112.371 112.153 110.702 109.888 109.625 112.137 112.778 112.613 111.142 111.019 112.397 109.772 109.751 110.055 110.079 109.8 109.599 109.616 109.727 111.423 110.096 109.925 109.999 109.513 109.387 109.644 109.497 109.534 109.504 109.543 111.279 111.982 111.834 110.616 109.83 109.83 110.027 109.694 109.996 111.275 111.384 109.423 110.377 109.06 109.026 109.387 109.173 108.888 109.04 108.832 108.787 111.244 113.88 111.409 109.048 110.219 109.282 109.87 110.169 110.982 110.86 111.269 111.342 110.295 109.093 110.949 110.609 110.653 112.055 109.703 108.378 108.322 110.778 111.771 112.372 112.073 111.761 109.662 110.342 108.493 109.007 108.179 108.534 108.648 110.554 114.196 116.119 115.868 115.096 110.917 107.844 107.754 107.667 107.617 107.621 107.664 107.601 110.057 112.805 112.021 111.345 111.195 109.569 109.884 110.52 108.769 108.391 108.878 108.615 111.844 109.411 107.172 107.176 107.781 107.189 109.203 109.236 108.413 109.821 108.337 106.966 108.492 107.624 107.488 107.824 110.016 110.088 110.187 110.364 109.504 107.279 107.833 107.625 107.489 106.986 106.564 106.396 106.384 106.302 107.641 114.01 110.929 114.304 114.398 111.36 111.392 111.18 110.549 110.432 110.218 111.349 110.76 106.994 109.116 109.557 107.928 107.405 107.874 106.904 105.78 106.453 105.478 105.369 105.235 105.634 104.66 104.58 104.21 104.511 104.52 104.54 105.735 104.482 103.911 103.454 102.894 102.65 102.493 102.343 102.137 102.037 101.854 101.764 101.606 101.428 101.277 101.087 101.063 100.706 100.463 101.642 100.452 100.1 99.977 99.864 100.347 99.548 99.047 99.738 102.362 100.894 102.528 101.634 103.019 98.691 97.696 99.193 99.072 99.217 98.191 97.773 97.502 98.329 97.008 97.357 96.725 95.261 96.199 97.184 96.244 97.214 96.814 95.459 93.848 94.19 96.372 96.011 95.869
78.349 78.356 78.415 78.657 79.04 79.291 80.871 81.595 81.951 81.336 84 83.106 80.419 80.153 80.268 85.556 85.864 84.093 81.992 83.169 82.254 82.049 83.071 82.814 82.55 84.799 84.713 82.796 82.879 82.902 82.742 82.715 82.777 82.783 83.067 83.432 83.585 85.691 83.653 88.079 88.318 85.671 84.124 84.602 86.042 86.122 86.893 88.321 88.197 85.865 86.151 85.871 85.911 85.801 86.194 86.244 85.995 85.827 90.685 93.513 94.955 94.615 93.488 88.841 88.178 88.575 89.002 88.871 88.915 88.973 88.98 89.048 89.168 89.241 89.465 89.602 89.792 89.941 90.184 90.337 90.548 90.752 90.969 91.128 91.294 91.506 91.689 91.911 92.043 92.251 92.428 92.594 92.807 93.008 93.219 93.376 93.537 93.675 95.087 94.318 95.456 96.06 97.691 102.158 103.541 104.277 103.745 103.08 98.587 97.691 98 98.752 100.831 103.516 103.416 102.607 102.439 105.141 106.523 105.176 104.605 106.368 107.517 110.643 109.292 112.428 111.473 110.848 109.485 110.027 109.986 109.481 109.444 109.417 109.43 109.418 109.42 109.368 109.401 109.399 109.435 109.392 109.356 109.392 109.439 109.41 109.463 109.397 109.398 109.371 109.372 109.418 109.435 109.454 109.48 109.476 109.493 109.503 109.474 109.491 109.446 109.455 109.456 109.524 109.506 109.508 109.447 109.492 109.464 109.53 109.896 109.784 109.325 109.162 109.157 109.114 109.104 109.048 110.364 110.427 109.079 109.49 109.726 109.775 110.088 109.732 109.701 109.379 110.101 110.591 109.789 110.185 110.227 110.925 111.887 110.208 109.714 109.599 110.509 109.675 110.563 111.611 109.917 109.355 110.415 111.541 109.128 109.073 109.307 109.81 109.457 109.52 109.759 111.389 111.948 111.747 111.683 109.864 109.85 110.182 110.153 111.724 111.41 111.303 109.202 110.897 109.913 109.596 109.451 109.069 108.943 109.201 109.771 108.885 110.178 113.198 112.178 109.455 108.539 108.382 108.659 110.033 112.698 112.558 111.705 109.21 108.651 108.236 108.717 108.32 111.412 113.859 112.282 108.463 108.251 108.278 110.108 111.425 112.378 112.058 108.631 110.397 109.144 108.301 108.016 108.592 108.474 110.181 113.935 115.166 115.998 114.943 113.788 107.87 107.737 107.555 107.512 107.558 107.609 107.496 108.537 112.613 112.293 108.432 107.415 107.763 107.332 107.3 108.698 109.383 109.154 108.572 109.795 109.218 109.207 107.073 108.33 108.678 107.974 108.603 107.318 110.079 111.232 111.044 110.64 108.549 107.551 107.34 109.839 110.834 111.139 111.204 110.57 107.765 107.555 107.564 107.439 106.932 106.508 106.313 106.299 106.219 106.352 107.66 108.768 108.661 110.985 111.041 111.118 111.357 108.862 108.179 109.534 110.842 110.728 106.959 108.073 107.089 106.709 106.398 106.164 105.791 105.412 106.024 105.316 105.129 105.014 105.204 104.682 104.267 103.969 104.344 104.541 104.406 103.899 103.417 103.161 102.989 102.77 102.62 102.531 102.368 102.208 102.116 101.918 101.767 101.656 101.406 101.255 101.074 102.462 102.987 100.579 100.548 102.093 100.674 100.232 99.508 99.471 99.285 99.024 98.925 99.656 100.073 98.68 99.83 103.199 99.04 97.638 99.303 98.058 97.834 97.28 97.135 96.928 96.773 96.568 96.413 96.222 95.36 95.305 96.985 95.111 94.988 94.902 94.559 93.957 94.103 94.692 95.125 95.841
78.391 78.4 78.431 78.475 78.882 79.21 79.389 82.839 82.008 85.328 86.282 83.434 80.316 80.16 81.346 82.513 84.18 83.833 83.968 84.222 82.601 84.867 87.736 86.995 87.236 85.084 84.504 82.646 82.705 83.205 82.664 82.663 82.735 82.759 82.863 83.298 86.19 86.212 84.375 83.346 84.286 87.516 85.153 83.603 85.1 87.115 87.18 89.174 86.687 85.767 85.893 86.472 85.832 85.836 86.033 86.727 86.207 86.312 91.123 93.471 94.183 94.1 93.371 89.79 88.132 88.718 88.949 88.824 88.901 88.904 88.98 89.054 89.127 89.276 89.39 89.534 89.697 89.932 90.162 90.375 90.55 90.737 90.969 91.103 91.343 91.51 91.684 91.9 92.096 92.31 92.493 92.69 92.87 93.031 93.236 93.423 93.63 93.732 94.692 95.116 95.252 95.825 98.997 103.047 104.416 104.563 103.956 98.788 97.29 97.881 98.164 99.466 100.363 100.522 104.07 105.052 105.146 106.264 105.703 106.526 105.222 105.859 110.889 111.212 111.767 114.778 115.05 110.34 111.545 109.015 109.397 109.396 109.427 109.376 109.359 109.35 109.38 109.349 109.388 109.369 109.401 109.367 109.367 109.364 109.371 109.353 109.381 109.335 109.338 109.321 109.316 109.38 109.375 109.378 109.409 109.409 109.424 109.488 109.437 109.447 109.424 109.439 109.432 109.442 109.451 109.46 109.439 109.383 109.417 109.926 110.249 110.17 109.271 109.214 109.156 109.133 109.122 110.29 109.833 108.897 108.865 108.856 108.993 109.624 109.712 109.683 109.235 109.219 109.304 109.967 109.733 110.251 113.652 111.267 111.83 109.733 108.997 109.026 109.356 109.027 109.493 111.592 109.577 109.037 112.026 113.338 110.631 109.423 109.219 109.343 109.401 109.401 109.647 109.625 110.295 110.233 111.308 109.98 109.99 110.123 110.981 111.632 111.013 109.766 109.398 111.948 113.117 111.49 110.438 110.796 110.939 110.222 110.421 110.551 109.13 110.353 109.887 110.09 108.39 109.074 109.7 108.648 111.503 111.426 108.946 108.274 108.181 108.482 108.104 108.135 108.013 112.56 113.449 108.899 108.235 108.144 110.586 111.024 111.357 111.593 109.786 109.143 111.265 110.824 108.616 108.055 108.167 110.023 113.543 114.847 115.959 115.166 113.5 108.783 107.657 107.519 107.437 107.534 107.472 107.452 107.443 108.945 108.246 107.569 107.431 107.676 107.281 107.238 107.67 109.362 109.344 109.107 108.452 107.652 107.984 109.494 109.454 109.991 109.348 107.402 106.857 110.197 111.451 111.995 110.921 109.802 107.165 107.137 110.074 111.689 112.21 111.723 110.685 107.708 108.192 107.557 107.459 106.945 106.444 106.238 106.197 106.179 106.283 106.58 106.898 107.124 111.042 110.691 110.114 109.144 108.362 108.963 107.84 107.926 107.631 106.308 106.932 106.086 105.931 105.839 105.899 105.419 105.162 105.92 105.268 105.12 105.14 105.165 104.56 104.023 103.855 103.728 103.645 103.497 103.297 103.154 103.041 102.901 102.792 102.724 102.549 102.414 102.249 102.137 101.953 101.796 101.611 101.877 105.032 106.339 102.801 101.248 110.734 100.68 101.991 99.767 99.827 99.518 99.278 99.104 99.006 98.868 98.806 98.71 98.664 98.606 98.966 100.212 97.666 98.42 98.147 97.431 97.297 97.127 96.954 96.793 96.6 96.362 96.468 95.428 95.328 95.944 95.111 95.032 94.9 94.753 94.087 94.104 94.177 94.263 94.324
78.44 78.491 78.459 78.471 78.763 79.209 79.397 84.905 86.537 86.499 86.288 85.932 80.834 81.814 82.503 82.453 84.21 83.86 84.342 85.08 82.556 83.071 87.848 88.808 88.043 85.558 84.948 84.269 82.943 82.699 82.58 82.578 82.617 82.598 82.812 82.938 83.808 83.549 86.895 87.619 89.318 89.609 87.943 83.628 83.977 84.778 86.799 88.035 88.26 86.427 85.866 85.878 85.886 85.911 85.951 86.071 86.284 86.445 90.812 89.584 91.315 90.111 92.718 90.486 89.606 88.632 88.785 88.774 88.876 88.915 88.957 89 89.111 89.205 89.374 89.609 89.902 90.132 90.796 90.395 90.596 90.854 91.086 91.233 91.448 91.633 91.786 91.947 92.133 92.429 92.577 92.816 92.981 93.139 93.317 93.548 93.732 93.967 94.954 95.067 95.43 98.222 101.932 103.501 104.646 104.221 103.241 98.659 97.702 98.046 98.266 100.187 99.561 100.167 101.277 105.32 105.149 107.894 108.823 107.213 105.739 106.39 110.036 111.478 113.039 114.968 115.114 113.621 112.061 110.202 109.37 109.332 109.375 109.324 109.327 109.326 109.306 109.292 109.297 109.346 109.317 109.378 109.317 109.317 109.308 109.338 109.32 109.318 109.266 109.284 109.272 109.341 109.344 109.393 109.357 109.387 109.392 109.363 109.413 109.41 109.37 109.373 109.432 109.411 109.429 109.428 109.413 109.368 109.423 109.571 111.312 111.179 109.708 109.166 109.129 109.133 109.877 110.767 109.032 108.874 108.81 108.766 108.731 109.108 109.236 109.185 109.073 109.036 109.019 109.101 109.058 109.324 109.131 109.309 111.707 110.081 108.971 108.933 109.926 109.034 109.008 111.742 109.425 109.045 114 114.155 110.424 109.05 109.184 110.328 109.47 109.361 109.862 109.826 109.956 110.825 111.008 110.659 110.552 111.164 110.861 111.524 111.478 110.075 110.442 111.443 112.557 110.916 111.365 110.458 108.776 109.95 110.491 108.714 108.797 108.823 109.06 108.916 108.323 108.311 109.838 108.405 108.386 108.333 109.618 108.547 108.351 108.074 108.028 108.027 107.917 110.727 112.329 108.805 108.25 108.173 109.077 110.603 109.692 110.711 109.063 108.262 110.187 111.939 110.181 108.221 109.268 109.506 112.076 111.01 111.45 113.756 113.686 108.428 107.496 107.422 107.318 107.374 107.395 107.408 107.379 109.047 108.999 107.7 107.353 108.043 107.899 107.657 109.317 109.199 107.707 109.243 109.355 109.389 110.168 110.94 111.019 110.861 109.647 107.018 107.146 110.008 111.184 112.151 111.069 109.435 107.027 107.17 109.874 111.628 112.122 111.98 110.835 107.739 107.842 107.541 107.475 107.124 106.405 106.148 106.091 106.063 106.176 106.402 106.76 106.867 107.65 110.932 109.674 107.667 107.951 107.866 107.725 107.914 107.251 106.531 108.112 106.517 105.907 106.122 105.855 104.97 104.836 105.492 105.297 104.876 104.425 104.269 104.024 103.926 103.75 103.643 103.522 103.418 103.244 103.2 103.068 102.923 102.866 102.762 102.627 102.497 102.328 102.153 101.936 101.757 101.871 112.838 112.905 114.125 111.862 101.194 100.387 100.702 109.008 106.244 101.492 99.705 99.173 98.987 98.926 98.873 98.948 99.883 98.811 98.583 99.334 100.391 97.697 97.607 98.036 97.45 97.35 97.155 96.949 96.724 96.565 96.332 96.045 95.554 95.472 96.862 95.126 95.027 94.914 94.805 94.247 94.211 94.263 94.34 94.359
78.977 78.499 78.486 78.497 78.658 79.134 79.47 81.246 85.958 85.596 81.453 81.533 80.249 80.345 80.988 80.907 83.49 83.483 83.529 83.996 82.225 82.308 86.051 88.53 88.289 86.583 82.929 82.533 82.511 82.825 82.439 82.516 82.501 82.583 82.66 82.887 83.095 83.29 88.362 89.863 89.567 89.573 88.886 84.145 84.021 86.125 86.138 86.188 88.15 86.136 86.293 86.664 86.587 85.967 86.049 86.117 86.734 87.275 86.58 86.738 87.175 87.528 90.306 90.685 91.322 89.363 89.268 88.728 88.872 88.901 88.958 88.984 89.065 89.167 89.432 90.111 90.064 90.216 90.422 90.475 91.074 91.667 92.086 91.661 91.73 92.124 91.888 92.201 92.34 93.354 92.853 93.571 93.407 93.636 93.486 93.905 94.576 94.412 94.456 94.698 95.34 99.439 103.098 103.849 104.602 103.689 102.829 99.389 98.437 98.121 99.594 99.717 99.717 100.412 101.155 102.912 102.908 105.063 111.286 109.493 107.922 107.459 107.722 113.358 112.05 114.7 111.328 113.339 111.871 109.533 109.278 109.284 109.274 109.261 109.291 109.26 109.269 109.301 109.266 109.307 109.314 109.333 109.299 109.311 109.303 109.331 109.279 109.288 109.187 109.219 109.246 109.249 109.279 109.297 109.336 109.339 109.369 109.368 109.384 109.323 109.349 109.348 109.353 109.393 109.378 109.324 109.322 109.28 109.361 109.44 111.544 109.299 109.282 109.113 109.103 109.071 110.26 109.306 108.754 108.684 108.695 108.659 108.692 108.714 112.369 109.736 109.031 108.878 108.994 109.017 108.944 108.933 108.759 108.818 108.879 109.32 108.814 108.846 108.953 108.967 108.881 109.011 109.712 109.102 110.403 110.975 110.327 109.371 110.107 111.08 109.708 109.445 111.208 111.512 111.61 111.545 111.979 111.426 111.425 110.385 110.516 110.479 109.791 109.215 110.378 111.004 112.544 113.465 109.41 110.124 112.202 111.05 109.248 108.525 108.513 108.652 109.942 108.721 108.224 108.172 108.855 109.382 108.405 108.799 109.172 109.238 108.922 108.047 107.958 107.97 108.419 111.087 111.386 108.056 108.573 108.001 108.166 108.8 108.373 108.225 108.864 108.041 108.452 111.37 109.97 108.544 109.121 107.963 107.768 107.772 107.63 109.261 108.16 107.508 107.423 107.314 107.311 107.209 107.282 107.259 107.265 108.72 108.258 107.62 107.34 107.194 107.228 106.954 109.295 107.704 106.915 109.838 109.056 107.589 110.715 111.778 111.882 111.357 109.805 107.481 107.803 109.642 111.098 111.69 111.261 110.186 107.015 108.183 109.389 111.118 110.963 110.932 110.706 107.518 107.61 107.478 107.393 107.018 106.31 106.095 106.042 106.041 106.115 106.321 106.547 106.705 106.71 110.073 108.748 107.901 107.853 108.08 107.079 107.199 108.367 106.332 106.022 105.811 105.731 105.183 105.069 104.861 104.631 104.587 104.42 104.38 104.235 104.243 103.964 103.797 103.742 103.614 103.563 103.443 103.34 103.212 103.126 103.023 102.89 102.757 102.658 102.468 102.308 102.115 102.002 101.91 106.076 111.733 113.956 114.471 110.306 104.202 99.866 103.121 108.451 107.596 105.464 102.501 99.099 98.989 98.89 98.82 104.509 106.401 106.617 100.612 98.781 99.487 98.275 97.557 98.081 97.433 97.304 97.148 96.9 96.643 96.391 96.153 96.322 95.583 95.456 95.842 95.642 95.032 94.923 94.833 94.338 94.344 94.39 94.408 94.44
78.636 78.968 78.514 78.555 78.653 79.032 79.402 79.794 80.362 80.408 79.857 83.618 86.333 82.533 80.404 80.529 83.435 83.475 83.414 83.501 82.834 81.723 83.212 87.957 88.595 86.731 83.405 83.433 83.066 82.496 82.339 82.391 82.458 82.502 82.641 82.97 83.152 83.283 87.452 88.927 87.835 84.566 84.872 83.458 84.163 85.042 84.598 84.552 87.813 86.09 85.744 85.749 85.912 86.908 87.655 86.234 87.182 88.845 87.339 89.449 90.066 91.017 91.264 91.097 89.508 91.024 88.814 88.79 88.835 88.879 88.938 88.945 89.038 89.231 89.464 89.672 89.949 90.125 90.435 92.021 91.703 91.421 91.808 91.451 91.531 91.908 91.906 92.148 92.784 93.336 93.587 93.987 93.834 94.008 93.765 94.044 94.45 94.847 97.013 97.133 95.291 97.112 102.55 103.026 103.596 103.434 100.609 99.434 99.077 99.023 98.822 99.559 99.804 100.65 102.747 103.672 103.901 107.338 110.701 110.784 111.145 110.922 112.457 114.461 115.901 115.259 113.297 113.564 110.889 109.294 109.205 109.265 109.268 109.265 109.236 109.269 109.252 109.291 109.275 109.321 109.3 109.302 109.281 109.275 109.307 109.247 109.23 109.185 109.188 109.193 109.222 109.204 109.248 109.295 109.321 109.325 109.294 109.313 109.333 109.347 109.283 109.334 109.315 109.373 109.351 109.318 109.261 109.269 109.322 109.356 111.73 109.934 110.057 109.079 109.137 109.851 110.569 108.714 108.664 108.637 108.739 108.616 108.555 111.483 113.121 114.186 110.325 108.815 108.854 108.864 108.839 110.51 109.247 108.8 108.82 110.427 109.153 108.909 109.046 110.13 108.928 112.546 113.352 110.848 109.569 110.972 112.978 111.508 111.263 110.991 110.424 109.999 110.342 110.775 109.932 109.831 110.594 110.39 111.377 113.078 110.129 110.01 110.291 109.528 109.392 109.199 108.934 109.591 109.728 109.731 110.21 111.108 108.841 108.058 108.046 108.028 109.663 108.768 108.163 108.172 108.235 108.551 108.768 109.759 109.633 109.814 109.43 108.086 107.953 107.89 107.981 108.686 111.399 108.286 107.875 108.063 107.93 108.474 108.014 108.341 108.746 108.086 108.038 110.428 109.469 107.887 108.266 109.081 108.029 107.768 107.965 108.671 108.576 107.602 108.811 107.455 107.216 107.161 107.202 107.131 107.165 108.638 108.32 107.234 107.127 107.173 113.276 112.326 113.548 107.937 107.191 109.147 109.982 107.975 110.662 111.75 111.893 111.449 110.528 107.486 107.519 110.571 110.536 110.646 110.337 110.224 107.528 108.498 108.89 108.152 109.934 108.626 108.155 106.889 107.532 107.361 107.291 106.822 106.256 105.996 105.98 106.01 105.993 106.074 106.315 106.397 106.772 109.771 109.774 108.694 107.475 106.945 107.494 107.544 107.952 106.039 105.21 105.113 104.924 104.876 104.814 104.713 104.492 104.414 104.312 104.206 104.143 104.093 103.976 103.89 103.768 103.633 103.553 103.446 103.372 103.27 103.114 103.049 102.916 102.837 102.659 102.501 102.306 102.207 102.149 103.427 103.887 109.743 105.488 114.204 108.943 106.773 106.447 108.974 109.584 108.337 107.154 104.605 102.418 99.129 98.875 98.96 108.363 110.691 111.491 108.803 98.635 99.933 98.594 97.477 97.465 97.403 97.215 97.028 96.774 96.488 96.226 96.143 95.813 95.639 95.565 95.58 95.892 95.022 94.931 94.812 94.45 94.426 94.482 94.495 94.49
78.672 78.929 78.586 78.579 78.621 78.855 79.351 79.62 79.896 79.872 83.879 86.473 86.891 85.01 80.486 80.408 82.658 83.524 83.456 83.402 81.976 82.46 83.623 84.587 85.505 84.698 83.061 83.723 82.777 82.195 82.175 82.288 82.382 82.431 83.019 82.901 83.225 83.317 83.406 84.808 83.637 87.972 86.368 85.805 83.641 83.69 84.359 84.53 86.792 85.85 85.877 85.793 85.868 90.388 88.997 89.914 90.102 90.196 90.053 90.238 90.628 88.804 88.487 88.366 88.373 88.676 89.134 88.772 88.856 88.912 88.944 88.924 89.064 89.847 89.842 89.884 91.574 93.439 92.287 94.393 91.19 91.487 90.885 91.407 91.538 91.925 93.16 92.545 92.938 94.954 96.23 96.502 94.409 94.24 93.992 94.254 94.434 95.186 97.923 98.048 95.555 95.687 96.073 97.315 101.425 98.973 97.884 97.582 98.675 99.287 99.789 99.715 101.611 101.735 105.172 102.63 103.365 104.045 110.887 111.297 110.93 112.939 114.643 116.401 116.224 114.944 113.178 111.916 109.593 109.205 109.177 109.25 109.232 109.193 109.224 109.207 109.24 109.222 109.273 109.256 109.276 109.271 109.28 109.241 109.249 109.219 109.251 109.164 109.177 109.161 109.191 109.175 109.189 109.236 109.264 109.274 109.291 109.288 109.255 109.273 109.259 109.292 109.263 109.258 109.293 109.248 109.205 109.218 109.293 109.279 111.377 111.58 112.156 111.023 109.369 108.969 108.719 108.68 108.636 112.092 110.531 113.84 113.906 112.15 112.973 111.476 108.771 108.768 108.738 108.852 108.841 109.242 110.776 109.225 112.579 110.896 114.839 111.146 111.376 111.332 110.851 110.212 112.895 111.908 111.148 110.719 110.792 109.696 110.193 110.996 110.04 109.676 109.058 109.451 109.498 111.64 111.868 109.544 112.671 115.682 111.298 109.586 110.009 109.054 109.014 110.019 108.799 109.008 108.459 108.353 108.33 108.488 108.977 108.047 107.982 108.011 108.201 108.306 108.097 108.114 108.334 108.446 108.973 109.85 109.767 109.774 109.814 108.373 107.972 107.812 107.738 107.85 111.091 108.367 107.803 108.141 107.809 107.835 107.951 108.776 107.863 108.814 108.284 109.863 109.39 108.208 108.19 107.828 108.281 108.374 109.03 109.558 108.532 107.443 107.338 107.339 107.141 107.031 107.125 107.087 107.063 107.351 109.319 107.216 107.066 108.23 113.448 114.501 113.838 111.364 106.867 108.807 110.562 107.883 110.25 110.993 110.839 110.729 110.427 107.355 107.999 108.904 108.268 107.646 107.117 107.384 106.754 108.22 107.393 107.178 107.137 107.398 107.139 107.022 107.45 107.305 107.018 106.386 106.116 105.928 106 105.932 105.916 105.951 106.033 106.044 106.093 108.565 108.654 107.998 107.224 106.188 105.727 105.835 105.345 105.18 105.05 105.019 104.895 104.82 104.728 104.567 104.507 104.436 104.379 104.293 104.206 104.08 103.967 103.871 103.77 103.655 103.537 103.386 103.325 103.22 103.162 103.083 102.959 102.797 102.626 102.478 102.456 103.838 104.237 102.604 101.997 101.463 109.72 108.505 109.915 105.294 106.989 108.404 109.55 109.079 107.708 108.451 109.481 99.945 98.858 98.81 106.403 110.76 105.322 107.435 98.658 98.547 100.31 97.447 97.362 97.332 97.151 96.939 96.689 96.447 96.369 95.981 95.831 95.746 95.655 95.658 96.062 95.014 94.9 94.866 94.651 94.586 94.575 94.604 94.594
78.691 78.709 78.63 78.665 78.648 79.253 80.171 80.031 79.796 79.745 80.069 85.653 86.911 86.184 81.517 80.414 80.798 83.12 83.57 82.242 82.407 86.36 82.15 83.046 81.881 81.838 83.735 82.056 82.281 82.01 82.111 82.238 82.26 82.389 82.601 82.878 83.11 83.272 83.274 86.475 89.235 89.749 89.9 89.612 84.344 83.565 84.169 84.565 84.88 85.94 86.375 87.067 88.539 93.856 93.874 92.799 89.403 88.104 87.393 87.542 87.475 87.671 87.902 88.129 88.4 88.683 88.831 88.779 88.839 88.918 88.962 90.607 89.085 89.774 89.909 89.957 90.15 94.828 97.13 97.179 96.558 91.698 90.867 91.31 91.871 92.017 94.197 93.173 92.96 93.595 95.687 97.559 94.946 95.182 94.287 94.455 94.657 95.324 95.506 95.743 101.766 96.461 96.262 96.606 96.626 97.641 96.916 98.436 98.96 99.053 99.192 102.209 106.181 105.706 104.105 102.97 103.689 107.708 112.859 109.812 110.219 112.526 115.904 117.177 116.227 114.276 112.288 111.943 109.235 109.14 109.165 109.202 109.21 109.187 109.209 109.179 109.225 109.242 109.26 109.266 109.282 109.267 109.274 109.192 109.144 109.185 109.16 109.185 109.138 109.129 109.1 109.136 109.111 109.156 109.184 109.233 109.291 109.238 109.197 109.234 109.27 109.215 109.252 109.239 109.274 109.199 109.195 109.162 109.237 109.28 111.205 111.309 110.49 112.242 110.526 109.026 108.74 109.067 115.706 116.545 118.65 119.993 118.224 110.75 110.552 110.134 108.71 108.698 110.928 112.7 112.02 110.261 109.684 110.119 112.48 114.099 114.927 109.35 109.093 110.2 109.038 108.567 109.482 109.178 109.085 110.7 111.036 110.122 109.186 109.142 108.904 108.882 109.07 108.94 111.963 113.476 114.233 112.559 112.665 114.71 110.236 109.267 109.32 108.924 108.354 109.904 110.07 112.273 110.368 108.133 109.22 111.373 110.14 108.026 107.936 107.824 107.828 108.936 108.226 107.809 108.028 108.267 108.086 109.684 109.816 109.822 109.863 108.246 107.933 107.652 107.825 107.687 110.099 108.17 107.732 107.734 107.651 108.552 107.98 107.966 107.604 107.673 107.537 109.49 109.443 107.966 109.707 109.856 107.593 107.436 108.034 108.135 107.626 108.124 107.614 108.399 107.091 106.97 107.032 106.992 106.938 107.107 109.24 107.34 107.002 111.261 114.285 114.464 114.263 113.493 106.847 107.826 110.776 110.724 109.933 110.088 109.71 109.702 108.114 106.709 107.495 106.825 106.796 106.841 106.824 107.138 106.575 106.556 107.439 107.11 107.097 107.108 107.096 107.099 107.312 107.298 106.49 106.126 106.001 105.868 105.893 105.883 105.882 105.852 105.823 105.784 105.792 105.671 105.703 105.709 105.63 105.6 105.362 105.391 105.217 105.147 105.012 104.973 104.919 104.858 104.768 104.683 104.596 104.538 104.361 104.264 104.163 104.057 103.944 104.529 103.723 104.012 103.523 103.431 103.376 103.264 103.154 103.063 102.94 102.784 102.645 102.685 103.722 104.84 102.949 101.849 101.441 101.103 104.101 100.9 100.805 100.541 106.244 107.512 109.033 109.814 109.174 110.223 109.426 103.876 98.88 98.68 105.07 104.461 109.083 99.774 98.545 99.236 100.556 97.604 97.238 97.216 97.108 96.866 96.598 96.351 96.198 96.006 95.92 96.302 96.725 96.02 97.058 95.209 94.856 94.767 94.723 95.863 94.729 94.689 94.688
80.971 80.639 78.818 78.714 78.768 78.839 79.919 79.705 79.573 79.761 79.873 84.144 86.607 86.453 82.16 80.487 81.405 81.545 81.609 81.046 82.052 87.61 89.577 84.736 84.231 81.803 83.187 81.867 81.844 81.956 82.068 82.157 82.198 82.411 82.67 82.889 83.068 83.257 83.271 86.106 89.698 89.551 89.091 88.628 84.45 84.204 85.353 84.978 86.882 86.57 87.592 87.798 86.82 87.231 87.867 86.343 86.582 86.77 87.001 87.196 87.46 87.633 87.878 88.126 88.592 88.928 89.002 88.933 88.864 88.902 88.953 91.346 89.125 90.095 89.901 89.974 90.324 95.457 97.367 97.904 96.429 91.171 91.224 91.416 91.916 93.497 94.144 93.681 93.146 93.457 94.212 94.893 94.981 94.605 94.467 94.56 95.345 95.42 100.537 102.721 103.636 102.142 96.536 96.882 96.746 96.91 97.175 97.848 99.026 99.06 103.463 105.884 107.562 107.798 105.975 102.987 104.363 104.996 107.081 106.969 106.037 110.078 112.637 109.806 109.825 110.683 110.447 110.07 109.139 109.146 109.138 109.19 109.181 109.15 109.18 109.163 109.156 109.214 109.197 109.22 109.259 109.243 109.175 109.216 109.125 109.136 109.107 109.1 109.09 109.105 109.123 109.067 109.087 109.092 109.128 109.177 109.206 109.163 109.191 109.165 109.176 109.21 109.153 109.168 109.167 109.146 109.125 109.174 109.195 109.224 111.041 111.232 109.984 110.913 110.057 109.016 114.949 120.322 119.73 119.971 120.459 121.863 121.427 115.189 109.748 108.957 109.001 110.118 112.152 111.458 111.585 109.238 109.766 108.629 108.613 110.231 109.441 108.597 109.113 108.862 108.747 108.501 108.854 108.712 108.709 112.176 112.391 110.281 109.583 108.608 108.911 108.97 108.948 108.867 111.018 113.065 112.974 109.08 109.165 109.857 109.237 109.051 109.509 109.074 108.974 110.23 110.308 111.242 108.744 107.981 108.128 112.664 111.692 107.973 107.799 107.808 107.678 109.445 109.583 107.692 107.6 108.012 107.542 108.016 108.228 108.158 107.772 109.114 109.472 110.079 110.544 108.76 109.424 108.131 107.677 107.627 107.642 107.618 107.684 107.579 108.962 107.67 110.017 110.341 111.301 111.391 112.663 112.093 112.054 109.643 107.443 108.498 107.445 107.579 107.446 109.671 108.087 106.958 106.892 106.85 106.807 106.953 109.254 108.614 109.178 111.619 112.757 109.526 110.178 110.6 107.276 107.38 109.15 108.485 107.222 106.974 106.69 107.384 106.786 106.669 107.454 106.706 106.778 106.843 106.807 106.784 106.553 106.278 107.311 107.02 107.069 107.729 107.418 106.945 106.293 106.368 105.997 105.915 105.865 105.864 105.81 105.824 105.795 105.773 105.74 105.66 105.657 105.57 105.543 105.496 105.483 105.408 105.347 105.279 105.233 105.164 105.095 105.023 104.937 104.866 104.787 104.67 104.574 104.458 104.371 107.711 111.237 106.101 108.986 114.088 117.62 115.62 106.369 103.637 103.285 103.197 103.062 102.986 103.049 103.547 102.772 104.46 106.62 104.923 102.138 101.475 101.075 100.919 100.79 101.176 100.269 99.94 105.036 108.065 108.679 109.967 110.316 109.18 108.172 103.332 99.07 98.653 98.653 101.121 99.658 98.531 98.822 99.067 100.374 98.282 97.19 97.097 96.974 96.736 96.473 96.225 96.115 96.209 96.04 97.1 97.185 96.647 96.699 95.115 97.577 94.981 97.74 98.605 96.052 98.792 95.017
78.972 79.392 79.363 78.823 78.808 78.835 79.134 79.538 79.617 79.772 79.953 81.627 82.986 82.628 81.874 80.905 80.654 80.793 80.746 81.217 86.704 89.84 86.486 82.543 86.15 85.086 81.716 81.684 81.766 81.854 81.976 82.024 82.247 82.482 82.676 82.867 82.993 83.187 83.307 83.603 88.721 88.365 85.844 84.837 84.33 84.547 84.849 85.316 85.094 85.386 85.246 85.434 85.663 85.897 86.131 86.338 86.561 86.754 86.925 87.198 87.421 87.67 87.875 88.121 89.344 89.678 89.338 88.939 88.866 88.923 88.92 90.622 89.29 89.982 89.87 89.988 90.261 94.789 97.469 97.638 96.435 91.793 91.352 92.081 92.013 92.69 93.004 93 93.332 93.815 94.888 94.923 95.171 94.684 94.747 94.797 99.132 101.844 103.244 104.048 103.653 102.214 98.028 96.896 97.459 97.094 97.312 99.49 99.573 99.352 106.635 107.048 106.837 105.312 106.042 107.004 108.314 108.138 107.105 106.511 106.523 109.742 108.856 110.275 108.756 111.005 109.845 109.093 109.127 109.111 109.124 109.155 109.125 109.172 109.113 109.147 109.121 109.209 109.211 109.228 109.214 109.223 109.159 109.136 109.102 109.106 109.133 109.076 109.115 109.069 109.059 109.026 109.061 109.026 109.059 109.083 109.101 109.169 109.141 109.149 109.119 109.162 109.133 109.168 109.119 109.089 109.061 109.081 109.14 109.169 109.211 111.742 109.431 111.628 109.273 117.9 120.043 120.302 120.723 121.584 120.99 121.731 120.304 114.804 109.055 108.44 108.677 109.12 109.395 108.579 110.425 109.44 108.809 108.683 108.442 109.075 108.439 108.403 108.384 108.629 108.503 108.494 110.064 108.89 108.619 110.743 111.412 109.994 108.479 108.495 108.55 109.956 108.752 108.65 109.049 109.706 109.713 109.22 109.183 110.481 108.807 108.99 109.115 108.886 109.515 110.286 110.251 109.802 108.946 107.924 107.936 108.95 109.077 108.382 107.713 107.72 107.591 109.17 109.646 107.655 107.538 109.505 109.298 107.982 107.486 107.449 109.805 110.843 111.555 111.75 111.353 110.032 110.588 109.838 107.813 110.978 109.399 111.563 107.946 107.586 111.582 112.056 112.505 112.785 113.695 113.176 113.732 113.549 113.877 110.855 109.254 107.975 107.54 107.351 107.233 108.845 109.565 106.914 106.805 106.815 106.773 106.848 109.177 109.557 109.706 109.4 109.057 106.75 106.672 106.891 106.55 107.286 109.252 109.056 108.48 108.242 107.741 108.134 106.998 106.617 107.859 108.85 107.47 106.839 106.741 107.256 107.392 106.392 106.525 106.872 106.203 106.189 105.949 105.944 105.874 105.9 105.86 105.848 105.843 105.797 105.802 105.783 105.737 105.708 105.707 105.675 105.677 105.623 105.564 105.524 105.471 105.427 105.334 105.326 105.221 105.164 105.082 105.027 104.942 104.839 104.771 104.639 104.549 104.448 106.299 114.259 114.409 118.373 112.781 119.648 120.607 119.801 107.751 106.322 103.15 103.043 102.93 106.579 105.687 102.889 105.263 108.696 109.116 104.304 101.576 101.061 110.352 105.493 103.993 100.534 100.01 99.331 99.931 109.622 110 109.566 110.076 109.67 108.721 107.543 99.316 98.834 98.697 98.595 98.546 98.597 101.601 101.266 99.973 100.48 97.173 96.973 96.768 96.548 96.29 96.253 101.391 101.915 98.284 96.402 96.527 100.445 96.314 95.788 98.073 101 101.402 101.523 101.599 100.6 98.119
78.966 82.259 79.357 78.889 78.966 78.924 79.103 79.257 79.583 79.762 79.918 80.071 80.164 80.275 80.359 80.464 80.864 80.726 80.662 80.694 82.049 87.667 88.539 89.295 86.332 82.504 81.484 81.626 81.703 81.81 81.888 82.061 82.356 82.496 82.644 82.805 83.053 83.726 84.812 84.75 84.059 84.052 84.197 84.366 84.374 84.488 84.563 84.617 84.737 84.916 85.099 85.448 85.642 85.866 86.106 86.28 86.541 86.726 86.909 87.167 87.341 87.591 87.826 89.037 91.258 92.127 89.599 88.972 88.862 88.963 88.945 89.155 89.2 90.21 89.925 90.158 92.469 96.363 97.126 96.933 96.443 91.836 91.936 91.936 92.075 92.423 92.694 93.191 93.624 98.586 98.484 98.89 98.099 98.439 95.178 95.021 99.826 103.749 103.876 103.182 102.436 98.795 97.142 96.907 97.235 97.456 98.675 99.707 103.035 104.189 107.386 104.788 103.056 109.187 106.122 107.967 111.419 105.468 114.003 113.717 107.68 108.04 110.396 112.742 109.223 109.317 109.019 109.081 109.093 109.105 109.116 109.138 109.093 109.1 109.13 109.093 109.155 109.142 109.182 109.189 109.237 109.193 109.177 109.095 109.119 109.069 109.061 109.087 109.054 109.03 109.019 108.971 108.995 108.967 109.002 109.035 109.033 109.116 109.121 109.115 109.111 109.065 109.131 109.098 109.089 109.039 109.066 109.056 109.081 109.117 109.048 111.258 110.7 111.032 114.825 118.666 118.96 120.024 120.617 120.57 120.046 120.192 117.243 110.592 108.563 108.415 108.456 108.995 108.486 108.429 108.585 109.298 108.628 108.546 108.415 109.258 108.658 108.722 108.898 108.746 108.446 109.42 110.15 110.196 108.367 109.756 111.429 110.007 108.571 108.422 109.789 110.007 110.145 108.486 108.697 109.684 108.616 108.691 109.266 110.136 109.904 108.852 108.902 109.348 109.022 110.27 110.237 109.838 110.093 107.989 107.618 107.696 108.119 108.862 107.493 108.634 107.56 107.844 108.06 107.45 107.468 108.91 110.181 110.277 110.505 107.467 109.295 111.108 112.456 112.892 111.759 110.405 109.586 107.568 109.326 112.406 113.957 113.537 108.176 108.209 113.711 113.917 113.759 113.56 113.022 112.733 112.829 112.4 112.167 111.229 107.886 107.105 107.118 107.088 107.103 108.408 108.321 106.78 106.717 106.779 106.677 106.634 108.415 110.161 109.015 107.709 106.856 106.605 106.566 106.561 106.46 108.147 108.846 109.24 107.868 107.257 107.156 107.473 106.921 106.419 107.703 107.364 106.677 106.53 106.084 106.059 106.022 106.018 106.045 106.058 106.019 105.942 105.882 105.895 105.838 105.869 105.806 105.796 105.798 105.8 105.75 105.785 105.767 105.764 105.719 105.706 105.644 105.63 105.56 105.462 105.468 105.35 105.31 105.273 105.263 105.194 105.193 105.113 105.103 104.958 104.844 104.703 105.809 104.58 104.464 113.828 118.231 110.467 109.809 121.207 122.237 121.561 117.755 114.263 105.134 103.121 103.198 110.318 103.262 110.611 109.061 112.005 104.012 101.743 101.043 109.548 115.284 116.334 107.155 99.683 99.184 98.966 98.852 107.678 108.326 108.799 109.892 110.069 109.108 108.214 103.352 100.786 99.131 99.003 98.575 98.507 100.521 98.845 98.543 100.17 97.727 96.887 96.737 96.265 96.287 96.288 102.604 103.381 102.128 101.443 102.528 102.801 98.357 94.976 99.524 101.829 101.949 102.055 101.891 100.921 98.014
