ncols 421
nrows 32
xllcorner    426036
yllcorner    430444
cellsize     2
NODATA_value -9999
98.047 97.905 97.794 97.636 97.604 97.514 97.442 97.288 97.16 96.958 96.807 96.654 96.542 96.412 96.356 96.446 96.431 96.489 96.531 96.597 96.659 96.704 96.831 96.923 97.006 97.06 97.099 97.168 97.191 97.189 97.255 97.294 97.312 97.333 97.28 97.154 97.007 96.912 96.795 96.669 96.463 96.32 96.132 95.903 95.733 95.529 95.418 95.247 95.215 95.052 94.951 94.816 94.682 94.443 94.22 94.02 93.842 93.659 93.403 93.141 92.934 92.718 92.375 92.133 91.9 91.709 91.436 91.091 90.83 90.578 90.419 90.127 89.874 89.688 89.593 89.564 89.553 89.569 89.577 89.599 89.542 89.479 89.377 89.279 89.144 88.996 88.957 89.074 88.718 88.634 88.589 88.571 88.59 88.547 88.594 88.58 88.63 88.72 88.764 88.79 88.777 88.788 88.866 88.873 88.917 88.98 89.01 89.078 89.13 89.192 89.242 89.265 89.297 89.319 89.358 89.436 89.521 89.581 89.595 89.67 89.719 89.8 89.875 89.894 89.892 89.861 89.758 89.627 89.539 89.413 89.256 89.09 89.018 88.943 88.856 88.823 88.787 88.834 88.794 88.713 88.673 88.628 88.546 88.565 88.533 88.488 88.393 88.243 88.126 88.027 87.908 87.824 87.719 87.691 87.592 87.418 87.223 87.087 86.996 86.891 86.719 86.446 86.291 86.143 86.037 85.962 85.935 85.813 85.833 85.714 85.648 85.548 85.461 85.366 85.346 85.261 85.177 85.067 85.056 84.939 84.774 84.737 84.737 84.76 84.749 84.751 84.726 84.645 84.642 84.677 84.514 84.396 84.361 84.263 84.18 84.028 83.885 83.773 83.671 83.576 83.565 83.368 83.19 83.073 82.997 82.914 83.237 82.927 83.122 84.742 84.812 83.105 82.608 82.178 82.077 81.932 81.862 81.78 81.51 81.346 81.062 80.958 80.831 80.669 80.654 80.492 80.424 80.385 80.428 80.371 80.315 80.238 80.101 79.929 79.684 79.453 79.43 79.559 80.173 80.657 82.041 85.638 78.707 78.104 78.387 78.345 78.193 77.443 76.831 76.088 75.176 74.509 74.088 73.81 78.51 81.761 82.966 83.098 83.241 83.324 83.479 83.613 83.716 83.842 83.981 84.138 84.328 84.393 84.38 84.089 77.287 73.568 72.543 72.556 72.536 75.106 76.82 76.787 73.06 72.694 73.559 73.726 75.288 76.08 76.126 74.743 73.805 73.796 73.844 73.877 73.888 73.873 73.908 73.887 73.825 73.77 73.724 73.684 73.652 74.14 74.172 76.072 73.671 73.275 73.328 73.487 73.72 73.367 76.889 78.084 79.117 78.507 78.163 75.092 77.734 77.923 77.479 76.694 74.178 73.446 73.032 73.051 73.065 73.31 83.238 81.496 85.519 86.359 86.13 85.154 84.221 83.431 78.206 76.697 76.708 77.404 78.151 78.472 77.997 77.611 77.16 76.512 76.151 75.511 73.755 73.337 73.428 75.359 76.047 75.8 75.894 75.808 75.745 75.591 76.013 76.07 75.955 76.696 75.731 75.757 75.785 75.826 75.893 86.499 89.342 89.471 89.643 89.84 90.069 90.275 90.47 90.611 90.5 90.261 90.077 89.856 89.703 89.52 89.374 89.181 89.343 89.577 89.765 89.737 89.712 89.558 89.486 89.427 89.43 89.336 88.847 86.28 76.953 75.633 75.676 75.74 76.314 76.774 76.932 76.912 77.054 77.441 77.265 77.348 76.114 75.825 75.855 75.927 76 76.039 76.076 76.015 76.052 76.634 76.797 77.089 79.74 80.725 77.73 76.575 76.51
97.909 97.851 97.772 97.626 97.508 97.44 97.365 97.232 97.065 96.899 96.729 96.591 96.432 96.251 96.211 96.233 96.306 96.483 96.502 96.588 96.634 96.713 96.771 96.826 96.922 96.974 97.023 97.093 97.115 97.185 97.209 97.257 97.307 97.301 97.261 97.167 97.079 96.99 96.837 96.743 96.573 96.38 96.159 95.963 95.799 95.657 95.467 95.4 95.293 95.137 95 94.834 94.615 94.444 94.24 94.002 93.802 93.551 93.272 93.104 92.772 92.546 92.287 92.085 91.847 91.549 91.258 90.938 90.675 90.508 90.266 89.99 89.698 89.572 89.564 89.522 89.487 89.495 89.444 89.43 89.315 89.247 89.167 89.126 89.018 88.911 88.837 88.814 88.668 88.52 88.396 88.41 88.415 88.432 88.437 88.418 88.408 88.467 88.523 88.623 88.644 88.628 88.681 88.715 88.804 88.811 88.862 88.951 89.021 89.067 89.139 89.182 89.272 89.312 89.386 89.441 89.549 89.616 89.646 89.721 89.775 89.818 89.879 89.872 89.9 89.836 89.719 89.576 89.478 89.369 89.182 89.002 88.908 88.816 88.759 88.74 88.683 88.729 88.707 88.649 88.574 88.527 88.47 88.395 88.294 88.274 88.217 88.135 88.001 87.887 87.832 87.785 87.628 87.497 87.431 87.363 87.215 87.042 86.879 86.693 86.494 86.288 86.122 85.962 85.92 85.788 85.737 85.616 85.522 85.46 85.372 85.349 85.237 85.091 84.95 84.91 84.85 84.834 84.724 84.625 84.528 84.514 84.594 84.559 84.632 84.6 84.574 84.465 84.46 84.378 84.399 84.301 84.172 84.182 83.967 83.907 83.686 83.625 83.531 83.423 83.383 83.256 83.068 82.926 82.813 82.721 82.83 83.238 83.263 84.516 84.264 83.189 82.513 82.127 82.121 81.932 81.714 81.609 81.442 81.279 81.231 81.107 80.857 80.959 80.797 80.733 80.695 80.7 80.571 80.608 80.534 80.362 80.289 79.982 79.674 79.39 79.467 83.455 81.912 85.143 86.586 79.174 80.363 78.295 78.321 78.193 77.381 76.649 75.809 75.093 74.395 73.961 73.835 78.301 82.741 82.999 83.099 83.246 83.388 83.483 83.634 83.742 83.904 84.008 84.179 84.254 84.401 84.31 84.167 84.018 83.831 79.398 72.796 72.564 74.866 76.821 76.633 73.061 73.585 73.684 73.539 73.663 75.934 76.039 74.581 73.713 73.706 73.783 73.794 73.762 73.914 77.262 75.829 73.834 73.769 73.734 73.659 73.58 73.536 73.485 73.451 74.062 73.367 74.094 74.265 73.962 73.363 79.535 78.14 78.147 78.147 78.165 78.181 74.507 74.854 73.754 73.359 73.025 73.075 73.087 73.26 73.38 77.89 79.729 83.258 84.066 84.884 85.982 86.413 85.533 84.675 83.738 80.368 76.731 76.753 77.253 77.887 78.52 78.212 77.743 77.361 76.708 76.311 75.993 73.814 73.299 73.337 73.951 75.345 75.394 75.53 75.592 75.549 75.423 75.631 75.867 75.913 75.979 75.634 75.652 75.698 75.751 75.926 77.533 89.122 89.426 89.605 89.833 90.011 90.177 90.373 90.424 90.358 90.313 90.187 89.996 89.736 89.614 89.367 89.169 89.241 89.485 89.662 89.576 89.468 89.402 89.065 82.575 82.088 80.069 75.606 75.64 75.628 75.66 75.792 76.556 76.731 76.871 77.044 76.897 76.831 77.034 77.059 75.889 75.738 75.776 75.861 75.933 75.945 75.943 76.006 76.043 76.488 76.819 76.619 76.939 79.57 79.855 76.753 76.419 76.408
-9999 97.795 97.649 97.441 97.429 97.364 97.302 97.172 97.07 96.926 96.726 96.578 96.32 96.179 96.099 96.101 96.225 96.382 96.446 96.517 96.613 96.676 96.715 96.789 96.847 96.924 96.957 97.018 97.054 97.091 97.188 97.214 97.239 97.288 97.256 97.115 97.114 97.029 96.94 96.839 96.589 96.459 96.26 96.085 95.946 95.731 95.626 95.485 95.386 95.228 95.107 94.904 94.68 94.452 94.234 93.996 93.784 93.543 93.309 92.935 92.695 92.503 92.288 92.027 91.683 91.338 91.098 90.823 90.594 90.309 90.04 89.853 89.626 89.421 89.375 89.363 89.374 89.338 89.321 89.263 89.157 89.051 89.068 88.955 88.886 88.771 88.721 88.659 88.605 88.462 88.232 88.267 88.24 88.272 88.28 88.28 88.263 88.259 88.329 88.457 88.485 88.452 88.516 88.582 88.667 88.704 88.76 88.82 88.945 89.023 89.081 89.137 89.246 89.305 89.395 89.497 89.587 89.689 89.736 89.769 89.777 89.805 89.829 89.837 89.81 89.78 89.661 89.498 89.379 89.265 89.114 88.972 88.818 88.759 88.648 88.633 88.534 88.6 88.616 88.543 88.478 88.367 88.349 88.297 88.18 88.114 88.09 88.013 87.887 87.735 87.667 87.633 87.53 87.382 87.332 87.224 87.066 86.892 86.798 86.598 86.339 86.153 86.009 85.804 85.716 85.594 85.502 85.467 85.364 85.306 85.208 85.067 84.963 84.81 84.749 84.66 84.621 84.56 84.491 84.471 84.402 84.378 84.37 84.403 84.413 84.412 84.379 84.245 84.209 84.158 84.164 84.107 83.994 83.846 83.878 83.805 83.598 83.452 83.346 83.27 83.242 83.126 82.941 82.763 82.699 82.652 82.649 82.923 83.344 84.514 84.468 83.697 83.032 82.397 81.974 82.121 81.786 81.571 81.399 81.337 81.312 81.236 81.08 81.072 81.027 80.836 80.89 80.796 80.747 80.692 80.529 80.329 80.133 79.848 79.545 79.228 79.098 79.727 83.817 85.599 80.341 79.1 78.567 78.208 78.046 77.188 76.29 75.669 75.031 74.229 73.896 74.034 81.233 82.176 83.006 83.151 83.256 83.406 83.541 83.629 83.729 83.881 84.04 84.347 84.321 84.389 84.242 84.16 83.972 83.837 83.743 81.866 75.171 73.745 76.667 75.873 72.605 73.494 73.623 73.584 73.559 73.983 75.963 75.923 75.76 73.723 73.682 75.833 73.76 73.736 73.818 77.634 76.973 73.748 73.682 73.605 73.6 73.54 73.451 73.422 73.339 73.312 73.245 73.335 76.47 73.258 75.621 78.068 78.163 78.177 78.205 77.217 74.764 73.034 73.009 73.044 73.051 73.097 73.383 79.178 81.508 80.792 79.992 79.289 82.413 83.709 84.791 85.692 86.455 85.875 85.014 84.087 83.055 76.878 77.092 77.107 77.649 78.179 78.393 77.948 77.541 77.047 76.456 76.096 75.615 73.352 73.329 73.412 74.628 75.343 75.417 75.428 75.338 75.254 75.264 75.651 75.731 76.522 75.728 77.358 75.654 75.645 75.715 75.805 79.688 89.165 89.481 89.746 89.921 90.114 90.331 90.219 90.172 90.08 90.01 89.953 89.848 89.706 89.443 89.303 89.196 89.372 89.426 89.34 89.347 88.637 80.535 79.675 79.413 79.203 75.793 75.685 75.717 75.991 76.951 77.18 76.724 76.755 76.791 76.996 76.735 76.451 76.105 75.651 75.724 75.755 75.819 75.887 75.873 75.91 76.079 76.293 76.53 76.566 76.3 76.42 76.652 76.343 76.336 76.313 76.299
-9999 -9999 97.581 97.44 97.313 97.27 97.208 97.158 97.044 96.863 96.663 96.534 96.327 96.06 95.957 95.979 96.041 96.255 96.339 96.448 96.517 96.595 96.689 96.743 96.802 96.836 96.902 96.922 96.971 97.088 97.112 97.19 97.211 97.23 97.222 97.188 97.147 97.061 96.937 96.863 96.699 96.602 96.353 96.156 96.069 95.881 95.712 95.584 95.448 95.348 95.169 94.931 94.697 94.529 94.301 94.021 93.736 93.499 93.277 92.947 92.667 92.408 92.121 91.884 91.543 91.177 90.946 90.688 90.481 90.189 89.904 89.682 89.511 89.419 89.339 89.241 89.198 89.177 89.09 89.106 89.032 88.948 88.908 88.807 88.749 88.724 88.622 88.525 88.491 88.594 88.186 88.079 88.073 88.06 88.038 88.123 88.13 88.099 88.155 88.227 88.322 88.324 88.355 88.432 88.508 88.601 88.652 88.754 88.865 88.929 89.034 89.112 89.189 89.351 89.475 89.478 89.564 89.66 89.721 89.772 89.729 89.732 89.767 89.724 89.675 89.622 89.579 89.457 89.281 89.146 89.059 88.888 88.746 88.668 88.594 88.555 88.48 88.45 88.482 88.435 88.363 88.23 88.156 88.11 87.994 87.916 87.912 87.835 87.737 87.635 87.505 87.421 87.346 87.199 87.143 87.037 86.965 86.777 86.593 86.411 86.145 86.002 85.853 85.734 85.544 85.43 85.325 85.251 85.187 85.111 84.964 84.901 84.739 84.584 84.466 84.372 84.428 84.351 84.307 84.29 84.219 84.205 84.152 84.167 84.23 84.143 84.049 84.037 83.94 83.912 83.899 83.903 83.849 83.73 83.655 83.644 83.526 83.417 83.21 83.115 83.031 82.981 82.866 82.773 82.633 82.553 82.52 83.059 83.565 84.606 84.635 83.505 82.43 82.379 81.995 81.938 81.668 81.525 81.48 81.448 81.304 81.357 81.345 81.318 81.18 81.079 81.051 80.981 80.796 80.708 80.525 80.266 80.123 79.872 79.521 79.328 78.932 78.926 78.978 82.751 77.512 77.965 77.991 77.853 76.911 76.449 75.631 74.892 74.156 73.888 74.673 75.823 82.906 83.042 83.162 83.3 83.368 83.492 83.655 83.818 83.924 84.083 84.223 84.395 84.458 84.228 84.11 83.923 83.796 83.739 83.524 83.418 82.28 77.865 73.704 72.734 73.462 73.762 73.622 73.563 73.558 73.533 75.698 76.006 74.196 73.63 73.7 77.747 75.764 73.798 73.703 74.465 77.586 76.485 73.658 73.544 73.52 73.456 73.375 73.355 73.284 73.511 73.438 75.894 73.881 73.257 73.231 77.101 75.715 74.972 74.062 73.083 73.061 73.068 73.054 73.071 76.317 78.006 80.525 81.22 81.786 81.217 80.3 79.511 80.927 83.328 84.397 85.1 86.198 86.328 85.52 84.5 83.587 78.944 76.7 76.75 77.393 77.992 78.475 78.143 77.644 77.243 76.627 76.186 75.895 73.376 73.34 73.424 74.393 75.071 75.202 75.246 75.168 75.136 75.012 75.358 75.634 77.357 77.562 77.535 77.565 75.598 75.639 75.747 76.58 89.126 89.456 89.66 89.741 89.941 90.167 90.081 90.026 89.86 89.81 89.799 89.67 89.603 89.544 89.39 89.189 89.305 89.304 88.616 81.039 77.507 79.255 79.916 81.689 78.911 76.666 75.658 79.039 78.671 80.371 78.279 76.667 76.639 76.673 76.917 76.895 75.718 75.591 75.662 75.647 75.749 75.813 75.778 75.769 75.78 76.135 76.699 76.709 76.268 76.245 76.171 76.152 76.124 76.192 76.169 76.146
-9999 -9999 97.408 97.337 97.305 97.233 97.181 97.109 96.987 96.827 96.704 96.482 96.226 96.026 95.86 95.823 95.922 96.159 96.254 96.368 96.405 96.53 96.593 96.697 96.752 96.781 96.866 96.903 96.939 97.023 97.085 97.112 97.152 97.196 97.232 97.196 97.156 97.085 97.012 96.862 96.691 96.607 96.463 96.269 96.165 95.965 95.843 95.713 95.541 95.42 95.161 94.946 94.742 94.541 94.25 93.882 93.726 93.507 93.108 92.811 92.534 92.367 92.043 91.657 91.358 91.059 90.869 90.586 90.334 90.184 89.901 89.829 89.652 89.433 89.263 89.12 89.014 88.994 88.924 88.914 88.901 88.893 88.822 88.731 88.641 88.595 88.496 88.401 88.333 88.418 88.312 88.028 87.881 87.866 87.873 87.933 87.967 87.929 88.006 88.077 88.157 88.213 88.257 88.276 88.352 88.51 88.594 88.681 88.764 88.85 88.953 89.063 89.146 89.271 89.406 89.489 89.515 89.572 89.658 89.679 89.668 89.621 89.636 89.584 89.538 89.506 89.368 89.274 89.201 89.031 88.917 88.803 88.653 88.565 88.522 88.473 88.419 88.382 88.389 88.286 88.239 88.098 88.003 87.96 87.874 87.728 87.649 87.622 87.586 87.423 87.264 87.18 87.137 87.058 86.989 86.891 86.779 86.593 86.468 86.345 86.133 85.984 85.824 85.63 85.452 85.242 85.13 85.033 84.875 84.908 84.727 84.625 84.484 84.397 84.284 84.229 84.141 84.104 84.098 84.087 84.034 84.005 83.988 83.932 83.977 83.944 83.876 83.825 83.747 83.698 83.62 83.702 83.593 83.619 83.517 83.481 83.371 83.195 83.056 82.973 82.955 82.92 82.777 82.675 82.564 82.455 82.406 82.659 83.137 83.506 83.66 82.913 82.365 82.097 81.942 81.816 81.723 81.604 81.581 81.512 81.486 81.503 81.459 81.399 81.329 81.19 81.131 80.96 80.851 80.704 80.54 80.313 80.052 79.823 79.51 79.258 78.849 78.396 78.062 78.012 77.87 77.916 77.89 77.068 76.021 75.594 74.811 74.131 73.762 78.325 81.867 82.938 83.09 83.213 83.281 83.451 83.584 83.713 83.789 83.947 84.093 84.193 84.371 84.333 84.337 84.036 83.9 83.739 83.671 83.558 83.418 83.286 83.164 77.498 73.399 74.051 73.771 73.662 73.622 73.582 73.552 73.527 75.395 75.043 73.673 73.543 73.594 76.912 77.354 74.871 73.686 73.613 76.397 76.79 73.926 73.489 73.47 73.416 73.351 73.279 73.239 73.27 75.052 75.73 73.248 73.162 73.26 74.115 73.09 73.055 73.089 73.105 73.087 73.455 76.829 78.692 78.784 79.397 80.115 80.96 81.641 81.536 80.592 79.867 79.218 82.916 83.963 84.777 85.899 86.49 85.712 84.763 84.019 81.596 76.88 76.689 77.114 77.721 78.408 78.375 77.849 77.488 76.956 76.318 75.981 74 73.227 73.311 73.842 74.771 75.033 74.999 75.023 74.946 74.883 74.927 76.832 78.019 77.579 76.451 77.372 75.54 75.516 75.607 76.148 86.655 89.362 89.557 89.768 89.985 89.961 89.883 89.787 89.7 89.591 89.552 89.482 89.437 89.349 89.282 88.653 80.92 76.977 75.749 75.863 76.434 79.297 79.15 77.933 76.686 75.826 77.318 85.073 86.932 86.906 81.474 76.567 76.388 76.543 76.698 75.686 75.507 75.49 75.598 75.685 75.711 75.654 75.694 75.716 75.817 76.269 76.653 76.426 76.106 76.078 76.089 75.956 76.037 76.071 76.018 76.035
-9999 -9999 -9999 97.311 97.251 97.151 97.072 97.046 96.968 96.837 96.587 96.362 96.206 95.949 95.764 95.718 95.818 95.959 96.114 96.282 96.318 96.377 96.484 96.585 96.678 96.744 96.801 96.862 96.935 96.99 97.002 97.04 97.117 97.184 97.207 97.243 97.169 97.086 97.012 96.894 96.757 96.652 96.495 96.349 96.247 96.101 95.975 95.78 95.624 95.474 95.26 95.028 94.723 94.411 94.167 93.877 93.645 93.288 93.071 92.798 92.488 92.168 91.778 91.421 91.229 90.971 90.697 90.503 90.416 90.248 90.062 89.878 89.565 89.318 89.153 89.008 88.799 88.755 88.75 88.76 88.807 88.745 88.694 88.588 88.537 88.494 88.398 88.236 88.167 88.213 88.266 87.988 87.73 87.727 87.742 87.75 87.807 87.817 87.86 87.965 87.982 88.089 88.111 88.214 88.321 88.443 88.509 88.577 88.656 88.799 88.905 89.036 89.099 89.187 89.33 89.427 89.453 89.514 89.542 89.572 89.549 89.527 89.469 89.451 89.394 89.335 89.222 89.132 89.066 88.944 88.785 88.692 88.546 88.503 88.446 88.398 88.356 88.283 88.264 88.158 88.053 87.951 87.824 87.743 87.696 87.557 87.464 87.357 87.236 87.146 87.025 87.039 86.943 86.876 86.787 86.696 86.648 86.544 86.409 86.262 86.105 85.922 85.745 85.548 85.329 85.12 85.004 84.777 84.734 84.616 84.462 84.41 84.342 84.283 84.073 84.012 84.016 83.978 83.867 83.862 83.853 83.854 83.802 83.765 83.7 83.679 83.673 83.568 83.523 83.434 83.375 83.262 83.384 83.565 83.282 83.232 83.239 83.153 83.022 82.816 82.812 82.745 82.674 82.585 82.441 82.407 82.372 82.614 82.532 82.83 83.151 82.993 82.454 82.091 81.944 81.853 81.785 81.732 81.619 81.581 81.572 81.595 81.518 81.502 81.432 81.258 81.078 80.994 80.81 80.747 80.523 80.201 80.013 79.732 79.466 78.982 78.65 78.135 77.823 77.957 77.872 77.805 77.635 76.155 75.2 74.569 74.162 73.787 73.801 81.793 82.966 83.114 83.186 83.341 83.473 83.585 83.736 83.863 83.969 84.112 84.242 84.379 84.306 84.102 84.012 83.86 83.764 83.651 83.471 83.342 83.276 83.097 83.301 82.751 80.616 74.278 73.671 73.636 73.596 73.639 73.546 73.553 73.51 73.472 73.498 73.528 73.552 73.559 76.81 77.617 73.943 73.514 74.227 77.098 76.801 73.538 73.327 73.319 73.277 73.193 73.201 73.17 73.925 73.227 73.156 73.183 73.16 73.133 73.096 73.087 73.134 74.883 80.928 81.251 80.409 79.695 78.932 79.131 79.849 80.738 81.306 81.678 80.836 80.098 79.486 81.899 83.482 84.593 85.471 86.408 86.017 85.148 84.283 83.185 77.315 76.691 76.879 77.528 78.028 78.597 78.145 80.928 81.792 77.232 76.128 75.722 73.275 73.272 73.369 75.633 74.384 74.568 74.781 74.721 74.668 74.675 75.163 75.868 77.461 76.536 77.774 76.124 75.363 75.448 75.804 78.844 88.887 89.514 89.704 89.866 89.751 89.687 89.581 89.511 89.449 89.249 89.313 89.265 81.886 81.663 76.288 76.412 75.563 75.642 75.722 75.677 76.623 76.639 75.988 75.668 77.428 84.76 87.368 87.454 86.978 81.451 76.46 76.449 76.437 75.789 75.375 75.428 75.546 75.58 75.603 75.627 75.664 75.608 75.69 75.782 76.122 76.752 76.483 76.341 76.059 76.029 75.948 75.835 75.813 75.848 75.872
-9999 -9999 -9999 -9999 97.123 97.08 97.054 96.957 96.873 96.773 96.591 96.347 96.112 95.84 95.702 95.633 95.67 95.896 96.061 96.129 96.218 96.337 96.401 96.503 96.622 96.669 96.773 96.808 96.869 96.944 96.974 97.033 97.061 97.128 97.16 97.193 97.141 97.077 96.993 96.921 96.787 96.712 96.595 96.448 96.347 96.166 96.042 95.92 95.683 95.46 95.204 95.012 94.749 94.418 94.107 93.774 93.467 93.272 92.993 92.651 92.233 91.905 91.672 91.431 91.175 90.936 90.8 90.677 90.491 90.187 89.985 89.729 89.496 89.259 89.054 88.828 88.622 88.589 88.621 88.666 88.678 88.544 88.496 88.452 88.384 88.333 88.064 88.013 88.021 87.976 88.121 88.158 87.728 87.599 87.614 87.63 87.692 87.714 87.746 87.83 87.884 87.987 88.027 88.153 88.212 88.342 88.416 88.51 88.62 88.709 88.827 88.956 89.078 89.142 89.244 89.333 89.38 89.446 89.421 89.44 89.47 89.427 89.349 89.287 89.315 89.239 89.115 89.002 88.895 88.787 88.652 88.554 88.509 88.425 88.353 88.293 88.243 88.204 88.143 88.032 87.893 87.816 87.659 87.56 87.505 87.402 87.331 87.261 87.121 86.949 86.892 86.863 86.82 86.711 86.641 86.515 86.458 86.38 86.25 86.176 85.976 85.814 85.647 85.467 85.234 84.937 84.818 84.542 84.428 84.325 84.279 84.069 84.053 84.005 83.87 83.78 83.725 83.693 83.649 83.647 83.616 83.559 83.513 83.488 83.531 83.461 83.444 83.361 83.281 83.201 83.172 83.019 82.98 82.999 82.977 83.01 82.967 83.01 83.325 82.595 82.547 82.584 82.564 82.479 82.389 82.322 82.289 82.481 82.428 82.583 83.063 82.923 82.509 82.021 82.002 81.88 81.835 81.81 81.739 81.708 81.663 81.682 81.601 81.574 81.356 81.233 81.19 80.973 80.786 80.664 80.574 80.35 80.01 79.802 79.316 78.855 78.506 77.93 77.686 77.846 77.989 77.539 76.137 75.61 75.148 74.041 73.959 80.206 82.126 82.99 83.124 83.243 83.399 83.514 83.581 83.724 83.87 84.07 84.198 84.299 84.358 84.238 84.145 83.981 83.838 83.724 83.577 83.489 83.326 83.225 83.101 82.956 82.769 82.324 81.173 76.395 73.708 73.635 73.616 73.603 73.593 73.57 73.513 73.519 73.485 73.46 73.515 73.498 73.502 76.732 77.059 73.432 73.356 76.204 77.16 74.513 73.267 73.236 73.219 73.229 73.211 73.231 73.213 73.184 73.166 73.155 73.134 73.13 74.805 75.585 77.959 80.812 81.542 81.455 80.799 80.047 79.237 78.933 79.528 80.274 81.231 81.792 81.234 80.572 79.696 80.741 83.183 84.091 85.084 86.048 86.288 85.452 84.549 83.625 79.475 76.859 76.812 77.551 83.612 86.198 85.19 84.284 83.278 79.607 76.343 75.947 73.499 73.213 73.3 73.561 74.559 74.319 74.584 74.503 74.452 74.662 74.684 75.312 75.664 75.295 75.346 75.847 75.381 75.329 75.48 76.019 87.438 89.42 89.602 89.648 89.594 89.482 89.371 86.725 83.096 81.977 86.775 77.075 75.687 75.544 75.656 75.521 75.551 75.606 75.549 75.549 75.543 75.487 75.501 75.567 81.121 84.816 86.058 85.985 85.993 82.111 77.04 76.358 75.851 75.355 75.354 75.439 75.482 75.534 75.544 75.526 75.504 75.643 75.733 75.797 75.852 76.011 76.211 76.244 76.253 76.079 75.912 75.858 75.788 75.786 75.804
-9999 -9999 -9999 -9999 -9999 97.024 96.946 96.883 96.829 96.68 96.514 96.251 96.073 95.817 95.598 95.512 95.635 95.81 96.045 96.077 96.187 96.255 96.366 96.434 96.574 96.641 96.717 96.768 96.836 96.904 96.917 96.971 97.034 97.069 97.1 97.102 97.119 97.061 96.999 96.938 96.835 96.762 96.665 96.551 96.406 96.207 96.083 95.881 95.686 95.493 95.231 94.89 94.575 94.326 94.055 93.705 93.431 93.146 92.813 92.515 92.175 91.867 91.572 91.366 91.19 91.07 90.879 90.708 90.476 90.304 90.027 89.735 89.479 89.265 88.967 88.725 88.486 88.423 88.414 88.529 88.539 88.451 88.349 88.278 88.175 87.912 87.779 87.711 87.741 87.796 87.938 87.993 87.66 87.504 87.472 87.526 87.566 87.612 87.702 87.777 87.771 87.86 87.971 88.073 88.124 88.217 88.328 88.413 88.55 88.66 88.816 88.888 89.014 89.081 89.181 89.234 89.317 89.33 89.336 89.304 89.357 89.299 89.238 89.204 89.153 89.099 88.974 88.831 88.775 88.702 88.567 88.443 88.378 88.305 88.246 88.188 88.098 88.019 87.95 87.797 87.735 87.6 87.492 87.408 87.363 87.215 87.146 87.053 86.928 86.792 86.746 86.722 86.659 86.508 86.448 86.411 86.329 86.243 86.094 85.983 85.876 85.743 85.559 85.288 85.029 84.84 84.625 84.429 84.242 84.101 84.034 83.785 83.821 83.814 83.669 83.575 83.491 83.497 83.448 83.447 83.354 83.335 83.3 83.306 83.258 83.235 83.218 83.142 83.076 83.015 82.877 82.741 82.719 82.711 82.67 82.948 82.769 82.751 82.725 82.479 82.394 82.407 82.42 82.347 82.27 82.173 82.177 82.293 82.474 82.677 82.96 82.552 82.262 82.093 82.032 81.997 81.882 81.897 81.883 81.83 81.802 81.799 81.742 81.516 81.352 81.268 81.1 80.938 80.796 80.579 80.531 80.205 79.896 79.53 79.096 78.592 77.902 77.649 77.737 77.727 77.406 76.962 75.765 76.061 74.043 73.692 78.473 82.847 83.018 83.148 83.28 83.357 83.464 83.661 83.766 83.905 84.013 84.172 84.466 84.464 84.242 84.073 83.968 83.824 83.684 83.507 83.446 83.346 83.198 83.113 82.938 82.703 81.736 81.406 81.618 80.185 74.248 73.848 73.668 73.632 73.573 73.602 73.566 73.498 73.435 73.445 73.445 73.448 73.389 74.089 77.358 77.023 73.334 73.209 74.355 73.211 73.156 73.19 73.19 73.204 73.171 73.19 73.168 73.156 73.109 73.11 73.118 73.111 73.174 79.03 79.677 80.458 81.294 81.756 81.075 80.246 79.635 78.883 79.281 80.086 80.687 81.568 81.54 80.935 80.024 79.415 82.786 83.867 84.62 85.684 86.548 85.798 85.135 84.179 83.037 82.003 82.481 84.238 86.039 86.326 85.497 84.772 83.735 81.155 76.533 76.056 75.233 73.29 73.249 73.325 74.241 74.266 74.328 74.286 74.348 74.329 74.552 75.561 77.401 76.406 75.543 76.165 75.545 75.246 75.277 75.503 84.837 89.286 89.555 89.425 89.407 89.311 88.784 81.22 79.943 79.541 80.022 76.258 75.564 75.534 75.487 75.494 75.471 75.478 75.507 75.452 75.575 75.537 75.622 76.035 76.204 82.135 84.393 83.234 81.843 77.687 76.547 75.509 75.228 75.32 75.311 75.396 75.492 75.488 75.427 75.451 75.574 75.732 75.774 75.775 75.832 75.857 75.887 75.93 76.081 76.117 76.08 75.855 75.833 75.818 75.757
-9999 -9999 -9999 -9999 -9999 -9999 96.87 96.769 96.673 96.519 96.435 96.176 95.953 95.687 95.556 95.517 95.565 95.807 95.98 96.047 96.128 96.146 96.334 96.443 96.551 96.601 96.692 96.728 96.772 96.817 96.91 96.923 96.991 97.007 97.027 97.02 97.049 97.032 97.003 96.978 96.93 96.795 96.73 96.636 96.393 96.244 96.062 95.912 95.737 95.433 95.114 94.893 94.589 94.291 93.901 93.616 93.415 93.145 92.752 92.368 92.022 91.841 91.653 91.461 91.291 91.033 90.829 90.657 90.491 90.287 89.999 89.725 89.487 89.28 88.882 88.579 88.344 88.228 88.279 88.338 88.264 88.179 88.025 87.98 87.892 87.573 87.523 87.519 87.559 87.716 87.834 87.884 87.927 87.554 87.384 87.392 87.473 87.509 87.568 87.637 87.673 87.704 87.828 87.954 87.991 88.076 88.237 88.356 88.468 88.573 88.659 88.772 88.916 89.039 89.057 89.147 89.171 89.248 89.25 89.248 89.228 89.202 89.145 89.067 89.009 88.972 88.903 88.76 88.674 88.576 88.505 88.358 88.246 88.145 88.048 87.999 87.947 87.856 87.675 87.633 87.5 87.38 87.253 87.215 87.175 87.045 86.943 86.887 86.762 86.686 86.63 86.615 86.51 86.421 86.35 86.231 86.156 86.042 86.011 85.914 85.738 85.614 85.379 85.179 84.948 84.712 84.508 84.298 84.089 83.894 83.718 83.707 83.698 83.634 83.531 83.389 83.295 83.278 83.232 83.281 83.223 83.151 83.132 83.09 83.094 83.087 83.05 82.996 82.855 82.782 82.634 82.489 82.4 82.361 82.351 82.436 82.607 82.61 82.587 82.457 82.34 82.326 82.229 82.187 82.1 82.056 82.031 82.566 82.696 82.437 82.311 82.203 82.075 82.137 82.101 82.083 81.996 81.991 82.021 81.97 81.909 81.855 81.666 81.629 81.451 81.305 81.155 80.916 80.77 80.574 80.405 80.077 79.627 79.07 78.565 77.946 77.722 77.571 77.5 77.232 76.718 75.253 74.686 73.962 73.87 80.078 82.892 83.058 83.187 83.281 83.431 83.568 83.69 83.794 83.907 84.047 84.199 84.322 84.401 84.387 84.112 83.918 83.812 83.731 83.562 83.385 83.277 83.164 83.075 82.913 82.72 81.506 81.44 81.569 81.726 81.86 80.724 74.8 73.684 73.649 73.619 73.587 73.556 73.498 73.454 73.4 73.37 73.308 73.31 73.254 73.942 73.592 73.14 73.142 73.092 73.062 73.099 73.147 73.147 73.166 73.124 73.141 73.155 73.129 73.107 73.087 73.07 73.09 73.129 76.841 79.33 80.228 80.913 81.658 81.341 80.668 79.778 79.144 78.98 79.721 80.513 81.282 81.678 81.192 80.338 79.499 81.649 83.382 84.345 85.418 86.19 86.307 85.35 84.489 83.456 83.558 83.744 84.671 85.648 86.476 86.028 85.075 84.135 83.047 77.234 76.182 75.87 73.93 73.201 73.297 74.092 73.967 74.187 74.209 74.192 74.184 74.278 74.539 75.511 75.322 75.114 75.798 75.463 75.079 75.105 75.564 77.044 89.242 89.351 89.305 81.996 81.523 79.168 79.401 80.146 79.491 80.992 78.618 75.539 75.467 75.463 75.455 75.499 75.531 75.594 75.749 79.906 76.711 76.196 81.429 76.562 76.294 77.057 77.321 77.379 76.739 75.316 75.131 75.105 75.238 75.307 75.367 75.384 75.411 75.373 75.495 75.591 75.708 75.795 75.77 75.774 75.776 75.811 75.846 75.835 75.897 75.998 76.082 76.142 75.932 75.77
-9999 -9999 -9999 -9999 -9999 -9999 -9999 96.647 96.576 96.446 96.304 96.003 95.84 95.621 95.413 95.463 95.532 95.698 95.949 96.049 96.086 96.157 96.28 96.415 96.535 96.602 96.626 96.645 96.761 96.809 96.824 96.892 96.895 96.966 96.971 96.98 97.017 97.013 97.027 97.021 96.944 96.838 96.736 96.529 96.358 96.289 96.137 95.911 95.618 95.437 95.162 94.851 94.558 94.18 93.964 93.716 93.362 92.958 92.524 92.366 92.094 91.889 91.716 91.495 91.333 91.13 90.922 90.682 90.445 90.236 89.994 89.744 89.454 89.151 88.887 88.609 88.347 88.095 88.039 88.062 87.964 87.916 87.694 87.472 87.368 87.337 87.293 87.346 87.473 87.533 87.644 87.774 87.804 87.872 87.34 87.297 87.368 87.37 87.43 87.462 87.49 87.57 87.677 87.822 87.92 88.02 88.12 88.229 88.352 88.475 88.567 88.631 88.757 88.878 88.964 89.003 89.039 89.09 89.168 89.168 89.177 89.143 89.097 89.041 89.008 88.899 88.835 88.736 88.594 88.534 88.408 88.285 88.133 88.046 87.966 87.89 87.82 87.631 87.494 87.43 87.346 87.251 87.172 87.065 87.019 86.883 86.797 86.724 86.577 86.553 86.465 86.395 86.294 86.172 86.14 86.007 85.982 85.92 85.896 85.807 85.647 85.538 85.34 85.075 84.765 84.512 84.391 84.13 84.024 83.844 83.689 83.679 83.648 83.496 83.323 83.259 83.131 83.08 83.079 83.096 83.052 83.023 82.976 82.915 82.931 82.878 82.781 82.816 82.677 82.513 82.379 82.284 82.163 82.052 82.025 82.123 82.282 82.494 82.483 82.42 82.288 82.111 82.062 82.042 81.931 81.927 81.905 82.204 82.966 82.348 82.684 82.212 82.167 82.176 82.232 82.149 82.061 82.097 82.043 82.02 81.988 81.859 81.762 81.599 81.416 81.263 81.074 80.899 80.697 80.489 80.054 79.707 79.056 78.444 78.069 77.532 77.564 77.353 76.412 76.051 75.374 74.31 73.926 73.98 81.728 82.926 83.056 83.203 83.352 83.419 83.586 83.675 83.821 83.905 84.068 84.213 84.367 84.27 84.195 84.019 83.952 83.812 83.692 83.536 83.383 83.287 83.12 82.998 82.881 81.961 81.55 81.455 81.567 81.749 81.811 82.006 82.142 80.69 73.856 73.649 73.613 73.554 73.521 73.433 73.418 73.348 73.268 73.205 73.187 73.167 73.133 73.08 73.05 73.019 72.957 73.018 73.057 73.064 73.083 73.113 73.094 73.11 73.102 73.096 73.058 73.04 73.036 73.064 73.265 74.823 79.123 79.855 80.575 81.377 81.656 80.817 80.164 79.352 78.783 79.356 80.223 81.022 81.666 81.339 80.604 79.921 79.898 83.195 83.934 84.82 85.773 86.509 85.75 84.925 84.05 82.991 83.361 84.133 85.179 86.294 86.356 85.337 84.458 83.502 78.662 76.44 76.008 75.399 73.265 73.242 73.302 74.05 73.993 74.111 74.106 74.097 74.206 74.18 74.328 74.278 74.299 74.794 74.809 74.884 74.954 75.15 75.616 80.347 88.308 79.079 75.244 75.286 75.441 78.419 79.46 80.265 78.052 77.123 75.519 75.454 75.425 75.449 75.434 75.81 75.842 75.842 78.943 82.553 84.948 82.275 79.28 76.55 76.337 79.193 77.309 76.444 74.968 75.025 75.147 75.216 75.226 75.246 75.288 75.326 75.425 75.5 76.018 75.582 75.56 75.677 75.719 75.715 75.71 75.706 75.803 75.843 75.867 75.879 75.91 75.982 75.847
-9999 -9999 -9999 -9999 -9999 -9999 -9999 96.54 96.49 96.381 96.202 95.941 95.704 95.471 95.356 95.349 95.5 95.704 95.837 95.988 96.125 96.207 96.329 96.391 96.519 96.53 96.586 96.638 96.713 96.77 96.785 96.883 96.924 96.958 96.965 96.999 97.052 97.054 97.045 97.04 96.921 96.83 96.737 96.577 96.444 96.267 96.079 95.893 95.649 95.368 95.092 94.832 94.514 94.201 93.953 93.549 93.127 92.874 92.559 92.303 92.132 91.988 91.796 91.595 91.362 91.154 90.898 90.699 90.473 90.229 90.046 89.745 89.502 89.234 88.908 88.548 88.284 88.076 87.935 87.853 87.655 87.535 87.293 87.242 87.141 87.175 87.193 87.217 87.291 87.379 87.438 87.562 87.703 87.744 87.51 87.195 87.228 87.249 87.273 87.319 87.365 87.447 87.536 87.688 87.799 87.921 88.023 88.123 88.189 88.354 88.41 88.47 88.595 88.667 88.815 88.844 88.889 88.951 89.012 89.063 89.048 89.061 89.021 89.016 88.918 88.863 88.79 88.669 88.549 88.45 88.343 88.247 88.08 87.997 87.831 87.685 87.638 87.54 87.435 87.315 87.208 87.06 86.987 86.855 86.804 86.695 86.6 86.538 86.374 86.332 86.269 86.222 86.085 85.991 85.943 85.828 85.746 85.711 85.722 85.663 85.477 85.352 85.185 84.995 84.741 84.497 84.298 84.07 83.966 83.809 83.681 83.597 83.528 83.4 83.275 83.092 82.966 82.93 82.883 82.895 82.916 82.81 82.798 82.759 82.693 82.716 82.555 82.468 82.33 82.255 82.137 81.951 81.856 81.759 81.754 81.832 81.997 82.246 82.294 82.319 82.224 82.049 81.953 81.923 81.902 81.842 81.899 82.055 82.783 82.581 82.32 82.159 82.204 82.19 82.103 82.147 82.116 82.071 82.076 82.054 81.963 81.922 81.773 81.575 81.451 81.307 81.022 80.829 80.584 80.082 79.7 79.336 78.538 77.946 77.372 77.824 77.678 76.731 75.689 76 74.607 73.823 75.683 82.752 82.965 83.098 83.245 83.396 83.51 83.569 83.744 83.862 84.008 84.096 84.212 84.333 84.28 84.134 84.02 83.874 83.736 83.644 83.5 83.361 83.244 83.118 82.983 82.784 81.902 81.378 81.471 81.68 81.721 81.901 81.979 82.101 82.256 82.445 80.237 73.976 73.592 73.531 73.451 73.395 73.331 73.25 73.22 73.138 73.078 73.025 73.016 72.965 72.909 72.912 72.939 72.982 72.994 72.997 73.049 73.034 73.046 73.094 73.088 73.068 73.048 73.043 73.031 73.048 73.063 73.503 78.775 79.496 80.337 81.025 81.742 81.206 80.425 79.655 78.926 79.046 79.817 80.657 81.481 81.619 81.033 80.192 79.336 82.222 83.723 84.537 85.391 86.365 85.982 85.22 84.221 83.434 83.041 83.864 84.938 85.876 86.51 86.009 84.921 84.141 82.898 76.85 76.107 75.457 73.299 73.204 73.243 74.107 73.972 74.208 74.016 74.01 74.737 74.029 74.042 74.069 73.84 73.815 74.222 74.751 74.77 74.851 74.85 74.953 74.922 74.681 74.653 73.182 74.973 78.651 77.27 75.916 75.539 75.483 75.49 75.453 75.403 75.448 78.98 75.95 76.232 75.861 78.121 83.579 80.696 84.84 82.265 76.988 80.15 81.236 81.239 75.599 74.921 74.998 75.089 75.149 75.212 75.216 75.144 75.291 75.367 75.396 75.397 75.415 75.523 75.485 75.557 75.558 75.559 75.597 75.638 75.708 75.756 75.877 75.806 75.831 75.815
-9999 -9999 -9999 -9999 -9999 -9999 -9999 -9999 96.38 96.284 96.069 95.735 95.546 95.436 95.269 95.262 95.416 95.599 95.838 96.049 96.217 96.295 96.369 96.445 96.575 96.557 96.58 96.658 96.69 96.746 96.819 96.912 96.924 96.997 97.045 97.071 97.057 97.053 97.043 96.929 96.879 96.789 96.69 96.491 96.369 96.218 96.047 95.819 95.55 95.311 95.086 94.798 94.532 94.13 93.737 93.475 93.021 92.668 92.508 92.365 92.235 92.022 91.822 91.57 91.386 91.169 90.926 90.71 90.506 90.279 90.078 89.818 89.589 89.338 88.937 88.653 88.398 88.169 87.86 87.595 87.265 87.162 87.087 87.096 87.114 87.161 87.167 87.16 87.181 87.242 87.299 87.399 87.528 87.592 87.593 87.128 87.111 87.159 87.164 87.15 87.225 87.285 87.387 87.507 87.646 87.807 87.94 87.913 88.03 88.128 88.265 88.344 88.4 88.549 88.66 88.745 88.782 88.834 88.877 88.942 88.937 88.938 88.902 88.863 88.855 88.805 88.731 88.604 88.505 88.415 88.289 88.117 87.98 87.863 87.716 87.632 87.576 87.453 87.283 87.196 87.06 86.906 86.794 86.663 86.544 86.513 86.412 86.306 86.23 86.157 86.07 86.024 85.898 85.832 85.811 85.712 85.589 85.592 85.492 85.445 85.364 85.235 85.099 84.911 84.679 84.472 84.209 84.052 83.895 83.778 83.692 83.509 83.402 83.268 83.102 82.979 82.808 82.76 82.714 82.683 82.623 82.662 82.661 82.56 82.485 82.449 82.354 82.271 82.119 81.956 81.85 81.659 81.656 81.596 81.54 81.577 81.785 82.118 82.192 82.163 82.104 82.046 81.756 81.656 81.44 81.326 81.445 81.678 82.655 82.413 82.37 82.161 82.177 82.151 82.187 82.144 82.128 82.119 82.035 82.025 81.996 81.882 81.758 81.674 81.475 81.212 80.959 80.657 80.266 79.913 79.093 78.568 77.671 77.411 77.403 77.173 76.244 75.61 74.605 74.013 73.851 78.348 82.827 82.986 83.106 83.273 83.362 83.483 83.655 83.796 83.878 83.998 84.118 84.298 84.325 84.268 84.098 83.978 83.868 83.76 83.57 83.491 83.336 83.213 83.032 82.966 82.668 81.263 81.417 81.509 81.613 81.75 81.88 81.995 82.155 82.265 82.407 82.54 82.678 76.435 73.784 73.536 73.463 73.417 73.345 73.261 73.198 73.11 72.974 72.934 72.905 72.863 72.846 72.87 72.887 72.89 72.96 72.989 72.968 73.023 73.028 73.022 73.05 73.067 73.022 73.038 73.05 73.056 73.199 75.567 78.433 79.327 79.979 80.93 81.556 81.454 80.788 80.034 79.233 78.922 79.516 80.415 81.146 81.701 81.16 80.447 79.66 79.814 83.313 84.246 85.019 86.064 86.37 85.464 84.664 83.751 82.909 83.641 84.596 85.363 86.254 86.154 85.342 84.208 83.244 80.775 76.303 75.991 73.654 74.144 73.253 73.847 73.918 74.024 73.992 73.953 73.967 73.91 73.938 73.976 73.461 73.742 73.445 74.583 74.671 74.695 74.779 74.553 73.279 73.438 73.471 73.16 74.226 75.345 75.718 75.462 75.482 75.478 75.973 75.498 75.409 75.517 80.694 75.647 76.475 78.74 81.887 82.163 79.693 82.431 78.892 76.122 78.923 80.73 75.319 75.406 74.865 74.962 75.075 75.071 75.057 75.068 75.206 75.29 75.259 75.277 75.245 75.324 75.303 75.344 75.303 75.356 75.317 75.308 75.38 75.368 75.519 75.731 75.893 75.787 75.737
-9999 -9999 -9999 -9999 -9999 -9999 -9999 -9999 -9999 96.121 95.936 95.779 95.485 95.296 95.183 95.244 95.37 95.568 95.88 96.072 96.229 96.358 96.457 96.491 96.537 96.589 96.603 96.648 96.723 96.746 96.801 96.906 96.986 97.009 97.067 97.071 97.059 97.036 96.998 96.94 96.884 96.785 96.703 96.533 96.33 96.183 96.017 95.834 95.617 95.369 95.055 94.72 94.399 94.033 93.61 93.223 92.893 92.714 92.61 92.436 92.279 92.066 91.875 91.595 91.302 91.038 90.869 90.715 90.498 90.272 90.044 89.733 89.488 89.297 89.101 88.814 88.493 88.137 87.859 87.457 87.179 87.026 87.033 87.027 87.043 87.052 87.08 87.062 87.08 87.105 87.13 87.21 87.328 87.43 87.557 87.414 87.013 87.036 87.036 87.06 87.115 87.15 87.263 87.368 87.492 87.656 87.797 87.816 87.879 88.002 88.126 88.192 88.274 88.412 88.485 88.601 88.708 88.747 88.775 88.853 88.781 88.786 88.747 88.751 88.734 88.687 88.599 88.553 88.436 88.331 88.207 88.086 87.931 87.77 87.669 87.565 87.454 87.349 87.192 87.045 86.869 86.734 86.618 86.509 86.401 86.33 86.288 86.203 86.019 85.947 85.847 85.768 85.737 85.648 85.636 85.527 85.474 85.408 85.325 85.231 85.176 85.116 84.935 84.821 84.62 84.423 84.145 84.006 83.837 83.706 83.582 83.474 83.277 83.125 82.99 82.803 82.674 82.582 82.509 82.561 82.512 82.477 82.384 82.375 82.281 82.275 82.16 82.013 81.839 81.663 81.511 81.493 81.4 81.349 81.342 81.424 81.704 81.96 82.08 82.034 81.926 81.939 81.689 81.614 81.385 81.341 81.336 81.574 82.231 82.195 82.105 82.245 82.279 82.183 82.174 82.103 82.153 82.094 81.994 81.956 81.924 81.815 81.703 81.537 81.393 81.054 80.702 80.484 79.592 78.94 78.373 77.681 77.217 77.333 77.061 75.89 74.989 74.443 73.842 73.726 80.071 82.147 83.003 83.124 83.24 83.377 83.491 83.669 83.802 83.922 84.031 84.159 84.315 84.331 84.219 84.077 83.94 83.815 83.716 83.595 83.415 83.304 83.206 83.095 82.898 82.673 81.732 81.46 81.496 81.714 81.849 81.888 82.045 82.226 82.294 82.409 82.545 82.722 82.786 82.773 80.79 73.671 73.467 73.364 73.34 73.491 73.184 73.007 72.908 72.824 72.823 72.773 72.77 72.81 72.845 72.867 72.905 72.949 72.92 72.971 72.968 72.977 72.979 73.011 73.024 73.04 75.564 77.287 77.02 77.906 77.971 78.877 79.739 80.38 81.268 81.665 81.172 80.28 79.512 78.884 79.292 80.024 80.837 81.618 81.618 80.712 80.158 79.288 82.921 83.875 84.663 85.51 86.465 85.845 85.032 84.124 83.085 83.262 84.261 84.922 85.982 86.314 85.582 84.554 83.73 81.832 76.463 76.058 73.978 73.132 73.183 73.252 74.792 73.765 73.935 73.923 73.878 73.853 73.876 74.51 75.098 73.078 74.801 74.897 74.593 74.151 73.685 72.806 72.982 73.366 73.39 73.391 73.639 73.746 74.22 75.275 75.403 76.923 76.081 75.389 75.391 75.467 75.477 75.534 76.195 76.739 80.098 80.714 79.283 78.605 76.371 75.633 74.975 75.838 74.696 74.785 74.898 74.987 74.968 75.021 75.024 75.121 75.141 75.202 75.233 75.158 75.142 75.093 75.078 75.108 75.138 75.119 75.077 75.077 75.019 75.037 75.168 76.109 76.179 76.097 75.753
-9999 -9999 -9999 -9999 -9999 -9999 -9999 -9999 -9999 -9999 95.869 95.654 95.404 95.274 95.158 95.198 95.383 95.647 95.833 96.095 96.227 96.43 96.486 96.514 96.573 96.532 96.607 96.643 96.706 96.745 96.894 96.904 97.003 97.177 97.085 97.104 97.08 97.056 97.003 96.954 96.901 96.785 96.708 96.495 96.358 96.227 96.015 95.797 95.567 95.118 94.927 94.523 94.103 93.71 93.396 93.185 92.927 92.761 92.568 92.384 92.284 92.105 91.903 91.501 91.15 91.002 90.737 90.592 90.325 90.129 89.959 89.652 89.409 89.259 89.089 88.897 88.621 88.195 87.761 87.312 87.115 87.013 86.999 86.986 86.92 86.909 86.946 86.994 86.936 86.938 86.983 87.058 87.103 87.212 87.394 87.471 87.096 86.962 86.965 86.954 87.025 87.068 87.132 87.213 87.313 87.504 87.661 87.705 87.756 87.838 87.976 88.064 88.157 88.282 88.359 88.449 88.529 88.542 88.627 88.675 88.641 88.646 88.63 88.56 88.563 88.533 88.506 88.431 88.379 88.291 88.169 88 87.828 87.725 87.631 87.466 87.344 87.28 87.076 86.945 86.795 86.599 86.501 86.385 86.248 86.187 86.084 85.956 85.791 85.719 85.633 85.575 85.541 85.475 85.466 85.401 85.349 85.256 85.172 85.031 85.012 85.007 84.859 84.668 84.469 84.315 84.099 83.924 83.741 83.614 83.495 83.333 83.173 82.994 82.789 82.656 82.511 82.537 82.449 82.392 82.349 82.261 82.249 82.192 82.148 82.042 81.886 81.758 81.63 81.459 81.38 81.267 81.19 81.171 81.156 81.303 81.39 81.626 81.756 81.846 81.843 81.79 81.789 81.485 81.321 81.227 81.196 81.211 81.771 82.205 82.421 82.507 82.298 82.238 82.116 82.105 82.094 82.013 81.959 81.932 81.844 81.668 81.527 81.395 81.025 80.705 80.249 79.781 78.893 78.342 77.581 77.332 77.286 76.833 76.136 75.053 74.215 73.922 73.857 81.639 82.925 83.039 83.197 83.272 83.441 83.587 83.669 83.805 83.94 84.094 84.372 84.379 84.339 84.208 84.049 83.993 83.76 83.646 83.539 83.417 83.311 83.15 83.042 82.885 81.633 81.508 81.407 81.574 81.694 81.745 81.888 82.054 82.173 82.315 82.443 82.555 82.676 82.862 82.793 82.636 82.413 75.437 73.742 73.399 73.344 73.248 73.149 73.032 72.865 72.755 72.674 72.687 72.697 72.718 72.802 72.848 72.881 72.874 72.893 72.913 72.938 72.96 73.002 72.972 73.119 73.334 76.862 77.93 78.015 78.079 78.177 78.625 79.474 80.191 81.045 81.752 81.417 80.58 79.841 79.13 78.969 79.667 80.548 81.235 81.796 81.196 80.263 79.488 81.477 83.529 84.304 85.212 86.374 86.411 85.322 84.433 83.552 82.949 83.81 84.656 85.588 86.271 85.981 85.031 84.109 83.252 77.547 76.213 75.747 73.197 73.213 73.256 73.976 73.935 73.752 73.852 73.803 73.822 73.832 73.797 73.961 73.835 73.993 74.152 72.672 72.508 72.44 72.565 72.424 73.35 73.4 73.487 72.952 73.469 74.708 75.199 75.212 76.332 75.408 75.381 75.582 75.683 77.956 78.388 75.964 76.293 77.465 76.897 76.948 76.437 75.517 74.979 74.545 74.543 74.707 74.752 74.789 74.83 74.875 74.897 75.016 75.077 75.206 75.079 75.036 75.022 75.022 75.004 74.979 74.919 75.008 74.98 74.91 75.242 75.886 74.766 75.286 75.33 75.624 76.153 75.878
-9999 -9999 -9999 -9999 -9999 -9999 -9999 -9999 -9999 -9999 -9999 95.493 95.324 95.132 95.126 95.204 95.365 95.638 95.924 96.091 96.236 96.354 96.526 96.476 96.535 96.576 96.583 96.577 96.679 96.767 96.854 97.013 97.153 97.193 97.17 97.142 97.1 97.098 97.025 96.964 96.882 96.761 96.712 96.568 96.434 96.216 95.965 95.725 95.397 94.88 94.481 94.098 93.705 93.573 93.362 93.181 92.94 92.746 92.543 92.333 92.047 91.854 91.609 91.44 91.076 90.762 90.54 90.372 90.309 90.115 89.865 89.54 89.298 89.124 89.013 88.901 88.644 88.176 87.724 87.403 87.081 86.991 86.947 86.933 86.875 86.85 86.814 86.878 86.82 86.835 86.851 86.932 86.987 87.059 87.202 87.339 87.457 86.937 86.883 86.916 86.935 86.971 87.012 87.103 87.227 87.345 87.469 87.6 87.616 87.703 87.808 87.915 88.025 88.108 88.257 88.279 88.383 88.379 88.46 88.483 88.455 88.492 88.49 88.484 88.536 88.494 88.443 88.377 88.283 88.236 88.054 87.911 87.786 87.618 87.526 87.373 87.241 87.17 87.049 86.881 86.703 86.503 86.424 86.27 86.154 86.022 85.974 85.833 85.67 85.588 85.493 85.456 85.419 85.352 85.28 85.234 85.214 85.098 84.999 84.906 84.804 84.668 84.614 84.494 84.376 84.173 83.929 83.717 83.6 83.467 83.32 83.15 82.942 82.821 82.684 82.419 82.408 82.294 82.286 82.28 82.264 82.131 82.087 82.051 81.983 81.864 81.718 81.54 81.412 81.275 81.193 81.07 81.092 81.073 81.139 81.129 81.238 81.328 81.445 81.54 81.652 81.668 81.696 81.442 81.225 81.108 81.092 81.166 81.9 82.477 82.149 82.331 82.174 82.093 82.056 82.059 82.047 82.007 81.963 81.933 81.868 81.611 81.255 80.952 80.66 80.209 79.797 78.788 77.998 77.315 77.285 77.225 76.834 75.956 74.928 74.094 73.856 73.927 81.356 82.941 83.085 83.183 83.312 83.444 83.526 83.725 83.842 83.972 84.111 84.223 84.492 84.53 84.157 84.015 83.865 83.786 83.633 83.492 83.368 83.246 83.115 83.009 82.737 82.62 81.346 81.426 81.584 81.711 81.796 81.948 82.093 82.217 82.348 82.473 82.553 82.704 82.798 82.691 82.516 82.408 82.362 82.021 74.886 73.425 73.367 73.255 73.747 73.223 74.173 73.85 72.664 72.606 72.611 72.665 72.71 72.79 72.801 72.848 72.866 72.884 72.896 72.943 72.943 72.968 72.955 72.978 73.336 78.022 78.125 78.286 78.33 78.513 79.182 79.873 80.623 81.279 81.709 80.87 80.086 79.411 78.773 79.418 80.298 81.031 81.626 81.351 80.718 79.746 79.828 82.882 83.927 84.849 85.988 86.473 85.872 84.789 83.795 82.966 83.529 84.224 85.153 86.076 86.28 85.427 84.606 83.606 81.208 76.488 77.341 74.305 73.078 74.335 73.753 73.439 74.347 73.76 73.754 73.748 73.763 73.743 73.578 73.51 72.943 72.456 72.48 72.468 72.448 72.476 72.443 73.153 73.288 73.41 73.403 73.789 74.963 75.059 75.112 75.229 75.238 75.265 75.32 75.512 76.492 77.414 76.847 75.804 76.266 76.551 76.166 75.487 74.948 74.422 74.437 74.58 74.627 74.687 74.778 74.746 74.815 74.88 74.983 75.009 74.999 74.934 74.898 74.909 74.92 74.893 74.817 74.833 74.808 74.787 74.816 74.759 74.431 74.365 74.377 74.832 74.419 75.177 76.397
-9999 -9999 -9999 -9999 -9999 -9999 -9999 -9999 -9999 -9999 -9999 -9999 95.173 95.086 95.08 95.15 95.439 95.62 95.834 96.124 96.288 96.41 96.531 96.58 96.563 96.608 96.592 96.586 96.58 96.754 96.842 96.891 97.078 97.212 97.245 97.19 97.115 97.032 96.99 96.927 96.874 96.794 96.734 96.601 96.329 96.045 95.67 95.224 94.809 94.473 94.201 93.908 93.682 93.547 93.319 93.17 92.955 92.733 92.459 92.115 91.904 91.742 91.553 91.231 90.885 90.679 90.51 90.317 90.235 89.974 89.663 89.485 89.261 89.108 88.947 88.754 88.477 88.215 87.829 87.417 87.094 86.987 86.879 86.826 86.81 86.713 86.679 86.685 86.665 86.673 86.715 86.794 86.791 86.865 86.989 87.237 87.279 87.078 86.815 86.817 86.85 86.858 86.941 87.036 87.061 87.208 87.353 87.448 87.488 87.569 87.687 87.782 87.93 87.982 88.105 88.145 88.201 88.253 88.3 88.351 88.44 88.452 88.45 88.44 88.43 88.428 88.353 88.298 88.236 88.091 87.986 87.838 87.643 87.494 87.392 87.264 87.184 87.076 86.93 86.8 86.648 86.451 86.286 86.144 86.065 85.966 85.819 85.721 85.535 85.491 85.437 85.326 85.338 85.227 85.143 85.075 85.041 84.929 84.797 84.751 84.617 84.492 84.437 84.265 84.144 84.009 83.796 83.699 83.451 83.266 83.063 82.962 82.81 82.577 82.446 82.287 82.194 82.169 82.05 82.096 82.057 81.996 81.937 81.848 81.731 81.652 81.505 81.392 81.262 81.095 80.942 80.925 80.928 80.982 80.963 81.022 81.159 81.158 81.268 81.326 81.383 81.578 81.557 81.471 81.22 81.046 81.045 81.053 81.649 82.116 81.978 82.2 82.076 82.019 81.999 81.995 81.96 81.958 81.908 81.818 81.557 81.157 80.887 80.457 80.086 79.194 78.576 77.774 77.329 77.349 77.339 76.714 75.638 74.685 74.228 73.776 78.167 81.724 82.974 83.068 83.204 83.312 83.449 83.611 83.726 83.796 83.974 84.101 84.27 84.405 84.282 84.247 84.056 83.873 83.738 83.628 83.498 83.367 83.203 83.083 82.99 82.852 81.579 81.458 81.456 81.567 81.7 81.859 81.95 82.101 82.236 82.372 82.472 82.608 82.746 82.755 82.638 82.514 82.385 82.297 82.175 82.017 81.734 74.064 73.422 73.293 73.388 74.628 75.262 73.833 72.559 72.591 75.42 72.622 72.652 72.666 72.784 72.788 72.848 72.844 72.87 72.912 72.944 72.935 72.929 72.925 73.352 77.186 78.372 78.451 78.509 78.632 78.863 79.603 80.367 81.106 81.737 81.23 80.363 79.662 78.943 79.187 79.689 80.662 81.433 81.657 80.988 80.175 79.47 81.56 83.723 84.684 85.346 86.423 85.955 85.298 84.315 83.326 83.074 83.867 84.815 85.776 86.417 85.688 84.781 83.961 81.815 78.318 77.942 76.764 73.101 73.054 73.594 73.534 74.067 73.721 73.679 73.629 73.632 73.621 73.493 73.422 72.692 72.463 72.71 72.611 72.461 72.554 72.517 72.625 73.318 73.394 73.387 73.5 74.833 75.147 74.977 75.042 75.074 76.243 75.261 76.314 77.129 77.305 77.298 75.123 75.808 75.996 76.24 75.037 74.356 74.323 74.428 74.537 74.587 74.61 74.628 74.647 74.794 74.878 74.984 74.869 74.819 74.817 74.769 74.79 74.715 74.736 74.647 74.705 74.732 74.965 74.912 74.505 74.25 74.678 74.35 74.795 74.981 77.472 75.625
-9999 -9999 -9999 -9999 -9999 -9999 -9999 -9999 -9999 -9999 -9999 -9999 -9999 95.045 95.023 95.143 95.344 95.598 95.896 96.122 96.289 96.448 96.563 96.668 96.648 96.649 96.582 96.537 96.564 96.672 96.79 96.867 97.074 97.196 97.252 97.192 97.128 97.036 96.978 96.876 96.814 96.656 96.544 96.446 95.939 95.473 95.033 94.707 94.534 94.314 93.941 93.713 93.586 93.516 93.33 93.077 92.826 92.523 92.373 92.084 91.724 91.562 91.324 91.13 90.836 90.549 90.396 90.267 90.171 89.987 89.671 89.395 89.195 89.009 88.846 88.683 88.43 88.087 87.725 87.4 87.059 86.899 86.815 86.722 86.623 86.619 86.562 86.542 86.537 86.555 86.562 86.608 86.632 86.726 86.845 87.039 87.131 87.201 86.922 86.774 86.798 86.815 86.871 86.948 87.018 87.114 87.204 87.244 87.365 87.443 87.546 87.656 87.764 87.86 87.95 88.06 88.074 88.194 88.27 88.318 88.346 88.36 88.389 88.38 88.369 88.329 88.291 88.264 88.192 88.033 87.887 87.723 87.583 87.44 87.277 87.192 87.051 86.959 86.854 86.677 86.544 86.372 86.219 86.043 85.907 85.845 85.714 85.617 85.476 85.422 85.339 85.244 85.205 85.116 85.026 84.921 84.86 84.792 84.699 84.585 84.435 84.327 84.209 84.165 83.997 83.846 83.678 83.463 83.297 83.031 82.932 82.754 82.607 82.447 82.311 82.164 81.943 81.82 81.764 81.77 81.784 81.697 81.64 81.611 81.583 81.509 81.318 81.204 81.056 80.922 80.811 80.728 80.772 80.737 80.83 80.785 80.897 80.932 81.01 81.093 81.257 81.952 81.503 81.401 81.322 81.066 80.977 80.969 81.459 82.306 81.857 82.19 81.936 81.905 81.871 81.893 81.802 81.724 81.549 81.175 81.029 80.75 80.322 79.752 79 78.321 77.779 77.28 77.401 77.123 76.477 75.865 74.942 73.965 73.98 74.327 81.195 82.96 83.075 83.23 83.383 83.5 83.672 83.755 83.875 84.017 84.133 84.305 84.338 84.266 84.129 83.988 83.87 83.739 83.558 83.394 83.34 83.188 83.069 82.966 82.726 81.668 81.309 81.475 81.6 81.729 81.89 82.008 82.081 82.225 82.407 82.541 82.602 82.812 82.75 82.627 82.523 82.316 82.23 82.111 81.984 81.823 81.717 80.197 74.892 73.556 74.788 75.209 73.372 72.534 74.84 76.419 75.883 72.518 72.545 72.599 72.666 72.736 72.758 72.8 72.877 72.873 72.916 72.917 72.939 72.965 72.926 76.76 78.526 78.545 78.587 78.495 78.699 79.325 80.056 80.9 81.546 81.605 80.662 80.118 79.311 78.93 79.67 80.269 81.07 81.715 81.229 80.388 79.729 80.612 83.14 84.259 85.205 86.2 86.372 85.447 84.709 83.75 82.989 83.508 84.47 85.469 86.208 86.15 85.375 84.198 83.323 79.706 78.119 77.749 74.005 73.05 73.244 73.672 73.631 73.593 73.598 73.57 73.559 73.583 73.468 73.363 72.912 72.447 72.487 72.48 72.451 72.415 72.481 72.432 72.92 73.144 73.632 73.973 74.783 74.746 74.811 74.855 75.817 76.046 74.977 74.695 75.085 77.039 77.059 74.968 75.156 75.275 74.609 74.188 74.261 74.316 74.41 74.479 74.541 74.522 74.532 74.666 74.758 74.767 74.779 74.775 74.637 74.66 74.655 74.612 74.59 74.574 74.534 74.634 76.308 80.47 79.639 74.317 74.083 74.091 74.727 74.782 78.439 80.046 79.769
-9999 -9999 -9999 -9999 -9999 -9999 -9999 -9999 -9999 -9999 -9999 -9999 -9999 -9999 95.023 95.084 95.368 95.575 95.82 96.002 96.346 96.483 96.587 96.681 96.632 96.66 96.596 96.575 96.571 96.645 96.742 96.873 97.088 97.252 97.258 97.127 97.056 97.028 96.999 96.87 96.793 96.56 96.334 96.036 95.649 95.119 94.857 94.484 94.217 93.932 93.782 93.64 93.51 93.369 93.165 92.933 92.746 92.559 92.232 91.927 91.614 91.388 91.19 90.915 90.777 90.699 90.523 90.385 90.261 90.016 89.658 89.386 89.216 89.013 88.839 88.459 88.296 88.095 87.73 87.29 86.997 86.79 86.709 86.642 86.554 86.507 86.452 86.455 86.418 86.427 86.473 86.492 86.546 86.564 86.674 86.828 87.008 87.042 87.17 86.797 86.771 86.793 86.797 86.88 86.927 87.003 87.094 87.156 87.234 87.289 87.354 87.562 87.664 87.774 87.881 87.957 88.039 88.093 88.134 88.195 88.265 88.301 88.341 88.303 88.27 88.275 88.238 88.239 88.109 87.979 87.825 87.646 87.471 87.277 87.114 87.07 86.941 86.835 86.685 86.561 86.449 86.282 86.109 85.914 85.836 85.74 85.617 85.473 85.414 85.335 85.281 85.192 85.098 85.009 84.944 84.834 84.784 84.665 84.583 84.462 84.329 84.14 84.065 84.007 83.853 83.684 83.562 83.398 83.119 82.852 82.734 82.601 82.458 82.305 82.151 81.986 81.761 81.607 81.508 81.478 81.479 81.441 81.427 81.384 81.271 81.19 81.013 80.994 80.834 80.714 80.675 80.294 80.261 80.296 80.426 80.479 80.601 80.622 80.733 80.862 81.082 81.726 81.401 81.288 81.223 81.101 80.969 80.915 81.302 82.2 81.636 81.859 81.848 81.827 81.77 81.728 81.498 81.427 81.084 80.655 80.209 79.583 79.337 78.451 78.118 77.333 77.376 77.358 76.991 76.364 75.554 74.639 73.998 73.717 78.521 82.904 83.013 83.144 83.278 83.375 83.55 83.649 83.772 83.886 84.05 84.22 84.308 84.385 84.225 84.09 83.946 83.8 83.735 83.568 83.462 83.26 83.171 83.057 82.921 81.922 82.259 81.429 81.477 81.678 81.741 81.894 82.012 82.151 82.298 82.435 82.555 82.666 82.822 82.726 82.586 82.426 82.33 82.222 82.081 81.934 81.837 81.648 81.611 81.471 79.196 74.868 75.086 73.354 72.529 74.815 76.493 74.415 72.415 72.413 72.45 72.546 72.617 72.701 72.723 72.761 72.802 72.864 72.86 72.89 72.915 72.894 72.918 74.035 78.375 78.395 78.363 78.268 78.289 79.029 79.814 80.462 81.204 81.718 80.963 80.272 79.54 78.867 79.313 79.931 80.845 81.559 81.588 80.745 80.025 79.264 82.937 83.77 84.664 85.63 86.557 85.875 85.029 84.062 83.122 83.155 84.005 85.166 85.83 86.434 85.48 84.633 83.706 80.677 78.338 77.897 75.555 73.063 74.361 73.271 73.591 73.472 73.559 73.537 73.505 73.488 73.224 73.25 72.802 72.67 72.505 72.452 72.475 72.416 72.443 72.617 73.505 74.026 74.55 74.807 74.607 74.573 74.604 74.671 74.644 74.749 74.549 74.514 74.515 76.298 76.96 75.072 74.774 74.478 74.175 74.134 74.198 74.312 74.358 74.403 74.429 74.409 74.547 74.636 74.649 74.644 74.61 74.574 74.529 74.5 74.458 74.445 74.374 74.35 74.514 75.419 80.942 77.026 76.816 73.932 75.215 73.938 78.047 79.045 80.162 81.764 83.011
-9999 -9999 -9999 -9999 -9999 -9999 -9999 -9999 -9999 -9999 -9999 -9999 -9999 -9999 -9999 95.158 95.289 95.577 95.852 96.191 96.313 96.46 96.643 96.722 96.711 96.685 96.656 96.651 96.609 96.663 96.771 96.869 97.075 97.17 97.165 97.141 97.039 96.954 96.92 96.823 96.709 96.493 96.163 95.882 95.533 95.188 94.699 94.33 94.108 93.786 93.642 93.614 93.485 93.338 93.133 92.915 92.725 92.421 92.16 91.883 91.595 91.269 91.05 91.092 91.43 91.189 90.721 90.368 90.345 90.155 89.854 89.382 89.524 89.05 89.049 88.714 88.154 87.928 87.625 87.328 86.964 86.718 86.53 86.541 86.492 86.415 86.387 86.34 86.346 86.354 86.373 86.426 86.461 86.525 86.551 86.655 86.777 86.863 86.999 86.968 86.758 86.766 86.777 86.818 86.867 86.919 87.009 87.065 87.145 87.241 87.384 87.481 87.584 87.685 87.813 87.877 87.926 88.019 88.054 88.187 88.226 88.245 88.267 88.24 88.194 88.226 88.197 88.167 88.078 87.927 87.73 87.535 87.362 87.175 87.005 86.945 86.829 86.7 86.549 86.44 86.27 86.135 85.975 85.793 85.7 85.571 85.502 85.398 85.306 85.254 85.193 85.124 85.032 84.929 84.81 84.734 84.685 84.603 84.507 84.418 84.247 84.063 83.953 83.862 83.746 83.596 83.44 83.279 83.097 82.805 82.643 82.497 82.322 82.184 81.996 81.786 81.637 81.445 81.342 81.269 81.244 81.171 81.124 81.055 80.97 80.849 80.523 80.595 80.539 80.366 -9999 -9999 80.244 80.278 80.319 80.288 80.316 80.258 80.325 80.473 80.805 80.976 81.216 81.196 81.129 81.136 80.952 80.907 81.309 81.884 81.692 81.497 81.653 81.57 81.57 81.136 81.088 80.694 80.036 79.44 78.852 78.385 77.845 77.592 77.333 77.296 77.222 76.95 76.114 75.162 74.293 74.373 74.066 81.116 82.911 83.066 83.205 83.291 83.402 83.549 83.667 83.817 83.972 84.047 84.19 84.338 84.361 84.189 84.067 83.958 83.794 83.702 83.519 83.406 83.281 83.142 83.044 82.921 82.621 81.293 81.409 81.571 81.736 81.78 81.938 82.049 82.248 82.304 82.464 82.584 82.691 82.817 82.716 82.593 82.422 82.3 82.184 82.04 81.92 81.806 81.672 81.538 81.386 81.185 81.257 75.504 72.711 72.687 76.395 76.839 73.729 72.431 72.453 72.369 72.404 72.466 72.528 72.621 72.667 72.707 72.794 72.801 72.863 72.85 72.862 72.86 72.887 72.862 77.159 78.199 78.14 78.039 78.047 78.644 79.447 80.218 81.001 81.732 81.403 80.61 79.775 79.034 79.052 79.77 80.54 81.332 82.26 81.184 80.31 79.582 81.882 83.531 84.302 85.313 86.322 86.262 85.318 84.339 83.621 82.878 83.822 84.745 85.663 86.455 85.985 85.032 84.266 83.204 78.932 78.03 77.668 73.143 73.011 73.15 73.856 73.613 73.392 73.473 73.409 73.37 73.388 73.05 73.192 73.098 72.468 72.474 72.413 72.495 73.922 74.137 74.345 74.386 74.4 74.426 74.428 74.449 74.441 74.455 74.491 74.476 74.562 76.361 76.411 76.92 76.981 75.405 74.476 73.965 74.017 74.08 74.19 74.258 74.297 74.297 74.288 74.358 74.518 74.519 74.489 74.482 74.445 74.418 74.354 74.323 74.294 74.242 74.207 74.195 78.312 83.002 79.094 82.433 79.774 74.272 76.425 77.663 79.284 80.274 81.202 81.097 80.23
-9999 -9999 -9999 -9999 -9999 -9999 -9999 -9999 -9999 -9999 -9999 -9999 -9999 -9999 -9999 -9999 95.49 95.694 95.833 96.115 96.337 96.531 96.63 96.749 96.754 96.712 96.706 96.654 96.648 96.736 96.806 96.883 96.929 97.11 97.061 96.982 97.002 96.915 96.773 96.654 96.523 96.396 96.17 95.773 95.255 94.946 94.64 94.378 93.96 93.69 93.608 93.541 93.43 93.221 93.029 92.907 92.744 92.424 92.12 91.835 91.55 91.498 91.502 91.15 91.72 91.602 91.315 90.748 90.496 90.776 89.706 89.391 89.553 89.133 89.484 88.723 88.217 88.027 87.875 87.35 86.898 86.675 86.514 86.451 86.429 86.368 86.327 86.319 86.29 86.295 86.34 86.363 86.372 86.4 86.429 86.524 86.717 86.792 86.825 86.902 86.893 86.727 86.749 86.787 86.829 86.888 86.951 87.037 87.092 87.184 87.277 87.405 87.528 87.643 87.71 87.805 87.898 87.974 88.045 88.099 88.165 88.203 88.227 88.195 88.144 88.148 88.13 88.095 87.966 87.821 87.681 87.464 87.248 87.078 86.886 86.817 86.723 86.567 86.446 86.36 86.215 86.01 85.872 85.687 85.549 85.478 85.387 85.286 85.197 85.168 85.087 84.983 84.891 84.814 84.747 84.651 84.555 84.49 84.411 84.329 84.182 83.947 83.795 83.689 83.619 83.458 83.328 83.193 83.011 82.809 82.583 82.442 82.311 82.071 81.882 81.647 81.563 82.745 81.314 81.165 81.016 80.902 80.794 80.655 80.397 80.577 80.46 80.377 -9999 80.286 80.157 -9999 80.198 80.176 80.278 80.549 80.507 80.294 80.293 80.345 80.58 80.768 80.904 81.179 81.014 81.06 80.972 80.882 80.933 82.212 81.481 81.178 81.222 81.25 80.875 80.494 80.063 79.81 79.366 79.072 78.686 78.06 77.575 77.298 77.273 77.166 76.626 75.62 74.703 74.383 73.931 73.898 81.141 82.911 83.088 83.204 83.31 83.494 83.605 83.693 83.769 83.977 84.156 84.249 84.43 84.297 84.191 84.06 83.897 83.767 83.641 83.513 83.376 83.265 83.186 83.036 82.893 81.837 81.466 81.429 81.56 81.685 81.862 81.931 82.105 82.234 82.338 82.447 82.574 82.743 82.81 82.653 82.574 82.42 82.295 82.149 81.955 81.934 81.783 81.637 81.524 81.402 81.199 81.347 81.449 81.657 74.586 76.745 76.812 73.746 72.454 72.438 72.457 72.41 72.406 72.438 72.501 72.569 72.639 72.708 72.725 72.751 72.778 72.822 72.808 72.838 72.861 72.923 73.894 77.917 77.915 77.845 77.797 77.829 79.101 79.909 80.639 81.461 81.62 80.935 80.139 79.416 78.825 79.439 80.135 81.07 82.127 81.713 80.604 79.784 79.219 82.983 83.973 84.897 85.882 86.557 85.802 84.809 83.906 83.069 83.297 84.378 85.247 86.141 86.299 85.435 84.571 83.683 81.963 78.261 77.836 74.444 72.994 73.081 73.243 73.323 73.383 73.39 73.365 73.328 73.296 73.271 73.517 73.804 72.585 73.192 73.342 73.999 74.087 74.055 74.116 74.174 74.254 74.269 74.265 74.299 74.315 74.379 74.316 75.671 76.831 76.97 76.84 75.248 75.247 74.403 73.937 73.908 74.012 74.09 74.134 74.198 74.192 74.215 74.347 74.4 74.445 74.329 74.298 74.336 74.271 74.259 74.239 74.335 74.102 74.034 74.478 75.191 79.081 83.243 84.174 77.565 74.445 75.224 76.982 79.446 80.352 81.202 80.965 79.981 79.193
-9999 -9999 -9999 -9999 -9999 -9999 -9999 -9999 -9999 -9999 -9999 -9999 -9999 -9999 -9999 -9999 -9999 95.73 95.912 96.126 96.308 96.531 96.682 96.751 96.756 96.737 96.75 96.713 96.69 96.724 96.786 96.905 96.915 96.977 96.971 96.895 96.793 96.726 96.603 96.524 96.436 96.287 95.945 95.572 95.231 94.774 94.392 94.025 93.741 93.577 93.512 93.312 93.15 93.081 92.977 92.842 92.668 92.312 92.001 91.781 91.491 91.651 91.709 91.414 91.284 91.028 91.483 90.725 90.384 90.219 90.075 89.688 89.249 89.09 89.074 88.681 88.198 88.031 87.696 87.14 86.902 86.739 86.588 86.46 86.403 86.354 86.312 86.278 86.27 86.269 86.254 86.268 86.285 86.362 86.419 86.433 86.607 86.65 86.764 86.725 87.028 86.836 86.706 86.734 86.789 86.918 86.923 86.987 87.043 87.136 87.247 87.335 87.439 87.584 87.669 87.748 87.812 87.933 88.046 88.058 88.095 88.141 88.154 88.096 88.053 88.022 87.995 87.935 87.862 87.68 87.501 87.307 87.072 86.921 86.78 86.67 86.591 86.396 86.323 86.158 86.057 85.898 85.756 85.594 85.471 85.331 85.278 85.177 85.075 84.978 84.904 84.808 84.771 84.677 84.604 84.507 84.453 84.421 84.314 84.208 84.003 83.877 83.669 83.503 83.449 83.33 83.153 83.045 82.921 82.722 82.549 82.345 82.149 81.97 81.772 81.701 81.474 81.648 81.077 81.032 80.927 80.744 80.604 80.466 80.419 -9999 -9999 -9999 80.187 80.189 80.096 80.184 80.247 80.175 80.257 80.874 80.706 -9999 -9999 -9999 80.448 80.561 80.706 80.971 80.995 80.94 81.007 80.931 80.996 81.876 81.442 80.923 80.932 80.934 80.725 80.438 80.079 79.814 79.344 78.887 78.244 77.638 77.39 77.345 76.994 76.113 75.495 74.84 74.256 73.797 80.539 81.29 82.978 83.145 83.241 83.367 83.497 83.615 83.769 83.885 83.989 84.16 84.3 84.382 84.332 84.175 84.032 83.865 83.769 83.578 83.496 83.391 83.27 83.118 83.011 82.749 81.895 81.351 81.458 81.572 81.717 81.888 82.013 82.081 82.25 82.371 82.471 82.644 82.773 82.857 82.691 82.521 82.408 82.269 82.106 82.008 81.903 81.762 81.61 81.458 81.326 81.239 81.363 81.516 81.641 81.775 80.941 76.926 73.75 72.516 72.476 72.425 72.455 72.414 72.394 72.403 72.466 72.515 72.573 72.681 72.699 72.724 72.736 72.782 72.814 72.808 72.844 72.89 72.951 77.709 77.636 77.508 74.328 73.709 78.824 79.583 80.305 81.11 81.772 81.246 80.48 79.723 78.971 79.073 79.838 80.749 81.631 81.914 80.873 80.127 79.365 82.196 83.699 84.618 85.562 86.551 86.091 85.056 84.246 83.398 83.056 84.083 85.016 85.788 86.513 85.776 84.973 83.936 82.38 79.102 77.97 76.082 73.818 74.313 73.144 73.187 73.26 73.25 73.295 73.224 73.207 73.204 73.27 73.33 73.67 73.458 73.506 73.701 73.803 73.855 73.88 73.994 74.059 74.117 75.258 75.862 75.996 76.712 76.526 77.04 76.794 75.099 74.433 74.58 74.106 73.79 73.808 73.899 73.982 74.023 74.07 74.089 74.104 74.218 74.247 74.226 74.225 74.195 74.186 74.144 74.09 74.114 78.566 79.676 78.374 76.452 74.102 79.643 79.173 76.174 73.376 73.48 74.304 74.018 75.98 77.278 81.412 80.787 79.879 79.135 76.767
-9999 -9999 -9999 -9999 -9999 -9999 -9999 -9999 -9999 -9999 -9999 -9999 -9999 -9999 -9999 -9999 -9999 -9999 95.999 96.152 96.367 96.57 96.718 96.786 96.841 96.768 96.79 96.745 96.722 96.744 96.802 96.885 96.913 96.913 96.891 96.806 96.728 96.65 96.581 96.345 96.284 96.248 95.971 95.516 95.116 94.522 94.2 93.84 93.583 93.47 93.389 93.267 93.08 92.912 92.815 92.632 92.427 92.209 91.958 91.669 91.501 91.457 91.486 91.531 91.153 90.735 90.744 90.538 90.7 90.506 90.091 89.679 89.058 88.738 88.585 88.227 88.519 88.041 87.507 87.08 86.867 86.746 86.627 86.455 86.406 86.316 86.291 86.247 86.226 86.219 86.203 86.215 86.247 86.273 86.315 86.373 86.439 86.566 86.625 86.709 86.712 86.931 86.686 86.701 86.745 86.832 86.856 86.971 87.015 87.111 87.181 87.292 87.404 87.529 87.606 87.695 87.785 87.88 87.932 87.968 87.987 88.023 88.037 88.013 87.888 87.906 87.862 87.768 87.66 87.487 87.316 87.151 86.95 86.78 86.645 86.572 86.446 86.269 86.115 86.071 85.947 85.78 85.626 85.461 85.316 85.218 85.096 84.983 84.865 84.827 84.717 84.591 84.584 84.485 84.454 84.333 84.357 84.296 84.192 84.104 83.895 83.68 83.513 83.366 83.242 83.133 83.081 82.977 82.837 82.679 82.49 82.306 82.118 81.792 81.355 81.137 81.045 80.962 80.883 80.735 80.722 80.536 80.282 80.355 -9999 -9999 -9999 80.386 -9999 80.231 80.261 -9999 80.185 80.158 80.274 80.25 80.378 -9999 -9999 -9999 -9999 80.56 80.607 80.779 80.928 80.845 80.948 80.869 80.786 82.49 81.95 80.76 80.852 80.747 80.597 80.386 80.189 79.887 78.979 78.06 77.605 77.446 77.281 77.05 76.397 75.267 74.448 73.951 74.135 78.454 82.745 83.046 83.158 83.273 83.381 83.554 83.649 83.766 83.886 84.107 84.289 84.308 84.414 84.296 84.137 84.017 83.813 83.758 83.631 83.454 83.315 83.215 83.088 82.955 82.701 81.886 81.344 81.518 81.63 81.787 81.863 82.02 82.128 82.27 82.386 82.51 82.642 82.785 82.733 82.633 82.484 82.393 82.253 82.129 81.947 81.848 81.685 81.583 81.457 81.31 81.24 81.347 81.533 81.641 81.797 81.941 82.072 82.019 72.821 72.483 72.496 72.472 72.423 72.438 72.457 72.416 72.409 72.457 72.553 72.606 72.625 72.69 72.698 72.772 72.751 72.78 72.82 72.829 72.867 74.101 73.895 73.138 72.942 72.997 77.03 79.332 80.062 80.81 81.738 81.682 80.775 79.961 79.206 78.996 79.649 80.278 81.149 82.213 81.32 80.525 79.773 79.83 83.159 84.19 85.024 86.081 86.489 85.402 84.555 83.649 82.879 83.516 84.553 85.393 86.381 86.097 85.146 84.15 83.435 79.471 78.113 77.783 74.876 72.972 73.579 73.218 73.206 73.236 73.167 73.157 73.146 73.166 73.1 73.108 73.151 73.253 73.324 73.463 73.543 73.576 73.67 73.759 73.967 75.925 76.412 76.667 77.254 76.372 75.005 76.897 77.214 75.748 74.617 73.866 73.694 73.68 73.78 73.878 73.957 73.965 73.962 73.932 74.059 74.142 74.059 74.026 74.037 73.981 73.974 73.955 73.934 77.326 80.048 77.349 84.158 82.607 83.168 73.479 73.932 73.158 73.376 73.222 73.126 73.538 74.3 75.956 78.419 79.532 78.639 74.75 73.597
-9999 -9999 -9999 -9999 -9999 -9999 -9999 -9999 -9999 -9999 -9999 -9999 -9999 -9999 -9999 -9999 -9999 -9999 -9999 96.339 96.427 96.569 96.711 96.786 96.843 96.818 96.829 96.786 96.766 96.785 96.821 96.878 96.952 96.91 96.871 96.772 96.606 96.532 96.359 96.306 96.233 96.118 95.939 95.433 95.02 94.446 93.972 93.627 93.477 93.348 93.213 93.067 92.927 92.734 92.662 92.508 92.306 92.048 91.751 91.642 91.543 91.492 91.777 91.838 91.156 90.853 90.94 90.079 89.846 89.566 89.463 89.275 88.872 88.533 88.262 88.09 88.299 87.912 87.38 87.069 86.821 86.749 86.617 86.464 86.405 86.367 86.286 86.247 86.195 86.198 86.173 86.176 86.219 86.236 86.265 86.327 86.354 86.429 86.51 86.627 86.646 86.703 86.855 86.675 86.744 86.812 86.865 86.908 86.997 87.057 87.157 87.275 87.363 87.448 87.566 87.646 87.711 87.77 87.875 87.913 87.902 87.945 87.919 87.853 87.703 87.614 87.589 87.498 87.433 87.294 87.097 86.924 86.785 86.654 86.484 86.383 86.223 86.206 86.019 85.881 85.799 85.622 85.499 85.327 85.2 85.053 84.895 84.822 84.704 84.597 84.501 84.414 84.328 84.28 84.256 84.174 84.143 84.131 84.01 83.917 83.773 83.528 83.394 83.178 83.073 82.917 82.916 82.829 82.735 82.537 82.319 81.694 81.404 81.15 80.922 80.831 80.805 80.67 80.634 80.521 80.464 80.484 80.304 -9999 -9999 -9999 80.463 80.292 80.281 80.248 80.268 -9999 -9999 80.172 80.17 80.121 -9999 -9999 80.2 -9999 -9999 80.45 80.497 80.685 80.79 80.694 80.762 80.773 80.705 81.385 81.859 80.586 80.727 80.647 80.496 80.275 79.93 79.085 78.152 77.61 77.526 77.324 76.833 76.005 75.127 74.324 74.048 73.854 79.397 82.944 83.066 83.129 83.281 83.413 83.549 83.68 83.838 83.883 84.02 84.233 84.542 84.406 84.232 84.071 83.939 83.852 83.709 83.591 83.471 83.333 83.196 83.077 82.963 82.664 81.393 81.414 81.558 81.659 81.798 81.921 82.028 82.168 82.306 82.392 82.568 82.672 82.821 82.786 82.592 82.501 82.408 82.266 82.105 81.978 81.819 81.662 81.563 81.448 81.238 81.253 81.392 81.503 81.651 81.749 81.92 82.073 82.198 82.357 80.963 74.514 72.489 72.512 72.455 72.454 72.44 72.396 72.398 72.385 72.48 72.532 72.606 72.629 72.659 72.711 72.721 72.755 72.79 72.811 72.843 72.852 72.889 72.888 72.917 72.968 73.245 78.916 79.715 80.552 81.221 81.695 80.995 80.246 79.505 78.865 79.333 80.04 80.789 82.054 81.812 80.797 80.072 79.388 82.078 83.772 84.773 85.533 86.478 86.024 85.104 83.964 83.075 83.17 84.169 85.04 85.907 86.355 85.492 84.682 83.77 82.432 78.149 75.832 75.584 72.986 74.242 73.151 73.232 73.099 73.06 73.055 73.018 73.079 73.025 73.02 73.038 73.1 73.159 73.296 73.352 73.424 73.455 73.609 75.816 76.651 76.577 77.47 78.461 78.729 75.216 75.253 74.459 74.946 74.679 73.562 73.575 73.688 73.78 73.838 73.886 73.87 73.887 73.902 73.953 73.857 73.802 73.794 73.776 73.782 73.809 73.77 73.981 80.185 78.274 78.167 82.511 80.965 76.278 73.064 73.303 74.327 73.299 72.913 73.135 72.977 74.188 74.098 76.503 77.978 76.62 75.868 73.876
-9999 -9999 -9999 -9999 -9999 -9999 -9999 -9999 -9999 -9999 -9999 -9999 -9999 -9999 -9999 -9999 -9999 -9999 -9999 -9999 96.541 96.602 96.682 96.82 96.901 96.84 96.811 96.816 96.783 96.804 96.843 96.923 96.958 96.957 96.858 96.727 96.575 96.404 96.281 96.233 96.103 95.917 95.71 95.141 94.482 94.128 93.804 93.544 93.319 93.127 93.035 92.942 92.771 92.6 92.388 92.284 92.142 91.976 91.77 91.587 91.437 91.392 91.46 91.299 90.923 90.81 90.615 90.103 89.467 89.224 89.161 88.968 88.921 88.715 88.405 88.067 87.719 87.462 87.266 87.011 86.868 86.694 86.571 86.475 86.406 86.338 86.282 86.21 86.197 86.161 86.19 86.198 86.23 86.244 86.24 86.272 86.307 86.324 86.443 86.493 86.518 86.597 86.945 86.698 86.71 86.776 86.833 86.909 86.97 87.021 87.127 87.266 87.372 87.462 87.516 87.579 87.631 87.702 87.769 87.804 87.81 87.784 87.714 87.659 87.515 87.447 87.368 87.19 87.15 87.009 86.941 86.758 86.646 86.462 86.294 86.249 86.132 86.035 85.87 85.808 85.661 85.484 85.4 85.213 85.101 84.943 84.754 84.631 84.519 84.418 84.333 84.199 84.117 84.028 84.019 84.038 83.981 83.944 83.881 83.779 83.596 83.444 83.251 83.061 82.948 82.767 82.679 82.618 82.527 81.954 81.472 81.244 80.993 80.804 80.627 80.508 80.409 80.289 80.377 80.452 -9999 -9999 -9999 -9999 -9999 80.517 80.479 80.521 80.273 -9999 -9999 -9999 -9999 -9999 -9999 -9999 -9999 80.197 80.241 80.17 80.175 -9999 80.467 80.621 80.76 80.612 80.563 80.662 80.741 80.769 81.31 80.512 80.522 80.481 80.439 79.842 79.135 78.518 77.751 77.619 77.394 76.876 76.011 76.102 74.298 73.941 73.984 81.162 82.948 83.074 83.204 83.385 83.481 83.608 83.678 83.856 83.964 84.075 84.241 84.369 84.431 84.357 84.107 83.877 83.811 83.689 83.534 83.452 83.3 83.193 83.059 82.917 82.497 81.499 81.404 81.542 81.723 81.843 81.967 82.103 82.166 82.266 82.428 82.566 82.753 82.791 82.725 82.573 82.48 82.389 82.197 82.057 81.92 81.823 81.673 81.579 81.407 81.32 81.249 81.452 81.506 81.689 81.811 81.93 82.102 82.16 82.367 82.509 82.645 80.508 73.028 72.482 72.458 72.441 72.457 72.454 72.394 72.391 72.426 72.513 72.59 72.618 72.627 72.68 72.714 72.741 72.722 72.75 72.807 72.84 72.893 72.87 72.915 72.964 73.301 78.496 79.454 80.299 80.862 82.235 81.426 80.54 79.922 79.074 79.034 79.731 80.469 81.222 82.174 81.068 80.399 79.585 81.63 83.542 84.496 85.238 86.241 86.237 85.449 84.546 83.475 82.825 83.655 84.795 85.492 86.369 86.083 84.964 84.022 81.558 76.238 76.046 75.183 73.521 72.913 73.075 73.105 73.131 72.916 72.876 72.964 72.928 72.97 72.957 72.976 73.061 73.393 73.194 73.221 73.255 74.229 73.873 73.944 74.228 74.008 77.443 78.131 77.625 76.071 75.074 74.022 73.585 73.392 73.455 73.62 73.678 73.713 73.763 73.781 73.766 73.841 73.802 73.707 73.664 73.606 73.62 73.587 73.629 73.685 77.183 79.593 81.762 85.214 76.882 82.556 83.782 76.652 72.942 73.302 72.843 72.801 72.83 72.817 72.796 73.083 73.423 74.41 74.883 74.034 73.914 73.109
-9999 -9999 -9999 -9999 -9999 -9999 -9999 -9999 -9999 -9999 -9999 -9999 -9999 -9999 -9999 -9999 -9999 -9999 -9999 -9999 -9999 96.657 96.781 96.873 96.894 96.859 96.839 96.834 96.866 96.811 96.813 96.928 96.961 96.923 96.849 96.724 96.543 96.303 96.199 96.086 95.924 95.543 95.019 94.412 94.141 93.898 93.612 93.295 92.999 92.988 92.912 92.786 92.597 92.391 92.263 92.182 92.026 91.829 91.697 91.553 91.425 91.342 91.244 91.457 91.166 90.477 90.086 89.645 89.581 89.429 89.277 88.958 88.65 88.382 88.006 87.751 87.493 87.297 87.191 87.002 86.881 86.725 86.573 86.463 86.395 86.35 86.292 86.231 86.168 86.166 86.173 86.177 86.189 86.215 86.22 86.22 86.236 86.234 86.288 86.339 86.389 86.462 86.53 86.808 86.691 86.77 86.86 86.906 86.936 86.969 87.069 87.208 87.312 87.417 87.483 87.508 87.559 87.624 87.668 87.692 87.71 87.657 87.504 87.484 87.316 87.201 87.106 86.95 86.908 86.747 86.652 86.514 86.379 86.259 86.099 86.041 85.917 85.866 85.793 85.6 85.49 85.34 85.231 85.135 85.002 84.803 84.67 84.519 84.388 84.274 84.173 84.034 84.005 83.928 83.871 83.846 83.789 83.765 83.674 83.59 83.458 83.245 83.129 82.94 82.839 82.688 82.519 82.489 82.432 81.455 81.139 80.959 80.689 80.524 80.319 -9999 -9999 -9999 -9999 80.462 -9999 -9999 -9999 -9999 -9999 -9999 80.516 80.531 -9999 -9999 -9999 -9999 -9999 -9999 -9999 -9999 -9999 -9999 80.174 80.148 80.152 -9999 80.336 80.266 80.666 80.697 80.383 80.553 80.52 80.758 81.603 80.418 80.373 80.305 80.26 79.491 78.594 77.792 77.578 77.443 77.057 75.981 74.933 74.299 73.83 73.995 81.146 82.971 83.118 83.287 83.367 83.444 83.603 83.737 83.85 83.967 84.135 84.256 84.429 84.331 84.186 84.065 83.9 83.793 83.684 83.533 83.405 83.304 83.169 83.022 82.74 82.654 81.404 81.415 81.569 81.785 81.893 82.045 82.138 82.247 82.329 82.519 82.608 82.678 82.852 82.677 82.557 82.477 82.294 82.206 82.061 81.909 81.77 81.669 81.547 81.368 81.141 81.349 81.458 81.535 81.695 81.853 81.924 82.116 82.175 82.361 82.455 82.613 82.831 82.83 76.493 73.19 72.52 72.496 72.462 72.435 72.428 72.434 72.491 72.473 72.533 72.589 72.608 72.662 72.677 72.687 72.716 72.755 72.801 72.782 72.836 72.862 72.9 72.94 72.98 76.869 79.249 79.917 80.855 81.653 81.847 80.979 80.249 79.388 78.911 79.447 80.194 81.046 82.145 81.469 80.591 79.846 79.326 83.027 84.11 85.004 85.804 86.409 85.667 84.824 83.987 82.87 83.352 84.36 85.229 86.048 86.26 85.49 84.561 83.612 78.385 76.129 76.169 73.782 72.864 73.122 73.055 73.077 72.936 72.839 72.864 72.906 72.937 72.981 72.96 73.187 73.003 73.026 73.062 73.236 73.163 73.3 73.515 73.771 73.799 75.434 77.121 75.398 73.86 73.482 73.268 73.258 73.351 73.471 73.556 73.616 73.649 73.67 73.728 73.94 73.992 73.686 73.523 73.448 73.424 73.352 73.397 73.462 73.456 79.397 84.22 84.063 84.463 82.295 83.177 86.883 75.615 73.768 72.582 72.583 72.539 72.595 72.551 72.625 73.089 72.908 73.276 73.052 72.886 72.702 73.102
-9999 -9999 -9999 -9999 -9999 -9999 -9999 -9999 -9999 -9999 -9999 -9999 -9999 -9999 -9999 -9999 -9999 -9999 -9999 -9999 -9999 -9999 96.823 96.841 96.875 96.841 96.85 96.829 96.835 96.845 96.828 96.947 96.962 96.935 96.872 96.683 96.388 96.216 96.079 95.661 95.417 94.904 94.624 94.192 93.866 93.631 93.405 93.123 92.864 92.739 92.598 92.611 92.459 92.254 92.124 92.048 91.796 91.711 91.576 91.414 91.252 91.106 90.778 90.692 90.556 90.309 90.051 89.753 89.497 89.227 88.846 88.551 88.285 88.151 87.919 87.786 87.496 87.383 87.224 87.072 86.89 86.73 86.593 86.519 86.434 86.378 86.309 86.258 86.178 86.162 86.192 86.207 86.168 86.201 86.207 86.197 86.19 86.183 86.171 86.202 86.28 86.313 86.437 86.61 86.74 86.719 86.8 86.86 86.93 86.948 86.999 87.108 87.252 87.354 87.452 87.465 87.505 87.561 87.586 87.581 87.542 87.478 87.326 87.231 87.108 86.951 86.926 86.777 86.689 86.558 86.43 86.361 86.22 86.121 85.971 85.891 85.788 85.737 85.652 85.465 85.353 85.278 85.143 84.979 84.803 84.67 84.499 84.381 84.239 84.15 84.044 83.907 83.843 83.737 83.739 83.644 83.582 83.507 83.444 83.407 83.24 83.027 82.931 82.803 82.719 82.606 82.458 82.365 82.241 81.515 81.109 80.885 80.554 -9999 -9999 -9999 -9999 80.323 80.421 80.412 80.428 -9999 -9999 -9999 -9999 -9999 -9999 -9999 -9999 -9999 -9999 -9999 -9999 -9999 -9999 -9999 -9999 80.176 80.176 80.12 80.131 -9999 80.172 80.256 80.641 80.615 80.324 80.334 80.453 80.604 81.418 80.521 80.383 80.253 79.989 78.962 78.096 77.581 77.474 76.867 75.936 74.84 74.175 74.172 75.798 82.764 83.021 83.14 83.254 83.384 83.557 83.651 83.796 83.952 84.079 84.163 84.279 84.443 84.265 84.166 83.988 83.904 83.801 83.662 83.504 83.354 83.234 83.127 82.96 82.865 81.935 81.324 81.451 81.64 81.807 81.851 81.987 82.158 82.283 82.402 82.54 82.631 82.787 82.816 82.661 82.524 82.427 82.27 82.183 82.031 81.886 81.743 81.686 81.516 81.358 81.12 81.354 81.474 81.622 81.69 81.831 81.978 82.064 82.241 82.38 82.562 82.599 82.77 82.717 82.611 82.536 77.148 72.666 72.486 72.492 72.422 72.47 73.714 73.098 72.511 72.578 72.551 72.585 72.608 72.619 72.656 72.671 72.729 72.736 72.768 72.777 72.834 72.878 72.922 72.943 73.225 78.75 79.685 80.237 81.116 82.104 81.194 80.393 79.589 79.094 79.155 79.953 80.566 81.59 82.114 80.989 80.141 79.501 82.09 83.523 84.441 85.435 86.459 86.003 85.173 84.28 83.285 83.041 84.098 84.802 85.751 86.51 85.795 84.928 84.032 82.188 76.296 76.165 75.046 72.92 73.128 72.868 72.964 72.852 72.862 72.835 72.864 72.888 72.866 72.853 72.885 72.907 72.927 72.964 72.971 73.031 73.024 73.042 73.09 73.183 73.159 73.241 73.137 73.137 73.112 73.113 73.217 73.325 73.458 73.525 73.544 73.567 73.59 73.902 74.035 73.977 73.891 73.49 73.246 73.18 73.135 73.18 73.219 73.224 74.427 80.844 83.072 82.869 84.927 86.347 84.429 72.336 72.366 72.463 72.539 72.44 72.538 72.42 72.465 72.469 72.514 72.615 72.488 72.497 72.433 72.568
-9999 -9999 -9999 -9999 -9999 -9999 -9999 -9999 -9999 -9999 -9999 -9999 -9999 -9999 -9999 -9999 -9999 -9999 -9999 -9999 -9999 -9999 -9999 96.828 96.811 96.823 96.824 96.834 96.813 96.854 96.845 96.898 96.896 96.829 96.716 96.476 96.18 95.781 95.444 95.279 95.109 94.833 94.312 93.9 93.703 93.465 93.23 92.898 92.593 92.514 92.469 92.419 92.277 92.068 91.862 91.833 91.634 91.42 91.251 91.07 90.876 90.856 90.583 90.263 89.96 90.014 89.769 89.49 89.17 88.967 88.785 88.593 88.385 88.178 88.005 87.796 87.603 87.401 87.256 87.048 86.893 86.762 86.651 86.558 86.46 86.369 86.315 86.254 86.226 86.213 86.209 86.233 86.216 86.17 86.153 86.167 86.179 86.152 86.156 86.119 86.16 86.248 86.342 86.432 86.79 86.694 86.73 86.813 86.847 86.88 86.936 87.094 87.15 87.293 87.384 87.36 87.414 87.441 87.435 87.379 87.281 87.179 87.089 87.056 86.858 86.78 86.717 86.594 86.547 86.42 86.249 86.188 86.124 85.968 85.818 85.734 85.675 85.645 85.577 85.441 85.269 85.164 85.11 84.973 84.791 84.595 84.381 84.273 84.135 84.002 83.853 83.775 83.675 83.575 83.516 83.433 83.296 83.293 83.189 83.028 82.982 82.827 82.767 82.647 82.568 82.523 82.383 82.293 82.109 81.471 81.108 80.724 80.382 -9999 -9999 -9999 80.52 80.424 80.652 80.676 80.352 -9999 -9999 -9999 -9999 -9999 -9999 -9999 -9999 -9999 -9999 -9999 -9999 -9999 -9999 -9999 80.189 80.226 80.157 80.136 80.188 80.264 80.2 80.391 80.582 80.556 80.308 80.197 80.307 80.479 81.061 80.631 80.367 80.14 79.641 78.946 77.764 77.491 76.885 75.634 74.55 74.098 73.913 75.34 82.84 83.008 83.182 83.272 83.398 83.573 83.702 83.796 83.91 84.071 84.359 84.413 84.389 84.319 84.146 83.996 83.891 83.757 83.623 83.46 83.386 83.216 83.081 82.96 82.744 81.889 81.36 81.536 81.654 81.758 81.916 82.013 82.169 82.336 82.396 82.533 82.662 82.843 82.811 82.623 82.517 82.433 82.282 82.139 82.006 81.879 81.757 81.612 81.469 81.365 81.327 81.412 81.513 81.64 81.74 81.915 82.035 82.139 82.226 82.401 82.472 82.68 82.788 82.693 82.572 82.424 82.319 79.345 74.632 72.498 72.485 72.63 73.197 73.25 72.812 73.315 72.5 72.522 72.535 72.548 72.597 72.605 72.642 72.678 72.709 72.752 72.762 72.805 72.849 72.865 72.924 72.977 77.001 79.311 80.086 80.729 82.109 81.722 80.81 80.007 79.198 78.869 79.556 80.266 81.147 82.188 81.214 80.4 79.594 79.682 83.305 84.24 85.141 85.9 86.387 85.519 84.655 83.69 82.837 83.673 84.663 85.428 86.24 86.123 78.927 78.367 76.137 76.174 76.159 74.337 73.084 72.788 72.728 72.795 72.766 72.944 72.764 72.789 72.788 72.773 72.784 72.787 72.815 72.861 72.845 72.882 72.895 72.933 72.968 72.963 72.986 72.957 72.985 72.974 72.999 73.028 73.169 73.272 73.348 73.438 73.421 73.469 73.537 73.694 74.023 73.863 73.732 73.727 73.752 73.083 72.961 72.856 73.104 78.521 79.282 78.892 79.848 81.451 81.865 81.707 83.079 76.59 72.116 72.392 72.173 72.257 72.19 72.289 72.645 72.173 72.346 72.453 72.247 72.296 72.392 72.385 72.553
-9999 -9999 -9999 -9999 -9999 -9999 -9999 -9999 -9999 -9999 -9999 -9999 -9999 -9999 -9999 -9999 -9999 -9999 -9999 -9999 -9999 -9999 -9999 -9999 96.806 96.771 96.803 96.809 96.789 96.799 96.84 96.871 96.83 96.701 96.559 96.209 95.715 95.487 95.144 94.889 94.636 94.293 94.097 93.754 93.45 93.152 92.874 92.725 92.496 92.368 92.3 92.118 92.048 91.874 91.666 91.556 91.426 91.146 91.068 90.89 90.686 90.499 90.289 90.13 89.944 89.69 89.515 89.292 89.159 88.985 88.788 88.569 88.373 88.17 87.993 87.795 87.622 87.388 87.244 87.119 86.956 86.827 86.687 86.61 86.526 86.462 86.387 86.366 86.295 86.289 86.236 86.212 86.183 86.147 86.148 86.15 86.151 86.1 86.095 86.042 86.034 86.115 86.175 86.339 86.414 86.596 86.679 86.719 86.768 86.838 86.903 87.007 87.051 87.225 87.267 87.286 87.303 87.243 87.144 87.146 87.078 86.999 86.897 86.782 86.675 86.517 86.533 86.396 86.318 86.227 86.122 86.001 85.952 85.819 85.695 85.611 85.599 85.5 85.473 85.325 85.21 85.053 84.994 84.801 84.681 84.495 84.258 84.144 83.979 83.867 83.725 83.598 83.476 83.406 83.332 83.236 83.118 83.012 82.897 82.788 82.764 82.681 82.594 82.5 82.442 82.319 82.193 82.05 81.952 81.658 81.16 80.861 80.473 -9999 -9999 -9999 80.581 80.689 80.788 80.497 80.367 -9999 -9999 -9999 -9999 -9999 -9999 -9999 -9999 -9999 -9999 -9999 -9999 -9999 -9999 -9999 -9999 80.158 80.176 80.194 80.251 80.295 80.26 80.457 80.584 80.398 80.247 80.066 80.156 80.261 80.55 80.429 80.057 80.027 80.019 78.187 77.254 76.827 75.723 74.995 74.118 73.694 79.632 82.924 83.039 83.18 83.322 83.474 83.572 83.708 83.853 83.993 84.128 84.257 84.444 84.535 84.293 84.122 83.954 83.856 83.693 83.574 83.441 83.335 83.201 83.084 82.954 81.962 81.654 81.372 81.504 81.686 81.805 81.926 82.058 82.208 82.331 82.435 82.57 82.753 82.801 82.759 82.623 82.478 82.373 82.168 82.133 82.007 81.799 81.713 81.572 81.47 81.154 81.256 81.416 81.566 81.713 81.81 81.932 82.01 82.178 82.317 82.424 82.532 82.694 82.737 82.638 82.478 82.414 82.294 82.141 81.914 80.136 72.912 72.57 73.291 73.862 73.989 74.848 75.083 72.907 75.609 72.622 72.548 72.598 72.578 72.595 72.675 72.686 72.745 72.785 72.77 72.83 72.858 72.925 72.953 74.185 79.048 79.686 80.501 81.423 81.898 81.032 80.263 79.681 78.901 79.356 79.939 80.938 81.489 81.627 80.796 80.002 79.442 82.843 83.737 84.801 85.66 86.472 85.836 84.95 83.958 83.141 83.278 84.23 84.879 85.731 76.557 74.935 76.108 74.408 73.736 73.154 72.829 72.754 72.704 72.693 72.721 72.68 72.702 72.681 72.678 72.697 72.671 72.709 72.722 72.732 72.772 72.774 72.787 72.828 72.852 72.865 72.869 72.86 72.866 72.913 72.912 72.929 73.042 73.16 73.243 73.292 73.349 73.35 73.474 73.669 73.776 73.413 73.305 73.218 73.549 73.667 73.399 72.719 72.63 74.946 79.679 80.981 82.437 80.943 74.764 76.85 75.188 72.865 71.996 72.079 72.167 72.131 72.115 72.054 71.96 72.039 72.104 72.148 72.038 72.06 72.11 72.114 72.205 72.22
-9999 -9999 -9999 -9999 -9999 -9999 -9999 -9999 -9999 -9999 -9999 -9999 -9999 -9999 -9999 -9999 -9999 -9999 -9999 -9999 -9999 -9999 -9999 -9999 -9999 96.784 96.78 96.765 96.75 96.768 96.789 96.777 96.716 96.54 96.392 96.062 95.598 95.192 94.867 94.591 94.391 94.181 93.833 93.515 93.235 93.058 92.827 92.54 92.222 92.106 92.036 91.954 91.821 91.629 91.49 91.386 91.313 91.097 90.855 90.713 90.587 90.471 90.266 90.098 89.873 89.654 89.517 89.392 89.213 88.972 88.771 88.628 88.444 88.203 88.001 87.766 87.558 87.438 87.257 87.117 86.982 86.889 86.79 86.66 86.625 86.519 86.473 86.431 86.351 86.294 86.24 86.206 86.166 86.114 86.112 86.102 86.062 86.009 86.023 85.951 85.951 86.007 86.12 86.241 86.326 86.352 86.621 86.659 86.673 86.754 86.856 86.916 87.029 87.096 87.184 87.193 87.187 87.106 87.043 86.959 86.867 86.766 86.644 86.63 86.462 86.329 86.222 86.189 86.157 86.036 85.883 85.769 85.757 85.655 85.514 85.476 85.437 85.384 85.305 85.212 85.097 84.899 84.838 84.714 84.524 84.297 84.189 84.004 83.837 83.638 83.506 83.444 83.325 83.209 83.133 83.014 82.904 82.825 82.672 82.613 82.558 82.497 82.434 82.345 82.208 82.16 82.019 81.906 81.731 81.473 81.219 80.887 80.675 -9999 -9999 -9999 80.574 80.473 80.273 80.424 -9999 -9999 -9999 -9999 -9999 -9999 -9999 -9999 -9999 -9999 -9999 80.255 -9999 -9999 -9999 80.427 80.449 80.331 80.25 80.254 80.444 80.434 80.402 80.352 80.371 80.325 80.155 79.901 79.889 80.123 80.293 80.514 79.951 79.838 79.224 78.025 76.889 75.829 74.565 73.947 73.877 81.628 82.932 83.071 83.252 83.314 83.41 83.582 83.735 83.848 83.972 84.106 84.263 84.382 84.414 84.413 84.165 83.943 83.837 83.697 83.584 83.433 83.296 83.161 83.023 82.931 82.622 81.49 81.448 81.542 81.74 81.817 81.953 82.052 82.263 82.336 82.468 82.605 82.667 82.828 82.787 82.637 82.469 82.337 82.202 82.076 81.936 81.817 81.665 81.549 81.421 81.207 81.334 81.456 81.571 81.675 81.844 81.928 82.052 82.231 82.348 82.408 82.579 82.752 82.717 82.59 82.484 82.378 82.279 82.082 82.003 81.875 81.781 78.964 73.683 73.727 74.116 75.129 75.006 74.939 76.277 76.7 74.478 72.54 72.522 72.547 72.573 72.608 72.665 72.699 72.753 72.796 72.812 72.855 72.87 72.912 73.075 77.319 79.498 80.251 80.904 82.066 81.462 80.565 79.769 79.119 79.008 79.668 80.402 81.333 81.753 81.126 80.562 83.138 82.86 83.407 84.341 85.171 86.149 86.178 85.374 84.357 83.357 79.276 78.306 76.172 75.354 73.386 72.987 73.84 72.849 72.806 72.769 72.746 72.744 72.765 72.702 72.676 72.67 72.612 72.605 72.615 72.617 72.622 72.626 72.626 72.688 72.712 72.696 72.708 72.721 72.776 72.781 72.795 72.825 72.823 72.822 72.853 73.248 73.116 73.146 73.202 73.278 73.237 73.316 73.573 73.672 73.204 72.937 72.858 72.867 73.263 73.468 73.199 72.557 72.351 74.583 78.916 81.143 80.93 78.82 73.224 74.559 71.817 71.735 71.885 71.788 71.689 71.818 72.036 71.844 71.866 71.793 71.845 72.093 71.994 72.059 72.737 72.022 71.984 72.04
-9999 -9999 -9999 -9999 -9999 -9999 -9999 -9999 -9999 -9999 -9999 -9999 -9999 -9999 -9999 -9999 -9999 -9999 -9999 -9999 -9999 -9999 -9999 -9999 -9999 -9999 96.75 96.757 96.724 96.746 96.725 96.685 96.496 96.451 96.289 95.868 95.404 94.953 94.79 94.491 94.209 93.938 93.717 93.405 93.146 92.922 92.657 92.385 92.214 92.009 91.887 91.748 91.576 91.447 91.352 91.304 91.234 91.095 91.24 91.205 90.613 90.419 90.226 90.03 89.874 89.676 89.5 89.326 89.077 88.943 88.762 88.588 88.359 88.174 87.994 87.772 87.599 87.465 87.299 87.197 87.078 86.996 86.895 86.772 86.682 86.595 86.515 86.417 86.325 86.234 86.207 86.148 86.103 86.056 86.044 86.022 85.959 85.903 85.85 85.842 85.867 85.923 86.004 86.106 86.193 86.251 86.607 86.634 86.626 86.667 86.758 86.84 86.912 87.017 87.074 87.077 87.087 86.999 86.924 86.801 86.715 86.578 86.418 86.342 86.242 86.17 86.076 86.016 85.958 85.824 85.77 85.639 85.6 85.511 85.41 85.354 85.321 85.273 85.146 85.106 84.948 84.737 84.618 84.481 84.313 84.115 83.942 83.73 83.539 83.471 83.354 83.209 83.093 82.963 82.912 82.833 82.645 82.568 82.461 82.373 82.355 82.288 82.234 82.106 82.081 81.964 81.858 81.683 81.588 81.478 81.199 80.966 80.561 80.528 -9999 -9999 -9999 -9999 -9999 -9999 -9999 -9999 -9999 -9999 -9999 -9999 -9999 -9999 -9999 80.259 80.257 80.266 80.264 80.316 80.395 80.322 80.475 80.452 80.465 80.526 80.551 81.534 81.445 81.884 82.494 82.593 80.613 79.808 79.733 79.995 81.524 80.576 79.848 79.764 79.08 77.82 76.757 75.222 74.102 74.608 81.924 82.925 83.091 83.219 83.34 83.473 83.605 83.762 83.885 84.011 84.16 84.304 84.432 84.359 84.242 84.099 83.951 83.813 83.673 83.499 83.391 83.258 83.158 82.994 82.867 81.649 81.453 81.474 81.646 81.712 81.813 81.996 82.09 82.209 82.386 82.464 82.571 82.765 82.821 82.728 82.592 82.429 82.288 82.172 82.051 81.92 81.795 81.661 81.527 81.347 81.127 81.307 81.485 81.598 81.71 81.862 81.947 82.128 82.264 82.342 82.479 82.613 82.793 82.723 82.558 82.469 82.377 82.244 82.117 81.952 81.808 81.743 81.646 81.473 79.025 73.642 75.06 74.548 72.905 76.182 75.921 72.908 72.561 74.116 73.247 72.514 72.572 72.594 72.627 72.67 72.694 72.812 72.769 72.833 72.872 72.898 72.911 74.135 79.157 80.016 80.537 81.489 81.821 80.844 80.139 79.345 78.887 79.484 80.298 81.061 82.661 84.364 84.729 83.963 83.242 83.106 84.08 84.928 85.789 86.547 85.454 80.214 76.155 76.155 76.294 74.857 75.412 73.496 72.912 72.82 72.75 72.651 72.66 72.734 72.78 72.693 72.686 72.635 72.683 72.607 72.578 72.573 72.604 72.575 72.57 72.595 72.609 72.595 72.636 72.638 72.642 72.66 72.68 72.692 72.725 72.738 72.771 72.878 74.122 73.208 73.096 73.137 73.136 75.386 76.588 74.257 72.696 72.604 72.528 72.577 72.438 72.739 73.111 72.607 72.449 72.557 72.189 76.45 78.526 79.081 76.936 71.734 71.664 71.622 71.66 71.725 71.536 71.914 71.777 71.616 71.773 71.859 71.634 71.606 71.843 71.861 71.792 72.016 71.951 72.208 71.96
-9999 -9999 -9999 -9999 -9999 -9999 -9999 -9999 -9999 -9999 -9999 -9999 -9999 -9999 -9999 -9999 -9999 -9999 -9999 -9999 -9999 -9999 -9999 -9999 -9999 -9999 -9999 96.734 96.68 96.615 96.581 96.543 96.395 96.15 95.895 95.702 95.366 94.985 94.59 94.26 94.055 93.805 93.436 93.179 93.04 92.853 92.636 92.451 92.187 91.957 91.782 91.664 91.487 91.363 91.331 91.313 91.301 91.183 91.39 90.765 90.511 90.38 90.196 90.011 89.839 89.665 89.516 89.281 89.077 88.849 88.717 88.477 88.356 88.119 87.942 87.744 87.616 87.481 87.375 87.25 87.133 86.977 86.899 86.796 86.694 86.583 86.487 86.419 86.285 86.198 86.151 86.097 86.053 85.998 85.953 85.916 85.832 85.755 85.736 85.76 85.833 85.882 85.928 85.97 86.054 86.147 86.247 86.622 86.543 86.593 86.62 86.733 86.825 86.893 86.928 86.899 86.919 86.806 86.699 86.605 86.456 86.319 86.227 86.164 86.075 85.922 85.886 85.784 85.784 85.678 85.56 85.507 85.464 85.41 85.321 85.232 85.184 85.125 85.054 84.942 84.807 84.464 84.45 84.302 84.106 83.907 83.682 83.523 83.301 83.196 82.994 82.894 82.853 82.706 82.578 82.519 82.34 82.339 82.232 82.104 82.12 82.068 82.002 81.868 81.8 81.795 81.685 81.535 81.427 81.389 81.156 80.928 80.654 80.448 -9999 -9999 -9999 -9999 -9999 -9999 -9999 80.288 80.389 80.476 80.439 80.381 80.334 80.302 80.251 80.261 80.227 80.27 80.359 80.342 80.402 80.466 80.406 80.642 81.967 81.999 82.435 82.509 82.375 80.652 80.348 80.051 79.663 79.558 79.548 79.67 80.568 81.865 79.958 79.552 79.258 78.222 76.98 75.772 74.346 74.037 78.318 82.985 83.263 83.374 83.539 83.609 83.804 83.879 84.009 84.336 84.353 84.415 84.354 84.22 84.054 83.892 83.766 83.671 83.525 83.39 83.258 83.103 83 82.715 81.937 81.337 81.429 81.611 81.735 81.897 82.008 82.155 82.273 82.397 82.487 82.621 82.763 82.774 82.741 82.522 82.479 82.254 82.176 82.043 81.935 81.75 81.627 81.504 81.374 81.269 81.39 81.516 81.62 81.783 81.913 82.004 82.186 82.227 82.402 82.526 82.656 82.685 82.751 82.553 82.445 82.324 82.119 82.068 81.893 81.838 81.733 81.518 81.474 81.276 81.294 75.824 73.567 72.735 76.199 76.486 72.984 75.014 76.003 76.704 73.276 72.525 72.533 72.582 72.622 72.674 72.682 72.736 72.754 72.815 72.875 72.874 72.932 74.473 78.709 79.711 80.363 81.062 82.373 81.178 80.522 79.751 78.884 79.192 82.18 84.418 85.685 85.761 84.984 84.285 83.567 82.887 83.648 84.534 85.139 76.894 73.043 75.526 76.194 74.433 74.686 74.448 73.677 72.962 72.732 72.76 72.72 72.721 72.729 72.732 72.769 72.767 72.662 72.647 72.743 72.683 72.661 72.682 74.083 74.273 73.289 72.604 72.538 72.554 72.545 72.564 72.566 72.596 72.62 72.634 72.65 72.673 72.786 72.883 73.392 73.001 73.045 73.035 73.123 76.616 77.845 77.583 74.217 72.46 72.643 72.567 72.389 72.634 72.443 72.036 72.135 72.344 72.635 72.387 73.522 73.415 71.623 71.452 71.384 71.415 71.401 71.348 71.391 71.414 71.494 71.919 71.562 71.452 71.455 71.585 71.668 71.641 71.643 71.648 72.211 71.746 72.008
-9999 -9999 -9999 -9999 -9999 -9999 -9999 -9999 -9999 -9999 -9999 -9999 -9999 -9999 -9999 -9999 -9999 -9999 -9999 -9999 -9999 -9999 -9999 -9999 -9999 -9999 -9999 -9999 96.581 96.527 96.448 96.328 96.029 95.96 95.711 95.434 95.112 94.835 94.508 94.104 93.788 93.464 93.25 93.013 92.81 92.601 92.474 92.272 92.142 91.984 91.77 91.596 91.467 91.449 91.417 91.35 91.239 91.073 90.86 90.655 90.467 90.307 90.098 89.92 89.803 89.635 89.452 89.191 89.021 88.873 88.682 88.456 88.272 88.023 87.871 87.748 87.59 87.46 87.328 87.237 87.094 86.982 86.848 86.739 86.614 86.531 86.434 86.328 86.257 86.191 86.135 86.085 86.018 85.932 85.849 85.799 85.748 85.655 85.643 85.698 85.754 85.802 85.865 85.914 85.99 86.02 86.062 86.234 86.475 86.456 86.511 86.536 86.636 86.706 86.709 86.69 86.677 86.623 86.458 86.363 86.244 86.132 85.982 85.852 85.81 85.706 85.644 85.577 85.538 85.522 85.463 85.415 85.314 85.292 85.182 85.117 85.08 84.981 84.881 84.731 84.606 84.402 84.217 84.026 83.931 83.681 83.438 83.284 83.082 82.965 82.806 82.614 82.563 82.429 82.26 82.209 82.076 81.988 81.927 81.93 81.864 81.787 81.75 81.63 81.603 81.518 81.406 81.285 81.241 81.144 81.06 80.887 80.747 80.427 80.494 80.41 80.371 -9999 -9999 80.229 80.261 80.193 80.416 80.467 80.437 80.384 80.383 80.341 80.331 80.234 80.287 80.385 80.475 81.415 81.789 82.342 82.554 82.642 81.308 80.766 80.691 79.823 79.797 79.702 79.601 79.448 79.289 79.298 79.324 79.469 79.763 80.047 79.437 79.406 79.398 78.582 77.513 76.414 75.319 74.104 74.682 81.422 83.315 83.545 83.658 83.828 83.925 84.068 84.203 84.356 84.484 84.334 84.173 84.055 83.897 83.734 83.591 83.495 83.366 83.216 83.07 82.991 82.786 81.629 81.365 81.511 81.686 81.811 81.95 82.04 82.174 82.303 82.431 82.543 82.66 82.757 82.821 82.607 82.513 82.404 82.266 82.145 81.989 81.876 81.759 81.632 81.512 81.348 81.222 81.381 81.498 81.673 81.795 81.903 82.025 82.17 82.286 82.485 82.534 82.652 82.776 82.701 82.561 82.484 82.31 82.185 82.063 81.918 81.81 81.656 81.517 81.434 81.301 81.325 81.412 81.57 76.561 76.65 73.921 72.516 72.575 76.17 76.512 73.667 72.461 72.464 72.468 72.529 72.59 72.649 72.657 72.718 72.76 72.777 72.826 72.841 74.849 75.698 77.703 79.351 79.962 80.841 81.826 81.397 80.825 80.265 83.568 83.609 84.099 84.6 85.235 85.949 85.28 84.559 83.768 83.082 79.296 78.31 74.718 73.029 72.939 74.426 74.727 74.614 74.818 73.594 72.797 72.745 72.71 72.753 72.728 72.725 72.694 73.991 76.213 73.664 76.628 75.825 74.071 72.731 74.187 74.15 75.332 75.462 73.485 72.728 72.567 72.51 72.487 72.498 72.486 72.518 72.521 72.531 72.585 72.684 72.792 72.864 72.904 72.97 72.976 72.934 73.373 76.258 77.286 77.287 73.323 71.962 72.206 72.503 72.212 71.749 71.615 71.67 71.743 71.944 72.294 72.551 71.509 71.379 71.328 71.314 71.225 71.157 71.209 71.346 71.201 71.514 71.875 71.402 71.275 71.397 71.4 71.47 71.496 71.435 71.417 71.611 71.58 71.636 71.65
