ncols 426
nrows 32
xllcorner    426044
yllcorner    431458
cellsize     2
NODATA_value -9999
68.86 68.737 68.606 68.323 68.217 68.03 67.771 67.658 67.675 67.792 67.684 67.199 67.031 66.64 66.629 66.652 66.75 66.985 66.767 66.812 67.326 67.619 67.439 67.158 70 71.405 70.309 69.288 68.87 68.296 71.532 70.49 71.745 69.531 69.311 72.027 70.454 75.659 75.832 76.472 73.421 69.397 67.253 67.422 67.287 67.293 67.361 67.207 68.056 71.247 68.392 68.968 71.545 72.011 68.547 67.453 67.411 67.382 67.301 67.275 67.56 68.172 67.761 67.704 68.062 68.112 68.206 67.964 67.77 67.54 67.579 67.377 67.254 67.325 67.457 67.417 67.162 67.675 67.868 67.208 67.196 67.473 67.269 66.964 66.458 65.737 65.649 65.591 65.516 65.44 65.393 65.342 65.276 65.246 65.165 65.082 65.042 64.991 66.38 67.248 64.215 64.209 64.255 64.284 64.119 64.103 64.118 64.195 64.121 64.169 64.137 64.137 64.108 64.06 64.059 63.998 65.089 66.976 66.032 64.494 63.847 63.878 63.851 63.823 63.87 64.22 63.777 65.259 64.245 64.33 63.745 63.741 63.722 63.645 63.564 63.529 63.567 63.517 63.537 65.951 67.658 69.692 67.808 65.938 66.795 66.735 63.57 63.542 63.123 63.058 62.997 62.973 62.916 62.942 62.861 62.814 62.803 62.785 62.757 62.71 62.656 62.83 62.908 62.907 62.765 62.79 62.915 63.272 63.309 63.978 63.819 63.795 63.933 63.611 62.209 62.917 62.595 60.721 60.624 60.589 61.325 61.154 61.513 61.23 59.434 59.378 59.265 59.113 58.874 58.766 59.629 60.456 59.947 57.737 58.421 61.348 63.02 63.533 64.159 64.568 60.01 56.91 56.394 61.424 59.978 56.029 56.293 55.812 55.668 55.348 55.26 55.046 54.922 54.855 54.761 54.642 54.555 54.473 54.528 54.247 54.147 54.175 54.501 54.218 54 53.575 53.408 53.373 53.33 54.675 53.116 53.048 54.303 52.693 52.485 52.439 52.354 52.304 52.464 52.633 52.143 52.01 53.311 59.37 58.729 57.724 54.901 54.115 52.1 53.755 56.004 52.613 51.839 51.974 51.969 51.916 51.544 51.451 51.413 51.321 51.367 51.123 51.387 57.19 57.976 57.505 55.79 51.473 51.786 51.137 50.332 50.193 50.173 50.157 50.111 50.035 49.813 49.746 49.811 53.06 55.623 55.856 54.007 49.426 49.49 49.519 49.711 49.965 49.675 49.286 50.681 51.378 53.943 55.319 55.573 54.451 49.737 48.44 48.291 48.208 48.187 47.978 47.982 47.96 47.903 47.83 47.799 47.719 47.696 47.621 47.533 47.47 47.462 47.391 47.39 47.35 47.279 47.278 47.218 47.18 47.111 47.024 47.101 47.148 47.225 46.97 50.848 52.923 53.634 53.05 50.173 48.792 48.427 47.216 46.521 46.503 46.49 46.406 46.357 46.355 47.063 46.403 46.292 46.194 46.117 46.077 48.366 46.458 46.65 47.106 48.337 48.856 46.412 46.16 46.192 46.25 46.12 46.125 46.144 46.171 46.255 46.003 46.256 48.824 51.887 53.271 52.682 51.717 48.746 45.17 44.933 45.075 44.627 44.498 44.751 45.837 45.442 45.085 44.505 44.487 44.023 44.01 44.932 44.67 43.996 43.898 44.545 46.177 50.726 48.72 55.55 49.553 50.815 45.362 48.904 47.274 45.628 51.837 50.256 47.516 45.631 45.487 45.137 44.849 44.801 44.739 45.216 44.714 44.658 44.597 44.58 44.51 45.176 46.091 45.721 44.595 45.127 44.367 44.285 44.278 44.265 44.215 44.251 46.753 46.15 46.203
69.048 68.869 68.74 68.55 68.327 68.228 67.967 67.856 67.741 67.902 67.831 67.468 66.983 66.806 66.688 66.704 66.836 66.829 66.859 66.907 67.744 67.688 67.414 67.341 69.742 70.705 68.41 68.354 69.163 67.739 70.704 71.827 71.948 71.573 70.32 71.303 75.136 75.117 74.588 71.507 68.65 68.503 67.208 67.177 67.3 67.33 67.536 67.284 67.224 69.183 68.979 67.424 70.969 71.184 67.986 67.465 67.456 67.484 67.368 67.347 67.712 68.253 68.162 67.884 67.761 67.891 67.735 67.723 67.628 67.628 68.068 70.966 69.576 67.569 67.49 67.615 67.894 70.017 67.903 67.298 67.621 70.655 67.943 67.196 66.424 65.796 65.574 65.525 65.459 65.412 65.351 65.323 65.255 65.221 65.165 65.059 65.028 64.959 64.925 64.882 64.633 65.155 64.382 64.358 64.244 64.229 64.239 64.192 64.161 64.15 64.082 64.115 64.083 64.087 64.09 64.053 63.965 64.942 63.941 63.943 63.93 63.838 63.775 63.804 63.863 63.732 63.974 65.806 65.459 63.969 63.787 63.757 63.726 63.7 63.683 63.569 63.537 63.474 63.587 66.014 67.739 68.155 66.9 63.826 63.756 64.843 63.745 63.484 63.453 63.203 63.018 62.985 62.96 62.923 62.918 62.814 62.811 62.765 62.767 62.707 62.658 62.692 62.709 62.826 62.793 62.728 62.648 62.733 63.108 63.423 63.689 65.57 64.632 64.065 63.408 61.634 61.432 60.854 61.203 60.643 61.693 60.572 59.81 59.799 59.556 59.462 59.349 59.537 58.879 58.474 60.059 60.287 59.431 58.257 57.44 57.298 58.884 59.171 62.879 63.531 57.281 56.304 62.867 63.152 62.353 61.346 59.509 57.147 55.827 55.429 55.32 55.057 55.034 54.925 54.784 54.644 54.506 54.422 54.388 54.218 54.123 54.013 54.022 53.913 53.933 53.726 53.612 53.546 53.453 54.026 53.48 54.079 53.458 52.685 52.541 52.509 52.469 52.489 52.556 52.551 52.614 52.474 52.137 52.015 52.946 52.61 52.432 52.35 52.085 52.258 53.572 52.94 53.02 52.023 52.323 52.141 52.742 52.977 51.534 51.389 51.426 53.651 55.228 57.447 59.339 57.463 56.155 50.856 50.681 50.644 50.357 50.294 50.241 50.267 50.262 50.38 50.147 49.829 49.651 49.602 49.602 51.249 49.381 49.316 49.322 49.298 49.462 50.626 49.677 48.964 49.112 51.659 54.781 55.728 56.288 54.2 49.398 48.481 48.333 48.194 48.07 48.068 48.028 47.961 47.928 47.835 47.804 47.729 47.725 47.662 47.627 47.627 47.589 47.55 47.494 47.464 47.411 47.353 47.318 47.24 47.209 47.124 47.656 47.397 47.642 46.99 47.204 51.565 52.403 47.61 47.012 47.423 48.959 49.355 46.61 46.543 46.545 46.469 46.388 46.517 46.997 47.449 47.098 46.198 46.209 46.275 48.873 48.764 49.556 47.107 48.34 47.584 46.594 46.559 46.208 46.157 46.077 46.19 46.173 46.207 46.178 46.027 45.99 49.851 52.454 53.178 53.494 49.993 48.8 45.16 44.632 44.54 44.493 44.415 44.84 45.753 45.452 46.723 46.491 45.639 44.605 44.215 44.529 45.304 46.166 46.388 44.229 47.446 53.108 55.543 48.662 47.133 46.711 49.502 50.744 46.44 46.447 50.751 51.368 49.158 46.229 45.64 45.449 44.935 44.816 44.78 44.971 45.558 44.76 44.615 44.59 44.582 44.523 44.733 44.438 44.424 44.421 44.456 44.323 44.312 44.303 44.243 46.75 46.305 46.236 46.246
69.188 69.037 68.943 68.707 68.489 68.355 68.13 67.98 67.837 67.987 68.048 67.762 67.296 66.931 66.752 66.73 66.916 66.872 66.954 67.032 67.515 67.831 67.768 67.508 68.36 68.794 68.286 68.228 68.953 68.549 67.938 70.76 71.676 71.513 69.324 73.829 74.798 76.871 75.688 74.039 67.839 67.846 67.19 67.196 68.009 67.384 67.452 67.473 67.295 67.383 68.475 67.395 68.663 68.105 67.439 67.929 67.729 67.78 67.548 67.446 67.439 68.72 68.307 67.633 67.409 67.534 67.536 67.571 67.594 69.797 72.781 73.683 72.116 68.859 67.697 69.628 68.147 69.937 67.64 67.37 67.97 68.32 67.854 67.67 66.737 65.66 65.489 65.437 65.415 65.383 65.305 65.266 65.222 65.18 65.091 65.13 65.019 64.936 64.904 65.575 65.716 65.264 64.427 64.309 64.245 64.193 64.182 64.175 64.135 64.123 64.105 64.112 64.09 64.14 64.089 64.035 64.009 63.958 64.038 63.983 63.936 63.953 63.84 63.817 63.759 63.764 64.706 64.343 64.247 63.61 63.699 63.888 63.759 63.685 63.684 63.655 63.648 63.495 63.513 65.381 66.702 67.158 65.88 63.754 63.657 64.731 63.645 63.352 63.303 63.322 63.116 63.034 62.973 62.89 62.887 62.826 62.789 62.747 62.737 62.71 62.714 62.671 62.614 62.71 62.665 62.72 62.69 62.601 62.74 63.336 63.539 63.595 63.932 64.178 63.772 61.519 63.838 64.284 62.997 62.185 61.025 60.212 59.95 59.763 59.635 59.545 59.428 59.103 59.025 59.422 60.416 59.776 59.489 58.239 57.732 58.071 58.263 58.917 59.329 57.872 56.501 59.452 63.191 63.421 63.94 63.282 62.329 61.811 56.432 55.639 56.13 55.086 55.011 54.969 55.807 54.889 54.557 54.427 54.292 54.203 54.115 54.03 53.914 53.773 53.749 53.676 53.684 53.828 53.514 53.377 54.606 53.739 52.83 52.68 52.664 52.619 52.633 52.694 52.647 52.606 52.769 54.327 52.772 52.45 52.058 52.054 52.105 53.823 52.558 52.112 52.085 52.04 52.455 52.848 52.431 52.5 53.713 53.426 53.375 51.974 51.787 53.832 56.736 58.335 59.014 57.015 52.62 50.765 50.691 50.575 50.447 50.396 50.375 51.28 50.454 50.387 50.352 50.301 50.818 49.821 49.686 49.64 49.509 49.602 49.368 49.352 49.709 50.504 49.375 49.137 50.786 52.92 54.917 55.604 54.932 53.558 48.946 48.847 48.525 48.202 48.1 48.136 48.035 47.927 48.006 48.038 47.852 47.816 47.835 47.787 47.714 47.654 47.603 47.6 47.505 47.478 47.447 47.381 47.369 47.347 47.31 47.191 47.235 47.911 47.495 47.754 47.722 47.211 47.038 47.097 47.571 49.165 49.569 49.25 46.956 46.686 46.585 46.495 46.533 47.322 47.405 46.567 46.789 47.049 46.926 48.064 49.535 51.106 53.066 52.621 51.7 47.728 47.513 46.493 46.262 46.112 46.165 46.242 46.148 46.198 46.367 46.116 47.553 50.283 52.411 52.73 51.895 46.52 46.347 45.417 45.263 44.557 44.51 44.443 44.382 44.6 46.092 46.739 46.694 46.631 45.777 46.524 46.506 45.853 47.219 46.66 45.695 46.56 46.236 52.812 54.067 46.793 50.741 46.907 47.87 44.679 46.437 48.34 50.684 47.378 46.821 45.559 45.487 45.092 44.911 44.838 44.778 44.732 44.675 44.634 44.643 45.752 45.394 44.55 44.515 44.485 44.478 44.39 44.371 44.347 44.302 44.317 45.695 46.278 46.292 46.331
69.402 69.227 69.063 68.922 68.697 68.501 68.274 68.132 68.025 68.081 68.22 67.888 67.532 67.25 66.786 66.788 66.854 66.966 67.07 67.09 67.183 69.242 67.987 67.815 67.836 68.586 68.791 67.414 68.002 68.235 67.955 68.304 70.371 69.365 70.808 76.086 71.694 76.551 75.689 72.761 68.138 67.816 67.716 67.316 68.511 67.494 67.495 67.434 67.303 67.401 69.232 67.82 68.676 71.018 70.307 68.939 67.775 67.805 67.641 67.591 67.566 68.172 67.736 68.856 70.364 67.722 67.929 67.75 68.217 71.702 73.672 74.94 73.333 68.967 71.417 72.969 72.814 71.236 67.644 68.129 68.456 68.668 67.505 67.5 67.106 65.877 65.419 65.402 65.38 65.356 65.267 65.206 65.184 65.127 65.118 65.029 64.949 64.919 65.078 67.572 66.413 64.464 64.305 64.316 64.265 64.175 64.175 64.13 64.186 64.169 64.174 64.135 64.124 64.152 64.063 63.994 63.906 63.892 63.98 63.911 63.962 63.878 63.901 63.821 63.726 63.702 63.679 63.694 63.694 63.654 63.833 63.898 63.894 63.773 63.712 63.754 63.681 63.578 63.499 63.541 65.243 65.916 65.308 66.054 63.69 63.998 63.729 63.384 63.283 63.293 63.054 63.074 63.012 62.964 62.865 62.863 62.83 62.75 62.741 62.68 62.701 62.699 62.667 62.626 62.597 63.192 62.686 62.6 62.536 62.736 63.916 63.383 63.392 63.967 63.843 62.345 63.188 64.507 62.353 62.09 60.223 60.021 59.906 59.814 59.718 59.632 59.695 59.333 59.098 59.244 59.066 58.49 58.558 58.621 57.965 58.662 57.492 57.668 58.899 57.54 57.624 60.415 61.641 62.364 63.142 63.481 63.497 62.996 55.98 55.876 55.637 55.761 55.135 55.819 55.336 55.965 55.591 54.48 54.299 54.242 54.066 53.967 53.881 53.802 53.707 53.586 53.541 53.488 53.449 53.34 53.074 52.919 52.775 52.79 52.734 52.731 52.803 52.892 52.58 52.761 57.989 59.294 59.758 54.186 52.759 52.643 53.81 54.313 54.394 53.961 52.969 52.239 52.103 52.452 52.194 53.37 53.976 53.571 53.522 52.522 51.469 55.092 56.886 57.63 57.602 56.68 51.332 50.9 50.984 50.651 50.493 50.471 50.99 50.754 50.429 50.41 50.567 51.636 51.81 51.491 50.104 50.084 49.848 50.334 49.471 49.606 50.406 51.41 49.135 49.243 49.531 49.218 51.457 54.418 54.656 51.315 48.882 48.834 48.488 48.888 48.242 48.136 48.064 48.118 48.221 48.215 47.999 50.112 50.977 48.149 49.492 47.898 47.729 47.626 47.606 48.522 47.874 47.508 47.399 47.394 47.363 47.28 47.253 47.404 47.321 47.467 47.797 47.299 47.263 48.432 47.874 47.556 48.531 46.872 47.804 47.772 46.524 46.568 49.494 47.434 46.572 46.539 46.511 46.649 46.744 47.252 49.468 52.661 53.609 53.819 52.806 47.211 46.609 46.376 46.255 46.168 46.258 46.22 46.214 46.225 46.2 46.114 46.065 47.338 48.242 51.252 48.773 46.944 44.838 45.096 45.812 45.833 45.788 44.5 44.439 44.498 46.376 46.681 46.687 45.33 45.224 46.441 46.629 46.27 45.061 45.122 44.744 44.293 43.918 44.153 46.618 51.631 51.944 47.554 44.486 43.984 44.004 48.058 52.346 51.92 50.267 45.502 45.211 45.113 45.068 44.876 44.804 44.773 44.703 44.659 45.004 44.99 45.213 44.59 44.537 44.531 44.491 44.462 44.414 44.372 44.353 47.174 46.386 46.334 46.354 46.413
69.535 69.448 69.272 69.059 68.854 68.67 68.499 68.284 68.155 68.159 68.264 68.115 67.699 67.331 66.822 66.857 66.888 67.081 67.154 67.211 67.267 68.563 67.831 67.835 67.812 67.508 67.591 67.501 68.109 67.676 67.86 68.936 68.598 70.57 73.914 75.853 69.451 72.832 75.586 70.762 71.28 69.15 68.457 67.402 67.744 67.652 67.769 67.859 67.452 67.584 69.109 68.127 68.361 73.02 72.457 68.599 68.098 67.887 68.093 67.868 67.857 69.568 71.21 73.304 74.803 74.178 68.231 68.145 70.672 72 74.188 73.947 73.293 69.671 72.671 75.708 74.28 70.633 67.669 67.768 68.514 68.418 67.732 67.504 67.423 66.361 65.375 65.309 65.328 65.273 65.229 65.211 65.181 65.097 65.095 64.979 64.909 64.902 64.886 66.145 66.993 64.729 64.334 64.309 64.281 64.174 64.18 64.174 64.153 64.174 64.2 64.117 64.154 64.102 64.002 63.969 63.851 63.88 63.892 63.837 63.865 63.868 63.864 63.76 63.684 63.649 63.658 63.684 63.655 63.725 63.83 63.92 63.773 63.805 63.789 63.713 63.747 63.695 63.519 63.468 63.424 63.748 67.009 67.353 66.137 67.236 64.243 63.121 63.096 63.11 63.184 63.125 63.197 63.309 62.9 62.865 62.846 62.793 62.736 62.695 62.664 62.633 62.681 62.634 62.568 62.565 62.567 62.638 62.551 62.463 62.512 62.638 63.809 63.885 63.512 63.755 62.345 62.991 61.503 60.333 60.145 59.925 59.909 59.837 59.738 59.65 59.453 59.373 60.4 59.848 61.109 61.264 59.632 59.341 59.149 58.039 57.658 58.257 59.747 58.706 58.238 56.629 56.978 60.466 61.796 62.322 63.017 58.309 55.974 56.201 58.365 59.94 56.813 56.831 54.885 54.705 54.577 54.458 55.741 54.611 54.095 53.913 53.85 53.734 53.662 53.568 53.475 53.329 53.228 53.171 53.005 52.978 52.891 52.833 52.788 52.849 53.884 53.494 52.72 52.78 59.013 60.229 60.115 58.562 54.392 53.031 54.48 54.892 54.624 54.206 54.367 53.647 53.119 52.245 51.989 53.485 53.811 53.913 52.118 52.154 51.768 53.218 54.653 56.493 57.038 54.666 51.08 50.985 50.918 50.657 50.58 50.553 50.627 51.213 50.66 50.509 53.222 56.644 55.163 51.376 50.377 49.878 49.906 51.654 49.671 49.603 51.125 49.92 50.006 49.119 50.438 49.319 48.767 48.7 50.256 49.195 48.686 48.971 49.103 48.697 48.292 48.196 48.27 49.189 50.405 48.102 48.051 48.071 48.781 50.529 51.028 49.771 48.456 47.798 47.705 47.908 48.084 48.137 48.476 47.67 47.429 47.395 47.346 47.273 47.271 47.45 47.341 47.38 47.365 50.365 48.601 48.646 50.31 46.911 46.642 46.609 46.572 46.628 50.42 47.57 46.607 46.523 47.354 46.573 46.803 46.822 49.488 52.944 54.31 53.678 52.303 46.886 46.341 46.53 46.306 46.242 46.263 46.198 46.213 46.264 46.221 46.412 47.045 46.537 46.278 45.829 47.013 45.87 44.97 44.641 44.641 45.055 44.843 45.889 45.592 44.954 44.506 44.905 46.518 45.924 46.528 45.025 44.977 44.43 44.39 44.45 44.415 44.385 44.865 44.834 46.555 50.983 51.152 45.009 44.008 44.001 47.906 51.916 53.25 53.47 53.146 48.692 45.33 45.204 45.154 45.025 44.874 44.81 44.723 44.691 44.822 44.937 44.857 44.972 44.853 44.545 44.557 44.483 44.482 44.431 44.449 46.224 46.357 46.363 46.414 46.446
69.732 69.591 69.439 69.236 69.085 68.876 68.667 68.417 68.255 68.284 68.411 68.339 67.796 67.798 67.142 66.87 66.892 67.018 67.219 67.307 67.389 68.748 68.583 68.351 68.272 67.879 67.686 67.694 69.172 67.884 68.099 68.43 69.361 72.644 75.451 77.278 77.629 74.872 73.573 72.684 70.302 68.886 68.198 67.645 67.759 69.73 69.752 69.651 68.248 67.77 68.003 68.608 70.436 72.067 71.119 68.659 71.867 73.062 72.962 71.804 72.647 73.813 73.887 74.771 76.459 74.795 71.388 70.338 72.397 73.23 73.404 72.761 69.233 69.575 72.923 74.763 73.244 71.463 67.799 68.367 68.605 68.536 67.917 67.606 67.258 66.577 65.379 65.263 65.248 65.192 65.159 65.202 65.146 65.123 65.045 64.92 64.956 64.961 64.768 64.656 64.501 64.432 64.314 64.224 64.162 64.167 64.179 64.19 64.159 64.165 64.195 64.152 64.138 64.04 63.939 63.962 63.817 63.859 63.852 63.829 63.791 63.797 63.843 63.95 63.716 63.696 63.704 63.717 63.71 63.863 63.776 63.795 63.8 63.738 63.77 63.793 63.706 63.632 63.539 63.482 63.586 64.274 66.502 66.084 64.343 64.682 63.935 63.184 66.014 63.222 63.097 64.045 64.639 63.384 62.977 62.908 62.845 62.814 62.781 62.731 62.662 62.66 62.672 62.614 62.605 62.564 62.493 62.534 62.477 62.526 62.466 62.466 62.513 62.829 63.212 63.595 63.335 62.625 61.914 60.815 60.38 60.191 59.883 59.808 59.746 59.84 61.218 60.236 59.819 60.207 61.27 63.325 63.089 58.644 58.702 58.151 57.904 58.794 59.551 58.38 57.879 56.676 56.57 56.666 56.982 60.14 61.465 57.823 55.583 56.116 60.738 61.844 61.525 60.365 56.524 54.767 54.576 54.541 54.781 54.713 54.465 54.009 53.911 53.821 53.601 53.537 53.49 53.453 53.325 53.183 53.099 53.019 52.962 52.926 52.853 52.99 53.767 53.116 52.815 56.968 60.248 60.52 59.515 55.628 52.865 52.713 53.964 54.822 54.755 54.636 54.373 53.453 53.712 52.993 52.107 52.031 52.048 52.438 51.883 54.851 52.087 51.923 53.468 53.982 52.763 51.671 51.061 51.007 50.871 50.729 50.689 50.672 51.607 51.246 51.669 52.151 55.516 57.258 57.432 56.916 51.679 50.392 51.362 51.951 51.889 51.39 51.351 52.274 52.123 50.94 49.685 50.49 50.513 50.423 48.872 48.923 49.173 48.632 48.462 48.385 48.389 48.405 48.449 48.525 48.736 49.388 48.136 48.293 48.259 48.819 49.734 49.847 50.619 48.422 47.838 47.974 47.844 47.695 47.907 47.628 47.465 47.438 47.404 47.343 47.306 47.359 47.466 47.35 47.512 53.333 53.674 53.842 53.115 47.552 47.031 46.687 46.697 46.669 49.301 47.395 46.671 46.646 46.632 46.825 46.761 47.03 50.987 53.447 53.998 53.104 49.213 46.656 46.487 46.455 46.279 46.319 46.298 46.244 46.415 48.149 49.232 46.808 47.264 46.388 47.244 46.375 46.78 45.75 44.954 44.764 44.702 44.576 44.549 45.627 46.278 44.796 44.584 44.81 44.575 44.791 44.781 44.521 44.52 44.527 44.394 44.354 44.238 44.373 47.385 46.586 46.929 45.021 45.164 44.742 44.005 43.951 45.28 48.826 53.729 52.914 52.412 52.751 46.065 47.165 45.199 44.944 44.885 44.816 44.783 44.745 44.723 44.672 44.631 44.938 44.755 44.58 44.55 44.502 44.514 44.482 45.987 46.495 46.422 46.491 46.494 46.485
69.87 69.781 69.632 69.44 69.268 69.068 68.805 68.557 68.41 68.388 68.564 70.408 70.67 67.708 67.453 67.002 67.043 67.161 68.986 69.815 71.016 69.882 69.507 69.171 68.715 68.5 67.954 68.094 68.592 68.175 68.004 69.206 70.774 73.34 71.542 75.148 75.912 70.386 70.715 72.938 74.112 68.901 73.455 71.986 70.777 68.417 71.959 71.929 72.084 73.139 72.955 73.098 73.38 73.71 73.441 73.097 74.294 74.736 74.784 74.327 73.918 74.13 74.268 74.452 74.617 74 72.413 70.093 71.362 72.524 73.313 70.705 69.105 69.224 72.664 73.062 73.935 69.725 67.961 68.779 68.726 68.551 67.918 67.427 67.293 66.535 65.289 65.222 65.212 65.12 65.124 65.123 65.212 65.03 65.044 65.27 64.929 64.786 64.732 64.645 64.545 64.442 64.337 64.281 64.192 64.169 64.145 64.159 64.223 64.171 64.157 64.129 64.195 64.126 63.947 63.898 63.9 63.835 63.802 63.765 63.674 63.765 63.771 63.82 63.808 65.374 63.74 63.746 63.738 63.774 63.762 63.81 63.819 63.735 63.844 63.596 63.571 63.603 63.435 63.473 63.493 63.466 63.345 63.75 63.25 63.205 63.22 64.471 67.195 65.553 63.626 65.152 66.123 63.99 62.91 62.93 62.866 62.854 62.772 62.805 62.645 62.63 62.602 62.594 62.58 62.534 62.489 62.423 62.404 62.495 62.502 62.403 62.41 62.487 62.607 63.194 63.371 64.56 62.741 61.476 61.556 60.372 60.105 59.83 60.074 60.238 63.861 63.763 60.028 59.594 61.308 63.558 62.604 58.764 59.275 58.098 59.28 60.236 59.197 57.916 57.097 56.666 56.949 56.701 56.375 56.44 56.013 56.363 55.437 55.372 61.257 61.999 62.286 61.984 61.24 56.582 54.5 54.459 54.333 54.25 54.144 54.366 54.676 54.14 53.782 53.521 53.402 53.41 53.337 53.325 53.196 53.135 53.075 53.047 52.97 53.139 53.047 52.904 54.094 58.923 60.34 60.055 59.042 54.066 52.749 52.74 52.684 52.728 53.856 54.55 54.441 53.292 52.312 52.204 52.381 52.32 52.172 51.894 55.414 57.788 57.268 53.763 51.857 51.688 51.703 51.292 51.121 51.293 50.863 50.814 50.796 50.773 51.701 50.807 50.551 53.968 56.61 57.729 57.405 56.449 52.981 50.335 49.869 50.47 51.464 50.1 49.747 49.323 49.779 49.314 50.773 50.605 51.005 51.069 49.386 49.172 48.902 48.61 48.52 48.525 48.446 48.455 48.644 48.637 48.453 49.607 48.725 48.501 51.128 49.373 48.685 48.653 49.636 48.051 47.9 48.471 48.45 48.173 48.036 47.675 47.561 47.48 47.502 47.454 47.387 47.466 47.621 47.307 47.517 53.263 54.536 54.553 53.433 47.777 47.067 46.858 47.763 47.433 50.059 48.671 48.695 48.198 47.126 47.121 46.652 46.722 51.996 52.865 53.305 52.779 48.219 46.514 46.935 46.411 46.261 46.332 46.252 46.354 46.425 48.685 47.368 45.92 45.898 46.602 46.86 46.654 45.485 46.878 46.344 45.589 46.349 46.068 46.248 46.263 46.526 44.998 44.618 44.644 44.682 44.735 44.667 44.584 44.585 44.573 44.498 44.344 44.367 47.605 47.44 47.618 46.442 44.125 44.007 44.106 44.33 44.004 43.918 49.801 52.502 52.371 55.337 53.63 48.735 45.499 45.181 44.954 44.957 44.859 44.8 44.781 44.731 44.674 44.643 44.636 44.623 44.593 44.618 44.587 44.577 44.616 47.217 46.499 46.489 46.523 46.53 46.588
70.022 69.913 69.77 69.604 69.382 69.177 68.996 68.749 68.547 68.492 68.65 71.031 71.911 68.045 67.887 69.212 67.151 68.676 69.523 69.896 70.585 69.471 69.968 70.679 69.091 69.061 68.748 70.374 70.867 70.569 71.088 71.902 72.568 73.855 68.832 69.928 74.669 69.59 74.105 71.261 73.299 74.029 73.135 75.157 74.658 74.002 74.292 74.594 74.796 74.717 74.664 74.525 74.668 74.628 74.243 73.724 74.05 74.447 73.562 73.116 72.798 73.413 71.642 72.42 72.627 70.618 70.257 69.889 70.257 70.201 70.397 70.122 69.76 69.277 69.242 72.776 72.377 68.096 68.025 69.436 70.827 68.989 68.26 67.635 67.169 66.691 65.275 65.153 65.087 65.072 65.045 65.119 64.945 64.979 64.911 65.56 64.813 64.736 64.681 64.603 64.519 64.42 64.369 64.348 64.284 64.179 64.154 64.171 64.171 64.158 64.201 64.272 64.203 64.064 63.967 63.904 63.937 63.859 63.724 63.703 63.684 63.797 63.694 63.654 63.843 65.539 63.84 63.686 63.662 63.735 63.74 63.767 63.675 63.621 63.708 63.623 63.696 63.764 63.688 63.716 63.599 63.64 63.51 63.355 63.29 63.162 63.175 63.135 64.864 63.84 63.483 63.703 63.832 63.04 63.049 63.004 62.954 62.928 62.795 62.771 62.698 62.683 62.601 62.541 62.565 62.508 62.564 62.462 62.381 62.385 62.381 62.432 62.364 62.352 62.391 62.701 63.297 63.393 63.371 63.213 61.947 61.003 60.789 60.162 61.231 62.38 63.901 61.315 59.661 59.313 59.188 59.85 59.028 59.735 58.884 59.278 60.112 61.607 58.851 57.703 57.217 57.65 57.235 56.591 56.54 57.501 56.697 55.786 55.486 56.442 58.897 60.955 61.447 61.784 57.723 55.182 54.634 54.834 55.459 54.552 54.194 54.164 54.173 55.069 55.05 53.669 53.508 53.402 53.427 53.341 53.289 53.175 53.127 53.11 53.132 53.157 53.049 52.863 56.895 59.424 60.458 59.742 55.716 52.944 54.021 53.449 52.738 52.658 52.642 52.65 52.795 52.653 53.353 53.856 52.296 52.111 52.261 52.898 52.845 53.595 57.865 58.339 57.331 53.31 51.617 52.39 51.492 51.215 50.924 50.902 50.879 50.884 51.137 50.671 50.809 55.071 56.994 57.768 57.069 54.501 53.192 50.274 49.925 49.909 49.881 49.754 49.54 49.835 49.371 49.393 49.995 49.606 49.411 50.016 49.462 49.048 48.861 48.74 48.639 48.671 48.576 48.619 48.575 48.876 48.564 48.664 52.51 54.252 54.852 52.496 49.696 50.743 50.112 48.066 48.224 48.266 48.126 47.929 48.106 48.717 47.671 47.617 47.519 47.513 47.448 47.55 47.834 47.531 47.817 53.06 55.611 55.443 53.678 50.748 49.722 50.492 49.373 49.957 50.241 48.936 48.931 46.897 47.268 47.15 48.414 47.055 46.585 48.16 52.151 49.239 46.533 46.546 46.478 46.4 46.342 46.347 46.322 46.404 47.74 46.686 45.999 45.956 45.986 49.231 49.979 48.433 46.001 45.582 45.131 45.782 49.312 46.877 45.46 46.147 45.711 44.718 44.733 46.589 44.807 44.838 44.725 44.706 44.656 44.583 44.493 44.4 44.338 44.881 45.544 46.546 44.812 43.979 43.964 46.193 44.537 44.044 43.967 47.326 51.784 50.756 55.706 56.116 50.22 45.32 45.013 44.98 44.94 44.888 44.826 44.829 44.793 44.872 44.919 44.714 44.641 44.635 44.655 44.678 44.685 46.989 47.658 46.72 46.594 46.571 46.596 46.668
70.152 70.112 69.916 69.768 69.646 69.372 69.187 68.927 68.703 68.591 68.622 69.277 69.163 67.951 67.698 69.213 67.404 68.337 69.337 69.03 68.165 68.877 71.527 72.352 70.056 69.565 69.768 70.748 72.444 72.798 72.514 72.843 69.796 72.932 68.275 71.722 72.485 70.162 76.059 74.296 75.627 76.562 75.575 75.643 75.826 75.358 74.608 74.601 74.536 74.502 73.693 73.627 73.577 73.615 72.2 70.587 70.854 71.978 70.472 70.17 70.226 69.856 69.891 69.82 69.787 69.786 69.79 69.784 70.122 70.138 70.144 70.053 69.942 69.579 71.93 73.78 69.691 68.153 70.175 72.855 73.529 71.131 68.438 67.437 67.01 66.283 65.363 65.088 65.039 64.986 64.955 64.898 64.952 67.62 67.71 65.716 66.239 64.729 64.579 64.515 64.462 64.439 64.372 64.35 64.266 64.196 64.181 64.154 64.178 65.032 64.375 64.34 64.212 64.148 63.95 63.89 63.901 63.794 63.787 63.726 63.649 63.688 63.633 63.696 63.74 63.786 63.68 63.629 63.684 63.678 63.625 63.624 63.573 63.585 63.628 63.599 63.742 63.822 64.109 63.881 63.869 63.791 63.77 63.378 63.271 63.145 63.178 63.134 63.203 63.201 63.163 63.17 63.112 63.044 63.113 62.982 62.932 62.932 62.895 62.84 62.742 62.748 62.683 62.64 62.531 62.467 62.453 62.564 62.444 62.353 62.328 62.422 62.333 62.35 62.38 62.475 62.866 63.226 63.234 63.338 63.235 61.95 61.045 60.652 61.083 61.775 62.374 62.139 59.664 59.276 59.243 59.232 62.327 64.118 61.986 58.551 60.714 60.549 58.751 57.391 57.444 57.618 57.365 56.679 56.546 57.493 58.431 57.291 55.897 57.761 58.147 56.404 58.451 60.879 56.643 54.69 54.559 54.419 57.494 59.095 54.562 54.362 54.807 54.136 54.046 55.041 53.909 53.551 53.463 53.415 53.387 53.28 53.319 54.291 53.326 53.388 53.134 52.991 53.087 54.833 58.62 58.988 53.638 52.899 53.162 53.152 53.099 52.694 52.698 52.633 52.647 53.89 54.48 54.568 54.481 52.74 52.067 52.218 52.279 56.44 58.473 59.057 58.454 55.505 51.676 51.536 51.809 51.127 51.069 51.042 51.008 51.462 50.858 50.755 51.382 53.388 56.407 56.869 56.559 54.409 52.764 50.798 50.201 49.935 49.921 49.781 49.609 49.649 50.234 49.723 49.775 51.308 49.743 49.492 50.004 49.082 48.987 48.773 48.783 48.755 48.732 48.766 48.849 48.683 51.455 53.537 54.761 55.293 55.601 53.68 49.7 53.075 49.879 48.339 48.708 48.299 48.497 48.35 48.037 48.004 48.513 47.76 47.596 47.644 47.555 47.569 47.658 47.598 47.711 52.892 54.455 54.989 53.82 49.495 47.34 47.298 47.42 49.556 49.632 47.742 47.069 47.2 47.832 47.628 46.98 46.899 46.785 46.638 46.577 46.549 46.551 46.574 46.525 46.416 46.333 46.383 46.367 46.469 47.688 46.389 46.059 49.126 50.551 52.708 51.558 49.14 49.103 45.479 45.409 47.357 48.376 45.678 44.779 46.222 45.357 44.755 46.313 47.024 46.702 44.847 44.764 44.752 44.705 44.65 44.598 44.474 44.681 46.614 46.737 44.862 44.125 44.012 44.132 47.74 46.985 44.447 44.047 48.19 52.671 54.047 53.832 50.253 47.593 45.336 45.031 44.987 44.988 44.968 44.892 44.847 44.798 44.976 45.892 44.956 44.673 44.696 44.684 44.735 46.187 47.385 47.71 47.781 47.594 46.942 46.695 46.698
70.281 70.236 70.08 69.9 69.794 69.572 69.371 69.096 68.86 68.646 68.71 68.844 68.632 68.059 68.09 69.147 69.045 69.452 70.462 70.106 70.894 71.082 71.394 71.728 71.752 70.182 72.563 72.222 73.084 72.576 73.642 74.098 73.32 70.201 69.975 74.807 74.513 75.938 77.172 76.041 75.368 75.518 74.483 74.95 75.343 74.214 72.9 71.545 71.304 70.809 70.83 70.699 70.653 69.961 69.974 69.977 70.01 70.034 70.046 69.99 69.971 69.94 69.913 69.871 69.851 69.821 69.835 69.878 69.766 69.856 69.786 69.74 69.714 69.358 68.995 69.686 68.36 68.339 71.121 82.404 82.406 78.417 68.579 67.677 66.803 66.325 65.222 65.006 64.931 64.896 64.866 64.911 67.85 69.199 69.566 65.749 66.378 66.176 64.527 64.446 64.434 64.404 64.357 64.312 64.256 64.252 64.19 64.128 64.203 66.134 64.389 64.287 64.663 64.118 63.976 63.958 63.759 63.703 63.765 63.72 63.773 64.326 63.59 63.631 63.708 63.716 65.427 64.355 63.645 63.782 64.947 65.497 63.569 63.614 63.701 63.734 63.958 63.925 63.975 63.988 63.973 64.04 63.96 63.686 63.413 63.163 63.184 63.202 63.199 63.176 63.125 63.067 63.044 63.051 62.954 62.932 62.934 63.028 62.971 62.986 62.864 62.824 62.735 62.696 62.622 62.549 62.484 62.432 62.438 62.365 62.331 62.309 62.36 62.318 62.343 62.328 62.384 62.487 62.739 63.15 63.297 62.949 62.432 61.088 60.885 60.481 60.444 60.562 59.701 59.406 59.369 59.458 65.734 66.248 59.72 59.405 60.708 59.672 57.587 57.498 57.511 57.954 57.423 57.119 56.67 58.232 58.03 57.694 55.856 56.233 57.547 55.23 55.015 55.055 55.881 55.355 54.84 59.05 60.594 60.773 57.785 55.243 54.545 54.062 54.056 53.864 53.854 53.649 53.533 53.511 53.4 53.375 53.318 53.344 53.81 53.926 53.663 53.145 55.019 55.049 54.569 53.908 52.822 52.896 52.897 52.91 52.888 52.861 53.329 52.837 53.716 53.119 54.011 54.507 54.584 52.495 52.413 55.948 57.18 57.822 59.057 58.985 58.052 53.584 51.858 51.556 51.387 51.22 51.211 51.195 51.099 51.194 51.191 51.281 50.987 52.129 51.151 52.426 55.632 53.619 52.461 50.507 50.462 51.769 50.377 49.789 49.686 49.653 52.1 54.657 54.325 53.121 50.467 49.689 49.388 49.155 49.039 48.93 48.943 48.865 48.815 48.834 48.917 48.901 49.772 54.608 55.643 55.725 55.241 54.641 50.84 52.41 50.113 50.985 53.833 53.324 49.56 48.299 48.952 47.972 48.641 48.048 47.728 47.704 47.634 47.618 47.936 48.023 47.432 51.829 53.91 54.049 53.824 48.398 47.141 47.053 48.719 50.479 49.818 48.126 47.723 46.897 46.867 46.874 50.203 48.322 48.613 46.933 46.852 46.825 46.628 46.522 46.425 46.398 46.414 46.381 46.435 46.864 46.488 46.069 46.155 52.247 53.14 53.297 52.643 49.278 46.506 45.322 45.186 47.49 47.735 44.934 44.879 46.085 45.34 44.867 46.975 47.292 45.226 44.888 44.869 44.812 44.716 44.653 44.601 44.505 45.885 46.174 45.041 44.183 44.047 44.149 44.103 45.753 44.464 44.059 44.091 47.673 52.243 48.388 53.282 53.132 53.544 48.223 45.06 45.053 45.513 45.492 44.927 44.868 44.81 44.799 44.755 44.726 44.736 44.727 44.723 45.47 45.329 47.661 47.564 47.6 47.692 47.808 47.533 47.031
70.399 70.345 70.227 70.042 69.882 69.685 69.483 69.272 69.041 68.812 68.752 68.953 69.001 68.618 68.161 68.369 68.403 68.32 68.746 69.397 71.17 72.425 72.6 73.17 73.678 73.195 73.833 74.563 74.437 73.851 74.34 74.577 74.268 74.271 73.99 74.733 74.476 74.326 74.786 72.57 71.319 70.924 72.751 73.826 71.033 70.367 70.168 70.164 70.107 70.111 70.063 70.07 70.086 70.086 70.069 70.062 70.046 70.057 70.043 70.011 70.002 69.987 69.924 69.957 69.86 69.818 69.901 69.877 69.857 69.723 69.757 69.747 69.481 69.604 68.982 68.594 68.414 71.087 71.309 81.941 83.257 75.085 68.118 67.571 66.868 66.2 65.188 64.941 64.868 64.818 64.793 64.79 68.117 69.037 67.531 66.567 64.531 64.505 64.423 64.397 64.362 64.364 64.288 64.293 64.314 64.245 64.192 64.24 65.447 65.626 64.601 64.582 64.931 64.279 63.943 63.892 63.781 63.744 63.731 63.706 63.709 63.757 63.819 63.727 63.676 63.641 63.893 64.133 63.844 63.596 63.566 63.792 63.56 63.684 63.816 63.806 63.97 63.912 64.064 64.047 63.998 63.915 63.921 63.972 63.639 63.239 63.217 63.18 63.308 63.223 63.195 63.098 63.038 63.023 62.951 62.93 62.952 62.959 62.864 62.918 63.083 62.871 62.828 62.768 62.71 62.672 62.548 62.456 62.418 62.438 62.366 62.302 62.272 62.314 62.282 62.311 62.302 62.411 62.468 63.367 62.922 63.115 63.612 62.407 61.617 60.831 60.859 60.26 59.899 63.987 66.266 69.197 71.354 67.874 60.829 61.656 60.752 59.041 57.816 57.545 57.506 57.455 57.236 57.329 56.747 56.533 56.486 57.618 56.586 55.516 55.607 55.2 55.173 55.836 56.012 54.954 56.434 60.19 61.15 62.126 61.017 56.245 55.62 54.246 54.005 53.863 53.83 53.704 53.657 53.547 53.475 53.476 53.417 53.479 53.613 53.664 53.848 53.63 55.061 54.774 55.042 53.533 52.996 53.134 52.96 52.998 52.913 52.962 52.866 54.148 54.821 54.827 53.486 52.926 52.85 53.254 53.198 56.015 57.437 57.992 58.544 58.349 56.991 52.523 52.275 52.163 51.436 51.322 51.31 51.248 51.353 51.414 51.357 51.424 52.931 52.117 51.69 51.863 50.858 52.526 50.915 50.58 50.426 52.17 52.136 50.228 49.803 51.084 52.085 54.898 56.558 56.666 55.001 50.967 49.474 49.325 49.178 49.06 49.085 49.03 48.957 48.952 49.607 49.292 48.899 53.317 55.238 55.023 54.273 51.628 51.925 48.899 52.817 54.788 55.222 54.656 50.573 48.337 50.327 50.79 49.121 48.324 47.77 47.781 47.697 47.704 49.097 48.129 47.951 51.31 49.159 52.403 50.842 48.125 47.318 47.211 47.967 50.814 47.528 48.655 48.331 48.581 46.91 46.913 51.47 53.55 52.542 51.561 48.067 46.816 46.703 46.593 46.442 46.424 46.435 46.396 46.491 46.588 46.293 46.115 46.179 50.406 52.85 54.489 53.231 48.206 45.719 45.819 45.913 45.465 45.475 45.01 44.977 45.875 44.865 44.939 45.69 47.235 45.069 44.941 44.916 44.891 44.787 44.694 44.602 44.576 44.98 44.808 44.298 44.191 44.087 44.119 44.103 44.052 44.099 44.154 44.117 44.17 50.424 52.068 50.142 54.982 53.138 47.997 45.401 45.133 46.133 45.146 44.964 44.893 44.852 44.822 44.789 44.786 44.774 44.79 44.782 44.742 46.292 47.653 47.594 47.605 47.699 47.725 47.76 47.845
70.532 70.477 70.357 70.196 70.05 69.87 69.621 69.461 69.12 68.944 68.902 69.005 69.118 68.857 68.504 68.299 68.121 68.317 68.743 68.972 72.026 73.256 73.336 73.827 73.992 73.203 73.451 74.076 73.752 72.484 73.357 71.612 71.574 71.037 70.542 70.979 70.984 70.636 70.385 70.085 70.165 70.241 70.7 70.252 70.209 70.212 70.207 70.208 70.16 70.102 70.101 70.083 70.113 70.1 70.053 70.063 70.045 70.076 70.025 69.976 69.973 69.885 69.891 69.879 69.924 69.866 69.852 69.891 69.859 69.81 69.783 69.782 69.811 69.959 69.269 68.624 68.522 71.586 76.292 80.144 76.475 74.97 68.816 68.913 67.088 65.87 65.274 64.973 64.814 64.745 64.729 65.663 65.286 66.599 68.167 64.786 64.617 64.416 64.358 64.344 64.349 64.306 64.306 64.295 64.275 64.24 64.221 66.333 64.623 65.327 66.503 65.357 64.153 64.103 63.974 63.866 63.818 63.815 63.713 63.66 63.669 63.659 63.727 63.737 63.636 63.679 63.62 63.672 63.635 63.657 63.557 63.564 63.651 63.746 63.842 63.897 63.862 64.001 63.919 63.932 63.942 63.923 63.872 63.8 63.643 63.382 63.263 63.169 63.245 63.449 63.559 63.108 63.008 62.988 62.925 63.817 62.918 62.915 62.813 62.95 63.013 62.895 62.868 62.85 62.777 62.688 62.574 62.496 62.449 62.392 62.375 62.313 62.307 62.191 62.271 62.284 62.297 62.427 62.282 62.28 63.316 63.012 63.022 63.198 63.429 61.729 60.809 60.672 60.467 61.28 69.509 71.329 71.63 72.547 67.305 61.864 61.866 70.68 58.319 58.155 61.59 58.342 57.412 57.028 57.773 58.242 56.054 55.906 55.919 56.434 56.304 56.315 57.256 57.311 56.605 55.432 57.643 59.258 60.459 61.546 61.26 60.373 58.197 54.566 54.169 53.96 53.899 53.878 53.845 53.685 53.579 53.587 53.709 53.613 54.238 53.992 54.562 55.687 56.063 54.353 54.132 53.772 53.742 53.465 55.41 55.433 53.123 52.965 53.006 53.702 54.459 54.466 52.761 52.642 52.535 52.738 53.988 52.907 52.879 54.171 56.585 57.437 52.915 51.887 52.002 51.744 51.456 51.467 51.43 51.428 51.528 51.604 51.46 55.455 56.478 54.36 54.057 52.38 52.256 52.757 52.699 52.599 52.476 52.33 51.498 50.069 50.005 50.279 50.319 56.164 57.262 56.85 54.363 50.143 49.722 49.545 49.314 49.273 49.187 49.116 49.09 49.952 49.28 48.921 48.87 48.835 54.25 51.17 50.852 49.76 49.83 48.868 50.032 54.559 55.825 56.015 52.135 50.479 51.377 49.313 49.154 48.296 47.94 47.866 47.808 47.785 47.997 48.571 47.524 47.453 47.43 48.043 49.848 49.528 47.409 48.64 50.745 48.781 47.03 47.016 47.37 47.488 48.675 48.352 52.48 54.183 54.523 52.86 47.133 46.714 47.117 46.574 46.46 46.456 46.474 46.458 46.503 46.696 46.235 46.135 46.956 48.662 51.577 53.149 53.697 52.518 48.999 47.68 48.127 46.551 47.506 46.233 45.364 46.107 44.987 45.273 45.367 45.748 45.191 45.113 44.996 44.881 44.797 44.721 44.656 46.066 45.127 44.465 44.231 44.142 44.128 44.09 44.072 44.074 44.096 44.206 44.149 44.145 47.578 48.429 51.726 55.302 50.227 47.577 46.649 46.927 45.558 45.045 45.013 44.94 44.949 44.868 44.86 44.83 44.8 44.777 44.792 45.04 47.798 47.69 47.687 47.699 47.724 47.815 47.804 47.824
70.638 70.59 70.486 70.306 70.208 70.026 69.834 69.602 69.343 69.109 69.021 69.094 69.23 69.191 68.867 68.841 69.957 68.705 69.819 68.772 70.139 72.976 72.528 71.801 70.766 70.151 70.567 70.851 70.453 69.99 70.058 70.078 70.137 70.117 70.053 70.001 70.016 70.092 70.113 70.189 70.196 70.254 70.291 70.23 70.244 70.214 70.243 70.183 70.137 70.165 70.096 70.068 70.104 70.069 70.115 70.095 70.104 70.081 70.06 69.948 69.958 69.922 69.921 69.949 69.922 69.864 69.89 69.951 69.938 69.892 69.854 69.75 69.722 69.546 69.06 68.688 70.693 72.924 82.674 83.653 78.184 74.395 68.871 69.792 70.584 66.177 69.677 68.582 64.833 64.719 64.783 64.883 64.485 64.364 64.628 65.916 66.975 65.085 64.345 64.303 64.284 64.316 64.361 64.297 64.257 64.231 64.261 64.348 64.237 64.329 65.773 64.948 64.156 64.14 64.063 63.95 63.855 63.786 63.661 63.658 63.677 63.665 63.621 63.779 63.682 63.663 63.6 63.646 63.654 63.722 63.648 63.618 63.651 63.833 63.815 63.815 63.828 63.948 63.934 63.918 63.893 63.867 63.866 63.838 63.928 63.789 63.38 63.329 63.235 63.18 63.304 63.105 63.04 62.98 62.962 62.971 63.738 63.016 62.916 62.865 63.031 63.004 62.937 62.897 62.818 62.704 62.558 62.491 62.469 62.341 62.351 62.279 62.28 62.208 62.189 62.217 62.229 62.236 62.285 62.325 62.31 62.624 63.057 63.178 65.6 63.277 62.479 61.866 61.832 66.965 71.121 71.223 75.192 76.179 74.026 67.854 73.832 61.707 58.229 58.137 60.821 58.15 57.588 58.037 58.947 56.989 56.193 56.071 56.517 55.977 55.76 57.051 57.435 56.901 55.701 55.04 56.512 57.596 58.488 60.619 60.943 60.054 57.117 54.959 54.254 54.395 54.272 54.994 53.918 53.769 53.699 54.805 55.678 54.637 54.325 53.77 54.161 55.414 56.463 56.685 55.291 53.589 53.506 53.484 55.931 57.036 57.553 54.417 53.359 53.759 53.648 53.487 53.185 52.564 52.511 52.447 52.635 52.506 52.45 52.146 52.113 52.88 52.05 51.931 52.687 52.198 51.648 51.536 51.534 51.63 51.788 51.484 51.465 56.311 57.983 57.501 53.988 51.832 51.305 52.519 52.726 52.826 52.197 52.326 50.623 50.074 50.041 50.262 50.534 56.502 57.384 56.68 54.101 50.719 49.938 49.599 49.355 49.366 49.339 49.266 49.323 49.39 50.17 50.53 48.898 48.784 49.632 49.721 48.766 49.308 50.585 49.799 48.818 54.275 55.455 55.535 53.979 49.566 48.209 48.569 48.673 48.15 48.052 48.01 47.906 47.951 54.814 52.332 48.322 48.486 47.836 49.125 49.708 47.957 47.377 48.884 50.522 49.927 47.325 47.213 47.193 47.075 47.052 48.413 53.301 54.597 54.425 52.836 47.416 46.66 47.981 46.671 46.489 46.508 46.524 46.493 46.744 46.85 46.301 46.961 47.905 46.218 50.492 52.441 52.639 52.027 48.239 48.399 48.048 46.313 49.583 47.023 45.443 45.554 46.509 46.295 45.623 47.812 48.074 46.425 45.682 44.96 44.846 44.734 45.421 44.997 44.982 44.448 44.294 44.173 44.123 44.109 44.087 44.062 44.144 44.119 44.065 43.911 43.859 43.995 51.431 54.589 55.404 48.64 50.69 52.769 48.131 46.211 45.279 45.013 44.972 44.908 44.911 44.848 44.897 44.826 44.818 46.807 47.773 47.794 47.804 47.81 47.837 47.848 47.864 47.851
70.773 70.737 70.611 70.458 70.341 70.151 69.94 69.735 69.498 69.274 69.184 69.127 69.231 69.23 69.238 69.255 70.54 72.834 72.943 70.764 71.523 70.463 69.728 69.762 69.832 69.87 69.955 69.993 69.995 69.991 70.015 70.042 70.052 70.03 70.015 70.043 70.023 70.061 70.156 70.192 70.216 70.25 70.27 70.256 70.237 70.246 70.217 70.22 70.142 70.142 70.133 70.139 70.144 70.111 70.096 70.08 70.061 70.063 69.982 69.978 69.984 69.931 69.871 69.885 69.892 69.889 69.9 69.957 69.943 69.925 69.908 69.786 69.777 69.444 68.918 68.799 72.085 77.129 79.242 83.616 82.771 71.525 68.42 69.949 71.296 70.059 69.648 69.374 65.737 64.711 64.612 64.535 64.475 64.356 64.287 66.51 67.496 64.382 64.313 64.297 64.269 64.262 64.299 64.275 64.242 64.726 64.509 64.66 65.635 64.351 64.307 64.271 64.28 64.193 64.111 63.99 63.909 64.848 63.733 63.879 63.697 63.655 63.665 63.598 63.77 63.687 63.652 63.659 63.648 63.655 63.678 63.725 63.778 63.804 63.878 63.911 63.867 63.95 63.868 63.933 63.916 63.865 63.885 63.77 63.866 63.927 63.661 63.403 63.246 63.195 63.132 63.107 63.087 62.964 62.977 63.166 62.995 63.12 62.902 62.877 63.08 63.017 62.979 62.922 62.875 62.739 62.589 62.499 62.403 62.349 62.32 62.26 62.252 62.238 62.217 62.19 62.194 62.225 62.239 62.319 62.224 62.471 62.795 63.038 63.326 63.449 63.781 63.238 62.075 62.1 69.939 70.957 74.282 69.946 79.995 77.881 70.4 65.451 58.518 59.377 58.149 57.811 57.568 58.145 58.687 57.172 56.673 56.309 58.628 56.713 56.118 56.006 57.142 55.443 55.196 55.144 56.528 57.381 57.724 59.672 59.998 57.822 57.225 55.74 54.53 54.436 54.094 54.032 53.946 53.853 53.828 55.61 54.129 55.649 53.807 53.709 53.792 53.596 54.098 54.442 54.555 53.826 53.58 53.621 53.714 53.42 56.436 55.271 53.551 53.447 53.101 53.06 53.523 52.64 52.533 52.467 52.524 56.661 56.052 52.696 52.305 52.297 52.379 53.074 52.113 52.695 51.707 51.662 51.634 52.724 51.847 52.93 54.162 57.736 58.86 58.483 57.361 52.965 51.027 52.304 53.261 52.665 52.093 52.669 52.001 50.442 50.885 50.157 55.239 56.271 56.88 56.059 51.39 50.004 49.937 49.648 49.499 49.493 49.444 49.381 49.468 50.487 50.01 51.195 49.322 49.14 48.835 48.774 48.811 48.989 51.111 49.104 48.721 52.565 55.083 55.187 54.483 49.214 48.374 49.242 48.305 48.176 48.145 48.071 47.996 47.893 51.823 49.742 47.684 47.766 47.671 48.473 48.17 49.194 47.917 49.631 51.616 49.635 49.291 48.969 48.362 47.585 47.061 51.038 53.666 54.832 53.739 52.404 46.877 47.611 47.088 46.626 46.554 46.548 46.56 46.466 46.582 46.939 47.257 46.584 46.131 46.153 46.66 50.973 47.851 46.637 47.614 48.45 47.23 49.422 52.03 52.291 50.821 51.271 51.722 46.704 46.013 48.721 48.637 46.231 46.146 45.556 45.095 45.683 45.292 44.797 44.961 44.443 44.326 44.268 44.229 44.139 44.043 44.532 44.792 44.031 44.09 43.899 43.872 43.882 50.214 53.982 54.188 48.72 53.518 55.264 50.75 54.289 51.255 47.123 45.143 45.028 45.043 45.085 45.177 44.97 46.544 47.957 47.881 47.891 47.887 47.875 47.922 47.947 47.918 47.942
70.86 70.793 70.754 70.579 70.479 70.283 70.086 69.836 69.645 69.455 69.351 69.254 69.251 69.265 69.205 69.135 69.758 72.963 72.695 72.566 73.378 72.444 69.818 69.817 69.8 69.838 69.884 69.944 69.94 69.954 69.997 70.019 70.037 70.013 70.011 70.064 70.066 70.16 70.24 70.23 70.248 70.258 70.273 70.297 70.296 70.258 70.269 70.214 70.219 70.176 70.23 70.215 70.23 70.175 70.143 70.086 70.058 70.066 70.046 69.993 69.991 69.932 69.898 69.864 69.884 69.85 69.903 69.946 69.974 69.943 69.908 69.83 70.257 69.548 68.896 68.836 70.367 78.325 80.888 86.07 79.722 72.721 68.657 70.447 71.958 70.507 68.148 67.315 64.693 64.691 64.507 64.408 64.377 64.317 64.253 64.267 64.242 64.257 64.28 64.279 64.274 64.309 64.303 64.242 65.042 66.138 65.029 64.395 64.346 64.346 64.231 64.275 64.197 64.185 64.216 64.07 63.981 64.092 64.175 64.651 63.734 63.77 63.736 63.671 63.674 63.67 63.696 63.654 63.612 63.696 63.672 63.771 63.873 63.882 63.877 63.899 63.86 63.903 63.948 63.921 63.914 63.877 63.854 63.825 63.844 63.81 63.702 63.995 63.66 63.37 63.226 63.123 63.133 63.116 63.036 63.006 62.991 62.98 63.025 63.415 63.137 63.036 63.057 62.986 62.964 63.364 62.841 62.786 62.406 62.356 62.26 62.285 62.242 62.192 62.188 62.159 62.189 62.155 62.216 62.271 62.173 62.208 62.253 62.734 63.642 63.185 63.348 64.838 65.99 63.116 67.327 67.791 71.381 75.336 74.768 80.836 68.957 68.052 69.158 65.587 60.728 57.932 58.359 59.114 58.37 59.396 60.933 58.485 59.271 59.12 57.187 56.014 56.238 55.97 56.234 56.802 56.13 55.436 56.935 56.493 57.247 56.987 56.53 55.412 55.064 54.395 54.13 54.074 54.044 53.953 53.871 53.844 55.076 54.511 53.884 53.823 53.725 53.842 54.672 53.891 53.822 53.721 53.632 53.669 53.483 53.38 54.319 55.684 54.554 53.085 53.004 52.92 52.822 52.84 53.458 53.118 52.617 58.799 59.062 58.604 55.322 52.881 52.845 52.263 52.065 52.757 51.804 51.792 51.834 51.962 51.634 52.498 57.275 58.382 59.114 58.053 55.228 53.777 51.111 51.124 51.401 52.544 52.2 52.504 52.695 52.893 50.249 50.186 50.09 51.743 52.736 55.364 50.316 49.938 49.878 50.251 49.648 49.643 50.173 49.655 49.833 49.58 49.74 51.665 51.727 51.169 50.981 49.793 49.863 51.485 49.578 48.83 48.83 52.468 53.995 53.958 50.147 49.106 48.496 48.998 48.553 48.251 48.25 48.238 48.116 48.198 47.895 48.099 48.71 48.175 47.667 48.029 49.556 50.273 50.232 50.291 51.177 49.767 48.482 49.675 49.438 47.313 47.148 51.111 53.103 53.591 53.214 48.59 46.773 47.942 46.989 46.714 46.608 46.648 46.587 46.535 46.553 47.059 46.581 46.393 46.378 46.658 46.587 46.145 46.169 47.166 46.591 46.977 48.247 49.623 52.565 53.419 53.108 52.74 52.209 48.739 48.229 48.258 46.963 46.276 46.537 46.162 46.078 45.446 44.847 45.159 44.773 44.46 44.396 44.296 44.26 44.2 44.068 44.103 44.583 43.956 43.929 43.884 43.852 43.781 48.47 51.514 51.82 53.479 54.524 48.737 49.403 48.229 50.099 53.014 46.699 46.918 47.465 48.332 46.869 45.152 47.536 48.077 47.974 47.974 47.94 48.021 47.978 47.974 47.987 48.002
71.037 70.944 70.873 70.758 70.603 70.427 70.258 70.11 69.855 69.647 69.519 69.456 69.396 69.377 69.465 69.408 69.38 69.853 70.086 70.367 72.685 70.578 69.778 69.773 69.802 69.876 69.876 69.959 69.965 69.987 69.975 69.93 70.034 70.051 70.09 70.139 70.167 70.185 70.228 70.291 70.295 70.307 70.276 70.307 70.308 70.283 70.256 70.262 70.307 70.3 70.293 70.287 70.263 70.241 70.203 70.188 70.146 70.117 70.113 70.08 69.986 69.963 69.953 69.851 69.872 69.917 69.88 69.894 69.93 69.956 69.874 70.099 70.046 69.27 68.918 68.887 69.028 72.051 84.553 86.789 77.569 69.966 68.308 69.295 70.528 67.808 65.639 66.739 64.657 64.523 64.5 64.385 64.339 64.287 64.286 64.252 64.226 64.255 64.251 64.316 64.276 64.311 64.253 64.723 65.744 65.046 64.299 64.352 64.376 64.342 64.198 64.192 64.171 64.856 64.517 64.072 63.989 63.815 65.517 66.77 64.612 63.887 63.768 63.759 63.677 63.658 63.857 63.674 63.637 63.698 63.712 63.773 63.837 63.849 63.881 63.866 63.951 63.948 63.94 63.957 63.881 63.946 63.8 63.797 63.854 63.789 63.884 63.822 63.661 63.587 63.448 63.41 63.403 63.338 63.254 63.15 63.053 63.079 65.63 66.88 65.13 63.149 63.13 63.073 65.351 65.591 63.007 62.818 62.793 62.425 62.309 62.269 62.241 62.248 62.207 62.199 62.157 62.151 62.158 62.103 62.212 62.193 62.166 62.258 62.806 62.681 62.939 63.823 65.365 65.006 66.242 67.211 65.889 76.812 70.042 74.178 71.568 71.021 74.342 67.736 65.077 58.145 59.842 59.824 58.009 60.476 59.979 59.708 57.277 61.749 56.742 56.997 56.587 56.682 57.13 55.663 55.43 55.234 56.209 54.85 54.869 56.383 55.246 58.079 54.794 54.379 55.042 54.668 54.079 54.038 53.937 54.005 54.928 54.403 53.965 53.915 54.013 54.145 56.464 59.969 60.093 57.822 53.848 53.545 53.468 53.521 55.522 57.809 54.933 53.351 53.051 53.273 52.89 52.979 53.985 54.86 57.745 59.708 59.718 58.936 56.34 52.31 52.239 52.167 52.023 51.966 51.978 51.942 52.092 51.853 51.822 52.343 57.688 58.39 58.734 54.652 52.859 51.6 51.105 51.139 51.083 53.001 52.235 52.118 51.992 51.507 50.775 50.009 51.062 51.124 50.195 49.958 49.967 50.015 50.293 51.291 49.884 50.657 50.901 49.984 50.663 50.169 53.691 54.199 53.395 52.479 51.943 51.999 51.775 51.848 51.773 51.375 51.199 50.62 50.287 48.747 48.661 48.668 49.465 49.107 48.528 48.356 48.358 48.293 48.241 48.294 48.042 48.178 49.95 49.466 47.77 47.704 49.52 50.244 50.302 49.05 48.552 49.306 49.777 49.832 48.478 48.277 47.711 47.121 48.079 48.586 51.507 47.25 46.817 47.265 47.218 47.113 46.702 46.688 46.71 46.607 46.555 46.614 46.716 46.475 46.494 46.468 46.36 46.305 46.298 46.206 46.668 47.168 46.945 47.468 52.276 52.414 53.255 52.86 51.447 48.999 46.995 46.286 49.315 50.569 46.436 46.527 46.787 45.769 44.975 44.746 44.658 44.576 44.445 44.435 44.319 44.259 44.19 46.728 46.381 44.011 43.984 43.905 43.839 43.785 44.953 49.631 49.551 47.041 51.392 54.665 52.326 48.49 49.198 53.104 50.369 49.049 49.014 49.26 48.58 48.045 48.165 48.039 48.064 48.036 48.048 48.051 48.033 48.075 48.042 48.03
71.137 71.113 71.02 70.868 70.729 70.631 70.438 70.205 70.026 69.947 69.719 69.609 69.595 69.573 69.568 69.628 69.537 69.555 69.524 69.569 69.695 69.784 69.82 69.836 69.838 69.85 69.929 69.975 70.004 70.055 70.053 70.043 70.07 70.162 70.203 70.251 70.303 70.293 70.32 70.306 70.343 70.306 70.3 70.316 70.26 70.325 70.279 70.308 70.315 70.346 70.332 70.292 70.321 70.267 70.252 70.223 70.183 70.136 70.129 70.124 70.127 70.101 70.016 69.994 69.96 70.021 69.964 69.867 69.945 69.922 69.873 71.291 69.764 69.041 68.989 69.002 69.936 72.744 77.541 80.68 70.131 69.021 68.299 73.408 70.989 67.134 65.59 67.151 64.592 64.512 64.407 64.323 64.269 64.262 64.245 64.237 64.227 64.249 64.236 64.28 64.288 64.274 65.188 64.973 64.803 64.558 64.285 64.254 64.348 64.2 64.203 64.253 64.208 64.108 64.11 64.073 64.038 64.136 64.012 64.498 63.972 63.835 63.739 63.728 63.648 63.606 63.713 63.778 63.761 63.733 63.692 63.773 63.765 63.873 63.912 63.864 63.882 63.886 63.936 63.945 63.968 63.875 63.784 63.755 63.837 63.879 63.88 63.809 63.865 63.828 63.511 65.194 66.335 64.276 63.328 63.184 63.122 63.3 65.417 66.45 64.055 63.162 63.126 63.077 63.419 63.917 62.958 62.8 62.818 62.783 62.369 62.267 62.241 62.238 62.212 62.192 62.211 62.131 62.106 62.07 62.161 62.215 62.203 63.174 62.186 62.277 62.658 62.796 62.937 62.977 64.032 64.982 68.514 75.27 69.036 65.02 65.897 70.749 74.639 73.342 68.9 58.434 60.266 61.421 57.193 57.7 59.185 57.071 58.124 62.648 60.429 57.125 57.038 56.34 55.862 55.682 55.395 55.809 55.65 55.433 58.374 61.087 61.029 61.071 56.7 54.648 54.395 54.32 54.21 54.124 54.08 54.189 55.062 54.692 54.928 54.074 53.89 54.82 56.116 61.378 60.911 60.312 59.483 54.031 53.609 54.26 55.931 58.964 59.776 54.682 53.789 54.924 54.572 52.929 54.149 54.84 58.323 60.008 60.286 58.516 53.818 52.266 52.713 52.454 52.154 52.085 52.084 52.041 52.255 52.796 52.517 53.086 56.562 57.572 57.838 53.344 51.611 51.425 51.634 51.305 53.574 52.203 51.895 52.008 52.289 50.929 50.694 50.556 50.527 50.28 50.7 50.042 50.17 50.953 50.026 49.973 49.902 49.887 49.914 49.781 51.091 50.458 54.904 56.45 56.19 54.691 50.063 51.883 51.865 51.809 52.73 52.558 51.49 51.057 51.091 51.085 49.341 48.792 49.863 49.139 48.709 48.494 48.505 48.396 48.413 48.458 48.508 48.272 50.58 50.519 50.509 48.724 50.146 50.163 52.08 50.652 48.336 47.684 48.293 47.908 47.656 47.655 49.486 50.053 49.136 47.694 47.106 47.2 46.902 47.279 46.776 46.771 46.82 46.766 46.732 46.685 46.565 46.516 46.567 46.831 46.614 47.339 47.87 46.829 46.394 46.398 47.333 46.571 46.352 46.625 46.909 49.173 51.303 52.072 49.81 48.98 46.542 46.492 51.848 52.941 48.986 49.753 49.004 47.401 45.302 44.917 44.833 45.009 47.503 46.533 44.871 44.232 44.094 44.058 43.999 43.998 43.972 43.97 44.264 43.78 47.954 48.558 48.275 51.545 53.425 55.222 49.521 52.359 54.057 48.807 50.733 50.477 48.833 49.331 48.314 48.449 48.204 48.146 48.149 48.076 48.113 48.096 48.109 48.127 48.112 48.106
71.282 71.214 71.188 71.003 70.903 70.754 70.587 70.37 70.195 69.999 69.917 69.843 69.77 69.777 69.737 69.717 69.709 69.711 69.755 69.766 69.784 69.843 69.857 69.845 69.941 69.953 69.982 70.021 70.068 70.085 70.119 70.115 70.169 70.222 70.283 70.333 70.32 70.342 70.342 70.317 70.309 70.344 70.317 70.356 70.349 70.342 70.37 70.343 70.359 70.352 70.286 70.317 70.263 70.24 70.276 70.195 70.188 70.171 70.13 70.129 70.146 70.1 70.089 69.994 69.976 69.927 69.992 69.948 69.925 69.889 72.484 73.221 70.051 69.071 69.069 69.068 69.754 79.189 84.656 74.793 71.629 68.881 70.087 69.722 73.679 69.328 68.707 67.521 65.961 64.558 64.37 64.292 64.245 64.208 64.207 64.224 64.229 64.209 64.239 64.267 64.27 64.327 65.71 65.28 64.384 64.444 64.606 64.424 64.346 64.437 64.665 64.201 64.218 64.2 64.125 64.107 64.37 64.148 63.97 64.015 63.89 64.022 63.749 63.682 63.62 63.611 63.627 63.768 64.214 63.777 63.727 63.808 63.848 63.87 63.938 63.885 63.912 63.954 63.971 63.984 63.902 63.934 63.851 63.786 63.849 63.827 63.923 63.977 63.857 63.747 63.651 63.716 65.748 64.304 63.468 63.162 63.104 63.083 63.206 64.191 63.488 63.209 63.175 63.145 63.051 63.002 62.891 62.891 63.036 62.805 62.81 62.449 62.233 62.201 62.171 62.175 62.123 62.187 62.144 62.096 62.099 62.097 62.201 63.144 62.248 62.099 62.216 62.296 62.695 62.991 63.226 63.199 62.923 63.207 61.629 61.295 65.544 71.141 71.616 71.847 58.672 60.463 60.984 58.397 57.286 58.594 59.796 56.919 60.623 62.362 60.437 56.862 56.412 58.16 57.545 56.693 55.716 55.572 55.576 57.776 60.017 61.638 62.363 61.693 60.189 55.717 55.818 54.803 54.337 54.22 54.188 54.229 54.383 56.167 54.519 54.154 53.934 54.365 59.936 61.074 61.769 61.461 60.693 60.138 57.888 54.164 54.36 58.335 58.899 54.094 54.616 54.72 55.038 54.977 53.364 56.945 58.884 59.433 59.162 55.389 52.809 52.583 52.953 52.432 52.295 52.213 52.198 52.197 52.839 53.078 52.491 53.68 54.128 54.605 52.711 51.965 51.484 51.51 51.655 52 54.068 51.986 50.677 50.913 51.14 52.652 50.646 51.452 50.929 50.486 50.43 50.404 50.223 50.195 50.068 50.053 50.094 50.512 50.124 50.291 50.08 52.428 56.043 57.161 56.471 51.455 49.47 49.649 51.004 49.434 51.838 52.694 50.297 50.023 49.88 50.621 49.349 49.922 49.211 48.949 48.816 48.631 48.533 48.575 48.604 48.636 48.673 48.741 48.748 49.389 49.07 48.363 49.537 52.092 54.417 52.996 51.648 47.787 47.777 47.77 47.752 48.25 52.796 52.479 50.446 48.833 47.618 47.282 46.878 46.919 46.766 46.873 46.838 46.784 46.774 46.686 46.64 46.609 46.531 46.497 46.507 46.834 46.91 46.756 47.242 46.97 46.535 46.582 46.531 46.362 46.358 47.426 46.343 47.879 47.088 48.022 46.595 51.623 52.943 53.662 53.526 52.305 49.698 48.249 45.753 45.887 47.195 47.74 47.879 47.627 44.311 44.188 44.114 44.085 44.04 44.023 44.011 43.97 55.391 47.318 43.816 53.417 50.606 51.36 52.357 52.545 50.941 49.593 54.815 51.405 50.657 50.97 46.489 45.945 47.911 48.234 48.171 48.16 48.143 48.162 48.157 48.15 48.124 48.197 48.168 48.14
71.41 71.391 71.303 71.183 71.097 70.902 70.672 70.478 70.358 70.188 70.117 70.037 69.94 69.954 69.862 69.82 69.821 69.819 69.822 69.904 69.904 69.885 69.936 69.983 69.996 70.045 70.08 70.055 70.074 70.11 70.133 70.13 70.195 70.263 70.332 70.331 70.38 70.408 70.386 70.359 70.348 70.364 70.39 70.365 70.395 70.438 70.475 70.419 70.404 70.439 70.414 70.404 70.36 70.33 70.301 70.273 70.214 70.25 70.183 70.198 70.182 70.164 70.143 70.08 69.956 69.946 69.951 69.99 69.911 71.375 73.706 74.145 70.154 69.145 69.15 69.394 69.204 74.714 83.474 79.789 70.746 69.164 70.008 73.647 74.202 73.047 70.666 72.131 68.528 67.572 64.366 64.273 64.233 64.217 64.199 64.227 64.186 64.211 64.216 64.229 64.235 64.395 64.742 64.575 64.473 64.464 64.807 64.263 65.099 64.871 64.44 64.238 64.257 64.241 64.136 64.052 64.079 64.067 66.674 68.17 66.962 65.743 65.011 63.741 63.646 63.685 63.659 63.686 63.799 63.907 63.87 63.808 63.846 63.937 63.883 63.968 63.938 63.899 63.934 63.9 64.093 63.981 63.782 63.86 63.94 63.987 63.95 63.873 63.863 63.866 63.79 63.703 64.044 66.114 65.489 63.757 63.239 63.293 63.353 63.315 63.324 63.268 63.286 63.283 63.048 62.943 62.96 62.805 64.584 64.275 63.303 62.773 62.472 62.362 62.202 62.192 62.162 62.15 62.108 62.116 62.174 62.277 62.305 62.152 62.106 62.078 62.172 62.232 62.157 62.348 62.756 62.745 62.566 62.321 62.264 61.881 61.761 68.263 65.387 65.356 62.417 65.606 61.271 57.959 58.156 57.384 57.599 57.125 57.178 57.739 56.928 56.808 57.565 59.975 59.61 56.496 55.708 55.682 55.374 57.414 57.737 61.172 62.731 62.457 59.641 55.259 55.389 54.774 54.367 54.282 54.305 54.303 54.434 54.962 56.211 55.159 54.047 54 55.12 59.667 60.376 61.641 61.674 61.374 60.308 58.291 57.878 54.012 54.78 53.396 53.738 55.355 55.676 54.475 52.962 53.966 54.416 58.305 58.477 54.276 52.423 52.61 52.66 52.404 52.421 52.324 52.418 52.658 52.379 52.851 52.973 53.156 53.178 53.494 53.455 52.183 51.715 51.667 51.813 52.691 54.079 51.709 50.71 50.652 50.731 54.065 55.477 51.779 51.506 50.566 50.501 50.493 50.504 50.341 50.214 50.187 50.235 51.491 50.206 50.269 50.115 53.627 56.403 57.16 56.158 51.738 49.62 50.892 50.294 49.406 52.096 53.974 50.924 49.633 50.301 49.33 49.276 49.777 49.008 49.68 48.894 48.761 48.704 48.758 48.7 48.632 48.871 53.826 52.858 48.961 49.047 48.257 47.999 50.647 53.909 53.064 50.503 47.881 47.83 47.9 48.228 47.987 54.066 54.464 53.907 52.358 47.684 47.237 47.209 46.845 46.823 46.879 46.845 46.841 46.692 46.788 46.706 46.611 46.62 46.618 46.583 46.527 46.516 46.492 46.484 46.546 46.818 46.598 46.696 46.496 46.482 46.7 46.397 46.408 46.431 47.658 47.032 49.136 52.368 53.792 53.519 53.393 52.327 47.248 46.132 46.104 46.226 47.686 46.174 44.507 44.28 44.238 44.156 44.114 44.017 44.717 50.29 59.236 46.369 43.916 43.808 50.563 50.283 51.788 50.491 53.247 53.607 48.763 51.693 51.274 50.575 49.382 48.292 48.517 48.248 48.24 48.238 48.213 48.215 48.203 48.198 48.191 48.186 48.221 48.241 48.193
71.517 71.523 71.44 71.333 71.206 71.033 70.878 70.611 70.516 70.34 70.255 70.206 70.107 70.04 69.989 69.945 69.909 69.948 69.961 69.921 69.984 70.008 70.04 70.038 70.08 70.037 70.092 70.134 70.198 70.166 70.203 70.234 70.244 70.307 70.372 70.384 70.388 70.37 70.341 70.36 70.323 70.371 70.399 70.417 70.427 70.387 70.43 70.436 70.4 70.427 70.402 70.417 70.426 70.346 70.37 70.309 70.275 70.261 70.24 70.268 70.242 70.211 70.168 70.107 69.975 69.961 70.009 69.965 69.862 70.541 73.96 73.063 69.321 70.715 69.595 70.022 71.516 74.619 74.875 76.557 74.8 69.248 69.134 71.438 69.79 73.164 72.12 69.247 68.579 68.757 64.451 64.302 64.24 64.208 64.201 64.176 64.224 64.204 64.182 64.206 64.255 64.775 65.559 64.569 64.389 64.425 64.41 64.313 64.613 65.709 64.201 64.314 64.135 64.135 64.155 64.09 64.051 63.976 65.041 68.679 66.522 64.947 64.515 63.77 63.736 63.718 63.69 63.726 63.799 63.878 63.997 64.763 63.884 63.9 63.912 63.982 63.966 63.957 63.971 63.938 63.907 63.787 63.834 63.811 63.93 63.888 63.905 63.929 63.843 63.885 63.814 63.787 63.74 66.098 66.645 64.8 63.527 63.599 63.437 63.405 63.369 63.313 63.269 63.213 63.159 63.009 62.858 63.191 65.427 66.087 64.914 62.821 62.84 62.586 62.2 62.213 62.17 62.114 62.107 62.117 62.116 62.37 62.562 62.211 62.104 62.144 62.11 62.07 62.089 62.152 62.195 62.386 62.301 62.595 62.576 61.965 61.712 62.259 62.997 65.629 67.027 66.553 62.054 66.053 65.15 61.262 57.592 57.921 57.401 58.191 57.168 58.378 58.779 57.058 56.076 55.805 55.778 55.904 55.41 56.858 57.79 61.109 62.166 61.858 60.495 56.421 54.824 54.621 54.444 54.391 54.388 54.385 54.325 54.438 54.77 55.031 54.908 54.64 54.276 54.24 55.76 59.969 60.737 61.513 59.906 60.217 57.384 56.336 55.12 53.431 53.41 54.184 55.666 55.716 54.34 53.002 53.539 54.702 52.886 52.949 52.747 53.111 52.66 52.533 52.536 52.489 52.547 52.536 52.465 54.098 56.963 54.501 54.447 52.671 52.66 52.185 51.999 51.871 51.862 53.29 53.949 53.812 53.161 52.099 51.493 54.176 56.173 57.442 55.626 51.686 51.875 50.712 50.609 50.443 50.328 50.351 50.281 50.41 51.172 50.119 50.113 55.202 56.161 56.775 55.792 53.264 50.266 50.367 50.047 49.415 49.868 54.118 55.863 54.431 50.712 50.424 49.29 49.223 49.077 48.943 48.952 48.852 48.875 49.661 49.022 49.067 53.462 55.284 55.335 54.85 49.78 48.3 48.127 51.344 49.016 51.382 49.95 47.86 47.815 49.248 48.616 52.059 54.676 55.002 54.149 49.913 47.51 48.031 47.005 46.895 46.938 46.957 46.86 46.765 46.961 47.833 48.492 47.653 46.64 46.633 46.664 46.6 46.598 46.638 46.551 46.593 46.55 46.56 46.563 46.633 47.103 46.789 46.576 46.525 46.567 47.768 47.05 46.514 48.877 51.673 52.788 52.787 48.962 46.195 46.173 47.321 47.865 48.306 46.204 44.483 44.299 44.216 44.187 44.109 44.774 49.913 64.778 62.994 46.363 55.182 48.273 49.804 53.159 51.515 49.698 51.689 51.605 47.274 48.636 50.12 50.338 48.862 48.488 48.232 48.231 48.269 48.237 48.26 48.257 48.249 48.248 48.213 48.232 48.225 48.204 48.274
71.697 71.632 71.59 71.46 71.366 71.21 70.922 70.78 70.644 70.463 70.399 70.319 70.267 70.173 70.105 70.1 70.033 70.049 70.058 70.054 70.089 70.044 70.111 70.14 70.163 70.137 70.14 70.234 70.203 70.163 70.262 70.275 70.365 70.362 70.395 70.367 70.377 70.394 70.36 70.353 70.415 70.421 70.412 70.434 70.466 70.481 70.467 70.427 70.432 70.434 70.388 70.379 70.4 70.401 70.378 70.327 70.283 70.297 70.302 70.259 70.255 70.224 70.167 70.109 69.999 70.034 70.004 69.898 71.567 74.471 74.211 71.005 69.427 71.285 71.048 70.045 72.927 77.255 78.933 79.791 75.921 70.726 68.927 69.722 73.575 73.617 71.874 70.727 68.685 66.375 67.019 64.403 64.244 64.214 64.195 64.182 64.204 64.15 64.203 64.251 64.268 64.354 64.776 64.437 64.4 65.157 64.353 64.278 64.304 64.242 64.22 64.344 64.293 64.219 64.095 64.021 64.026 63.962 65.698 65.885 64.794 63.987 64.174 63.787 63.734 63.813 63.761 63.816 63.854 63.863 63.926 64.049 64.128 63.919 63.931 64.026 64.004 64.05 63.989 63.987 63.937 63.924 63.85 63.894 63.929 63.918 63.841 63.918 63.959 63.914 63.852 63.78 63.782 64.187 65.785 63.875 63.661 63.493 63.466 63.456 63.418 63.35 63.334 63.261 63.181 62.937 62.785 64.032 65.1 65.855 64.382 62.78 62.789 62.801 62.727 62.19 62.155 62.108 62.128 62.118 62.072 62.097 62.294 62.062 62.033 62.083 62.153 62.052 62.031 62.052 62.113 62.089 62.104 62.394 62.771 62.464 62.296 61.568 62.463 66.611 66.914 67.293 67.033 66.876 66.691 65.115 61.893 58.101 57.776 58.377 58.777 58.903 58.958 57.59 56.192 55.981 55.99 57.348 56.283 55.363 57.876 60.513 61.474 61.302 57.962 55.443 55.017 54.793 54.584 54.478 54.379 54.405 54.395 54.354 54.347 54.378 55.128 55.781 54.73 54.303 54.2 58.471 59.66 54.761 56.608 56.568 55.602 55.891 54.074 53.732 54.399 55.213 53.958 53.931 53.519 54.212 53.252 53.209 52.978 52.823 52.87 52.896 52.652 52.712 52.614 52.634 52.96 52.796 52.758 56.668 59.036 59.168 57.809 53.967 52.752 54.348 54.923 53.593 52.479 52.286 51.419 51.706 52.196 53.713 52.59 54.175 57.318 58.252 57.936 56.913 51.551 52.269 51.413 50.552 50.44 50.463 50.419 50.422 50.452 50.34 50.575 50.158 55.237 55.453 54.292 50.796 49.914 50.107 50.126 50.105 50.588 55.566 56.795 56.305 55.275 50.312 49.356 49.454 49.167 49.129 49.071 48.92 49.03 50.002 48.952 52.005 54.55 56.001 55.933 54.683 48.823 48.419 48.314 49.899 50.33 50.929 50.363 48.799 47.93 48.073 48.344 53.206 55.213 54.796 53.603 49.121 47.812 48.433 47.182 46.985 47.047 46.955 46.942 47.236 51.855 52.009 50.53 47.29 46.772 47.488 46.91 46.917 46.683 46.568 46.574 46.598 46.669 46.605 46.604 46.577 47.428 47.314 46.664 47.016 46.739 47.575 46.683 46.624 46.537 47.014 52.013 49.058 46.312 46.243 46.83 48.358 48.403 48.289 47.393 44.586 44.359 44.286 44.198 44.006 45.79 44.385 60.297 44.762 47.729 46.216 49.982 55.684 58.495 56.711 50.114 47.697 53.757 47.331 49.376 48.183 49.172 48.929 48.317 48.298 48.321 48.3 48.29 48.293 48.318 48.288 48.276 48.278 48.258 48.261 48.286 48.281
71.837 71.799 71.714 71.639 71.489 71.337 71.119 70.981 70.818 70.667 70.597 70.516 70.414 70.325 70.228 70.214 70.191 70.212 70.213 70.202 70.161 70.202 70.24 70.204 70.238 70.211 70.265 70.226 70.239 70.306 70.285 70.352 70.404 70.41 70.45 70.455 70.444 70.436 70.429 70.457 70.47 70.446 70.413 70.456 70.454 70.46 70.444 70.434 70.459 70.484 70.46 70.455 70.442 70.39 70.392 70.348 70.371 70.324 70.305 70.295 70.287 70.229 70.176 70.214 70.133 70.067 69.986 69.984 73.079 74.944 75.343 70.381 70.764 70.378 69.71 69.496 73.504 78.727 80.349 80.762 80.283 71.217 69.133 69.548 71.785 71.893 70.13 69.399 69.982 68.138 65.786 65.421 64.389 64.263 64.213 64.183 64.17 64.178 64.192 64.385 64.665 64.311 64.642 64.448 64.378 64.306 64.291 65.262 66.467 65.009 64.211 64.186 64.48 64.093 64.138 64.117 64.139 64.025 63.957 64.204 64.333 64.395 64.162 63.922 64.127 64.606 63.769 63.825 63.884 63.886 63.944 63.951 64.002 64.051 64.037 64.019 63.975 63.966 63.905 63.984 63.912 63.92 63.929 63.937 63.927 63.945 63.85 63.939 63.934 63.925 63.895 63.895 63.886 63.833 63.856 63.685 63.557 63.569 63.514 63.504 63.452 63.395 63.427 63.282 63.227 62.932 62.779 62.722 64.385 63.775 63.267 62.838 62.793 62.799 62.785 62.761 62.299 62.123 62.119 62.198 62.11 62.102 62.064 62.025 61.996 62.006 62.054 62.133 62.1 62.097 62.097 62.085 62.155 62.226 62.296 62.59 62.66 62.053 61.904 64.56 66.422 66.772 66.431 66.66 62.539 67.761 63.427 59.788 58.928 57.852 58.279 58.893 58.881 57.078 56.121 59.245 59.501 56.919 55.884 55.948 58.125 58.54 56.891 55.897 55.368 55.306 55.091 54.988 54.739 54.603 54.492 54.446 54.479 54.453 54.403 54.356 54.429 54.841 55.678 54.695 54.576 54.229 55.042 53.974 54.818 55.568 56.069 56.033 54.553 56.034 56.715 56.743 56.584 57.711 58.906 54.726 53.491 53.243 53.156 53.088 53.057 53.059 52.831 52.79 52.717 52.841 52.982 52.721 53.453 57.815 60.309 60.036 58.99 53.743 52.634 54.526 55.255 53.654 53.657 52.051 51.39 51.368 51.357 51.257 51.18 51.34 57.255 58.696 57.976 56.182 51.123 50.916 50.805 50.66 50.611 50.546 50.523 50.548 50.623 50.495 52.14 51.759 50.769 50.348 51.373 50.577 50.845 50.531 49.838 49.736 53.581 56.426 56.913 56.227 51.754 49.396 49.38 49.586 49.25 49.224 49.172 49.099 49.145 49.435 48.903 51.825 55.095 56.135 55.586 52.413 48.74 48.34 48.308 49.276 49.866 49.922 50.079 48.688 48 47.97 48.124 54.006 54.67 54.4 50.628 47.832 48.571 47.529 47.202 47.136 47.145 47.006 47.032 47.085 50.193 51.866 50.444 47.258 46.836 46.948 47.114 48.538 47.6 47.091 46.644 46.598 46.538 46.604 46.639 46.63 46.623 46.833 46.666 46.54 46.55 46.672 47.107 46.814 46.623 46.457 46.402 46.38 46.373 46.786 46.784 47.801 48.288 45.912 45.094 44.602 44.4 44.27 44.125 44.272 59.611 51.766 50.832 46.413 55.501 55.557 54.946 59.58 56.576 64.093 50.302 57.871 57.461 56.371 54.322 48.88 48.821 48.392 48.324 48.485 51.525 53.076 49.164 48.347 48.325 48.341 48.343 48.333 48.358 48.299 48.302 48.32
72.055 71.96 71.837 71.752 71.642 71.469 71.295 71.112 70.937 70.817 70.746 70.632 70.522 70.502 70.403 70.4 70.36 70.275 70.322 70.295 70.29 70.202 70.282 70.284 70.311 70.285 70.252 70.257 70.256 70.253 70.284 70.326 70.406 70.455 70.443 70.462 70.463 70.473 70.506 70.497 70.507 70.509 70.501 70.474 70.472 70.499 70.489 70.481 70.482 70.487 70.479 70.439 70.465 70.429 70.402 70.403 70.358 70.319 70.333 70.305 70.288 70.258 70.212 70.157 70.124 70.065 70.017 70.024 74.037 74.957 72.279 69.718 70.563 70.135 69.601 69.467 69.453 77.595 79.047 79.399 77.021 70.528 68.908 69.138 69.102 69.005 74.011 74.69 74.144 69.654 65.845 66.152 67.609 65.063 64.217 64.192 64.162 64.254 64.266 64.397 64.624 65.297 65.546 66.04 64.814 64.511 67.041 67.615 65.948 64.263 64.315 64.2 64.378 64.104 64.168 64.111 64.105 64.04 64.009 64.035 64.295 65.082 64.594 64.058 63.954 63.928 63.854 63.832 63.875 63.889 63.973 63.996 64.008 64.091 64.435 63.957 64.022 63.974 63.943 63.985 63.908 63.943 63.962 63.998 63.978 63.979 63.915 63.943 63.879 63.834 63.829 63.921 63.958 63.878 63.952 63.674 63.636 63.673 63.55 63.525 63.507 63.449 63.432 63.335 63.771 62.806 62.751 62.723 62.753 62.73 62.722 62.731 64.362 65.808 63.484 62.79 63.324 62.346 62.166 62.093 62.13 62.076 62.075 62.047 62.04 62.013 61.994 61.986 62.081 62.116 62.065 62.062 62.124 62.103 62.121 62.291 62.442 62.734 62.423 62.553 63.785 64.874 64.508 65.774 62.984 67.175 66.814 60.201 58.997 58.684 58.069 58.051 57.128 58.523 57.781 59.071 59.105 55.996 55.826 55.862 57.933 58.144 57.158 57.546 57.279 55.562 56.434 55.123 54.944 55.504 54.668 55.243 54.649 54.458 54.43 54.488 54.394 54.412 54.499 54.678 54.583 55.016 54.426 54.046 54.038 55.501 56.124 56.122 54.049 54.08 58.957 59.583 60.063 60.541 60.692 56.743 53.497 53.463 53.545 53.214 53.076 52.944 52.948 52.918 52.858 53.351 53.003 52.802 54.912 58.799 59.982 59.667 58.612 53.37 52.598 52.562 52.596 52.878 52.249 51.645 51.565 51.451 51.703 51.3 51.21 54.382 57.732 58.4 57.322 52.667 51.528 51.818 50.956 50.824 50.723 50.663 50.697 50.664 50.66 50.509 50.705 51.256 50.497 50.334 50.26 50.313 50.368 50.391 49.753 49.902 54.879 56.433 56.589 55.736 51.223 49.479 50.033 49.546 49.352 49.366 49.254 49.205 49.226 49.189 48.968 53.408 55.216 55.457 55.06 50.285 49.046 49.694 49.299 50.163 48.988 48.609 48.624 48.561 48.333 47.971 48.954 52.337 53.572 53.723 49.978 47.764 47.67 47.421 47.417 47.237 47.162 47.075 47.126 47.268 47.929 50.933 51.112 47.956 46.805 46.868 46.79 46.76 47.39 48.144 46.799 47.029 46.667 46.65 46.621 46.55 46.6 46.641 46.642 46.622 46.627 47.318 47.662 47.283 46.584 46.567 46.478 46.448 47.109 46.83 46.568 46.46 45.904 45.889 45.474 44.763 44.432 44.283 44.15 44.59 57.474 48.548 46.275 50.47 49.349 65.421 54.48 59.614 57.85 56.689 56.248 56.219 58.005 57.523 55.538 49.44 48.522 48.39 48.787 48.989 56.046 55.276 55.764 52.614 48.623 48.405 48.375 48.384 48.384 48.337 48.318 48.347
72.111 72.097 72.004 71.875 71.781 71.596 71.454 71.248 70.997 71.002 70.843 70.751 70.67 70.582 70.574 70.47 70.45 70.377 70.349 70.305 70.34 70.339 70.337 70.307 70.351 70.299 70.352 70.337 70.322 70.328 70.37 70.419 70.435 70.461 70.497 70.511 70.484 70.504 70.537 70.582 70.565 70.536 70.497 70.569 70.525 70.562 70.586 70.592 70.556 70.575 70.553 70.544 70.546 70.488 70.468 70.402 70.406 70.369 70.369 70.338 70.286 70.273 70.225 70.187 70.17 70.056 70.033 71.676 73.608 74.532 70.229 70.002 70.47 71.119 69.615 69.525 69.499 71.587 76.545 76.145 75.795 78.765 69.316 69.121 68.852 69.661 73.168 73.134 73.012 71.03 69.875 67.167 66.138 65.035 64.62 64.275 64.214 64.311 64.462 64.223 64.336 65.315 66.316 66.23 65.653 65.421 66.793 67.354 65.792 64.944 64.739 64.265 64.223 64.144 64.15 64.149 64.093 64.298 64.123 64.815 64.225 65.576 65.858 64.275 64.077 64.03 63.982 63.843 63.884 63.973 63.944 64.045 64.067 64.082 64.128 64.069 64.101 64.011 63.989 63.941 63.898 63.985 64.012 63.989 63.991 63.901 63.906 63.884 63.866 64.012 63.915 63.921 63.811 63.95 63.786 63.679 63.774 63.754 63.679 63.643 63.605 63.624 64.548 64.673 64.385 62.905 62.917 62.769 62.721 62.73 62.717 62.703 64.875 65.286 64.686 62.88 63.84 63.836 62.557 62.136 62.118 62.115 62.098 62.072 62.283 62.184 62.011 61.987 61.985 62.069 62.102 62.024 62.045 62.114 62.104 62.405 62.954 62.712 62.579 62.419 63.287 62.906 65.37 65.467 63.921 64.983 63.374 60.341 62.133 59.252 58.664 61.457 63.07 60.961 59.07 57.509 56.767 56.219 55.855 55.762 55.725 55.773 57.149 57.37 57.669 56.112 56.253 55.434 55.785 56.237 55.107 55.028 55.399 54.572 54.444 54.455 54.468 54.464 54.41 54.496 54.485 54.412 54.409 54.3 54.588 54.923 54.379 54.899 53.756 53.823 59.557 60.504 61.511 61.853 60.883 59.14 53.645 53.475 53.424 53.504 53.464 53.106 53.074 53.038 53.025 52.995 52.864 53.009 56.328 58.977 59.594 59.18 57.704 54.749 53.481 52.823 52.517 52.546 52.502 52.086 51.868 53.315 53.53 52.516 52.708 55.707 57.174 57.523 57.058 51.813 51.21 52.807 51.103 50.917 50.853 50.846 50.864 51.388 51.38 50.551 50.676 51.303 50.873 51.538 50.63 50.31 50.211 49.868 52.151 52.081 53.509 55.513 55.881 55.281 50.347 49.762 49.914 49.563 49.504 49.482 49.371 49.392 49.465 49.332 48.985 49.811 53.086 50.702 54.272 51.564 49.294 48.621 49.185 49.445 48.603 48.579 48.551 48.543 48.42 48.438 49.822 48.544 48.081 50.14 49.596 47.809 47.587 47.931 47.691 47.354 47.25 47.19 47.225 47.203 47.143 49.952 51.482 50.19 46.945 47.223 46.826 46.772 46.756 46.661 46.669 46.916 46.677 46.779 46.738 47.17 46.744 46.614 46.6 46.559 46.668 46.617 46.837 46.692 46.652 46.613 46.537 46.621 50.207 49.932 52.412 51.544 46.017 45.964 45.833 45.084 44.562 44.843 45.16 45.385 60.841 60.679 50.597 61.06 54.513 48.228 56.274 52.454 58.4 61.569 52.26 55.934 57.355 57.545 55.069 48.248 48.566 48.406 50.282 55.366 56.142 56.169 56.153 56.148 55.945 53.884 49.035 48.417 48.371 48.349 48.555 48.359
72.323 72.248 72.156 72.04 71.991 71.802 71.569 71.306 71.191 71.077 71.032 70.839 70.769 70.731 70.639 70.594 70.512 70.441 70.388 70.392 70.336 70.349 70.357 70.413 70.377 70.434 70.408 70.401 70.347 70.352 70.376 70.436 70.452 70.51 70.548 70.539 70.534 70.532 70.543 70.506 70.564 70.564 70.575 70.587 70.614 70.617 70.614 70.608 70.559 70.577 70.572 70.498 70.514 70.52 70.494 70.441 70.451 70.405 70.454 70.391 70.333 70.282 70.25 70.209 70.099 70.106 70.011 70.091 72.55 70.951 69.984 72.088 71.668 70.431 69.952 69.562 69.583 69.545 72.177 74.693 88.477 84.105 76.382 69.415 68.954 68.911 70.428 71.334 72.992 70.007 68.006 71.415 68.489 65.947 64.917 65.235 64.346 64.282 64.268 64.234 64.589 64.302 64.816 65.683 65.297 66.116 66.614 65.956 64.634 64.207 64.284 66.367 64.58 64.165 64.2 64.151 64.179 64.084 64.076 64.036 64.081 65.025 64.638 64.392 65.567 64.064 64.028 64.014 64.242 64.002 63.999 64.086 64.055 64.136 64.08 64.132 64.143 64.037 63.958 63.937 63.975 64.035 64.041 64.113 64.032 63.945 63.871 63.8 63.801 63.881 63.95 63.945 63.859 63.798 63.706 63.748 63.745 63.683 63.669 65.336 67.128 66.239 66.555 64.213 64.211 64.2 63.779 62.749 62.726 62.695 62.728 62.699 62.675 62.893 62.798 63.645 64.172 63.599 62.783 62.357 62.118 62.059 62.082 62.072 62.05 62.053 62.053 62.033 62.037 62.221 62.077 62.044 61.984 62.099 62.133 62.141 62.241 62.214 62.685 62.856 62.992 63.17 64.35 64.682 63.988 61.78 65.22 61.513 62.063 60.665 62.208 65.551 61.437 63.892 59.368 57.713 57.344 57.223 56.942 56.536 56.364 55.913 56.539 57.527 57.59 57.695 56.128 55.458 55.384 55.348 55.104 55.118 55.06 54.725 54.567 54.49 54.478 54.47 54.497 54.457 54.44 54.424 54.458 54.457 54.424 55.185 54.927 54.739 53.846 53.711 57.766 60.399 60.695 60.215 59.673 59.349 54.687 53.568 54.213 55.415 53.33 53.223 53.232 53.202 53.236 53.43 52.976 52.91 54.217 57.446 58.719 58.52 56.401 54.405 53.102 52.865 52.709 53.544 52.518 52.517 52.637 52.444 53.448 53.81 52.059 52.18 51.287 53.373 53.261 51.191 52.291 52.725 51.157 51.051 51.053 51.006 51.051 51.201 50.634 53.621 52 54.482 50.809 52.305 52.508 52.394 52.337 51.039 52.377 52.415 52.523 51.238 51.25 50.277 49.873 49.94 49.903 49.711 49.607 49.541 49.49 49.831 49.634 49.393 48.94 48.87 48.853 48.856 48.821 49.155 48.667 48.725 49.424 49.416 48.67 48.688 48.62 48.596 50.685 51.766 54.636 53.522 51.571 49.514 49.986 48.992 47.58 47.614 47.531 47.434 47.418 47.326 47.223 47.099 47.154 47.021 51.726 51.305 52.511 49.112 46.865 46.785 46.719 46.675 47.18 46.801 46.651 46.566 46.557 46.618 47.409 46.937 47.339 46.759 46.587 46.569 46.686 46.55 46.607 46.678 46.583 46.613 50.988 52.917 53.511 52.646 46.178 46.13 47.554 47.288 45.018 44.889 44.594 44.324 47.877 55.956 61.62 56.855 51.456 55.76 49.757 59.857 54.923 53.644 51.894 53.666 55.421 56.95 50.857 49.989 48.505 49.119 51.797 56.094 56.83 56.259 56.174 56.154 56.165 56.152 56.022 54.266 49.999 48.516 48.714 48.375
72.519 72.435 72.31 72.215 72.098 71.924 71.699 71.494 71.343 71.231 71.11 71.04 70.901 70.834 70.763 70.705 70.619 70.565 70.511 70.462 70.404 70.434 70.435 70.446 70.452 70.51 70.471 70.437 70.404 70.393 70.41 70.447 70.44 70.511 70.509 70.539 70.545 70.514 70.516 70.541 70.528 70.506 70.573 70.583 70.625 70.601 70.586 70.603 70.635 70.608 70.593 70.578 70.59 70.564 70.579 70.534 70.481 70.469 70.475 70.399 70.351 70.288 70.262 70.213 70.124 70.112 70.077 70.565 70.765 70.044 71.432 76.259 78.737 75.318 69.808 69.679 69.599 69.642 69.644 71.962 82.326 78.672 80.368 81.238 72.999 73.709 71.903 73.473 74.182 71.845 73.021 69.281 70.055 68.169 64.794 64.848 66.424 64.608 64.165 64.252 64.504 64.25 64.293 64.709 65.499 64.643 64.56 64.292 64.385 64.197 64.488 65.572 65.571 64.996 64.296 64.151 65.574 64.474 64.093 64.083 64.142 64.106 64.196 64.61 65.762 64.37 64.158 64.134 64.073 64.073 64.032 64.074 64.058 64.095 64.104 64.14 64.182 64.184 63.937 63.99 64.043 64.072 64.149 64.056 64.043 64.094 63.957 63.897 63.854 63.827 63.887 63.864 63.812 63.753 63.718 63.858 63.721 63.752 63.751 65.764 68.17 67.681 67.346 65.019 63.493 63.171 63.249 63.787 62.886 62.697 62.709 62.688 62.731 62.673 62.791 64.121 65.469 63.56 62.823 62.763 62.584 62.132 62.084 62.092 62.078 62.032 62.049 62.058 62.016 62.371 62.199 61.921 62.021 62.035 62.022 62.171 62.13 62.077 62.146 62.355 63.361 63.384 63.195 64.1 65.308 67.78 67.03 66.294 64.028 61.192 63.955 65.147 60.793 62.174 59.446 57.975 57.83 57.741 57.634 57.382 57.172 56.678 56.507 57.188 57.63 57.727 57.27 55.509 58.458 59.624 57.373 55.579 55.153 55.033 55.081 54.619 54.56 54.526 54.559 54.505 54.494 54.433 54.367 54.455 54.451 54.879 55.45 54.144 53.914 53.783 54.873 59.563 59.377 58.842 55.225 55.443 54.512 53.787 55.17 54.076 53.36 53.363 53.417 53.373 53.332 53.301 53.34 53.449 53.641 53.323 53.641 54.449 55.844 53.649 52.781 53.199 52.787 52.664 52.33 52.302 52.172 51.849 51.65 52.779 53.541 53.158 51.371 51.729 51.234 51.314 52.076 51.414 51.232 51.196 51.168 51.18 52.533 51.002 50.729 55.434 57.051 56.276 55.853 51.244 50.858 51.06 52.427 52.674 52.642 50.971 52.019 50.467 49.763 49.821 49.975 50.053 49.924 49.781 49.748 49.674 49.604 50.359 50.196 49.895 49.458 48.859 48.849 48.85 49.986 50.471 50.568 49.197 49.111 49.45 48.978 48.919 48.599 48.602 51.693 54.387 54.976 54.309 51.006 48.258 48.085 47.858 47.602 47.514 47.551 47.468 47.509 47.754 47.216 47.059 47.135 51.892 52.949 53.741 53.825 53.267 47.071 46.838 47.643 48.32 48.315 46.846 46.598 46.59 46.581 46.585 46.691 46.787 46.682 47.863 47.698 46.531 46.63 46.596 46.538 46.635 46.648 46.624 49.06 52.665 54.119 53.187 50.951 46.293 46.048 45.741 44.738 44.599 44.515 44.435 46.637 52.745 51.365 44.521 44.274 47.967 44.304 44.373 50.328 50.511 50.167 51.488 51.849 50.031 48.771 49.177 49.838 50.088 54.418 56.134 56.465 56.361 56.197 56.22 56.175 56.167 56.189 56.155 56.136 54.665 50.197 48.542
72.684 72.641 72.502 72.35 72.266 72.062 71.796 71.543 71.463 71.4 71.268 71.182 71.065 71.012 70.923 70.81 70.733 70.672 70.6 70.58 70.548 70.505 70.455 70.523 70.509 70.528 70.495 70.467 70.482 70.409 70.45 70.476 70.488 70.538 70.533 70.556 70.558 70.545 70.577 70.584 70.598 70.596 70.62 70.635 70.669 70.642 70.675 70.708 70.645 70.674 70.674 70.67 70.654 70.626 70.638 70.589 70.519 70.601 70.496 70.471 70.421 70.335 70.289 70.249 70.173 70.133 73.071 73.89 70.495 70.12 71.896 75.34 76.452 71.848 70.424 70.248 69.712 69.692 69.698 69.68 70.207 74.962 86.821 82.995 73.664 71.726 69.817 70.566 71.784 74.443 73.961 71.564 69.096 68.26 65.671 65.049 64.57 64.546 64.858 64.233 65.374 64.63 64.436 64.428 64.725 66.231 65.887 64.281 64.311 64.258 64.502 64.273 64.462 64.371 64.466 64.881 64.52 65.152 64.316 65.27 65.477 64.315 65.225 64.889 65.97 64.293 64.155 64.197 64.101 64.063 64.074 64.107 64.079 64.095 64.092 64.115 64.124 64.14 64.085 63.988 64.045 63.982 64.126 64.126 64.081 64.038 64.113 63.947 63.872 63.892 63.876 63.802 63.773 63.758 63.876 63.764 63.686 63.754 63.717 65.483 68.283 67.461 65.761 65.817 63.908 63.104 63.063 62.949 62.853 62.702 62.7 62.661 62.705 62.698 62.697 63.085 63.222 62.847 62.843 62.797 62.799 62.507 62.107 62.106 62.082 62.079 62.071 62.06 62.111 62.4 62.364 62.057 61.906 61.965 61.946 61.945 62.006 62.096 62.072 62.069 62.387 62.822 62.696 63.959 64.671 68.312 68.058 68.806 68.685 63.48 63.072 64.051 63.134 59.831 58.131 58.123 57.878 57.792 57.737 57.612 57.605 57.346 57.088 57.045 57.516 57.278 56.556 55.718 60.945 62.046 61.218 57.571 56.178 55.957 55.203 54.963 54.77 54.62 54.585 54.527 54.564 54.516 54.503 54.426 54.418 54.483 54.872 55.958 54.406 53.867 53.778 54.292 54.019 55.465 54.017 53.967 53.671 53.66 54.779 53.85 53.493 53.454 53.494 55.421 55.672 53.599 53.307 53.332 54.271 53.958 53.435 54.601 53.363 52.949 53.385 52.913 52.868 52.911 52.379 51.998 51.792 52.017 51.806 53.576 54.083 54.383 54.174 52.133 51.957 51.579 51.501 51.467 51.363 51.352 51.287 51.326 51.676 51.301 52.374 56.389 57.84 57.232 54.956 53.072 50.517 51.299 50.862 51.881 51.001 50.666 50.64 50.372 50.32 50.432 50.09 50.102 49.973 49.92 49.918 49.796 49.768 50.299 50.14 50.2 50.138 49.559 49.776 49.028 49.388 50.843 50.908 50.81 49.727 49.189 48.805 48.71 48.733 51.699 53.56 54.623 55.515 54.939 52.341 48.76 48.085 47.836 47.694 47.637 47.639 47.584 47.607 48.031 47.176 47.026 51.666 53.531 54.188 54.882 54.446 53.799 49.197 47.375 47.229 47.418 48.742 47.842 46.607 46.615 46.792 46.623 46.642 46.632 46.651 46.942 47.281 46.887 46.48 46.629 46.56 46.987 46.805 46.959 48.558 52.659 53.697 53.163 51.165 46.668 45.403 44.909 44.875 44.798 44.662 44.619 44.426 44.416 44.383 44.396 44.263 44.356 44.374 44.578 49.694 50.295 50.312 50.237 49.264 48.147 48.973 48.157 49.14 49.299 56.026 56.187 56.287 56.246 56.329 56.275 56.263 56.235 56.369 56.186 56.16 56.18 56.153 54.894
72.956 72.889 72.732 72.556 72.349 72.143 71.899 71.675 71.573 71.518 71.409 71.272 71.195 71.093 71.015 70.941 70.848 70.787 70.729 70.65 70.601 70.582 70.563 70.488 70.551 70.555 70.548 70.542 70.552 70.502 70.561 70.541 70.537 70.549 70.591 70.584 70.601 70.632 70.616 70.662 70.675 70.677 70.67 70.649 70.677 70.688 70.708 70.723 70.719 70.742 70.712 70.746 70.734 70.724 70.685 70.675 70.65 70.624 70.556 70.496 70.439 70.372 70.329 70.245 70.21 70.152 73.247 72.122 70.404 70.299 72.747 72.16 71.629 71.348 70.84 70.123 69.837 69.85 69.767 69.754 69.736 71.929 82.131 79.133 81.288 80.535 72.988 72.628 71.036 72.557 68.983 72.743 69.381 66.656 66.47 65.874 65.5 64.689 64.712 64.278 65.296 64.332 64.278 64.269 64.324 65.233 64.506 64.267 64.152 64.248 64.448 64.248 64.182 64.517 64.238 64.276 64.187 64.337 64.135 64.128 65.089 65.407 65.532 64.725 66.636 64.944 64.059 64.448 65.198 64.443 64.111 64.159 64.126 64.158 64.112 64.121 64.132 64.173 64.087 64.024 64.043 64.149 64.12 64.179 64.125 64.1 64.022 64.018 63.898 63.87 63.871 63.766 63.771 63.737 63.74 63.749 63.707 63.7 63.706 63.758 65.599 65.769 64.248 65.046 65.543 63.225 62.948 62.895 62.839 62.978 64.755 62.728 62.715 62.706 62.706 62.693 62.701 62.712 62.816 62.816 62.804 63.046 62.274 62.135 62.051 62.08 62.078 62.046 62.053 62.039 62.108 61.997 61.913 61.879 61.912 61.986 61.982 62.005 62.004 62.243 62.212 62.122 62.092 62.418 62.797 66.683 65.939 64.767 65.396 61.344 59.544 59.926 60.222 61.013 60.481 58.717 58.013 57.876 57.867 57.742 57.641 57.643 57.477 57.239 56.739 55.778 55.746 58.876 62.172 62.965 63.753 61.923 60.902 56.456 55.16 55.255 55.029 54.924 54.773 54.669 54.558 54.559 54.575 54.551 54.474 54.475 54.601 54.92 55.775 54.45 56.835 53.938 53.891 56.046 54.28 56.946 53.904 55.196 56.294 53.701 53.649 53.576 53.679 56.966 54.532 53.729 53.723 53.687 53.725 55.775 55.977 55.611 53.308 53.285 53.113 53.187 54.022 53.015 52.641 52.115 51.893 52.528 54.542 55.297 54.367 55.803 54.141 53.089 53.371 52.31 51.712 51.546 51.513 51.473 51.462 51.482 52.305 51.305 53.399 56.927 57.993 56.819 53.998 52.436 50.958 52.265 51.117 53.188 54.029 55.707 52.747 50.525 50.331 50.299 50.32 50.223 50.061 50.033 49.95 49.944 50.087 50.081 50.129 49.802 49.518 51.385 51.114 49.866 49.985 50.443 50.985 51.359 50.893 50.163 49.003 48.74 48.652 53.956 54.3 55.714 56.32 54.618 50.435 48.229 48.042 47.853 47.741 47.798 47.719 47.701 47.756 47.58 47.271 47.016 49.321 52.885 54.241 54.069 53.579 52.866 49.565 48.806 48.691 47.063 48.888 47.687 46.957 51.935 51.734 46.954 46.658 46.663 46.648 46.94 46.894 47.269 46.53 46.615 46.596 46.672 46.654 46.502 46.477 51.756 52.961 52.783 51.409 47.12 45.629 44.974 44.971 44.87 44.786 44.747 44.599 44.619 44.517 44.527 44.518 44.468 44.548 44.437 49.418 50.969 50.315 50.203 48.355 48.222 48.385 48.244 48.467 53.882 56.182 56.22 56.245 56.319 56.321 56.315 56.292 56.312 56.288 56.227 56.23 56.206 56.225 56.196
73.128 73.007 72.886 72.743 72.58 72.319 72.003 71.805 71.735 71.632 71.557 71.421 71.289 71.202 71.13 71.03 70.987 70.894 70.811 70.755 70.691 70.655 70.658 70.617 70.636 70.559 70.574 70.59 70.582 70.612 70.591 70.581 70.595 70.593 70.593 70.66 70.675 70.658 70.612 70.684 70.702 70.704 70.683 70.688 70.69 70.691 70.712 70.748 70.741 70.77 70.748 70.801 70.759 70.782 70.77 70.757 70.733 70.66 70.637 70.546 70.46 70.408 70.378 70.293 70.25 71.856 72.218 72.592 70.407 70.372 70.382 70.959 71.513 71.395 70.599 69.959 69.832 69.936 69.836 69.739 69.75 69.735 69.913 81.206 83.064 74.417 75.984 74.458 70.664 71.031 70.738 72.25 70.619 69.174 67.664 68.042 67.261 65.325 65.032 64.714 66.101 64.411 65.597 64.366 64.216 64.16 64.393 66.114 64.18 64.145 64.217 64.197 65.167 67.179 64.994 64.198 64.163 64.164 64.14 65.308 65.855 67.161 64.721 64.634 66.374 64.406 64.132 64.305 65.867 64.72 64.155 64.165 64.215 64.171 64.125 64.018 64.016 64.02 64.062 64.071 64.035 64.076 64.199 64.152 64.058 64.125 63.983 64.014 64.011 63.953 63.805 63.777 63.758 63.716 63.728 63.748 63.731 63.714 63.715 63.794 63.964 64.772 63.753 63.579 63.545 63.085 63.092 62.953 62.964 64.19 64.336 62.775 62.695 62.714 62.717 62.723 62.732 62.681 62.658 62.754 62.706 62.505 62.357 62.216 62.166 62.098 62.08 62.09 62.03 62.026 62.014 61.985 61.949 61.871 61.916 61.848 61.998 62.008 62.045 62.027 61.992 62.068 62.067 62.062 62.273 62.55 62.409 61.932 61.976 61.174 60.435 59.84 59.11 59.039 61.349 62.032 60.35 60.662 59.493 57.844 57.713 57.681 57.629 57.505 57.247 56.054 55.816 57.31 60.311 61.947 62.752 62.274 58.369 55.49 56.052 55.45 55.208 55.276 55.313 54.776 54.694 54.606 54.534 54.547 54.586 54.532 55.678 55.392 54.611 54.857 57.795 54.543 54.065 54.094 56.775 58.261 58.289 58.624 54.852 53.815 53.761 53.714 55.512 57.014 53.812 53.765 53.785 53.791 54.195 54.397 55.311 54.683 53.459 53.441 53.332 53.438 53.568 53.144 52.56 52.478 52.135 52.903 55.017 57.605 59.19 58.949 57.894 54.318 52.32 51.977 51.776 51.652 51.617 51.542 51.513 51.616 52.447 52.57 54.801 56.905 57.259 56.58 53.711 51.115 51.052 51.459 51.108 53.497 56.028 57.315 57.155 55.873 50.513 50.42 50.356 50.247 50.179 50.151 50.091 50.121 50.192 50.147 50.206 50.165 49.613 51.016 51.292 51.249 49.891 49.828 51.297 51.757 51.18 51.319 49.839 48.643 52.349 54.033 54.537 55.548 55.474 54.181 49 48.363 48.193 47.953 47.828 47.902 47.822 47.834 48.457 47.479 47.314 47.057 46.942 51.501 53.132 52.691 49.695 48.613 46.936 47.877 48.852 47.432 46.628 49.729 53.062 53.559 53.565 51.637 47.257 47.378 46.958 46.818 46.766 46.711 46.56 46.654 46.635 46.627 46.606 46.505 46.498 50.084 51.798 47.512 49.43 46.084 47.175 47.996 47.479 46.771 48.373 44.916 44.816 44.797 44.707 44.66 44.616 44.653 44.54 48.664 51.716 51.092 51.121 50.616 48.237 48.421 48.42 48.234 48.59 56.033 56.177 56.288 56.272 56.331 56.336 56.372 56.341 56.362 56.325 56.272 56.773 56.465 56.267 56.205
73.29 73.252 73.156 72.931 72.757 72.459 72.219 71.988 71.919 71.811 71.764 71.578 71.451 71.389 71.228 71.137 71.058 70.989 70.87 70.821 70.765 70.74 70.708 70.679 70.698 70.694 70.612 70.629 70.667 70.637 70.634 70.634 70.602 70.679 70.687 70.734 70.713 70.721 70.696 70.69 70.707 70.681 70.73 70.695 70.717 70.723 70.722 70.768 70.791 70.781 70.777 70.802 70.893 70.889 70.887 70.856 70.846 70.749 70.7 70.605 70.563 70.471 70.377 70.274 70.345 73.426 73.061 70.484 70.439 70.45 70.97 71.33 72.194 71.989 69.995 70.121 70.01 69.935 69.802 69.799 69.773 69.734 69.744 70.378 71.902 76.811 85.695 80.258 73.318 71.201 72.328 68.816 71.851 71.322 68.341 67.143 66.535 65.887 67.607 65.235 64.808 65.953 66.587 64.186 64.112 64.116 64.402 64.265 64.164 64.114 64.175 64.214 65.322 66.921 65.881 66.367 64.627 64.239 64.502 66.33 66.083 66.026 65.723 67.626 65.42 64.105 65.009 64.524 64.506 65.5 64.417 64.231 64.214 64.134 64.096 64.047 64.061 63.989 64.057 64.057 64.09 64.065 64.122 64.074 64.146 64.114 64.101 64.095 64.114 63.868 63.801 63.814 63.796 63.725 63.78 63.745 63.762 63.759 65.749 65.203 64.005 63.898 63.829 64.238 63.684 63.381 63.124 63.073 63.254 65.121 65.362 62.862 63.104 64.92 62.783 62.709 62.732 62.763 62.732 62.661 62.72 62.468 62.373 62.279 62.199 62.139 62.111 62.074 62.044 62.02 61.986 62.004 61.949 61.918 61.849 61.91 61.861 61.884 61.906 62.002 61.98 61.993 62.015 62.046 62.091 62.16 62.388 62.133 62.132 62.912 61.238 60.682 59.643 59.039 60.516 61.548 61.919 62.289 61.525 58.633 58.406 57.693 57.592 57.484 57.645 56.127 55.889 55.844 56.813 60.267 61.523 61.645 56.354 55.596 55.645 60.478 57.927 55.932 55.241 55.089 54.848 54.704 54.588 54.559 54.587 54.58 54.585 54.745 54.495 54.558 54.899 58.249 57.654 57.271 56.645 55.855 59.913 59.903 55.115 53.917 53.898 53.835 54.543 54.762 53.789 53.833 54.187 58.02 58.264 55.88 53.999 53.836 53.523 53.489 53.541 54.369 53.213 52.802 52.608 52.561 52.577 54.329 55.55 58.222 59.429 59.901 58.621 53.929 52.38 52.424 52.36 51.978 51.784 51.661 51.691 51.773 51.526 51.345 52.471 52.842 54.196 54.402 52.367 50.907 51.417 50.865 50.751 50.786 56.366 57.825 56.952 54.827 50.555 50.52 50.485 50.324 50.319 50.282 50.255 50.24 50.368 50.235 53.682 55.015 51.42 50.377 50.372 50.364 49.318 49.624 49.973 50.979 51.034 51.091 49.23 49.061 49.832 52.775 53.283 54.566 54.811 52.407 49.067 48.509 48.489 48.067 47.983 47.929 47.895 47.929 47.795 47.473 47.37 47.034 46.954 48.017 49.956 47.16 47.206 47.248 47.109 47.567 47.766 47.268 46.571 47.29 52.888 54.119 54.475 53.451 51.166 47.002 46.84 46.799 46.829 46.914 46.636 46.657 46.597 46.697 46.725 46.574 46.522 46.434 46.931 47.562 46.239 46.509 47.811 48.395 48.41 51.428 50.475 45.109 45.333 44.957 45.134 44.779 44.741 45.008 44.821 50.647 51.444 53.687 53.366 49.31 48.206 48.111 48.654 48.543 53.765 56.181 56.254 56.301 56.344 56.419 56.452 56.377 56.373 56.35 56.332 56.287 56.289 56.291 56.297 56.256
73.524 73.495 73.366 73.166 72.893 72.734 72.514 72.374 72.226 72.108 71.924 71.777 71.649 71.486 71.345 71.25 71.136 71.01 70.995 70.916 70.843 70.775 70.762 70.764 70.733 70.723 70.704 70.697 70.725 70.657 70.674 70.644 70.712 70.674 70.711 70.737 70.742 70.752 70.715 70.735 70.79 70.79 70.802 70.789 70.827 70.775 70.756 70.741 70.781 70.762 70.844 70.902 70.95 70.901 70.916 70.932 70.899 70.804 70.761 70.653 70.6 70.553 70.455 70.352 71.898 73.635 72.18 70.511 70.513 70.758 71.146 71.097 70.576 70.796 70.055 70.01 69.936 70.365 69.922 69.999 69.834 69.818 69.835 69.802 72.127 72.501 78.125 79.551 78.021 75.609 71.832 68.972 68.747 72.946 70.856 68.06 66.994 67.132 67.503 65.577 65.186 64.63 65.262 64.82 64.195 64.088 64.082 64.093 64.136 64.07 64.16 64.163 64.511 65.769 66.623 67.355 65.482 64.299 65.581 66.883 65.668 66.41 65.267 65.144 64.182 64.062 64.194 65.037 65.534 65.285 64.588 64.181 64.241 64.181 64.133 64.066 64.077 64.101 64.061 64.057 64.045 64.048 64.128 64.164 64.117 64.108 64.14 64.078 63.908 63.832 63.817 63.816 63.718 63.757 63.724 63.721 63.767 65.346 67.115 67.487 64.739 63.756 64.252 65.003 63.686 63.622 63.401 63.343 63.14 63.246 62.928 62.825 64.122 65.948 63.864 62.709 62.743 62.739 62.708 62.719 62.65 62.649 62.388 62.385 62.29 62.225 62.13 62.061 62.059 62.045 61.997 61.973 61.993 61.948 61.892 61.905 61.84 61.798 61.805 61.887 61.963 61.958 61.984 61.93 61.969 61.921 62.253 62.175 62.317 62.197 62.297 61.237 60.944 60.336 59.934 58.927 61.598 62.468 61.992 61.527 64.806 62.014 57.74 60.03 58.531 56.563 55.895 55.859 56.064 58.533 59.014 57.875 55.913 55.744 59.915 62.451 61.885 60.258 56.36 55.269 55.028 54.899 54.79 54.944 54.674 54.596 54.588 54.599 54.6 54.571 54.503 54.645 61.395 61.634 62.304 61.862 60.524 59.338 55.279 54.121 53.993 54.016 55.419 54.253 53.932 54.468 60.068 60.86 60.978 56.386 54.071 54.634 55.208 55.138 55.318 54.507 54.054 52.913 53.372 52.85 52.663 54.847 55.827 58.821 60.207 60.016 57.862 53.449 52.611 52.417 52.751 52.286 51.945 51.79 51.805 51.868 51.663 51.426 51.253 52.315 51.245 51.59 52.115 51.003 51.8 50.951 51.057 53.714 57.14 57.71 56.632 51.295 50.526 50.643 50.625 50.489 50.452 50.381 50.392 50.937 51.111 50.352 55.697 56.743 56.472 55.057 49.683 49.747 50.731 50.408 51.17 49.566 50.691 49.622 49.024 49.016 49.014 48.7 48.555 50.063 52.836 49.6 48.401 48.486 48.326 48.091 48.099 48.088 47.981 48.022 48.831 48.613 47.792 47.12 47.141 46.972 47.346 46.974 46.909 47.036 47.437 46.938 46.861 46.986 46.599 46.595 50.765 53.646 54.476 53.777 51.811 47.08 46.867 46.844 46.867 46.983 46.689 46.682 46.612 46.708 47.342 47.554 47.043 46.493 46.678 46.559 46.966 46.7 46.653 48.539 48.577 50.702 50.892 48.855 46.331 45.522 45.568 45.625 45.494 45.595 49.086 52.184 54.185 55.576 54.402 49.359 48.449 48.475 48.348 48.583 54.096 56.214 56.274 56.373 56.407 56.464 56.438 56.44 56.385 56.409 56.36 56.356 56.357 56.341 56.302 56.28
73.703 73.684 73.517 73.371 73.111 72.863 72.74 72.72 72.589 72.468 72.37 72.132 71.955 71.763 71.59 71.409 71.299 71.136 71.077 70.993 70.907 70.873 70.862 70.8 70.754 70.756 70.759 70.719 70.724 70.75 70.775 70.782 70.725 70.783 70.78 70.779 70.756 70.793 70.791 70.826 70.86 70.882 70.861 70.931 70.849 70.813 70.778 70.737 70.767 70.816 70.821 70.914 70.943 70.914 70.927 70.918 70.933 70.856 70.779 70.708 70.63 70.585 70.496 71.972 72.173 72.355 70.849 71.442 70.676 71.379 71.255 70.403 70.295 70.176 70.164 70.089 70.966 70.544 71.856 70.527 70.085 69.905 69.867 69.909 69.878 70.046 72.938 81.188 85.543 77.346 73.536 71.882 69.848 69.416 70.3 68.962 68.6 68.554 68.378 65.057 65.372 64.548 66.693 68.049 67.235 64.181 64.11 64.094 64.096 64.095 64.166 64.165 64.211 64.208 66.742 67.036 66.965 66.589 65.626 64.372 65.566 65.212 64.099 64.358 64.201 65.483 64.111 64.26 64.11 65.333 64.435 64.202 64.178 64.127 64.153 64.175 64.087 64.145 64.112 64.07 64.029 64.097 64.098 64.125 64.202 64.154 64.086 64.018 63.905 63.82 63.822 63.781 63.78 63.742 63.712 63.805 63.822 64.272 64.557 64.982 63.683 63.642 63.697 63.757 63.756 63.726 63.671 64.042 66.31 65.035 64.504 63.177 63.824 65.364 63.426 62.726 62.71 62.73 62.696 62.705 62.716 62.586 62.473 62.451 62.358 62.284 62.2 62.097 62.028 62.037 62.025 61.981 61.996 61.964 61.932 61.907 61.85 61.854 61.917 61.774 61.87 61.864 61.922 61.843 61.896 61.926 61.897 61.935 62.207 62.545 62.345 62.283 61.755 61.243 60.635 59.083 60.581 60.828 60.979 61.649 64.986 64.776 60.723 59.551 58.826 57.269 55.956 56.675 56.668 55.96 56.701 56.184 56.096 55.9 62.002 62.764 62.917 62.382 61.735 56.944 55.233 55.019 54.941 55.253 55.151 54.742 54.707 54.616 54.588 54.596 54.607 54.558 54.619 60.574 61.467 61.568 56.765 57.374 54.331 54.233 54.197 54.79 54.354 54.016 53.961 54.097 59.752 61.049 61.571 60.248 54.331 54.206 54.005 55.208 54.982 54.86 54.911 54.639 55.612 55.438 54.461 55.507 56.891 59.161 59.941 59.236 56.836 52.804 52.629 52.346 52.16 52.153 52.025 51.958 51.986 52.437 52.042 51.611 51.434 52.837 52.822 53.24 53.203 52.941 53.386 52.863 51.808 51.753 55.864 56.803 54.608 51.257 50.792 50.918 50.726 50.63 50.536 50.483 50.561 50.682 50.5 51.952 56.286 57.523 57.083 56.116 49.667 49.44 49.411 50.505 49.177 49.036 49.012 49.212 48.957 49.032 49.141 49.339 49.307 48.938 48.545 48.484 48.527 48.458 48.301 48.19 48.217 48.141 48.153 48.072 48.099 48.149 50.77 47.912 47.608 47.123 48.288 49.503 48.697 48.278 48.179 46.865 47.051 46.709 46.685 47.063 47.781 52.748 53.969 53.548 53.076 47.965 46.924 46.885 47.678 46.786 46.731 46.775 46.757 46.825 46.671 46.789 49.402 48.086 49.366 46.502 46.613 46.777 47.759 48.608 48.772 50.968 47.539 47.343 46.684 45.584 45.503 45.467 45.461 45.41 45.834 52.72 53.268 53.484 51.891 50.958 50.735 48.461 49.819 52.939 56.163 56.202 56.341 56.414 56.515 56.51 56.485 56.455 56.455 56.415 56.389 56.372 56.382 56.358 56.354 56.353
