ncols 391
nrows 31
xllcorner    426108
yllcorner    437080
cellsize     2
NODATA_value -9999
102.984 102.847 102.235 -9999 102.696 102.621 102.96 104.29 108.337 108.963 108.676 107.927 104.888 104.485 104.874 104.558 104.13 104.247 104.262 104.259 105.698 109.589 111.518 111.304 110.824 111.212 109.963 109.38 105.337 104.634 104.897 104.571 106.967 109.002 110.047 110.296 109.747 110.328 110.769 109.988 106.104 104.879 104.627 -9999 104.536 104.521 104.513 104.604 104.729 104.597 104.232 104.628 104.785 104.774 104.39 104.031 104.235 104.46 104.378 104.585 104.723 104.892 104.539 104.513 104.412 104.807 105.768 105.617 104.715 104.466 104.44 104.444 104.415 104.354 104.262 104.647 105.109 104.667 104.591 104.395 104.299 104.299 104.353 105.469 109.96 110.13 107.555 108.463 105.778 105.007 105.54 104.656 104.097 103.666 103.569 103.546 103.537 103.486 103.413 103.381 103.244 103.132 103.064 102.994 102.761 102.562 102.521 102.425 102.319 102.217 102.212 102.184 102.159 102.1 101.994 101.875 101.812 101.765 101.73 101.577 101.427 101.363 101.325 101.243 101.202 101.218 101.169 101.111 101.137 100.995 101.043 101.094 101.063 101.019 101.029 100.982 100.955 100.906 100.857 100.821 100.835 100.754 100.658 100.616 100.569 100.572 100.557 100.372 100.236 100.061 99.952 99.897 99.757 99.578 99.509 99.427 99.262 99.276 100.487 101.927 102.895 103.422 101.173 100.624 100.089 100.093 100.192 100.425 100.555 100.692 100.767 100.843 100.992 101.163 101.369 101.457 101.573 101.724 101.771 101.774 101.805 101.83 101.836 101.869 101.894 102.012 102.071 102.129 102.149 102.141 102.19 102.258 102.335 102.375 102.421 102.4 102.421 102.475 102.544 102.688 102.729 102.688 102.783 102.859 102.987 102.971 103.147 103.219 103.238 103.315 103.298 103.37 103.351 103.381 103.385 103.447 103.512 103.48 103.602 103.743 103.823 103.744 103.706 103.992 104.138 104.12 104.219 104.349 104.464 104.614 104.832 104.943 105.077 105.154 105.151 105.34 105.566 105.746 105.908 105.981 106.095 106.281 106.359 106.582 106.888 107.289 108.341 110.805 109.742 107.784 107.866 108.179 107.971 108.534 108.209 108.689 109.539 109.96 109.328 108.133 108.076 108.001 108.045 107.999 108.005 108.475 109.764 110.022 108.603 108.243 108.255 108.236 108.206 108.201 108.301 108.609 109.871 109.279 108.816 111.059 113.98 113.988 111.75 109.384 108.969 110.296 110.956 110.044 109.796 109.057 108.537 108.645 108.827 109.088 109.369 109.561 109.118 108.726 109.755 112.005 112.198 110.83 109.508 108.611 108.448 108.62 108.724 108.299 108.391 108.483 108.444 108.523 109.164 109.684 -9999 -9999 -9999 -9999 108.929 108.717 108.605 109.265 109.884 109.867 109.358 108.674 108.491 109.304 109.766 109.458 109.078 109.652 111.014 109.562 108.486 108.264 108.32 108.572 108.671 108.45 107.907 108.542 112.126 112.055 111.623 108.427 108.225 108.111 108.095 109.776 111.932 114.948 115.264 116.165 116.397 116.013 115.871 114.902 111.341 108.538 107.846 108.347 108.953 107.737 108.131 109.28 108.792 107.492 108.061 107.347 107.097 107.199 107.418 107.525 107.675 107.983 107.041 107.482 108.25 108.679 107.845 108.437 110.283 109.235 108.508 106.902 106.3 106.576 107.265 108.46 108.276
105.204 104.462 103.576 101.863 102.051 101.989 102.303 103.053 103.313 106.371 106.902 106.177 104.923 104.524 104.269 103.868 104.084 104.242 104.236 104.282 105.16 107.403 109.881 110.663 109.99 106.55 105.353 105.352 104.414 104.296 104.304 104.412 104.502 107.169 109.801 111.256 111.066 110.896 111.041 107.224 105.754 104.957 104.586 104.489 -9999 -9999 104.536 -9999 104.598 104.512 104.402 104.488 104.602 104.645 104.322 104.085 104.057 104.152 104.223 104.341 104.559 105.118 105.623 104.598 104.405 104.322 105.193 105.502 104.336 104.296 104.369 104.449 104.397 104.271 103.996 104.312 105.281 104.993 104.624 104.255 104.305 104.294 104.255 105.208 106.9 106.617 107.257 109.659 105.277 104.505 105.824 104.899 103.773 103.607 103.53 103.341 103.336 103.346 103.336 103.316 103.113 102.969 102.801 102.702 102.577 102.473 102.455 102.377 102.299 102.236 102.224 102.17 102.062 101.986 102.036 101.87 101.791 101.748 101.639 101.537 101.517 101.378 101.302 101.151 101.134 101.137 101.045 100.987 101.021 101.029 101.041 101.075 101.039 100.998 100.921 100.913 100.916 100.938 100.87 100.776 100.801 100.733 100.654 100.613 100.579 100.52 100.446 100.309 100.143 100.016 99.924 99.834 99.701 99.491 99.411 99.398 99.218 99.448 100.907 101.931 102.561 102.416 100.792 100.175 99.972 100.05 100.279 100.41 100.532 100.624 100.732 100.817 100.958 101.236 101.3 101.37 101.472 101.733 101.617 101.668 101.747 101.773 101.74 101.808 101.893 101.952 102.028 102.127 102.184 102.239 102.164 102.183 102.228 102.37 102.449 102.415 102.476 102.457 102.485 102.542 102.613 102.622 102.721 102.78 102.856 102.905 102.994 103.139 103.166 103.17 103.139 103.282 103.247 103.214 103.327 103.433 103.528 103.475 103.495 103.591 103.625 103.662 103.791 103.924 104.012 104.097 104.192 104.44 104.464 104.446 104.629 104.783 104.957 105.043 105.173 105.331 105.447 105.631 105.848 106.034 106.243 106.374 106.268 106.483 106.734 107.235 107.88 108.579 108.515 108.737 108.516 108.967 109.931 110.547 112.253 111.454 109.719 108.845 107.962 108.083 108.9 109.21 108.261 108.009 108.449 108.741 108.916 108.73 108.411 108.313 108.177 108.2 108.204 108.458 108.743 108.838 110.048 109.646 109.026 109.587 111.943 111.226 109.93 109.292 110.588 113.472 114.69 115.207 113.631 111.463 109.139 108.639 108.774 108.898 109.181 109.394 109.312 109.837 111.148 112.962 113.408 111.729 109.713 108.689 108.721 109.13 109.418 108.513 108.567 108.607 108.315 108.694 109.141 109.292 110.364 110.13 109.562 109.193 108.826 108.471 108.429 109.049 110.281 111.022 109.299 108.376 107.953 108.647 110.573 110.899 109.12 109.233 108.796 108.655 108.315 108.236 108.15 108.114 108.812 108.294 107.628 108.589 112.163 113.316 113.413 111.621 108.986 108.294 108.064 109.031 111.097 113.233 116.383 117.319 116.764 116.471 116.599 115.021 109.634 107.942 107.721 107.591 107.639 107.804 109.522 111.063 110.31 109.999 110.035 107.944 107.774 110.04 107.776 108.12 109.133 110.115 108.87 107.978 109.419 108.821 107.979 107.958 110.19 110.979 110.065 107.353 108.404 110.192 107.41 108.031 107.652
108.984 104.675 102.885 101.775 101.912 102.076 102.298 102.636 102.875 103.426 104.681 104.962 104.374 104.38 103.917 103.899 104.726 104.408 104.32 104.525 105.259 104.938 105.755 108.896 107.08 104.538 104.358 104.069 104.259 104.356 104.492 104.412 104.558 105.551 107.233 111.406 111.629 110.779 108.545 105.411 104.779 104.566 104.498 104.43 -9999 -9999 -9999 -9999 -9999 -9999 104.305 104.095 103.93 104.211 104.153 104.01 104.025 104.102 104.163 104.215 104.311 104.743 105.029 104.915 104.902 105.045 104.468 104.389 104.383 104.24 104.193 104.227 104.292 104.265 104.255 104.348 106.118 107.634 104.398 104.191 104.267 104.35 104.212 104.245 104.181 105.287 107.782 107.085 104.602 104.707 106.485 106.521 103.826 103.521 103.376 103.168 103.202 103.267 103.211 103.03 102.919 102.772 102.742 102.62 102.584 102.5 102.434 102.321 102.247 102.18 102.14 102.054 102.102 101.985 101.893 101.794 101.748 101.615 101.5 101.421 101.349 101.208 101.181 101.116 101.049 101.055 100.993 100.947 100.992 101.016 100.958 100.999 100.983 101.048 100.959 100.885 100.855 101.007 100.894 100.765 100.808 100.752 100.645 100.592 100.525 100.415 100.342 100.178 100.109 99.96 99.867 99.813 99.68 99.426 99.322 99.295 99.174 99.324 100.42 102.381 102.599 102.362 101.001 100.053 99.867 100.03 100.16 100.35 100.51 100.617 100.766 100.84 100.948 101.185 101.19 101.283 101.429 101.55 101.581 101.657 101.725 101.688 101.756 101.829 101.91 101.925 101.964 102.017 102.048 102.099 102.039 102.1 102.229 102.326 102.355 102.293 102.362 102.375 102.389 102.508 102.549 102.626 102.689 102.749 102.842 102.873 102.952 103.05 103.08 103.12 103.055 103.107 103.086 103.263 103.337 103.393 103.402 103.372 103.388 103.467 103.513 103.587 103.783 103.854 103.94 104.033 104.171 104.384 104.461 104.53 104.535 104.574 104.809 104.995 105.121 105.237 105.322 105.301 105.539 106.01 106.21 106.281 106.305 106.42 106.573 107.348 109.006 108.086 111.52 110.18 108.761 111.707 112.188 113.314 115.002 114.162 108.989 108.074 108.086 108.943 111 111.569 108.977 108.38 108.712 108.623 108.32 108.187 108.195 108.287 108.256 108.241 108.534 109.497 110.068 110.251 109.743 109.046 108.547 108.502 109.393 109.174 108.736 109.184 111.874 114.878 115.986 116.083 115.424 113.976 110.559 108.82 108.673 108.784 108.897 -9999 -9999 -9999 111.753 112.301 112.003 112.581 110.401 109.089 108.929 109.123 109.171 108.958 108.946 108.963 108.703 108.796 109.194 109.282 111.731 110.568 108.964 109.361 109.009 108.482 108.359 108.634 109.061 108.609 108.568 107.753 107.748 108.754 112.053 112.963 109.6 108.398 108.321 108.225 108.237 108.19 108.361 109.112 109.032 108.065 107.753 108.602 112.737 113.423 113.61 114.182 111.75 108.486 108.183 108.259 110.233 113.959 115.753 116.391 115.695 115.819 115.724 113.949 111.118 108.322 107.753 107.527 107.848 108.65 109.515 110.969 110.752 111.232 111.287 109.172 107.967 111.384 109.71 109.151 110.683 109.674 108.614 107.34 108.662 108.865 107.854 107.063 107.682 109.393 111.776 111.029 112.025 113.394 110.427 108.568 107.147
108.51 102.878 102.064 101.37 101.53 102.015 102.343 102.557 102.487 102.757 103.103 103.633 103.82 104.056 103.846 103.602 103.975 104.999 104.535 104.907 105.98 105.473 104.348 104.507 104.481 104.273 104.138 104.177 104.296 104.309 104.496 104.765 104.888 104.775 106.771 110.751 111.928 112.152 108.314 104.817 104.588 105.131 104.363 104.282 104.191 104.117 -9999 -9999 -9999 -9999 104.1 104.008 103.918 104.07 104.031 103.964 104.049 104.106 104.125 104.07 104.164 104.684 105.249 107.494 108.084 109.066 106.552 104.408 104.872 104.661 104.359 104.295 104.203 104.187 105.04 105.43 106.658 106.451 105.657 104.542 104.146 104.16 104.143 103.978 103.988 105.438 106.691 107.462 105.372 106.325 105.089 103.961 103.471 103.442 103.318 103.107 102.979 102.998 102.966 102.824 102.715 102.652 102.625 102.62 102.576 102.445 102.38 102.316 102.246 102.171 102.087 102 102.028 101.952 101.857 101.744 101.65 101.541 101.375 101.332 101.251 101.185 101.097 101.035 100.995 100.928 100.914 100.92 100.947 100.945 100.926 100.955 100.98 101 100.946 100.91 100.821 100.844 100.788 100.719 100.751 100.681 100.594 100.527 100.461 100.333 100.238 100.086 99.974 99.852 99.819 99.798 99.542 99.374 99.319 99.199 99.108 99.119 99.493 101.577 102.237 101.03 100.566 100.404 99.865 99.992 100.163 100.316 100.5 100.626 100.78 100.861 100.986 101.141 101.085 101.191 101.312 101.449 101.564 101.626 101.672 101.645 101.762 101.876 101.91 102.049 101.993 101.971 102.017 102.013 102.045 102.063 102.081 102.215 102.243 102.284 102.32 102.432 102.327 102.415 102.495 102.52 102.592 102.658 102.8 102.821 102.822 102.829 103.026 103.021 102.948 103.024 103.168 103.317 103.297 103.334 103.23 103.239 103.285 103.34 103.38 103.491 103.616 103.733 103.792 103.949 104.206 104.279 104.322 104.387 104.352 104.629 104.832 104.919 105.042 105.166 105.28 105.413 105.462 105.951 106.097 106.204 106.094 106.261 106.512 106.95 107.698 108.775 111.59 111.345 110.443 110.657 111.696 113.895 114.087 113.067 109.413 107.953 108.48 110.587 111.615 111.304 108.972 108.566 108.407 108.284 108.123 108.129 108.208 108.226 108.322 108.446 109.862 112.483 111.839 111.037 109.012 108.456 108.384 108.547 108.814 108.975 108.685 108.763 110.128 113.69 115.531 116.486 115.711 114.305 110.49 108.637 108.715 108.609 108.73 109.091 -9999 -9999 -9999 110.634 109.492 110.192 109.412 109.091 108.928 108.96 108.983 108.999 109.043 109.084 109.171 109.059 109.681 110.132 112.62 111.736 110.043 109.708 110.976 110.343 108.751 108.307 108.432 108.518 108.441 108.084 107.906 108.609 111.556 110.807 108.663 108.248 108.271 108.264 108.263 108.336 109.089 110.616 109.19 108.611 107.964 108.584 111.887 114.292 112.612 115.789 111.365 108.724 108.217 108.275 109.279 112.017 114.054 114.545 114.575 112.594 110.644 111.192 110.607 108.431 107.845 107.6 108.133 108.973 108.559 108.918 109.449 110.333 110.022 108.275 108.135 109.086 108.105 108.873 110.831 108.744 109.673 107.949 109.23 109.546 108.392 107.252 106.898 107.03 110.007 112.576 112.059 111.687 111.731 110.673 110.201
108.254 105.149 102.093 101.336 101.37 101.672 102.41 102.332 102.407 102.596 102.7 103.391 103.411 103.331 103.257 103.399 103.823 104.741 104.028 104.164 106.027 106.38 104.124 104.036 104.429 104.06 104.066 104.172 104.218 104.36 104.551 105.62 105.826 105.175 106.029 108.93 111.214 111.236 108.564 104.979 104.876 104.942 104.363 104.237 104.111 104.128 -9999 -9999 -9999 -9999 104.092 104.048 -9999 104.08 104.108 103.969 104.053 104.071 104.066 104.069 104.079 104.661 106.557 109.425 111.226 110.533 106.87 104.408 105.598 104.973 104.408 104.585 104.439 104.375 106.219 109.013 110.887 108.79 106.671 104.826 104.08 104.03 104.008 104.016 105.067 108.394 109.691 108.71 106.97 106.009 103.886 103.632 103.488 103.252 103.215 103.104 102.885 102.784 102.909 102.74 102.601 102.596 102.581 102.514 102.41 102.377 102.288 102.171 102.192 102.105 102.126 102.001 101.819 101.828 101.801 101.634 101.552 101.496 101.259 101.299 101.245 101.159 101.019 100.959 100.981 100.901 100.818 100.946 100.938 100.924 100.947 100.96 100.964 100.881 100.888 100.905 100.896 100.84 100.8 100.744 100.639 100.588 100.489 100.434 100.322 100.214 100.104 99.92 99.859 99.754 99.638 99.529 99.462 99.453 99.229 99.082 99.071 99.083 99.394 100.963 101.516 101.295 102.182 100.762 100.038 99.954 100.121 100.321 100.45 100.664 100.713 100.773 100.875 100.97 101.1 101.185 101.294 101.357 101.508 101.492 101.465 101.617 101.741 101.862 101.762 101.864 101.892 101.945 102.015 102.015 102.023 101.946 102.018 102.106 102.215 102.293 102.379 102.491 102.395 102.438 102.519 102.491 102.501 102.594 102.76 102.725 102.717 102.829 102.889 102.856 102.853 102.973 103.127 103.119 103.138 103.143 103.138 103.149 103.145 103.245 103.377 103.425 103.494 103.758 103.769 103.858 104.033 104.152 104.225 104.307 104.421 104.714 104.793 104.877 104.982 105.172 105.397 105.596 105.82 105.839 105.941 105.943 106.034 106.277 106.495 106.657 107.06 107.982 111.377 111.369 108.332 108.862 109.584 111.055 111.539 111.201 109.185 108.369 109.561 112.902 115.745 110.783 108.336 108.284 108.245 108.191 108.177 108.219 108.37 108.395 108.617 108.787 109.85 113.949 113.164 109.256 108.523 108.516 108.592 108.72 108.781 108.733 108.686 108.748 109.493 111.392 115.739 115.606 115.125 114.465 111.004 109.266 109.319 108.917 109.005 109.12 109.313 -9999 -9999 109.407 109.011 109.144 109.024 108.866 108.851 108.791 108.825 108.879 108.973 109.078 109.218 109.101 109.441 109.466 111.057 112.004 111.781 109.897 110.476 109.094 108.534 108.307 108.209 108.221 108.333 108.212 108.081 108.407 109.154 108.892 107.995 108.119 108.209 108.284 108.322 108.526 109.365 109.79 109.853 109.669 108.553 108.169 109.089 112.813 112.936 113.329 113.671 110.774 108.333 108.389 108.739 110.15 112.146 113.553 110.255 108.313 108.108 108.653 108.409 108.278 108.104 107.92 107.775 108.165 108.357 108.519 109.177 108.989 108.617 108.079 107.821 107.592 107.558 109.341 112.917 111.374 112.282 112.657 111.071 111.65 108.79 107.39 106.872 106.889 108.32 111.301 111.884 111.862 111.715 112.506 112.555
-9999 -9999 101.378 101.359 101.375 101.727 102.297 102.364 102.437 102.468 -9999 103.044 103.108 103.154 103.212 103.358 104.235 105.388 103.902 102.925 103.777 104.646 104.097 104.016 104.171 104.101 104.092 104.312 104.709 105.129 104.896 104.47 104.439 104.454 104.926 105.8 108.085 108.872 107.076 105.512 105.227 104.912 104.18 104.364 104.115 104.178 -9999 -9999 -9999 104.002 103.99 103.977 104.058 104.219 104.281 104.127 104.002 103.951 104.058 104.155 105.457 108.332 110.488 111.421 110.938 108.668 104.668 104.403 105.829 105.259 104.308 106.145 105.915 106.772 110.281 112.249 112.505 111.169 108.406 105.15 104.066 103.842 104.006 104.402 106.894 110.841 110.453 109.833 108.012 105.509 103.861 103.458 103.265 103.164 103.151 103.004 102.781 102.759 102.726 102.598 102.557 102.625 102.602 102.492 102.408 102.293 102.174 102.109 102.148 102.098 102.077 101.842 101.82 101.792 101.726 101.622 101.572 101.418 101.355 101.253 101.209 101.125 101.017 100.908 100.998 100.939 100.793 100.89 100.891 100.886 100.959 100.936 100.894 100.857 100.822 100.812 100.864 100.822 100.76 100.74 100.627 100.537 100.467 100.361 100.256 100.155 100.062 99.971 99.91 99.683 99.473 99.32 99.277 99.282 99.12 98.971 99.003 99.008 99.597 101.581 102.026 103.178 102.717 100.971 99.806 99.92 100.106 100.236 100.371 100.542 100.617 100.653 100.726 101.028 101.084 101.204 101.297 101.328 101.332 101.391 101.452 101.582 101.542 101.628 101.716 101.757 101.795 101.884 101.973 101.931 101.935 101.957 102.013 102.082 102.146 102.169 102.249 102.316 102.301 102.373 102.464 102.488 102.461 102.456 102.581 102.658 102.699 102.732 102.752 102.726 102.727 102.778 102.928 102.965 103.024 103.018 103.054 103.063 103.072 103.122 103.373 103.455 103.552 103.638 103.661 103.725 103.885 104.05 104.152 104.286 104.481 104.637 104.729 104.863 104.992 105.237 105.416 105.551 105.707 105.696 105.618 105.857 106.092 106.212 106.332 106.517 106.803 107.341 107.793 107.823 107.299 107.698 109.861 110.405 110.223 110.071 109.351 108.09 111.978 113.057 113.716 110.617 108.26 108.245 108.209 108.156 108.206 108.248 108.389 108.947 109.442 108.958 109.598 111.819 114.034 109.536 108.999 108.965 109.27 108.856 108.727 108.531 108.642 108.757 109.41 111.377 114.423 114.431 112.8 114.379 111.001 109.928 109.969 109.068 109.389 109.803 109.557 -9999 109.118 108.903 108.847 108.883 108.892 108.85 108.811 108.702 108.687 108.92 108.943 108.938 108.983 108.818 109.064 109.942 110.888 111.517 110.551 109.303 108.651 108.416 108.491 108.403 109.046 -9999 109.195 108.55 108.393 108.943 109.466 109.666 109.769 109.378 109.089 108.571 108.268 108.318 109.089 109.724 110.531 109.624 108.198 108.011 108.501 109.932 110.133 110.902 111.013 108.868 108.36 108.307 108.659 108.17 109.525 108.925 108.175 108.226 108.46 108.309 108.344 109.044 108.306 108.327 108.019 108.238 108.41 109.412 109.85 108.489 108.268 107.77 107.689 107.575 107.424 108.411 110.827 113.349 115.523 115.105 114.008 109.581 108.04 107.169 107.134 106.998 107.124 -9999 -9999 110.092 110.22 112.098 114.844
-9999 -9999 101.477 101.54 101.715 101.904 102.098 102.112 102.337 102.356 -9999 102.83 102.851 102.892 102.535 104.09 107.185 106.798 107.023 103.33 103.23 104.247 104.096 104.161 104.127 104.149 104.285 104.605 104.886 105.061 105.05 104.22 104.27 104.476 104.484 104.659 104.893 106.608 105.852 105.169 105.307 104.802 104.591 104.784 104.525 104.363 104.308 -9999 -9999 104.009 103.935 103.964 104.078 104.249 104.42 104.075 104.054 104.144 103.993 104.477 106.79 110.455 110.78 110.284 107.909 105.402 104.089 104.11 104.623 105.571 104.289 105.274 106.904 110.912 112.525 112.108 111.466 110.534 107.778 104.64 104.052 103.911 104.063 103.947 109.837 111.181 110.247 109.666 105.96 104.181 103.609 103.288 103.257 103.147 103.043 102.93 102.789 102.687 102.627 102.611 102.584 102.55 102.604 102.5 102.358 102.223 102.173 102.042 102.022 102.001 101.945 101.863 101.832 101.733 101.697 101.67 101.537 101.452 101.453 101.28 101.196 101.131 101.072 101.079 101.071 100.87 100.838 100.84 100.817 100.779 100.853 100.877 100.823 100.801 100.76 100.75 100.784 100.726 100.639 100.617 100.563 100.478 100.441 100.332 100.235 100.179 100.099 100.066 99.844 99.664 99.506 99.371 99.355 99.208 99.037 99.016 99.025 99.001 99.335 100.857 101.625 101.208 101.211 100.447 99.862 99.901 99.984 100.15 100.31 100.422 100.603 100.606 100.635 100.92 101.015 101.133 101.269 101.244 101.288 101.352 101.436 101.406 101.465 101.545 101.65 101.689 101.735 101.834 101.875 101.886 101.93 101.96 102.074 102.045 102.108 102.136 102.198 102.248 102.244 102.296 102.358 102.452 102.395 102.42 102.445 102.537 102.548 102.59 102.617 102.601 102.638 102.656 102.709 102.794 102.829 102.987 103.067 102.981 102.99 103.102 103.262 103.377 103.413 103.494 103.578 103.708 103.878 103.992 104.085 104.259 104.495 104.604 104.711 104.871 104.995 105.137 105.251 105.373 105.634 105.664 105.672 105.817 106 106.143 106.152 106.447 106.737 106.845 106.881 106.856 106.729 107.745 110.285 111.774 111.51 110.352 109.455 108.481 108.944 109.682 109.098 109.14 108.199 108.24 108.304 108.249 108.229 108.274 108.703 109.569 109.467 108.826 108.629 109.387 110.368 110.157 110.629 110.398 109.543 108.911 108.627 108.532 108.573 108.706 109.043 110.665 113.46 112.668 111.241 110.443 109.817 109.722 110.416 108.944 109.211 109.904 109.589 -9999 111.28 109.21 108.94 109.095 108.903 108.868 108.899 108.83 108.751 108.976 109.723 110.141 109.217 108.835 108.923 109.604 109.54 110.199 109.365 108.797 108.934 109.291 109.891 110.431 111.653 111.743 111.149 110.403 109.726 110.074 111.126 112.417 113.187 112.188 111.519 109.536 108.443 108.221 108.439 108.67 110.172 109.237 108.595 108.372 108.278 109.61 110.941 110.362 108.789 108.392 109.056 109.054 110.889 109.319 109.052 108.964 109.123 109.793 109.561 109.603 109.645 110.238 109.496 108.2 107.966 107.937 108.155 109.147 109.792 108.844 107.95 107.683 107.689 107.657 107.422 107.685 111.968 114.843 115.706 115.015 112.965 111.098 107.716 107.247 107.426 106.94 106.964 107.65 109.432 109.551 108.771 109.916 115.004
-9999 -9999 101.229 101.457 101.618 101.902 101.997 102.123 102.255 102.208 102.317 102.806 102.758 102.425 102.306 104.343 108.271 108.694 107.295 105.668 103.237 103.204 104.243 104.415 103.979 103.989 104.247 104.688 104.455 103.951 104.073 104.037 104.094 104.208 104.389 105.057 105.575 107.006 105.908 104.879 104.521 105.579 104.399 104.761 104.932 104.347 104.303 -9999 -9999 -9999 103.854 103.971 -9999 104.19 104.169 104.113 104.16 105.168 104.146 104.289 106.388 107.908 107.427 107.144 105.144 104.602 104.084 103.892 104.134 104.372 104.008 104.437 107.373 110.662 111.688 110.531 109.826 107.607 104.786 103.979 103.945 104.377 104.393 104.855 109.665 107.451 110.337 108.698 104.701 103.552 103.339 103.223 103.121 103.057 102.911 102.877 102.778 102.706 102.678 102.544 102.471 102.495 102.467 102.337 102.201 102.149 102.066 101.991 101.927 101.827 101.796 101.805 101.667 101.693 101.644 101.567 101.48 101.41 101.327 101.297 101.316 101.154 101.016 101.033 100.987 100.847 100.855 100.794 100.754 100.719 100.744 100.767 100.756 100.731 100.726 100.773 100.806 100.705 100.584 100.535 100.466 100.404 100.363 100.291 100.194 100.077 100.021 99.95 99.815 99.699 99.573 99.465 99.36 99.258 99.105 98.987 98.953 98.946 99.202 100.888 101.189 100.474 100.153 99.764 99.702 99.862 99.938 100.087 100.236 100.365 100.576 100.608 100.665 100.863 100.931 101.011 101.087 101.196 101.24 101.285 101.282 101.412 101.47 101.546 101.602 101.603 101.61 101.606 101.693 101.777 101.871 101.907 101.932 101.936 102.023 102.096 102.186 102.147 102.122 102.159 102.24 102.256 102.237 102.318 102.397 102.509 102.531 102.524 102.512 102.535 102.584 102.697 102.719 102.777 102.761 102.857 102.947 102.896 102.889 103.077 103.16 103.304 103.342 103.436 103.562 103.732 103.891 103.924 104.067 104.276 104.497 104.58 104.704 104.843 104.976 105.102 105.105 105.282 105.496 105.667 105.746 105.873 105.992 106.137 106.235 106.451 106.458 106.639 106.825 106.955 107.079 107.169 108.485 111.284 113.3 111.426 108.958 108.042 107.902 108.007 108.281 108.221 108.187 108.418 108.648 108.176 108.283 108.441 108.964 109.769 109.083 108.471 108.441 109.182 109.771 111.278 111.432 109.648 109.627 109.232 108.639 108.509 108.651 109.276 109.524 109.104 110.779 110.408 109.513 109.048 109.058 110.008 110.77 109.332 109.072 109.181 -9999 -9999 -9999 111.863 110.953 110.61 109.381 109.072 108.923 108.906 108.857 109.518 112.133 114.41 111.421 110.172 109.72 110.208 109.954 109.771 109.372 110.145 111.887 113.13 113.518 113.527 113.177 112.468 111.977 111.503 111.326 110.276 111.281 113.445 114.159 113.171 112.992 110.124 108.561 108.269 108.282 108.535 109.575 109.672 109.661 109.48 108.989 109.739 110.547 110.512 108.689 111.286 112.48 112.935 111.333 109.581 108.487 109.361 110.381 110.547 110.428 109.65 110.176 109.173 108.501 107.906 107.927 107.961 108.035 109.211 109.045 108.81 108.434 107.939 107.741 107.574 107.624 108.491 112.365 114.688 115.795 114.415 112.755 107.826 107.201 107.363 108.062 107.162 107.082 107.948 109.368 109.557 110.385 110.836 112.99
101.054 100.702 100.94 101.235 101.228 101.583 101.846 102 102.008 101.867 102.142 102.775 103.185 102.651 102.57 102.572 106.466 109.452 108.758 105.274 103.659 103.387 103.9 103.894 103.669 103.627 104.194 105.037 104.587 103.878 103.882 103.853 103.996 104.309 104.346 105.318 106.299 107.728 107.04 105.884 106.396 106.822 104.069 104.392 105.571 104.691 104.317 104.025 -9999 -9999 -9999 -9999 103.931 104.297 104.156 103.98 104.324 104.754 104.663 104.876 104.65 104.597 104.533 103.938 104.045 104.12 103.906 103.787 103.876 103.97 103.994 104.052 105.04 107.483 107.988 107.245 106.434 104.262 103.986 103.849 103.685 104.556 104.424 104.904 107.6 106.938 107.966 105.378 103.913 103.334 103.085 103.064 102.944 102.906 102.823 102.79 102.698 102.628 102.519 102.41 102.449 102.498 102.393 102.294 102.198 102.198 102.079 101.95 101.878 101.874 101.741 101.631 101.732 101.653 101.56 101.553 101.464 101.297 101.336 101.341 101.196 101.061 101.016 100.996 100.942 100.83 100.776 100.706 100.682 100.654 100.652 100.648 100.672 100.663 100.654 100.688 100.673 100.573 100.522 100.449 100.409 100.39 100.324 100.226 100.101 99.999 99.931 99.855 99.824 99.725 99.588 99.502 99.373 99.273 99.114 98.885 98.814 98.834 99.228 100.927 101.77 100.563 99.796 99.566 99.563 99.772 99.891 100.036 100.178 100.315 100.511 100.584 100.666 100.832 100.902 100.978 101.066 101.16 101.178 101.201 101.245 101.34 101.44 101.509 101.55 101.518 101.56 101.652 101.63 101.703 101.769 101.722 101.835 101.908 101.923 101.963 101.964 101.992 102.021 102.017 102.106 102.167 102.182 102.224 102.272 102.435 102.522 102.43 102.437 102.446 102.46 102.569 102.646 102.74 102.723 102.747 102.686 102.815 102.963 102.969 102.965 103.152 103.286 103.436 103.543 103.649 103.784 103.945 104.052 104.206 104.368 104.51 104.616 104.776 104.942 105.091 105.023 105.205 105.409 105.613 105.897 105.909 105.922 106.041 106.154 106.072 106.255 106.544 106.799 107.105 107.275 107.612 108.788 109.83 110.82 110.692 108.268 107.853 107.961 108.064 108.143 108.298 108.285 108.356 108.435 108.45 108.566 109.297 109.166 108.785 108.399 108.244 108.667 109.185 112.495 111.778 111.057 109.519 110.023 110.33 109.081 108.808 109.603 111.163 110.631 109.699 110.062 110.174 109.87 109.154 108.793 108.76 109.3 109.066 108.659 108.848 -9999 -9999 -9999 114.107 114.835 115.028 111.698 109.245 108.897 108.882 109.092 110.477 113.902 115.119 113.911 112.286 111.058 111.038 111.116 110.441 110.145 112.422 115.359 115.33 114.87 115.164 114.014 112.891 112.106 111.298 110.885 109.331 110.778 113.46 112.943 111.859 111.024 109.178 108.154 108.183 108.268 108.424 109.731 109.951 111.202 110.849 109.843 108.79 108.975 109.137 111.789 110.668 111.009 109.393 108.513 108.285 111.874 112.501 114.196 112.708 109.976 107.979 108.433 108.139 107.867 107.866 107.923 107.898 109.808 110.107 110.235 110.472 108.724 107.874 107.837 108.815 108.113 107.987 109.844 114.272 115.56 114.809 110.974 107.848 107.374 107.703 108.314 107.187 107.784 108.024 108.935 109.278 109.593 109.018 110.701
100.623 100.479 100.697 101.039 101.065 101.667 101.702 101.692 101.615 101.503 101.917 102.502 102.673 102.381 102.409 103.038 106.763 108.941 108.988 107.952 103.719 103.007 103.444 103.37 103.491 103.769 103.789 104.403 103.991 103.779 103.906 103.986 104.476 105.695 104.755 105.976 104.735 104.891 105.811 105.922 106.092 105.366 104.71 106.159 108.169 105.783 103.975 103.856 103.799 -9999 103.54 103.628 103.718 104.255 104.442 104.411 104.003 104.355 105.365 105.145 104.396 103.926 103.708 103.834 103.976 103.889 104.183 103.716 103.643 103.837 103.936 104.127 104.23 104.504 104.514 104.941 104.167 104.113 103.897 103.68 103.803 104.837 107.788 106.602 105.696 104.205 104.336 103.689 103.218 103.069 103.002 102.939 102.796 102.822 102.774 102.695 102.596 102.515 102.472 102.377 102.42 102.391 102.345 102.259 102.173 102.057 101.999 101.932 101.859 101.796 101.738 101.665 101.649 101.555 101.452 101.468 101.415 101.327 101.331 101.263 101.212 101.022 100.945 100.895 100.932 100.809 100.747 100.769 100.808 100.707 100.605 100.533 100.562 100.563 100.57 100.571 100.533 100.461 100.421 100.361 100.357 100.32 100.267 100.184 100.064 99.971 99.893 99.798 99.809 99.688 99.535 99.425 99.317 99.23 99.102 98.824 98.705 98.768 99.278 101.229 102.44 102.065 99.941 99.531 99.557 99.689 99.887 100.011 100.133 100.306 100.45 100.495 100.535 100.751 100.87 100.986 101.059 101.059 101.102 101.129 101.217 101.294 101.393 101.441 101.451 101.522 101.621 101.615 101.453 101.563 101.685 101.699 101.834 101.839 101.848 101.786 101.853 101.932 101.975 101.976 101.998 102.068 102.126 102.169 102.235 102.335 102.289 102.262 102.346 102.406 102.412 102.409 102.434 102.604 102.63 102.629 102.687 102.823 102.904 102.915 102.948 103.043 103.238 103.48 103.503 103.616 103.793 103.914 103.944 104.198 104.335 104.397 104.571 104.712 104.76 104.918 105.027 105.1 105.34 105.582 105.767 105.839 105.816 105.903 105.945 106.032 106.108 106.451 106.775 107.014 107.711 108.066 108.072 108.406 108.918 108.266 108.009 107.976 108.067 108.155 108.274 108.341 108.344 108.398 108.725 109.692 109.854 109.989 108.648 108.277 108.299 108.42 108.84 109.826 111.134 110.882 110.852 109.198 110.686 111.536 110.999 110.238 110.739 110.841 110.733 110.73 111.158 111.621 111.027 110.08 108.923 108.851 108.869 108.748 108.723 108.866 108.862 -9999 115.138 115.678 116.288 114.983 111.121 109.18 109.016 109.332 110.129 113.279 115.682 115.838 115.115 113.137 111.631 111.255 111.498 110.7 110.807 112.329 114.837 115.683 115.499 115.182 114.315 112.574 111.467 110.499 109.955 109.826 110.128 110.783 110.53 109.303 108.324 108.316 108.127 108.175 108.212 108.419 109.012 109.38 110.63 110.91 109.758 108.346 107.867 107.943 108.387 108.667 108.429 108.305 108.638 111.687 114.521 115.774 115.297 112.399 110.312 108.023 107.866 107.958 107.936 107.874 107.911 108.388 111.031 111.067 110.993 110.33 109.448 107.813 107.965 108.211 108.338 108.021 111.559 114.576 115.602 113.969 111.958 108.066 107.397 108.431 110.189 109.014 108.527 107.908 108.259 108.137 107.21 107.113 108.556
100.28 100.374 100.563 101.007 101.232 101.446 101.508 101.566 101.502 101.537 101.858 102.186 102.153 102.255 102.612 102.747 105.063 107.227 107.517 106.961 105.348 103.152 102.777 103.272 103.315 103.413 103.838 104.207 104.229 104.104 104.777 104.981 105.359 104.729 103.814 104.149 103.728 104.984 105.728 105.445 107.033 106.475 105.061 108.669 108.293 104.679 103.855 103.74 103.755 -9999 103.504 103.531 103.452 103.935 104.503 104.033 103.791 104.465 103.867 104.568 104.517 104.221 103.536 103.413 104.382 104.068 104.411 103.893 103.641 103.661 103.757 104.106 104.355 104.203 104.007 103.985 103.864 103.876 103.933 104.182 105.081 106.822 107.657 107.738 105.362 103.957 104.072 103.438 103.082 102.99 102.882 102.784 102.798 102.787 102.692 102.603 102.578 102.539 102.438 102.374 102.44 102.349 102.296 102.237 102.17 102.021 101.993 101.884 101.831 101.885 101.769 101.672 101.578 101.472 101.399 101.363 101.388 101.358 101.362 101.279 101.194 100.997 100.847 100.776 100.805 100.705 100.738 100.813 100.812 100.711 100.602 100.494 100.446 100.429 100.431 100.479 100.426 100.353 100.233 100.338 100.329 100.281 100.224 100.146 100.072 100.031 99.93 99.855 99.847 99.682 99.474 99.433 99.299 99.119 98.953 98.725 98.69 98.84 99.236 101.43 101.956 100.589 99.848 99.526 99.496 99.654 99.838 99.967 100.117 100.299 100.455 100.476 100.49 100.649 100.815 100.969 101.022 101.086 101.072 101.089 101.18 101.252 101.351 101.321 101.343 101.443 101.589 101.622 101.482 101.502 101.543 101.573 101.658 101.738 101.782 101.776 101.839 101.866 101.94 101.933 101.952 101.994 102.121 102.139 102.122 102.16 102.147 102.141 102.302 102.413 102.431 102.336 102.314 102.487 102.564 102.598 102.67 102.741 102.802 102.861 102.969 103.134 103.225 103.402 103.493 103.657 103.754 103.839 104.016 104.216 104.282 104.367 104.57 104.629 104.743 104.978 105.131 105.147 105.282 105.542 105.73 105.812 105.975 105.987 106.103 106.133 106.226 106.426 106.726 107.016 108.185 108.079 107.679 108.54 109.282 108.171 108.011 108.122 108.196 108.284 108.434 108.438 108.609 108.94 109.482 111.14 111.418 109.297 108.441 108.304 108.353 108.519 109.028 110.025 110.5 109.817 108.92 109.598 110.545 110.685 110.328 109.905 110.139 109.812 109.561 111.46 112.309 112.956 113.792 112.576 -9999 109.06 108.868 108.865 108.892 108.95 108.898 109.772 -9999 115.601 115.447 112.667 109.161 108.963 109.295 109.771 112.802 114.033 115.655 115.74 114.485 112.413 111.443 111.079 110.875 110.173 109.79 111.388 113.654 114.391 114.459 113.892 113.765 112.358 110.473 108.944 109.713 109.577 108.693 108.876 108.765 108.436 108.274 108.242 108.233 108.246 108.282 108.32 108.582 109.846 110.291 110.533 -9999 108.213 107.967 108.197 108.463 108.348 108.331 109.107 109.114 111.017 113.285 115.408 115.419 112.095 110.654 108.687 107.969 107.983 107.971 107.825 107.878 108.172 109.334 110.863 110.778 109.944 108.611 107.761 107.685 107.594 107.836 107.798 111.383 114.034 115.926 113.588 109.705 108.432 107.421 107.661 109.175 109.353 108.432 107.552 107.451 107.643 106.891 107.103 109.344
100.132 100.215 100.423 100.451 101.023 101.255 101.474 101.573 101.481 101.607 102.094 102.173 101.641 102.52 103.182 102.57 102.64 104.018 105.934 106.474 105.24 103.591 102.973 103.189 103.338 103.512 103.69 103.862 104.66 104.99 105.443 105.282 104.355 103.827 103.66 103.438 103.558 104.353 105.095 106.091 108.823 107.762 107.986 108.307 106.993 104.051 104.208 103.831 103.835 103.754 103.52 103.489 103.456 103.678 103.954 103.797 103.256 103.95 104.763 104.631 104.506 103.505 103.289 103.421 103.682 103.302 104.837 103.913 103.612 103.558 103.561 103.74 105.044 104.32 103.805 103.871 103.718 103.688 104.486 106.406 108.255 108.252 106.814 104.652 104.244 104.117 103.618 103.171 102.936 102.85 102.843 102.742 102.72 102.687 102.587 102.511 102.517 102.504 102.399 102.349 102.344 102.281 102.278 102.127 102.017 101.985 102.001 101.89 101.757 101.65 101.669 101.603 101.573 101.45 101.399 101.333 101.356 101.297 101.281 101.163 101.007 100.941 100.735 100.747 100.75 100.688 100.673 100.732 100.585 100.576 100.567 100.583 100.508 100.362 100.352 100.415 100.374 100.356 100.264 100.277 100.255 100.202 100.173 100.106 100.041 99.99 99.892 99.803 99.752 99.607 99.496 99.491 99.31 99.009 98.844 98.707 98.655 98.798 99.096 100.744 101.503 100.437 99.751 99.532 99.511 99.564 99.799 99.954 100.074 100.225 100.417 100.465 100.5 100.601 100.697 100.84 101.015 101.049 101.015 100.991 101.107 101.034 101.119 101.179 101.246 101.352 101.427 101.493 101.473 101.462 101.475 101.51 101.511 101.602 101.693 101.697 101.725 101.765 101.83 101.885 101.905 101.939 102.129 102.094 101.985 102.054 102.139 102.167 102.194 102.22 102.283 102.22 102.311 102.352 102.372 102.559 102.658 102.676 102.732 102.793 102.939 103.122 103.112 103.283 103.404 103.655 103.738 103.812 103.894 104.078 104.227 104.323 104.395 104.611 104.853 104.973 105.098 105.161 105.247 105.508 105.754 105.823 105.909 105.932 106.096 106.174 106.226 106.446 106.696 106.764 107.537 107.935 107.514 108.394 109.457 108.68 108.195 108.243 108.316 108.38 108.535 109.059 109.968 109.862 111.448 112.458 114.222 110.898 109.454 108.799 108.867 109.062 109.619 109.856 110.315 109.467 108.855 108.845 109.465 109.135 109.17 109.05 108.935 108.95 109.219 111.601 113.796 114.541 114.913 113.972 111.685 109.622 108.961 108.947 108.916 108.924 108.93 -9999 113.799 115.047 115.401 113.189 109.697 109.008 109.184 109.951 111.667 112.736 115.247 113.73 111.837 111.663 111.015 110.181 110.255 110.281 109.494 109.101 110.07 111.594 110.034 111.466 113.044 111.32 110.338 109.566 110.66 110.28 109.175 108.638 108.361 108.394 108.397 108.436 108.329 108.295 108.351 108.346 108.472 109.457 110.005 110.289 -9999 108.339 108.474 109.051 108.829 108.448 108.389 108.548 109.284 113.095 113.893 115.164 115.921 112.319 109.208 107.94 107.959 107.834 107.909 108.021 108.577 108.63 108.144 110.059 111.06 110.774 108.834 107.837 107.701 107.731 107.908 108.412 112.44 114.709 116.232 114.639 112.483 109.652 107.955 107.59 107.564 108.142 -9999 107.893 108.158 108.575 107.467 107.047 108.397
99.89 100.141 100.624 100.112 100.541 101.248 101.309 101.447 101.401 101.464 102.003 102.171 101.993 102.289 102.596 102.353 102.776 105.567 105.6 107.049 105.565 104.299 102.742 103.051 103.256 103.375 103.374 103.751 105.186 105.538 104.859 104.27 103.707 103.582 103.443 103.485 103.576 104.758 105.869 104.524 106.389 109.091 109.555 108.935 106.657 104.414 104.621 104.244 103.84 103.649 -9999 103.481 103.541 103.567 103.72 104.279 103.463 103.66 103.429 103.411 103.927 104.342 104.653 103.635 103.203 103.267 104 103.695 103.496 103.466 103.489 103.826 105.437 104.323 103.816 103.7 103.635 103.645 104.419 106.584 108.114 107.346 104.515 104.021 103.661 103.63 103.406 102.956 102.761 102.787 102.773 102.671 102.644 102.609 102.513 102.452 102.449 102.446 102.419 102.379 102.231 102.155 102.089 101.981 101.896 101.854 101.876 101.822 101.726 101.606 101.549 101.467 101.476 101.456 101.467 101.362 101.256 101.138 101.158 101.092 100.941 100.744 100.744 100.703 100.756 100.704 100.632 100.621 100.576 100.579 100.547 100.504 100.587 100.435 100.302 100.315 100.271 100.202 100.204 100.2 100.157 100.089 100.065 100.034 99.988 99.945 99.77 99.71 99.627 99.526 99.472 99.399 99.26 99.071 98.889 98.716 98.61 98.651 98.907 100.906 102.315 100.762 99.456 99.393 99.434 99.593 99.782 99.924 100.043 100.193 100.316 100.388 100.462 100.621 100.668 100.737 100.849 100.982 101.013 100.974 100.989 100.99 101.014 101.07 101.172 101.267 101.29 101.323 101.416 101.459 101.453 101.491 101.487 101.57 101.613 101.645 101.664 101.71 101.823 101.827 101.809 101.826 101.915 101.978 101.825 101.929 102.066 102.083 102.092 102.147 102.162 102.209 102.253 102.294 102.379 102.499 102.609 102.644 102.742 102.84 102.833 102.986 103.126 103.224 103.366 103.5 103.671 103.763 103.855 104.024 104.162 104.265 104.424 104.599 104.728 104.881 105.071 105.179 105.231 105.339 105.476 105.749 105.86 105.912 106.051 106.167 106.248 106.475 106.701 106.781 107.54 108.425 107.692 108.16 109.369 109.005 108.332 108.441 108.522 108.55 108.814 109.717 110.798 111.936 111.488 111.82 113.564 110.697 108.966 108.823 109.444 109.671 109.921 109.076 109.082 108.777 108.658 108.625 108.716 108.726 108.774 108.753 108.739 108.847 109.499 111.513 114.496 115.13 115.119 114.436 112.485 109.495 108.985 108.993 108.991 108.941 108.943 109.476 -9999 114.244 114.801 113.036 109.697 109.079 109.074 109.138 109.618 112.408 112.125 110.297 110.408 111.201 111.291 109.692 110.116 110.139 109.663 109.101 108.543 108.38 108.694 109.213 109.317 110.066 109.735 109.992 110.498 110.413 110.004 108.956 108.289 108.34 108.406 108.433 108.589 108.329 108.352 108.369 108.32 108.805 110.248 110.49 -9999 -9999 108.727 108.977 108.662 108.404 108.454 108.39 110.079 112.661 113.581 114.692 115.014 113.379 108.209 108.332 108.177 107.946 108.429 108.732 110.374 110.916 108.295 108.814 109.506 109.95 109.657 108.291 107.942 107.714 108.679 111.023 112.446 114.434 115.564 114.763 114.087 113.36 109.416 107.618 107.631 107.908 107.863 108.329 108.512 108.685 108.04 107.206 107.382
99.639 100.219 101.763 102.445 101.054 100.734 101.087 101.302 101.27 101.33 101.833 102.28 102.336 101.928 102.017 102.249 102.569 102.691 104.257 106.868 106.557 103.395 102.713 102.581 102.753 103.001 103.129 103.422 104.437 105.391 103.813 103.914 103.574 103.432 103.464 103.625 104.774 108.234 106.284 104.304 103.961 106.513 110.231 109.475 105.788 103.54 103.868 103.884 103.518 103.382 103.375 -9999 -9999 103.646 103.777 103.834 103.568 103.313 103.087 104.009 104.973 105.285 104.489 103.417 103.247 103.214 103.372 103.74 103.481 103.429 103.376 103.428 103.55 103.9 103.642 103.528 103.659 103.772 103.789 104.008 104.406 104.052 103.9 103.711 103.348 103.018 102.927 102.799 102.705 102.689 102.651 102.664 102.634 102.544 102.465 102.45 102.456 102.511 102.46 102.243 102.126 102.057 102.01 101.872 101.895 101.849 101.816 101.778 101.785 101.608 101.503 101.382 101.394 101.356 101.354 101.278 101.17 101.139 101.104 101.042 100.897 100.775 100.794 100.727 100.675 100.703 100.612 100.543 100.554 100.491 100.493 100.587 100.502 100.352 100.334 100.289 100.213 100.093 100.118 100.145 100.111 99.999 100.046 100.008 99.905 99.831 99.697 99.657 99.506 99.469 99.447 99.303 99.199 99.069 98.918 98.744 98.653 98.679 99.445 102.292 104.618 100.642 99.668 99.4 99.418 99.611 99.798 99.898 99.975 100.064 100.192 100.276 100.303 100.458 100.579 100.642 100.646 100.856 101.029 100.961 100.976 100.945 100.924 100.918 101.137 101.238 101.259 101.261 101.45 101.472 101.402 101.404 101.4 101.526 101.565 101.654 101.619 101.581 101.713 101.722 101.697 101.703 101.715 101.685 101.795 101.88 101.904 101.919 101.935 101.998 101.95 102.049 102.124 102.141 102.26 102.411 102.577 102.678 102.758 102.865 102.93 103.025 103.118 103.181 103.288 103.41 103.551 103.731 103.829 103.989 104.116 104.281 104.418 104.491 104.575 104.887 105.008 105.184 105.195 105.269 105.465 105.625 105.79 105.874 105.985 106.179 106.269 106.388 106.594 106.782 107.289 108.419 108.534 108.143 109.53 109.45 108.8 108.781 108.955 109.108 109.012 109.774 110.871 112.306 112.397 112.622 112.474 110.009 109.059 109.309 109.511 109.704 108.759 108.704 108.606 108.624 108.607 108.585 108.588 108.573 108.649 108.646 109.368 109.441 109.371 111.925 113.244 114.913 115.465 114.473 112.049 109.13 108.934 109.177 109.159 109.061 109.048 109.31 -9999 112.773 112.268 111.296 109.434 109.154 109.19 109.102 109.272 110.007 109.488 108.982 109.477 110.935 110.095 109.968 111.213 111.028 109.897 109.23 108.774 108.483 108.741 108.88 108.798 109.113 109.409 109.676 110.116 110.261 110.26 109.321 108.351 108.36 108.629 109.685 110.212 108.974 109.252 108.99 108.662 109.21 111.055 111.064 110.817 -9999 -9999 108.699 108.424 108.331 108.358 108.488 108.459 109.873 114.098 113.489 111.325 110.216 108.574 108.562 108.866 108.407 108.508 109.236 109.149 108.875 109.471 108.819 108.447 108.54 108.893 108.486 107.833 107.733 108.433 109.707 111.22 113.135 113.351 113.968 114.598 112.266 110.061 107.431 107.908 108.728 107.994 107.785 108.215 109.004 108.455 107.124 107.328
99.601 99.824 102.399 105.9 102.558 100.69 100.96 101.359 101.27 101.272 101.597 101.874 101.786 101.511 102.032 102.166 102.113 102.401 102.868 103.757 102.877 102.524 102.462 102.524 102.596 102.747 102.854 103.071 103.605 104.226 104.908 103.633 103.234 103.409 104.367 105.096 105.002 106.21 105.663 103.736 104.002 104.892 108.58 109.111 107.113 103.706 103.127 103.222 103.258 103.25 103.338 103.314 -9999 -9999 103.671 103.616 103.703 103.771 103.31 106.37 106.857 107.333 104.934 103.23 103.18 103.316 103.329 103.125 103.333 103.536 103.374 103.313 103.312 103.416 103.495 103.557 103.93 104.017 104.101 103.609 103.409 103.69 103.825 103.54 103.204 102.92 102.868 102.743 102.655 102.58 102.641 102.638 102.591 102.514 102.466 102.449 102.309 102.344 102.262 102.177 102.112 102.021 102 101.948 101.849 101.816 101.759 101.718 101.598 101.545 101.469 101.411 101.341 101.291 101.25 101.166 101.153 101.126 100.994 100.921 100.883 100.866 100.786 100.671 100.605 100.561 100.545 100.494 100.45 100.361 100.432 100.461 100.383 100.344 100.315 100.335 100.168 100.105 100.126 100.134 100.106 99.991 100.074 100.025 99.872 99.801 99.683 99.657 99.531 99.414 99.214 99.19 99.081 99.04 98.858 98.743 98.688 98.767 99.718 102.854 105.706 104.67 101.964 100.297 99.451 99.473 99.689 99.816 99.894 99.952 100.104 100.163 100.183 100.31 100.433 100.539 100.516 100.653 100.804 100.885 100.888 100.819 100.908 101.018 101.089 101.21 101.302 101.359 101.451 101.411 101.342 101.322 101.39 101.498 101.533 101.576 101.569 101.543 101.608 101.601 101.614 101.586 101.554 101.656 101.784 101.899 101.834 101.826 101.974 101.903 101.857 101.991 102.094 102.123 102.199 102.308 102.562 102.631 102.654 102.784 102.933 102.995 103.085 103.152 103.215 103.29 103.556 103.744 103.81 103.986 104.081 104.234 104.372 104.438 104.613 104.813 104.931 105.144 105.177 105.179 105.358 105.585 105.738 105.827 105.961 106.2 106.282 106.357 106.664 106.76 107.293 109.948 110.322 110.63 110.138 110.494 110.007 109.334 109.427 109.55 109.312 109.844 111.094 110.167 111.207 112.503 112.404 110.422 109.494 110.112 109.149 108.863 108.565 108.54 108.608 108.631 108.638 108.577 108.612 108.631 108.629 109.134 111.45 111.453 109.442 109.359 112.341 114.968 115.967 115.744 112.718 109.381 109.372 109.649 110.357 109.29 109.167 -9999 -9999 111.856 111.361 110.912 109.758 109.295 109.232 109.143 109.13 109.368 109.777 109.145 109.037 109.593 109.546 109.444 110.126 111.333 109.989 109.512 108.972 108.82 108.946 109.091 108.999 109.074 109.268 109.236 -9999 109.904 109.485 108.803 108.61 109.118 110.24 110.685 110.835 111.631 112.437 112.456 110.496 110.14 110.98 111.178 -9999 -9999 -9999 -9999 108.583 108.525 108.464 108.494 109.524 108.484 109.566 110.704 110.185 109.676 109.104 108.395 108.914 108.519 108.284 108.49 108.472 108.316 108.286 108.237 108.147 108.598 108.687 108.047 107.861 107.838 107.933 108.119 110.118 109.474 109.87 112.183 112.078 108.735 108.104 108.841 108.005 108.263 107.829 107.359 107.979 108.982 109.068 107.354 107.175
100.117 101.34 103.06 104.107 102.283 101.276 100.888 100.958 100.95 -9999 101.414 101.415 101.259 101.597 101.628 101.662 101.953 102.039 102.18 102.307 102.375 102.396 102.329 102.355 102.492 102.515 102.654 104.188 104.329 103.929 103.8 103.328 103.23 103.503 105.056 105.728 105.259 103.62 103.803 103.358 103.564 105.118 108.323 107.773 105.643 103.891 103.331 103.017 103.304 103.35 103.276 103.286 -9999 103.228 103.36 103.185 103.539 103.426 103.048 104.707 105.239 108.826 108.485 104.983 103.201 103.34 103.081 103.009 103.225 103.679 103.502 103.272 103.173 103.294 103.408 103.55 103.929 104.804 105.567 104.11 103.296 103.355 103.667 103.724 102.926 102.701 102.721 102.667 102.642 102.615 102.628 102.46 102.441 102.414 102.437 102.318 102.268 102.191 102.102 102.093 101.968 101.975 102.019 101.912 101.819 101.761 101.582 101.638 101.588 101.536 101.483 101.399 101.336 101.193 101.148 101.095 101.111 100.996 100.97 100.92 100.912 100.778 100.624 100.576 100.457 100.459 100.555 100.374 100.323 100.323 100.316 100.473 100.359 100.275 100.421 100.34 100.199 100.141 100.142 100.109 99.905 99.826 99.873 99.883 99.787 99.689 99.569 99.523 99.45 99.318 99.146 99.057 99.008 98.927 98.809 98.762 98.666 98.648 99.17 101.51 103.341 103.214 101.878 100.577 99.423 99.425 99.626 99.68 99.782 99.921 100.011 100.067 100.137 100.251 100.306 100.337 100.502 100.608 100.643 100.765 100.762 100.799 100.941 100.952 101.005 101.066 101.22 101.225 101.291 101.34 101.289 101.291 101.373 101.42 101.46 101.449 101.439 101.472 101.432 101.479 101.617 101.544 101.537 101.605 101.701 101.757 101.765 101.812 101.849 101.812 101.896 102.035 102.119 102.15 102.198 102.296 102.439 102.594 102.611 102.671 102.834 102.969 103.075 103.147 103.274 103.431 103.544 103.632 103.82 104.015 104.12 104.249 104.41 104.501 104.606 104.789 104.971 105.124 105.208 105.247 105.34 105.589 105.689 105.79 105.928 106.118 106.284 106.444 106.567 106.767 107.855 109.817 111.008 111.116 109.85 109.218 109.654 109.424 109.362 108.931 108.952 109.105 109.376 109.213 109.956 112.633 112.596 110.332 109.432 111.095 109.386 108.753 108.611 108.58 108.676 108.662 108.702 108.69 108.687 108.674 108.721 108.977 110.763 112.457 110.23 109.379 110.582 115.093 117.248 115.486 113.366 109.983 110.23 110.068 109.878 109.179 109.231 109.485 110.022 110.894 110.86 110.873 109.913 109.376 109.258 109.169 109.069 109.15 109.253 109.077 109.047 109.231 109.18 109.144 109.593 109.916 110.476 109.879 109.131 108.952 108.971 109.097 109.046 108.988 108.998 108.929 109.18 109.517 109.512 108.723 109.26 110.284 111.213 110.901 110.647 112.924 113.376 113.864 112.167 111.111 110.826 110.924 110.67 -9999 -9999 -9999 109.216 109.431 109.131 109.246 110.274 109.124 108.98 109.951 112.574 110.921 108.82 108.621 108.398 108.348 108.378 108.314 108.34 108.332 108.326 108.288 108.307 108.463 108.993 108.711 107.921 107.957 109.384 109.064 109.899 108.824 108.78 109.526 110.514 112.208 112.171 110.535 108.37 107.99 107.588 107.424 107.964 108.906 109.088 107.245 106.835
-9999 101.405 103.324 104.615 105.15 104.587 101.221 100.736 100.549 100.649 101.168 101.368 101.445 101.089 101.296 100.953 101.233 100.981 101.42 101.84 102.064 102.149 102.15 102.266 102.206 102.359 102.56 104.445 104.142 104.232 103.657 105.173 104.043 103.53 104.99 104.717 103.492 103.188 103.022 103.177 103.169 103.576 106.363 105.888 103.918 103.394 103.153 103.226 103.785 103.539 103.282 103.176 103.094 -9999 103.226 103.213 103.531 103.136 102.956 103.167 105.663 108.676 109.253 107.298 103.364 102.951 102.976 103.071 103.129 103.172 103.318 103.367 103.614 105.327 106.579 105.43 104.735 105.928 105.865 104.986 103.024 103.342 103.448 103.023 102.611 102.591 102.63 102.578 102.527 102.611 102.422 102.359 102.343 102.318 102.323 102.227 102.2 102.194 102.069 102.009 101.92 101.917 101.879 101.858 101.77 101.707 101.6 101.614 101.615 101.502 101.435 101.304 101.255 101.204 101.101 100.992 100.993 100.929 100.787 100.81 100.785 100.621 100.569 100.496 100.435 100.37 100.342 100.364 100.316 100.34 100.298 100.388 100.339 100.281 100.393 100.357 100.247 100.112 100.069 99.947 99.873 99.845 99.747 99.734 99.695 99.607 99.47 99.456 99.375 99.235 99.085 99.006 99.004 98.902 98.807 98.782 98.657 98.469 98.728 100.321 101.804 100.6 99.987 99.624 99.369 99.375 99.456 99.513 99.644 99.763 99.893 100.007 100.09 100.176 100.265 100.368 100.451 100.521 100.627 100.702 100.738 100.812 100.834 100.786 100.851 100.919 101.009 101.092 101.12 101.21 101.209 101.263 101.288 101.274 101.317 101.293 101.253 101.301 101.324 101.429 101.462 101.438 101.454 101.546 101.62 101.64 101.63 101.617 101.671 101.748 101.912 102.003 102.108 102.15 102.178 102.139 102.301 102.5 102.591 102.668 102.798 102.93 102.926 103.154 103.456 103.508 103.556 103.627 103.73 103.948 104.132 104.193 104.357 104.478 104.607 104.792 104.961 105.065 105.192 105.317 105.409 105.579 105.638 105.775 105.978 106.104 106.243 106.422 106.506 106.705 107.484 109.361 111.302 111.177 109.572 108.894 109.313 109.354 108.881 108.764 108.708 108.769 108.757 108.938 110.509 112.697 110.761 109.743 109.321 110.2 108.876 108.951 108.791 108.546 108.606 108.62 108.709 108.737 108.79 108.962 109.143 109.273 109.591 111.028 110.198 109.867 111.094 114.497 116.679 116.268 113.497 109.797 109.759 109.564 109.204 109.165 109.273 109.755 110.236 110.458 110.876 111.126 109.956 109.362 109.268 109.21 109.148 109.095 109.102 109.108 109.124 109.17 109.169 109.159 109.614 111.135 110.551 109.862 109.2 109.03 108.968 109.157 109.19 109.094 109.056 108.872 109.285 109.495 109.641 109.798 110.227 110.613 110.754 110.167 109.164 111.332 113.111 114.436 112.855 111.166 -9999 110.021 110.153 110.001 -9999 -9999 109.432 109.876 109.301 108.796 108.96 109.592 111.192 113.664 116.204 112.775 110.127 108.642 108.472 108.316 108.287 108.32 108.292 108.358 108.395 108.324 108.302 108.276 109.285 110.978 109.007 109.057 110.502 110.168 109.241 110.238 111.701 110.176 110.139 112.46 110.29 110.209 107.965 107.727 107.613 107.37 107.548 108.517 108.929 107.966 107.783
100.783 101.068 100.741 105.207 106.193 105.567 101.844 100.49 100.381 100.302 100.803 101.124 101.064 100.994 101.627 101.342 102.082 101.768 101.077 101.515 101.607 101.948 102.018 102.007 102.164 102.454 102.411 102.72 102.727 104.193 104.281 104.77 103.437 102.956 103.369 103.126 102.952 102.839 102.911 102.946 103.099 103.352 103.525 103.23 102.84 102.602 102.656 102.96 103.105 103.441 103.209 103.141 103.056 -9999 103.125 103.041 102.991 103.004 103.074 102.893 103.715 105.541 108.924 107.949 104.344 102.957 103.018 103.042 103.435 103.241 103.503 103.474 106.189 110.373 109.779 107.053 105.74 106.451 104.585 103.081 102.852 103.231 102.993 102.651 102.559 102.508 102.52 102.481 102.433 102.471 102.471 102.284 102.376 102.291 102.272 102.172 102.149 102.046 101.969 101.955 101.983 101.934 101.75 101.691 101.67 101.59 101.606 101.629 101.437 101.402 101.367 101.254 101.197 101.183 101.073 100.972 100.909 100.782 100.78 100.682 100.622 100.633 100.57 100.402 100.35 100.256 100.331 100.25 100.239 100.295 100.148 100.304 100.304 100.231 100.183 100.26 100.226 100.117 100.024 99.972 99.891 99.8 99.63 99.666 99.618 99.533 99.459 99.396 99.278 99.165 99.083 99.102 99.166 98.915 98.763 98.723 98.65 98.502 98.653 100.024 101.38 100.755 99.811 99.388 99.327 99.446 99.438 99.521 99.668 99.702 99.803 99.923 100.011 100.079 100.195 100.293 100.362 100.539 100.577 100.559 100.674 100.775 100.797 100.729 100.781 100.847 100.943 101.011 101.04 101.101 101.112 101.204 101.119 101.134 101.216 101.193 101.172 101.247 101.338 101.308 101.306 101.291 101.425 101.526 101.514 101.572 101.634 101.615 101.664 101.676 101.792 101.917 102.066 102.101 102.094 102.146 102.277 102.467 102.558 102.589 102.711 102.835 102.95 103.124 103.286 103.485 103.624 103.686 103.751 103.852 104.049 104.191 104.354 104.466 104.628 104.779 104.907 105.035 105.185 105.36 105.512 105.588 105.666 105.815 105.977 106.089 106.165 106.388 106.492 106.545 107.109 108.289 110.719 111.104 109.376 108.575 110.258 110.238 109.348 108.733 108.728 108.715 108.72 108.884 109.631 110.672 109.774 110.315 110.643 111.854 110.274 110.107 109.273 108.655 108.673 108.838 108.753 108.827 109.122 109.202 109.957 109.633 110.078 110.697 110.096 109.721 110.63 114.079 116.167 116.26 114.282 110.526 109.483 109.214 109.171 109.231 109.295 109.397 109.858 110.442 111.4 111.397 110.816 109.654 109.211 109.194 109.169 109.208 109.222 109.314 109.419 109.358 109.208 109.322 110.079 111.752 110.279 110.279 110.035 109.388 108.937 109.605 109.69 109.441 109.603 109.656 109.264 109.216 109.385 109.964 110.343 110.204 110.04 109.183 110.282 111.81 112.02 111.586 109.825 109.328 109.088 109.295 110.23 110.002 109.515 -9999 109.18 109.148 108.73 108.483 108.602 109.508 110.614 114.108 116.202 114.012 109.652 108.596 108.502 108.267 108.386 108.37 108.365 108.352 108.297 108.423 108.367 108.377 109.534 112.02 109.358 109.723 110.105 109.807 110.035 110.373 112.317 111.778 109.477 109.775 109.212 108.365 107.998 108.029 107.939 107.413 107.301 107.885 108.502 108.123 107.647
-9999 101.454 100.299 100.776 101.568 103.392 101.25 100.553 99.881 99.834 100.596 100.862 100.743 100.513 101.247 103.268 105.203 104.645 101.763 101.352 101.556 101.678 101.796 101.939 102.347 102.649 102.131 102.174 102.51 103.194 103.495 103.689 103.289 102.786 102.852 102.885 102.901 102.727 102.728 102.87 102.5 102.729 102.909 102.713 102.619 102.146 102.014 102.579 103.056 103.725 103.605 103.085 103.008 102.965 -9999 102.924 102.875 102.66 103.391 102.952 103.005 105.65 107.16 107.785 106.063 104.072 103.502 103.09 102.877 102.868 103.168 103.784 106.416 111.441 109.303 104.767 104.413 104.522 103.474 102.883 102.801 102.703 102.654 102.599 102.493 102.442 102.52 102.466 102.364 102.378 102.336 102.244 102.214 102.154 102.155 102.132 101.977 101.957 101.943 101.887 101.878 101.896 101.774 101.644 101.676 101.652 101.415 101.288 101.327 101.291 101.29 101.188 101.165 101.131 101.064 100.919 100.844 100.833 100.675 100.653 100.491 100.516 100.464 100.366 100.295 100.259 100.236 100.157 100.127 100.271 100.186 100.286 100.289 100.208 100.195 100.183 100.204 100.101 100.04 99.958 99.854 99.689 99.488 99.534 99.495 99.494 99.41 99.306 99.227 99.15 99.021 99.084 99.073 98.877 98.696 98.7 98.692 98.541 98.447 98.917 99.45 100.537 99.668 99.357 99.301 99.403 99.458 99.558 99.623 99.642 99.743 99.87 99.96 100.017 100.072 100.194 100.25 100.403 100.463 100.521 100.658 100.646 100.571 100.698 100.75 100.729 100.821 100.858 100.986 101.025 100.981 100.986 100.984 100.997 101.062 101.095 101.073 101.146 101.185 101.231 101.266 101.229 101.34 101.441 101.452 101.52 101.608 101.648 101.687 101.682 101.709 101.837 101.962 102.064 102.045 102.094 102.326 102.454 102.537 102.578 102.707 102.864 102.948 103.038 103.227 103.42 103.599 103.748 103.879 103.99 104.069 104.142 104.28 104.458 104.687 104.788 104.915 105.042 105.212 105.419 105.593 105.594 105.662 105.911 106.027 106.136 106.218 106.349 106.466 106.475 106.911 107.954 110.495 109.933 108.64 108.759 110.538 111.214 109.862 108.902 108.838 108.75 108.778 108.994 109.151 109.341 111.135 113.255 115.232 114.724 111.12 109.859 109.064 109.193 108.994 109.533 108.984 108.903 109.006 108.989 109.277 109.098 109.333 109.455 109.245 109.465 110.889 114.738 116.349 115.806 114.061 110.607 109.587 109.201 109.184 109.268 109.261 109.307 109.427 110.086 111.782 111.972 113.829 112.189 109.556 109.223 109.207 109.261 109.319 109.862 110.7 110.823 109.557 109.995 112.179 113.228 111.228 109.69 110.308 109.65 109.354 110.29 110.589 110.652 110.348 109.711 109.112 108.861 108.643 109.164 109.446 109.47 111.563 112.285 114.039 114.173 111.33 109.362 108.338 108.49 108.667 108.862 109.337 109.465 108.906 109.078 -9999 108.799 108.457 108.527 108.753 109.403 111.513 113.726 115.193 114.019 111.352 108.598 108.544 108.363 108.382 108.361 108.447 108.427 108.367 108.393 108.413 108.761 112.154 111.123 109.51 110.024 111.033 114.092 110.617 110.636 111.245 112.438 110.174 108.318 108.127 108.391 108.62 109.133 108.117 107.54 107.345 107.872 109.121 107.896 108.257
-9999 101.52 100.864 100.868 103.932 104.875 103.044 100.869 100.872 100.348 100.554 100.776 100.914 100.537 100.746 104.427 106.939 104.452 101.244 100.934 101.037 101.676 101.794 102.269 102.488 102.085 102.088 101.944 102.108 102.884 102.907 102.746 102.694 102.751 102.803 102.75 102.704 102.663 102.594 102.304 102.242 102.301 102.096 103.05 103.385 103.14 101.834 102.404 103 103.349 103.523 102.996 102.916 102.817 102.798 -9999 102.709 102.684 102.803 102.994 102.812 103.628 104.575 108.106 107.712 105.018 103.222 102.796 102.393 102.334 102.652 104.258 110.282 105.723 104.517 104.518 103.965 104.248 103.491 102.963 102.613 102.546 102.538 102.378 102.366 102.482 102.488 102.366 102.397 102.332 102.238 102.14 102.206 102.084 102.101 102.062 101.89 101.95 101.868 101.782 101.77 101.678 101.576 101.659 101.547 101.448 101.342 101.301 101.237 101.213 101.262 101.124 101.075 101.038 100.99 100.856 100.756 100.716 100.561 100.5 100.439 100.479 100.462 100.368 100.319 100.207 100.122 100.156 100.138 100.119 100.245 100.202 100.199 100.213 100.185 100.171 100.185 100.064 99.986 99.986 99.835 99.713 99.67 99.561 99.481 99.382 99.335 99.241 99.17 99.068 98.961 99.039 98.96 98.837 98.724 98.707 98.699 98.554 98.423 98.532 99.266 100.92 100.096 99.438 99.201 99.322 99.421 99.525 99.578 99.649 99.719 99.877 99.936 99.947 99.99 100.086 100.237 100.358 100.366 100.502 100.523 100.521 100.535 100.638 100.716 100.655 100.747 100.836 101.001 100.946 100.886 100.854 100.857 100.902 100.962 101.02 101.045 101.104 101.085 101.136 101.175 101.195 101.254 101.279 101.362 101.46 101.562 101.542 101.576 101.559 101.589 101.701 101.866 101.975 101.992 102.048 102.262 102.421 102.407 102.582 102.817 102.891 102.938 103.033 103.159 103.372 103.556 103.936 103.958 104.095 104.128 104.191 104.348 104.545 104.705 104.81 105.047 105.16 105.23 105.341 105.483 105.602 105.734 105.871 106.028 106.138 106.214 106.292 106.255 106.459 106.727 107.723 109.774 110.298 110.763 109.281 111.81 111.609 109.509 108.98 108.845 108.983 109.557 109.596 110.214 109.997 110.571 113.624 116.491 112.971 110.527 109.268 109.136 109.47 109.386 109.241 108.905 108.901 108.962 108.992 109.003 109.038 109.061 109.031 109.118 109.546 112.125 115.499 116.341 115.501 113.778 110.348 109.405 109.217 109.18 109.168 109.116 109.236 109.285 -9999 112.646 113.004 114.294 113.743 110.059 109.602 109.456 109.346 109.508 110.926 113.213 112.956 110.373 111.06 112.645 112.001 110.063 108.917 109.612 109.825 109.19 109.928 111.601 113.755 112.031 109.45 108.886 108.824 108.639 108.688 108.669 109.071 112.991 116.214 116.664 116.211 112.949 108.946 108.427 108.426 108.61 108.893 109.282 109.18 108.59 108.952 -9999 108.616 108.695 108.784 108.833 109.534 111.427 112.339 114.894 114.012 112.587 108.899 108.69 108.465 108.354 108.393 108.432 108.493 108.389 108.526 108.796 109.066 116.634 113.822 110.157 109.945 115.732 110.028 112.246 114.626 111.397 115.085 112.651 109.246 108.59 108.612 108.807 109.552 109.372 108.084 107.642 108.115 109.18 108.453 107.666
101.537 102.465 104.346 103.84 108.607 106.389 103.996 106.455 100.944 100.77 100.314 100.69 100.742 100.591 101.567 105.09 106.528 105.067 101.339 100.921 101.037 101.864 101.724 101.766 101.589 101.696 101.673 101.614 102.156 103.14 103.206 102.578 102.442 102.705 102.649 102.577 102.589 102.31 102.161 102.079 102.098 102.081 103.584 105.768 105.431 104.595 102.855 102.763 103.213 103.2 102.743 102.758 102.772 102.731 102.71 102.807 102.614 102.509 102.454 102.342 102.594 103.227 105.148 107.012 104.983 103.674 102.84 102.483 102.017 101.938 102.135 104.784 106.103 104.426 108.404 104.942 104.397 103.553 103.139 102.92 102.665 102.421 102.249 102.29 102.345 102.397 102.437 102.186 102.095 102.184 102.225 102.14 102.133 102.064 101.933 101.812 101.907 101.791 101.721 101.708 101.691 101.556 101.57 101.561 101.456 101.411 101.354 101.199 101.183 101.198 101.087 101.045 100.897 100.873 100.889 100.8 100.645 100.54 100.488 100.45 100.403 100.454 100.411 100.366 100.214 100.144 100.119 100.043 100.097 100.13 100.089 100.13 100.14 100.129 100.149 100.141 100.076 99.951 100.002 100.04 99.908 99.738 99.662 99.569 99.459 99.299 99.316 99.229 99.082 98.97 98.838 98.837 98.788 98.69 98.658 98.681 98.702 98.579 98.466 98.536 98.861 100.746 100.133 99.427 99.077 99.232 99.37 99.437 99.578 99.669 99.786 99.842 99.904 99.807 99.934 100.136 100.156 100.191 100.174 100.325 100.371 100.422 100.5 100.542 100.556 100.492 100.605 100.731 100.778 100.846 100.806 100.8 100.818 100.793 100.771 100.916 100.942 100.967 101.048 101.078 101.084 101.115 101.164 101.226 101.335 101.421 101.397 101.378 101.44 101.452 101.435 101.632 101.814 101.881 101.915 101.938 102.159 102.376 102.439 102.574 102.741 102.879 102.929 103.069 103.199 103.316 103.503 103.827 103.931 104.102 104.142 104.172 104.38 104.6 104.613 104.749 105.001 105.179 105.214 105.314 105.479 105.575 105.742 105.907 106.057 106.118 106.235 106.359 106.364 106.474 106.686 106.969 108.705 109.388 111.057 112.3 112.403 112.028 110.293 109.238 109.574 110.685 112.198 112.856 110.747 109.536 110.213 112.521 114.89 110.984 109.259 108.821 108.736 109.037 108.991 108.86 108.849 108.898 108.969 109.021 108.999 109.023 109.076 109.118 109.088 109.286 110.174 113.873 115.443 114.769 114.274 111.876 110.227 109.25 109.141 109.06 108.996 109.114 109.344 -9999 113.392 113.75 114.515 114.974 111.788 111.262 110.287 109.535 110.043 111.446 112.095 111.982 109.802 110.183 111.067 110.253 109.407 109.111 109.879 110.83 110.888 111.566 112.271 115.138 111.906 109.143 108.804 108.849 108.784 108.684 108.667 108.948 112.122 116.402 116.878 116.655 115.153 111.662 108.845 108.577 108.812 109.052 110.122 110.212 109.329 -9999 -9999 108.649 108.698 108.701 108.728 109.115 109.744 111.018 113.875 113.15 109.463 108.835 108.644 108.573 108.422 108.393 108.379 108.458 108.377 108.561 109.079 109.16 111.545 112.509 114.892 110.943 110.058 109.447 111.998 116.637 114.733 115.617 115.52 113.334 111.227 108.675 108.855 109.951 109.853 107.93 107.587 107.866 108.849 108.746 107.68
-9999 101.905 100.77 102.268 108.77 106.921 107.892 103.84 101.665 99.988 99.77 100.169 100.419 100.365 100.851 104.181 106.281 106.028 103.61 101.348 100.835 100.79 101.141 101.358 101.518 101.68 101.635 101.717 102.292 104.76 104.256 102.713 102.408 102.56 102.721 102.556 102.417 102.221 102.073 102.135 102.013 102.857 104.781 106.027 107.674 107.59 104.121 102.205 102.554 103.037 102.429 102.434 102.685 102.654 102.931 102.877 102.788 102.389 102.225 101.994 102.363 102.922 103.708 103.806 103.464 103.113 102.775 102.071 101.8 102.113 102.285 102.438 102.627 105.311 106.433 106.606 110.499 105.796 103.095 102.948 102.65 102.241 102.203 102.183 102.197 102.185 102.126 102.09 102.025 102.098 102.113 102.028 101.999 101.995 101.946 101.798 101.751 101.745 101.601 101.604 101.625 101.669 101.582 101.479 101.426 101.386 101.289 101.135 101.064 100.986 100.968 100.942 100.814 100.807 100.736 100.677 100.536 100.458 100.362 100.348 100.352 100.278 100.205 100.208 100.146 100.102 99.985 99.989 100.003 99.989 100.04 100.094 100.031 100.006 100.099 100.093 100.025 100.03 99.877 99.899 99.814 99.83 99.667 99.552 99.487 99.489 99.341 99.184 99.044 98.909 98.883 98.72 98.673 98.642 98.552 98.607 98.651 98.547 98.485 98.458 98.697 99.176 99.502 99.276 99.377 99.229 99.307 99.431 99.467 99.653 99.701 99.737 99.757 99.783 99.957 99.999 99.999 100.036 100.071 100.158 100.263 100.466 100.437 100.396 100.414 100.463 100.484 100.555 100.646 100.76 100.712 100.744 100.784 100.732 100.726 100.794 100.828 100.978 100.966 100.923 100.967 101.005 101.043 101.156 101.272 101.185 101.213 101.281 101.364 101.421 101.415 101.492 101.585 101.743 101.834 101.921 102.098 102.334 102.427 102.568 102.696 102.911 102.966 103.149 103.3 103.411 103.555 103.715 103.962 104.134 104.201 104.32 104.473 104.581 104.589 104.749 104.945 105.088 105.171 105.482 105.524 105.53 105.662 105.822 105.954 106.072 106.254 106.446 106.484 106.546 106.62 106.698 107.491 108.411 109.97 113.864 111.038 110.961 110.127 109.619 110.323 114.052 116.516 118.345 115.118 110.536 109.658 111.903 110.192 109.807 108.886 108.849 108.806 108.853 108.821 108.873 109.583 109.208 108.913 108.976 109.064 109.034 109.044 109.406 109.125 109.169 109.617 110.234 111.831 111.679 112.9 111.954 111.13 109.647 109.448 109.26 109.277 109.681 109.783 110.132 111.717 113.082 113.965 113.409 112.161 112.296 110.711 109.8 110.399 111.304 111.596 110.558 109.58 109.701 110.025 109.613 109.485 109.288 109.558 112.209 115.083 114.228 113.292 112.047 109.221 108.799 108.827 108.872 108.872 108.82 108.839 108.811 110.692 115.24 116.854 116.815 116.562 113.201 109.59 108.744 108.809 108.952 109.912 110.098 109.616 109.147 108.656 108.665 108.65 108.717 108.782 108.834 108.882 109.422 112.772 114.884 110.541 108.514 108.573 108.463 108.414 108.435 108.684 108.63 108.682 108.939 108.702 108.98 111.382 115.838 111.076 109.534 108.46 108.359 108.891 112.444 114.036 114.929 115.564 114.166 111.232 108.7 108.498 108.534 109.492 107.835 107.793 107.819 108.584 109.565 108.015
-9999 100.402 100.172 100.846 103.807 105.864 104.708 100.484 100.489 99.648 99.605 99.993 100.313 100.235 100.491 100.676 104.192 106.066 106.363 103.4 100.825 100.795 101.048 101.264 101.331 102.108 101.977 101.842 102.319 103.853 105.324 103.257 103.387 103.685 104.399 103.586 103.476 102.413 102.119 101.797 102.031 103.751 104.92 106.339 108.383 108.925 106.306 103.52 102.417 102.138 102.165 102.373 103.012 102.676 102.83 103.094 102.838 102.325 102.075 102.125 102.217 102.484 103.288 102.433 101.874 102.244 102.352 101.985 101.991 102.236 102.367 102.337 102.414 104.665 109.058 110.298 109.46 106.7 103.529 102.597 102.348 102.237 102.143 102.07 102.068 102.057 102.072 102.112 102.059 101.94 102.016 102.004 101.945 101.889 101.806 101.724 101.723 101.663 101.577 101.521 101.452 101.493 101.469 101.417 101.366 101.299 101.197 101.122 101.019 101.056 100.876 100.891 100.819 100.71 100.567 100.558 100.538 100.415 100.349 100.277 100.11 100.088 100.114 100.083 100.072 100.056 100.019 99.949 99.929 99.92 99.958 99.987 99.924 100.183 100.138 100.044 100.023 100.041 100.014 99.882 99.879 99.79 99.645 99.59 99.543 99.489 99.362 99.173 99.015 98.902 98.798 98.537 98.509 98.636 98.577 98.563 98.566 98.486 98.443 98.386 98.653 100.457 100.169 99.91 100.223 99.433 99.265 99.331 99.371 99.548 99.617 99.625 99.691 99.764 99.811 99.814 99.913 99.966 100.03 100.105 100.184 100.302 100.206 100.263 100.34 100.385 100.411 100.423 100.458 100.56 100.593 100.624 100.636 100.607 100.644 100.686 100.768 100.825 100.784 100.835 100.875 100.902 100.924 100.99 101.052 101.022 101.098 101.23 101.258 101.247 101.366 101.474 101.519 101.631 101.721 101.896 102.132 102.282 102.433 102.608 102.751 102.873 102.973 103.147 103.316 103.571 103.699 103.82 103.985 104.075 104.249 104.47 104.431 104.55 104.671 104.807 105.035 105.143 105.279 105.465 105.589 105.705 105.72 105.802 105.95 106.026 106.187 106.403 106.487 106.519 106.586 106.624 106.778 107.324 108.733 109.391 109.806 109.964 109.49 109.057 110.1 114.808 118.335 117.926 115.901 110.056 109.54 109.576 109.391 108.767 108.997 109.151 108.958 108.859 108.818 109.415 110.744 110.556 109.739 108.919 108.979 109.048 109.198 109.704 109.589 109.719 109.423 109.802 110.333 110.885 111.383 111.56 111.026 109.779 110.329 110.079 110.481 110.498 110.176 109.822 109.845 111.105 111.918 111.125 111.289 111.265 109.939 109.619 111.586 112.075 111.555 111.109 110.253 109.53 109.487 109.397 109.372 109.387 110.568 114.396 115.201 114.836 112.693 111.133 109.736 109.098 108.963 108.924 108.928 108.909 108.971 109.498 110.955 114.674 116.918 117.016 116.989 113.6 109.606 108.761 108.766 108.948 109.526 109.617 109.296 108.854 108.725 108.792 108.732 108.67 108.73 108.747 108.809 109.361 111.494 114.766 112.639 109.332 109.079 108.923 108.727 109.521 110.248 109.737 109.533 109.518 109.342 111.596 114.091 111.732 110.921 108.518 108.408 108.377 108.459 108.95 111.835 114.302 115.639 112.576 109.399 109.646 108.516 108.919 109.706 108.407 107.904 107.863 108.471 109.226 108.693
98.457 99.122 99.058 99.271 101.627 104.898 108.005 103.281 101.49 99.529 99.663 100.223 100.038 100.357 100.438 100.671 101.633 105.658 106.775 105.602 101.529 100.772 100.965 101.177 101.244 101.772 101.506 101.502 102.156 107.206 107.956 105.836 105.726 105.228 104.428 103.506 102.466 102.186 101.871 101.782 101.821 102.259 104.511 105.563 107.797 108.705 107.296 104.342 103.086 102.055 102.086 102.212 102.331 102.492 102.366 102.734 102.663 -9999 102.096 102.16 102.324 102.464 102.311 101.738 101.665 101.915 102.408 102.274 102.087 102.233 102.319 102.332 102.275 102.998 106.249 108.124 105.813 106.714 105.275 102.918 102.356 102.19 102.12 101.98 101.948 101.94 102.018 102.012 101.949 101.912 101.884 101.865 101.777 101.746 101.708 101.634 101.622 101.559 101.516 101.387 101.347 101.315 101.431 101.357 101.3 101.302 101.176 101.044 100.966 100.99 100.829 100.725 100.677 100.519 100.495 100.471 100.489 100.427 100.263 100.142 100.098 100.03 100.049 99.969 99.97 100.072 100.014 99.952 99.929 99.905 99.854 99.888 99.969 100.024 100.019 99.966 99.964 99.888 99.948 99.865 99.757 99.686 99.674 99.612 99.511 99.479 99.358 99.165 98.991 98.956 98.777 98.58 98.422 98.455 98.472 98.489 98.503 98.448 98.468 98.385 98.52 99.83 100.021 99.585 99.817 99.484 99.293 99.342 99.436 99.487 99.548 99.545 99.574 99.661 99.699 99.768 99.827 99.909 99.997 100.074 100.123 100.154 100.142 100.194 100.211 100.3 100.344 100.36 100.439 100.45 100.441 100.484 100.463 100.45 100.526 100.539 100.636 100.69 100.741 100.788 100.847 100.831 100.846 100.897 100.917 100.908 101.004 101.112 101.171 101.232 101.334 101.376 101.469 101.571 101.715 101.855 102.141 102.28 102.492 102.61 102.735 102.855 103.108 103.241 103.393 103.604 103.751 103.907 104.018 104.156 104.284 104.389 104.453 104.565 104.692 104.838 105.042 105.151 105.264 105.39 105.53 105.733 105.757 105.789 105.876 105.987 106.119 106.311 106.317 106.519 106.675 106.804 106.752 106.868 107.736 108.327 108.797 109.727 109.172 108.986 109.372 111.047 115.818 112.397 110.767 109.427 109.346 109.392 109.394 109.175 109.625 109.999 109.09 108.919 108.889 109.219 111.491 111.777 111.715 109.341 109.027 109.098 109.242 109.53 110.163 110.63 110.304 110.06 110.55 110.994 110.119 110.701 110.957 110.212 110.093 109.598 109.835 110.218 109.844 109.282 109.043 109.62 109.949 109.823 110.179 109.775 109.201 110.288 113.771 114.117 113.035 112.897 112.499 110.268 109.456 109.312 109.4 109.492 110.107 112.827 113.758 113.961 112.773 111.611 111.149 110.262 109.58 108.997 108.977 108.91 109.015 109.887 110.83 113.837 116.343 116.909 117.278 113.533 109.278 108.783 108.801 108.86 109.069 109.066 109.008 108.785 108.964 109.542 109.347 108.974 108.901 108.66 109.074 109.702 110.446 111.186 113.288 111.056 109.844 109.395 109.575 110.429 110.171 110.021 109.983 110.318 109.929 111.126 110.766 110.57 109.49 108.699 108.566 108.519 108.522 108.652 109.549 113.819 114.877 113.845 109.097 108.523 108.393 108.319 108.757 108.941 108.139 108.081 108.434 108.671 108.854
98.279 98.734 99.064 99.785 99.691 103.577 104.418 100.129 100.265 99.222 99.195 99.663 99.944 100.058 100.275 100.642 103.848 104.806 105.446 103.613 102.238 100.765 101.188 101.468 101.348 100.996 101.351 101.441 102.545 105.811 108.8 104.964 104.627 104.232 103.247 102.499 102.087 101.966 102.096 101.762 101.862 102.522 103.561 104.585 105.112 107.614 108.183 105.396 102.942 101.946 101.874 101.907 102.106 102.468 102.314 102.288 102.151 102.031 -9999 102.107 102.025 101.883 101.807 102.152 101.98 102.251 104.46 103.961 102.771 102.763 102.479 102.239 102.241 102.263 103.618 106.597 106.271 106.526 106.525 104.686 102.263 102.028 101.946 101.86 101.815 101.936 101.918 101.887 101.89 101.815 101.749 101.648 101.671 101.61 101.627 101.583 101.574 101.494 101.448 101.324 101.336 101.326 101.249 101.327 101.292 101.199 101.146 101.025 100.883 100.946 100.749 100.708 100.654 100.55 100.432 100.377 100.394 100.306 100.204 100.183 100.162 100.088 99.999 99.957 99.957 99.945 99.962 99.909 99.948 99.922 99.925 99.948 99.938 99.98 99.944 99.927 99.824 99.835 99.885 99.83 99.727 99.705 99.64 99.537 99.463 99.432 99.28 99.182 99.067 99.041 98.847 98.73 98.645 98.514 98.385 98.417 98.457 98.344 98.402 98.427 98.305 98.584 99.647 101.08 100.834 99.837 99.354 99.354 99.37 99.418 99.524 99.502 99.499 99.609 99.669 99.74 99.759 99.884 99.927 99.949 100.028 100.095 100.099 100.109 100.116 100.126 100.224 100.277 100.351 100.366 100.46 100.418 100.357 100.416 100.446 100.464 100.514 100.563 100.652 100.728 100.817 100.718 100.745 100.864 100.919 100.964 100.985 101.052 101.143 101.23 101.338 101.429 101.475 101.615 101.74 101.927 102.154 102.308 102.495 102.596 102.781 102.924 103.173 103.346 103.421 103.61 103.684 103.895 104.078 104.23 104.339 104.4 104.523 104.656 104.738 104.932 105.052 105.159 105.253 105.401 105.538 105.693 105.749 105.795 105.933 106.07 106.12 106.265 106.576 106.832 107.231 107.4 107.156 107.171 107.911 108.559 108.622 109.083 109.112 109.302 109.118 109.104 110.155 109.871 109.333 109.329 109.432 109.471 109.368 109.049 109.549 109.824 109.246 109.04 109.059 109.078 109.631 110.716 111.022 110.096 109.447 109.214 109.507 110.85 110.488 110.086 110.161 110.562 110.78 111.617 111.729 110.894 110.091 110.361 110.183 109.616 109.567 109.691 109.425 109.164 109.235 109.293 109.48 109.531 109.168 109.298 109.137 109.588 111.498 115.457 115.798 114.782 114.071 110.766 109.53 109.366 109.63 109.82 109.475 110.125 110.205 112.746 113.226 112.303 112.645 112.527 109.729 109.052 109.021 108.914 108.679 109.277 111.037 113.671 115.659 116.671 116.141 113.995 110.065 108.964 108.893 109.044 109.704 109.216 109.478 109.766 109.996 110.514 110.97 111.382 110.426 109.418 110.38 111.495 110.661 110.242 112.211 112.035 110.68 109.893 109.407 109.597 109.268 109.605 109.777 111.359 110.847 110.401 109.259 109.223 109.649 109.577 110.854 109.951 108.489 108.357 109.584 113.548 115.429 113.839 110.406 108.381 108.307 108.534 109.724 109.217 108.223 108.185 108.635 108.958 109.069
98.731 99.45 100.101 101.551 101.352 103.938 100.858 99.453 99.319 99.158 99.293 99.858 99.913 99.88 100.249 100.622 101.866 101.687 100.844 100.842 101.319 100.414 100.803 100.779 100.814 101.197 101.119 101.566 102.121 105.525 108.824 105.873 103.315 102.291 102.38 102.305 102.193 102.09 101.979 101.829 102.2 103.483 102.614 102.364 103.604 106.244 106.85 107.581 105.579 102.53 101.772 101.849 101.869 102.14 102.011 102 101.78 101.691 101.73 -9999 101.667 101.593 101.652 102.069 102.094 104.175 106.878 105.765 104.746 105.606 102.848 102.133 102.028 102.086 102.2 104.76 107.033 105.669 105.622 104.719 102.302 102.043 101.874 101.789 101.779 101.884 101.812 101.813 101.787 101.776 101.669 101.606 101.65 101.554 101.497 101.426 101.441 101.424 101.396 101.311 101.313 101.247 101.175 101.256 101.223 101.121 101.036 100.962 100.853 100.838 100.728 100.636 100.574 100.578 100.51 100.39 100.237 100.265 100.143 100.105 100.119 100.087 99.959 99.924 99.888 99.87 99.954 99.919 99.853 99.942 99.858 99.811 99.909 99.963 99.868 99.873 99.813 99.745 99.683 99.72 99.747 99.669 99.585 99.625 99.486 99.307 99.253 99.199 99.045 98.888 98.908 98.821 98.727 98.649 98.454 98.367 98.298 98.198 98.254 98.269 98.177 98.534 99.216 100.845 101.821 100.817 99.465 99.271 99.277 99.271 99.377 99.362 99.536 99.655 99.675 99.744 99.798 99.801 99.774 99.862 99.992 100.03 99.997 100.023 100.081 100.081 100.148 100.282 100.224 100.229 100.285 100.306 100.292 100.329 100.359 100.368 100.405 100.439 100.467 100.498 100.579 100.6 100.632 100.844 100.825 100.896 100.936 100.993 101.124 101.209 101.288 101.37 101.441 101.66 101.846 101.998 102.17 102.39 102.536 102.73 102.81 102.907 103.124 103.306 103.418 103.632 103.723 103.917 104.07 104.284 104.334 104.398 104.69 104.748 104.783 104.934 105.058 105.205 105.314 105.441 105.588 105.684 105.741 105.789 105.979 106.147 106.204 106.385 106.91 108.415 109.148 109.581 108.928 107.556 108.288 109.028 109.35 109.035 109.066 109.003 108.934 109.018 109.237 109.325 109.354 109.416 109.514 109.548 109.477 109.349 109.629 110.51 109.629 109.308 109.312 110.21 110.17 110.503 110.761 110.611 109.711 109.246 109.312 109.735 109.907 109.682 109.568 110.91 111.278 112.317 112.323 112.279 111.489 111.847 110.885 109.853 109.595 109.625 109.55 109.415 109.355 109.315 109.453 109.945 109.622 109.409 109.388 109.726 111.4 115.169 117.19 115.672 113.595 110.314 109.297 109.357 109.517 109.664 109.532 109.418 109.443 111.442 113.66 113.837 113.618 112.018 109.764 109.229 109.071 109.034 108.839 109.111 111.302 112.987 113.313 113.909 114.215 113.895 110.439 109.093 109.353 110.381 111.306 111.189 111.201 111.452 111.463 111.348 111.885 112.404 111.498 110.428 110.637 111.515 110.959 109.567 111.271 112.162 111.791 111.55 109.634 108.989 109.081 109.281 109.069 109.092 109.691 109.078 109.308 110.062 110.054 112.334 110.718 108.773 108.419 108.508 110.617 113.643 115.043 114.695 110.246 108.579 108.553 109.24 110.108 109.369 108.272 108.346 108.591 108.829 108.557
99.177 98.701 101.562 100.119 102.6 107.457 101.305 99.69 99.083 99.071 99.142 99.972 99.769 99.768 99.816 100.514 102.367 100.812 100.34 100.434 100.251 100.419 100.259 100.504 100.721 100.783 100.865 102.04 107.122 108.928 107.043 103.451 102.011 101.95 101.839 102.029 102.382 102.934 102.045 101.714 102.349 103.407 101.867 101.551 101.991 102.539 106.013 106.647 104.831 102.348 101.6 101.668 101.688 101.702 101.838 101.995 101.656 101.636 101.606 -9999 101.487 101.495 101.474 102.04 101.61 102.696 105.544 106.235 106.594 105.814 103.07 101.816 101.805 101.93 102.111 103.419 106.11 105.495 104.887 104.751 103.141 102.011 101.91 101.853 101.763 101.663 101.738 101.723 101.608 101.632 101.608 101.558 101.542 101.484 101.396 101.418 101.329 101.211 101.317 101.333 101.23 101.205 101.19 101.136 101.118 101.135 101.028 100.898 100.875 100.775 100.655 100.579 100.595 100.549 100.442 100.374 100.293 100.278 100.169 100.031 99.912 99.952 99.882 99.834 99.811 99.924 99.833 99.802 99.784 99.867 99.713 99.729 99.834 99.78 99.783 99.823 99.799 99.665 99.731 99.764 99.638 99.622 99.599 99.646 99.343 99.317 99.251 99.181 99.076 98.905 98.889 98.803 98.709 98.598 98.404 98.269 98.232 98.166 98.169 98.176 98.245 98.456 99.704 101.159 101.657 100.919 99.719 99.243 99.199 99.257 99.323 99.383 99.483 99.557 99.613 99.579 99.658 99.64 99.741 99.829 99.864 99.95 99.871 99.905 99.999 99.989 99.989 100.065 100.021 100.094 100.183 100.237 100.18 100.219 100.262 100.254 100.281 100.324 100.337 100.336 100.443 100.507 100.602 100.65 100.654 100.723 100.837 100.973 101.095 101.203 101.272 101.329 101.52 101.789 101.916 102.067 102.272 102.517 102.615 102.739 102.802 103.011 103.17 103.317 103.505 103.69 103.792 103.962 104.088 104.235 104.374 104.449 104.667 104.792 104.879 104.923 104.999 105.228 105.297 105.374 105.575 105.704 105.755 105.756 106.152 106.099 106.189 106.491 107.558 109.728 111.153 110.935 110.333 108.753 107.784 108.375 108.828 108.609 108.832 108.7 108.838 109.092 109.204 109.376 109.484 109.733 109.736 109.637 109.671 110.439 111.774 112.599 111.331 109.878 109.365 109.475 110.08 110.652 110.751 110.565 109.808 109.186 109.17 109.357 109.524 109.566 109.605 110.006 110.348 111.069 113.728 115.552 115.101 113.41 111.054 109.638 109.621 109.673 109.621 109.397 109.364 109.176 109.092 109.697 109.604 109.438 109.457 109.437 110.659 114.69 116.291 116.356 113.739 111.132 109.722 109.382 109.396 109.45 109.446 109.485 109.468 110.869 114.187 114.681 115.253 114.436 111.403 109.541 109.172 109.219 109.074 108.984 110.814 110.7 109.791 111.717 112.45 110.117 109.687 109.855 110.399 111.421 112.019 111.777 112.282 112.809 112.236 -9999 111.656 111.527 111.015 110.279 110.017 110.746 111.194 111.914 112.8 112.676 112.115 110.969 109.863 108.94 108.993 109.1 108.961 109.081 109.02 108.909 109.914 113.914 114.67 114.254 113.148 109.703 108.758 108.538 109.338 109.466 109.611 109.512 108.761 110.574 110.675 112.204 110.989 110.354 108.798 108.416 108.482 109.863 109.276
98.545 98.494 98.506 98.717 103.136 106.898 104.588 100.606 98.722 99.315 99.248 101.099 100.606 99.946 99.545 99.401 99.511 99.464 99.725 99.981 99.995 100.013 100.073 100.231 100.691 100.572 100.683 101.659 106.538 105.93 103.103 102.076 101.693 101.704 101.734 101.765 102.299 102.811 101.72 101.516 101.515 101.381 101.523 101.482 101.564 103.178 105.816 104.314 101.871 101.29 101.39 101.393 101.363 101.516 101.684 101.673 101.59 101.548 101.587 -9999 101.466 101.456 101.391 101.589 101.752 101.771 101.809 103.872 107.511 106.742 104.04 101.853 101.832 102.034 102.117 102.283 102.67 103.853 105.402 105.023 103.105 102.038 101.982 101.842 101.714 101.655 101.561 101.441 101.553 101.578 101.497 101.52 101.467 101.266 101.329 101.301 101.27 101.186 101.227 101.263 101.154 101.104 101.113 101.079 101.076 101.052 100.948 100.798 100.825 100.672 100.584 100.521 100.481 100.407 100.255 100.198 100.207 100.117 100.104 99.982 99.858 99.846 99.818 99.852 99.828 99.757 99.709 99.716 99.702 99.762 99.763 99.767 99.721 99.776 99.784 99.708 99.633 99.695 99.698 99.653 99.536 99.6 99.572 99.451 99.357 99.354 99.275 99.189 99.109 98.922 98.844 98.748 98.641 98.391 98.252 98.212 98.206 98.124 98.124 98.151 98.255 98.281 99.092 101.133 101.588 100.538 99.571 99.22 99.141 99.231 99.351 99.299 99.374 99.409 99.446 99.466 99.516 99.604 99.704 99.714 99.734 99.71 99.733 99.796 99.801 99.826 99.871 99.889 99.904 99.993 100.049 100.081 100.042 100.027 100.074 100.128 100.202 100.326 100.299 100.346 100.355 100.388 100.483 100.506 100.576 100.677 100.791 100.97 101.088 101.219 101.291 101.438 101.617 101.938 102.011 102.166 102.293 102.488 102.663 102.773 102.946 103.152 103.305 103.402 103.594 103.734 103.828 103.994 104.211 104.347 104.493 104.549 104.69 104.831 104.873 104.967 105.089 105.181 105.248 105.344 105.595 105.783 106.009 106.553 107.852 107.151 106.435 107.24 108.542 110.367 111.125 109.927 109.798 108.267 107.837 107.9 108.571 108.777 109.295 109.226 109.055 109.541 109.554 109.915 109.861 110.653 110.658 110.779 110.108 111.309 113.145 116.269 112.217 110.289 110.179 109.608 109.968 110.453 110.249 109.798 109.532 109.233 109.166 109.284 109.416 109.518 109.576 109.621 109.717 111.252 114.985 117.436 116.717 113.448 110.386 109.712 109.69 109.709 109.548 109.65 109.515 109.283 109.22 109.594 109.657 109.582 109.576 109.586 110.193 113.026 115.899 116.821 114.52 112.308 109.985 109.453 109.472 109.433 109.389 109.486 109.588 110.16 113.032 114.209 115.244 113.381 110.147 109.535 109.51 110.539 109.788 110.404 111.6 109.833 110.128 111.797 112.606 111.289 111.006 111.439 111.81 111.076 110.807 112.084 111.842 112.086 111.683 -9999 110.93 110.389 110.256 109.742 109.557 109.499 111.122 113.73 115.701 114.155 112.271 110.092 109.79 109.135 109.022 109.071 109.137 109.151 109.007 109.128 109.139 111.389 113.846 111.531 113.335 109.733 110.011 109.133 109.903 110.158 110.326 109.363 109.072 110 112.536 114.338 113.541 111.524 109.533 108.21 108.66 111.752 113.634
97.954 97.905 97.878 98.433 99.446 101.258 99.685 99.476 98.469 99.421 100.579 101.719 101.127 99.185 98.804 98.364 98.595 98.692 99.555 99.944 99.6 99.717 99.817 100.201 100.185 100.341 100.457 101.462 105.241 103.176 101.726 101.675 101.935 101.87 101.749 101.547 101.49 101.424 101.405 101.271 101.282 101.663 101.425 101.381 101.317 101.887 101.885 102.491 101.669 101.513 102.182 101.087 101.077 101.313 101.375 101.322 101.603 101.658 101.549 101.408 -9999 101.404 101.475 101.507 101.905 101.882 101.714 102.868 105.617 106.393 105.843 102.336 101.713 102.135 101.746 101.236 101.241 102.033 104.255 104.025 102.651 102.027 102.099 101.993 101.69 101.613 101.389 101.443 101.407 101.391 101.423 101.391 101.325 101.257 101.235 101.184 101.103 101.166 101.135 101.152 101.108 100.987 101.039 101.046 100.881 100.843 100.821 100.712 100.649 100.623 100.584 100.525 100.417 100.232 100.242 100.125 100.049 99.965 99.979 99.918 99.847 99.763 99.798 99.865 99.781 99.698 99.646 99.639 99.675 99.741 99.764 99.668 99.66 99.745 99.706 99.673 99.709 99.697 99.642 99.671 99.535 99.542 99.512 99.413 99.268 99.31 99.271 99.141 98.973 98.872 98.693 98.615 98.458 98.26 98.23 98.246 98.26 98.061 98.094 98.185 98.269 98.24 98.408 99.474 100.656 100.798 99.922 99.259 99.131 99.215 99.171 99.113 99.175 99.287 99.331 99.345 99.441 99.479 99.508 99.606 99.674 99.632 99.597 99.653 99.689 99.679 99.785 99.789 99.833 99.855 99.83 99.905 99.912 99.918 99.961 99.99 100.147 100.152 100.159 100.259 100.254 100.336 100.43 100.519 100.573 100.649 100.824 100.949 101.122 101.258 101.394 101.529 101.743 101.938 102.08 102.231 102.332 102.5 102.733 102.898 103.061 103.189 103.37 103.504 103.649 103.69 103.857 104.066 104.228 104.328 104.432 104.594 104.704 104.8 104.895 104.959 105.113 105.358 105.431 105.543 106.224 106.284 107.121 110.593 112.987 108.826 109.206 110.37 110.111 109.548 108.56 107.681 107.699 107.754 107.687 108.202 109.151 109.483 110.148 109.993 109.906 110.481 110.833 110.949 110.841 110.442 110.041 110.394 109.894 110.325 111.133 113.049 111.119 109.44 109.763 109.625 109.5 109.364 109.731 110.005 109.714 109.288 109.174 109.253 109.364 109.497 109.6 109.574 109.568 110.951 114.14 116.351 116.517 116.011 113.677 110.553 109.657 109.794 110.02 110.228 109.772 -9999 109.468 109.625 109.763 109.793 109.702 109.643 109.704 112.105 115.628 116.582 114.429 112.843 110.541 109.571 109.518 109.504 109.555 109.512 109.489 109.748 111.144 113.391 113.583 111.368 109.98 110.48 110.969 111.6 112.956 114.358 114.466 111.919 112.683 113.732 113.879 113.267 113.876 112.65 110.967 109.732 109.14 110.48 110.351 110.577 -9999 -9999 110.328 109.958 109.704 109.371 109.385 109.598 110.574 113.419 115.295 114.846 -9999 110.246 109.239 109.032 109.016 109.059 109.061 109.055 109.192 109.072 109.225 111.686 112.404 111.367 112.638 111.152 110.194 109.263 110.749 111.743 111.325 111.791 111.754 109.393 110.724 113.079 111.32 109.653 108.569 108.147 108.195 110.885 113.756
97.849 97.903 97.983 97.899 98.273 99.187 98.685 98.221 97.985 98.856 99.765 100.14 99.727 99.341 98.978 100.874 100.923 100.366 99.313 99.159 99.22 99.491 99.807 100.191 100.441 100.219 100.44 102.97 108.058 106.482 102.298 102.033 102.654 101.752 101.301 101.121 101.128 101.233 101.159 101.246 101.296 101.136 101.265 101.424 101.341 101.243 100.981 100.906 101.235 102.758 104.657 101.815 101.218 101.253 101.369 101.741 102.049 101.628 101.429 101.306 -9999 101.344 101.327 101.203 101.698 101.987 101.562 102.223 103.928 103.916 102.316 101.219 101.006 102.073 101.52 100.847 101.106 101.328 101.885 102.513 102.633 103.013 102.977 102.216 101.591 101.445 101.392 101.295 101.301 101.355 101.318 101.192 101.205 101.162 101.187 101.119 101.014 101.061 101.116 101.04 101.003 100.999 100.985 100.961 100.837 100.775 100.612 100.623 100.623 100.594 100.527 100.447 100.267 100.238 100.102 100.037 100.031 99.87 99.791 99.832 99.777 99.557 99.596 99.61 99.629 99.617 99.542 99.559 99.691 99.685 99.68 99.566 99.608 99.596 99.619 99.71 99.646 99.558 99.651 99.672 99.505 99.467 99.506 99.47 99.326 99.221 99.184 99.077 98.893 98.828 98.655 98.522 98.423 98.291 98.234 98.21 98.132 98.067 98.1 98.174 98.254 98.212 98.357 98.731 100.098 101.598 101.717 99.663 99.106 99.119 99.083 99.099 99.144 99.178 99.218 99.223 99.312 99.343 99.417 99.509 99.626 99.619 99.603 99.597 99.626 99.684 99.665 99.625 99.734 99.708 99.674 99.778 99.879 99.994 99.945 99.895 99.964 99.99 100.019 100.122 100.133 100.211 100.363 100.527 100.57 100.651 100.825 100.945 101.193 101.323 101.556 101.652 101.798 101.965 102.154 102.328 102.406 102.586 102.863 102.987 103.131 103.298 103.43 103.592 103.741 103.826 103.941 104.165 104.191 104.283 104.412 104.593 104.785 104.979 104.975 105.121 106.012 106.648 106.668 106.79 108.355 109.916 109.101 109.441 111.724 112.419 113.308 113.393 112.858 108.817 107.616 107.318 107.367 107.475 107.596 107.84 108.713 109.67 110.21 110.6 110.806 110.745 111.243 110.688 110.842 110.139 109.84 109.91 109.86 109.958 110.649 113.3 111.798 109.95 109.378 109.217 109.234 109.255 109.38 109.771 109.752 109.325 109.21 109.246 109.378 109.576 109.616 109.603 109.639 110.183 112.736 115.516 116.855 116.612 115.825 110.752 109.758 109.994 110.641 110.052 109.695 -9999 109.311 109.475 109.5 109.753 109.728 109.626 109.65 110.558 113.751 116.558 114.333 110.795 109.967 109.595 109.556 109.531 109.483 109.514 109.543 109.777 110.483 113.728 112.127 110.824 112.144 112.265 112.347 113.259 115.55 116.524 114.891 113.293 114.675 113.803 114.55 111.639 114.219 113.287 110.044 109.453 109.526 109.506 109.456 109.759 -9999 -9999 109.568 109.554 109.495 109.428 109.485 109.876 109.788 112.091 115.007 116.107 113.336 110.559 109.627 109.273 109.194 109.097 109.037 109.058 109.149 109.057 109.052 109.434 110.634 109.941 110.519 110.912 109.916 109.922 110.043 111.927 112.27 112.545 112.305 109.434 108.829 109.77 110.329 112.759 112.252 110.166 108.464 108.97 112.381
97.668 97.713 97.766 97.959 98.058 97.984 97.892 97.868 97.944 98.231 98.544 99.085 98.513 98.599 101.6 105.126 104.857 102.551 99.426 98.908 99.063 99.192 99.806 100.899 100.317 99.919 99.889 101.911 103.607 103.768 101.457 101.495 101.64 101.231 100.892 100.915 100.85 100.812 101.041 101.264 101.145 101.171 101.208 101.251 101.466 100.995 100.744 100.719 101.284 104.875 106.752 104.758 102.525 101.357 101.481 102.493 102.25 101.622 101.189 101.215 101.134 101.25 101.242 101.183 101.388 101.087 101.708 101.15 101.397 101.249 100.842 100.597 101.727 103.982 103.251 100.76 100.915 101.213 101.516 101.753 102.463 104.991 104.597 102.295 101.42 101.39 101.297 101.237 101.219 101.109 101.065 101.067 101.054 101.017 100.972 100.986 100.97 101.006 100.947 100.892 100.96 100.994 100.853 100.856 100.8 100.654 100.652 100.697 100.693 100.521 100.384 100.32 100.195 100.055 100.033 100.095 99.942 99.81 99.708 99.679 99.591 99.624 99.6 99.532 99.561 99.508 99.474 99.5 99.505 99.602 99.621 99.634 99.649 99.618 99.61 99.598 99.531 99.508 99.555 99.539 99.508 99.479 99.413 99.376 99.253 99.141 99.109 99.101 99.018 98.733 98.574 98.567 98.447 98.263 98.202 98.166 98.092 98.07 98.081 98.12 98.175 98.14 98.27 99.03 100.776 101.399 100.449 100.011 99.391 99.104 99.06 99.146 99.155 99.163 99.19 99.235 99.23 99.164 99.29 99.348 99.474 99.486 99.518 99.517 99.527 99.576 99.591 99.61 99.666 99.592 99.6 99.718 99.82 99.863 99.898 99.892 99.861 99.849 99.978 100.106 100.134 100.218 100.365 100.421 100.526 100.714 100.878 101.036 101.298 101.434 101.643 101.743 101.929 102.087 102.208 102.374 102.524 102.738 102.953 103.126 103.287 103.404 103.485 103.571 103.742 103.897 103.997 104.214 104.236 104.283 104.48 104.641 104.83 105.135 105.084 105.501 107.142 108.353 109.708 109.058 109.689 110.394 109.613 109.353 111.098 114.066 114.824 111.997 108.908 107.752 107.397 107.413 107.494 107.543 107.674 107.829 107.969 108.992 110.599 111.057 110.067 110.187 110.678 110.556 110.26 109.919 109.771 109.784 109.906 109.909 110.519 114.398 112.854 111.215 109.642 109.307 109.254 109.229 109.354 109.593 109.684 109.341 109.238 109.197 109.234 109.497 109.554 109.605 109.752 110.871 112.563 113.922 115.353 115.845 114.265 110.738 109.768 109.884 110.122 109.293 109.237 109.259 109.162 109.215 109.22 109.521 109.706 109.687 109.762 110.485 112.239 113.259 112.628 110.688 109.743 109.645 109.639 109.613 109.641 109.595 109.623 110.139 111.163 112.158 111.27 112.945 114.782 115.119 114.295 115.08 115.149 115.383 113.954 112.487 114.491 112.595 115.816 112.189 112.504 112.751 111.127 109.695 109.68 109.609 109.426 109.247 109.301 109.287 109.288 109.292 109.346 109.429 109.419 109.611 110.014 111.239 114.755 116.636 113.549 111.235 110.558 111.429 109.822 109.316 108.956 108.966 109.055 109.08 109.415 110.624 111.65 111.759 109.681 109.591 109.051 109.121 109.587 111.189 111.618 111.306 110.253 109.358 109.105 109.64 109.434 113.134 113.937 112.674 109.822 109.502 111.852
