ncols 434
nrows 31
xllcorner    426078
yllcorner    435724
cellsize     2
NODATA_value -9999
38.568 42.999 44.587 40.739 39.015 39.331 38.752 39.515 38.907 37.267 36.384 35.599 35.421 35.401 35.44 35.455 35.501 35.545 35.538 35.538 35.543 35.534 35.534 35.531 35.523 35.539 35.539 35.542 35.547 35.557 35.54 35.545 35.561 35.546 35.555 35.578 35.574 35.581 35.629 38.036 41.554 42.499 44.678 45.676 45.3 39.477 36.36 40.513 43.003 44.502 43.719 44.171 44.784 46.579 45.911 45.106 43.607 38.672 45.496 44.343 39.293 36.784 36.657 37.899 39.532 40.725 36.849 36.398 36.468 36.497 36.827 40.755 48.434 51.751 54.313 55.148 54.583 55.077 46.808 50.995 47.734 45.576 52.971 47.87 49.342 54.417 51.582 43.831 51.255 52.848 53.418 53.159 48.181 56.437 50.956 57.137 57.546 49.963 43.393 43.039 43.063 43.039 43.022 43.511 46.334 47.644 47.078 46.404 44.485 44.645 44.844 44.973 45.252 45.39 45.425 45.518 45.554 45.567 45.608 46.699 53.358 55.055 55.654 55.15 53.952 49.689 48.183 47.781 47.711 48.072 48.538 54.865 56.999 57.435 55.155 51.454 50.951 51.656 50.154 50.941 53.722 63.607 61.607 58.52 58.865 56.052 52.572 51.323 50.911 50.759 50.865 51.083 51.163 51.401 51.401 51.972 53.975 53.068 54.982 61.077 62.293 62.687 62.848 62.386 61.616 59.745 55.709 58.003 56.14 53.074 52.625 52.97 57.002 55.154 55.133 55.097 55.077 54.972 55.061 55.093 55.197 55.354 59.327 63.116 63.349 59.009 55.239 55.607 55.534 55.694 55.044 54.626 54.549 54.375 54.366 63.276 67.376 71.011 70.28 65.607 71.776 62.596 70.011 64.469 69.423 62.949 64.477 61.742 65.749 61.787 56.484 56.185 56.271 56.268 56.287 56.345 56.316 56.38 63.724 66.261 68.332 63.679 56.405 56.4 56.473 56.485 57.323 62.236 61.307 63.389 64.001 58.512 61.098 56.861 56.716 56.854 60.651 69.064 69.921 67.832 64.422 62.551 62.363 62.334 59.841 57.997 57.651 57.348 65.022 60.994 59.231 58.282 58.38 63.516 73.547 74.087 74.43 74.378 72.885 75.296 74.229 69.406 63.731 60.292 57.467 57.542 57.618 57.772 57.82 65.116 66.613 67.2 66.503 65.127 58.664 59.049 58.262 58.215 59.277 66.689 67.745 68.423 67.89 65.298 59.095 59.22 59.11 60.012 59.608 64.998 62.675 62.371 59.702 59.778 59.905 59.982 60.1 60.278 60.381 60.583 60.649 60.811 60.882 61.03 61.066 61.288 61.433 61.45 61.468 61.567 62.239 61.954 63.461 62.324 63.149 62.908 62.765 62.879 63.01 66.978 64.501 63.212 63.387 63.427 63.47 63.437 63.152 63.261 63.145 71.073 72.531 65.633 64.947 73.671 73.894 74.897 75.556 74.553 69.117 64.015 65.497 66.295 66.001 65.943 65.993 65.986 66.014 66.021 66.098 66.21 66.254 66.383 67.197 66.42 66.427 66.402 66.45 66.498 66.54 66.575 66.637 66.636 66.592 66.682 66.681 66.687 66.701 66.704 66.751 66.733 66.917 69.742 72.501 72.802 73.702 72.941 74.369 75.149 75.425 75.9 75.801 76.03 76.474 76.511 76.959 77.558 77.009 73.381 67.07 67.866 67.738 66.845 66.818 66.835 66.843 66.847 66.835 66.878 66.865 66.945 67.104 66.878 67.568 72.036 73.051 68.184 66.542 67.198 66.672 66.758 66.843 66.545 66.422 66.423 66.303 66.278 66.203 66.143 66.154 66.245 66.278 66.336 66.265 66.255 66.406 66.542 68.72 69.977 68.747 68.552 68.722 68.806 68.794 69.36
38.01 42.146 44.239 42.132 41.391 42.55 42.259 41.002 40.305 37.016 36.162 35.454 35.388 35.399 35.45 35.494 35.516 35.522 35.539 35.526 35.522 35.553 35.553 35.557 35.562 35.521 35.543 35.552 35.567 35.551 35.558 35.547 35.567 35.566 35.551 35.559 35.622 35.608 35.737 40.786 42.52 44.2 45.421 45.202 44.873 44.687 37.18 42.566 42.939 44.626 45.171 44.317 44.519 47.131 48.066 44.191 38.587 36.447 38.734 38.412 34.463 36.825 37.091 37.855 38.894 37.777 37.79 36.363 36.242 36.367 36.73 44.053 50.023 51.874 54.672 55.463 55.261 55.275 54.441 52.118 53.613 52.929 51.926 50.48 40.707 44.371 42.459 45.098 53.377 52.133 55.487 56.626 51.643 56.872 53.019 57.061 60.034 51.706 47.829 42.94 42.965 42.936 42.938 42.955 45.405 46.642 47.07 44.629 44.312 44.539 44.561 45.686 45.521 45.386 45.361 45.431 45.538 45.545 45.622 47.043 52.828 54.299 55.619 55.697 54.793 52.936 47.802 47.675 47.612 47.644 48.043 47.773 53.265 51.902 51.048 57.456 52.247 59.275 52.301 51.075 50.98 53.133 52.681 54.535 55.598 61.165 53.577 50.48 50.501 50.665 50.736 50.777 52.057 51.135 52.091 51.949 54.376 52.293 52.316 59.209 61.035 62.006 62.873 63.069 62.043 62.633 57.649 54.457 53.34 52.469 52.448 52.409 53.272 56.343 55.116 55.083 55.026 55.075 55.081 55.138 55.121 58.094 60.511 58.286 57.68 55.087 54.289 55.755 55.368 61.261 59.326 54.576 54.411 54.258 54.16 54.385 66.416 69.451 69.681 71.37 65.292 70.496 65.287 64.963 67.702 59.64 63.039 64.989 63.587 59.314 55.742 55.771 55.926 55.922 55.993 55.931 56.092 55.922 56.629 56.929 57.283 56.019 56.032 56.017 56.118 56.095 56.083 57.307 58.598 57.383 56.134 59.558 62.258 61.664 56.331 56.196 57.267 65.663 69.107 67.72 63.109 59.358 64.273 64.015 62.532 66.094 58.883 62.69 72.431 72.865 70.886 65.228 64.873 66.795 73.243 74.755 75.108 74.991 75.72 72.853 65.245 72.318 63.111 60.021 57.377 57.431 57.473 57.983 57.744 63.781 66.68 67.243 67.23 66.86 58.448 58.107 58.128 58.235 58.335 64.43 67.223 68.286 68.129 66.909 60.631 58.8 58.945 59.016 59.118 59.339 59.403 60.362 60.556 60.269 60.018 59.995 60.127 60.282 60.41 60.545 60.628 60.736 61.591 61.434 60.976 61.333 61.321 61.305 61.487 61.698 62.003 62.618 63.189 62.546 63.919 66.808 70.883 71.564 71.126 70.496 66.43 63.254 63.434 63.491 63.534 63.438 63.265 62.996 62.968 62.894 62.903 62.935 63.109 67.963 73.401 74.43 75.505 74.878 73.587 64.464 64.859 66.538 66.09 66.083 66.092 66.134 66.14 66.179 66.184 66.298 66.464 66.6 66.665 67.753 66.938 66.565 66.625 67.394 67.505 66.666 66.633 66.649 66.693 66.693 66.708 66.695 66.712 66.763 66.752 66.829 67.221 66.798 66.781 66.756 66.767 66.756 67.042 67.667 69.67 68.207 69.236 73.658 74.501 74.463 74.638 75.365 75.649 70.733 66.936 67.904 67.108 66.821 66.809 66.845 66.817 66.812 66.839 66.852 66.9 66.874 66.703 66.423 71.812 73.9 74.374 73.861 72.332 72.96 66.897 67.468 66.587 67.119 66.711 66.852 66.604 66.429 66.422 66.289 66.298 66.161 66.106 66.129 66.254 66.263 66.237 66.221 66.188 66.369 66.664 66.952 67.258 67.826 68.099 68.122
37.893 39.397 43.188 41.419 42.455 42.397 42.221 41.676 40.755 37.203 35.991 35.497 35.419 35.395 35.476 35.509 35.569 35.572 35.575 35.578 35.57 35.564 35.54 35.602 35.58 35.598 35.594 35.565 35.566 35.581 35.573 35.577 35.583 35.573 35.567 35.59 35.596 35.599 40.397 42.555 43.989 44.115 43.948 44.519 43.783 40.355 43.743 39.444 43.636 46.181 46.241 40.748 44.217 44.528 44.421 39.392 36.951 36.282 36.572 36.981 37.307 37.308 37.522 39.283 36.459 37.754 37.993 36.237 36.196 36.277 41.404 46.802 50.227 52.359 53.347 53.497 54.747 53.591 51.882 50.744 50.652 51.838 53.305 48.376 41.58 42.845 46.47 47.118 53.99 53.945 54.873 57.383 52.591 55.234 53.012 58.991 60.625 59.21 47.253 45.173 42.879 42.859 42.788 42.863 44.02 45 47.331 44.832 44.218 44.355 44.477 45.438 44.859 45.388 45.395 45.409 45.423 45.49 45.682 46.301 47.06 53.191 54.588 55.608 55.454 54.471 49.341 47.601 47.549 47.584 47.639 47.609 47.723 47.956 48.704 54.428 57.585 62.234 51.051 48.786 49.193 48.523 48.882 48.981 50.23 52.214 51.118 50.336 50.448 50.327 50.532 51.827 52.513 51.016 51.302 51.513 52.371 52.874 52.905 52.696 60.218 61.192 62.424 63.023 62.734 62.412 60.805 53.415 52.078 52.213 52.322 52.331 52.343 53.341 54.994 55.052 55.063 55.084 55.061 55.156 57.326 62.892 62.874 54.48 53.617 54.305 54.976 57.945 59.714 63.279 62.294 54.823 54.295 54.233 54.138 54.012 55.377 69.193 70.419 68.593 70.962 69.61 74.316 64.179 65.516 60.344 69.491 67.282 55.909 55.342 55.297 55.396 55.436 55.48 55.533 55.588 55.592 55.645 55.613 55.698 55.67 55.734 55.742 55.802 55.707 55.723 55.771 55.791 55.821 55.795 55.754 56.777 63.668 62.504 55.933 55.876 56.508 62.713 62.789 61.869 60.991 60.645 62.193 62.48 62.077 73.53 73.003 70.925 72.771 76.643 74.985 75.089 63.993 66.864 71.999 74.111 74.729 74.743 74.448 73.001 72.698 73.373 67.344 61.228 57.295 57.209 57.332 58.396 57.842 63.883 66.596 67.274 66.83 65.536 58.867 58.447 57.976 58.175 58.489 64.194 67.176 68.106 67.971 66.115 59.546 58.71 58.799 58.934 59.082 59.238 60.106 59.873 59.617 59.735 59.847 59.937 60.071 60.215 60.349 60.951 61.002 61.023 61.234 61.379 61.082 61.233 61.327 61.627 61.594 61.839 62.056 62.292 62.356 62.668 66.104 70.397 71.244 72.338 72.083 70.874 67.601 63.441 63.412 63.495 63.464 63.445 63.411 63.239 63.057 63.068 63.146 63.12 63.051 62.941 70.486 73.244 69.625 66.272 66.006 65.272 66.143 66.637 66.191 66.252 66.265 66.285 66.235 66.266 66.526 67.247 67.665 66.933 66.863 67.316 67.401 67.485 68.565 68.118 68.458 69.653 68.358 67.106 66.879 66.788 67.816 67.129 67.708 66.799 66.912 66.793 67.01 66.8 66.789 66.794 66.783 66.822 66.823 66.774 66.773 66.757 66.732 66.772 66.736 66.747 68.064 68.037 67.663 68.918 66.99 67.033 66.829 66.817 66.825 66.833 66.803 66.777 66.812 66.867 66.905 66.929 67.226 66.281 69.311 74.945 75.309 75.43 74.69 74.502 73.901 71.939 72.808 66.448 66.776 66.641 66.646 66.632 66.547 66.517 66.449 66.398 66.301 66.244 66.145 66.079 66.088 66.162 66.176 66.21 66.146 66.12 66.293 66.55 66.994 67.126
34.825 35.035 36.72 37.668 40.901 41.514 42.352 41.713 40.486 36.551 35.721 35.524 35.391 35.398 35.432 35.463 35.52 35.533 35.519 35.537 35.543 35.544 35.524 35.517 35.557 35.52 35.553 35.513 35.523 35.577 35.536 35.563 35.611 35.574 35.556 35.582 35.616 38.398 43.132 39.509 43.449 42.878 41.671 45.13 45.148 45.088 43.583 43.965 46.758 45.954 46.259 45.65 44.576 42.868 42.823 38.072 37.238 38.446 37.483 37.448 37.141 35.264 37.355 37.969 37.254 37.577 36.736 36.326 36.089 36.135 39.763 46.804 51.343 52.725 52.724 54.92 50.237 53.377 51.115 45.702 46.829 52.335 52.591 49.49 44.721 48.603 48.973 53.847 55.251 55.098 54.199 58.242 58.129 59.794 56.508 60.519 60.095 59.286 49.58 47.458 42.905 42.815 42.694 42.739 43.211 46.332 47.087 45.484 45.493 44.278 44.313 44.678 44.981 44.845 46.876 48.84 46.221 45.405 45.469 45.742 45.563 49.065 54.372 55.076 55.819 56.046 54.637 48.446 47.842 47.719 47.575 47.616 47.652 47.729 48.094 49.679 57.345 52.817 48.191 49.946 49.606 48.498 48.384 49.676 50.173 50.038 51.095 50.671 49.985 51.271 50.271 50.221 50.941 50.873 51.269 51.367 55.248 53.009 52.201 51.77 56.473 61.684 62.1 62.612 61.908 56.328 52.915 51.828 51.889 52.057 52.128 52.21 52.186 52.246 55.2 55.101 55.038 56.278 55.278 58.965 59.698 55.161 55.036 53.413 54.916 54.619 57.945 61.881 63.546 63.869 64.19 63.311 54.547 54.092 54.082 54.001 54.043 59.983 68.226 66.076 71.496 73.495 59.841 70.928 72.801 72.964 67.979 60.704 54.931 54.898 54.948 54.985 55.042 55.211 55.181 55.201 55.977 55.309 55.327 55.272 55.305 55.331 55.443 55.416 55.441 55.469 55.424 55.449 55.477 55.503 55.554 56.593 59.641 55.603 55.654 55.688 55.752 55.771 57.03 56.726 55.783 60.697 64.771 67.677 76.589 79.027 75.43 76.675 75.805 72.275 68.693 71.671 58.772 67.534 69.513 72.255 72.735 74.922 75.507 71.098 71.825 70.16 66.33 65.024 59.122 57.262 57.131 57.133 57.212 59.567 66.981 67.747 66.953 65.877 63.049 59.015 57.849 57.913 58.257 62.624 62.971 59.25 58.413 58.94 58.658 58.769 58.9 58.995 59.103 59.286 59.393 59.488 59.597 59.7 59.821 59.91 60.033 60.101 60.216 60.758 60.701 60.724 61.318 61.085 61.549 61.544 61.606 61.904 62.275 62.114 62.268 62.626 62.616 62.99 63.137 69.817 70.864 71.988 72.391 71.172 69.786 64.082 63.395 63.502 63.435 63.392 63.355 63.147 63.927 63.235 63.198 63.247 63.137 63.026 62.949 65.037 65.498 66.23 66.636 67.618 66.918 66.689 66.364 66.402 66.414 66.421 66.332 66.438 67.168 66.965 66.853 66.939 66.934 66.948 67.109 67.025 67.576 67.613 68.766 69.618 67.67 68.831 68.502 67.337 67.461 67.445 67.043 67.417 67.816 67.282 67.186 67.334 67.295 67.833 66.882 66.933 66.876 66.818 66.816 66.812 66.787 66.771 66.788 67.102 66.769 66.773 66.767 67.163 66.959 66.893 66.909 67.097 67.029 66.862 67.165 66.847 66.85 66.874 66.881 66.941 66.876 67.606 74.595 74.477 75.172 76.488 76.291 75.925 75.322 74.545 73.201 66.353 66.33 66.438 66.946 66.824 66.737 66.659 66.478 66.483 66.524 66.546 66.466 66.323 66.218 66.046 66.049 66.016 66.122 66.121 66.102 66.089 66.07 66.222
35.151 33.918 34.526 37.017 38.934 40.18 40.136 40.357 38.107 36.139 35.579 35.485 35.384 35.382 35.369 35.403 35.473 35.5 35.508 35.442 35.448 35.382 35.469 35.487 35.47 35.502 35.48 35.465 35.449 35.468 35.499 35.516 35.535 35.541 35.554 35.528 35.553 35.799 42.138 45.201 43.881 36.287 43.526 46.449 48.584 49.53 45.51 45.274 47.556 45.127 46.267 45.368 44.3 42.759 41.544 37.99 37.162 37.468 37.804 37.547 37.648 38.75 38.468 37.675 36.351 36.603 35.879 36.123 35.979 36.289 42.599 47.07 49.458 52.185 53.78 54.108 52.982 52.761 48.903 40.465 39.109 42.39 41.18 41.297 39.96 40.626 47.063 54.962 54.326 55.815 55.458 55.455 58.491 59.276 59.382 60.389 58.73 57.836 54.788 51.673 44.701 42.706 42.668 42.638 43.14 44.748 48.169 49.008 47.173 44.116 44.163 44.462 45.009 47.858 49.477 49.92 48.978 46.095 45.439 45.465 46.132 45.833 53.107 54.808 56.188 55.707 54.911 52.02 48.628 47.515 47.519 47.569 47.617 48.061 47.988 49.777 50.368 50.342 48.728 48.17 48.277 48.444 48.336 48.389 49.411 48.577 49.538 50.074 50.068 51.998 50.945 50.457 56.526 52.599 51.204 52.235 51.625 53.297 51.785 53.029 52.833 54.11 62.438 62.944 58.419 51.349 51.429 51.562 51.719 51.883 51.953 52.064 52.074 52.134 52.168 55.839 55.17 56.576 58.125 64.121 62.004 52.967 53.066 54.074 55.822 58.585 61.995 63.398 63.418 63.537 63.44 62.829 56.966 54.041 53.94 53.901 53.822 53.806 53.958 55.544 61.941 73.091 70.669 68.273 72.799 72.484 71.038 68.728 55.601 54.489 54.542 54.662 54.739 54.689 54.78 54.839 55.069 55.524 55.198 54.971 55.032 55.045 55.076 55.062 55.171 55.173 55.1 55.14 55.185 55.288 55.292 55.394 55.372 56.152 55.427 55.503 55.515 55.56 55.595 55.444 58.733 62.621 67.849 73.612 78.495 79.334 79.15 77.456 76.014 70.873 64.364 58.332 58.602 65.457 66.331 68.339 65.505 73.11 74.61 74.128 73.392 72.156 68.379 66.536 66.983 58.128 56.889 56.996 56.981 58.981 65.632 67.052 67.134 66.143 63.803 57.649 57.683 57.82 57.889 57.947 58.079 58.215 59.324 59.032 58.699 58.735 58.903 59.06 59.114 59.269 59.521 59.478 60.399 60.294 59.749 59.832 59.996 60.174 60.409 62.759 63.554 61.562 60.981 61.252 61.658 64.461 66.372 63.588 62.347 62.559 62.419 63.405 62.996 63.502 65.972 69.332 69.893 71.636 72.45 71.624 70.2 65.138 63.266 63.399 63.301 63.449 63.2 63.474 64.207 63.252 63.683 63.96 64.029 64.415 64.496 64.476 69.209 66.316 66.918 66.816 67.129 66.531 66.562 66.53 66.546 66.48 66.473 66.96 66.905 66.932 67.002 67.06 67.107 68.739 70.954 70.783 68.203 67.279 67.273 69.687 69.864 68.555 67.378 67.306 67.45 67.605 67.831 67.874 67.973 67.977 67.906 68.048 67.738 67.596 67.691 67.614 67.772 67.349 67.204 67.365 67.505 66.884 66.827 66.928 66.817 66.845 66.815 67.151 67.029 66.904 66.985 67.011 67.349 67.522 67.937 67.051 66.895 67.151 67.024 67.408 66.803 68.005 74.693 75.005 75.562 76.017 76.395 76.272 75.156 74.228 71.036 66.499 66.359 66.302 66.958 66.777 66.829 67.144 66.922 66.441 66.392 66.484 66.54 66.539 66.604 66.432 66.302 66.125 66.018 65.982 66.003 66.055 66.042 66.088
34.723 34.567 35.775 37.261 39.363 39.833 39.631 37.512 36.562 35.831 35.545 35.461 35.423 35.417 35.443 35.457 35.458 35.49 35.48 35.479 35.441 35.448 35.465 35.463 35.464 35.476 35.451 35.434 35.433 35.45 35.494 35.468 35.492 35.524 35.487 35.542 35.542 35.598 39.033 40.879 43.017 37.444 47.081 51.038 50.647 50.065 48.297 46.869 47.531 45.445 45.78 45.033 44.157 42.148 39.829 36.56 36.959 36.701 37.581 37.956 37.831 40.212 42.18 39.295 36.289 35.771 35.925 35.829 36.01 36.128 40.224 45.128 48.483 51.95 52.911 52.397 48.279 44.607 39.134 38.731 39.034 39.252 39.445 39.588 39.811 40.41 53.443 54.945 55.545 52.607 54.5 53.172 51.843 51.787 56.944 59.512 56.384 56.277 54.505 53.523 46.243 42.604 42.614 42.571 42.648 46.628 47.818 48.937 45.556 43.992 44.033 44.026 44.502 48.159 49.103 50.664 50.203 47.594 45.398 45.429 46.314 46.226 45.961 55.293 54.822 55.692 55.343 54.422 48.764 47.494 47.442 47.515 48.671 48.609 47.31 47.421 50.303 50.571 50.056 48.161 47.98 47.895 47.987 48.812 48.717 48.448 48.591 49.67 54.031 55.441 51.423 54.871 61.047 60.871 54.643 51.043 51.173 51.701 52.454 52.049 52.476 52.418 58.854 54.84 51.024 51.033 51.335 51.444 51.592 51.784 51.888 51.955 52.014 52.75 52.579 52.179 57.581 57.874 55.079 55.609 53.711 53.367 54.604 55.484 60.206 62.296 62.838 63.244 63.353 63.175 62.666 59.51 55.219 54.052 53.801 53.842 53.821 53.795 53.793 54.551 61.537 68.22 70.987 69.796 70.569 71.353 64.294 65.8 59.558 54.292 54.203 54.306 54.38 54.401 54.468 54.609 54.718 54.663 54.668 54.948 54.771 54.827 54.878 54.824 54.734 54.811 54.867 54.898 54.928 55.052 55.093 55.103 55.191 55.239 55.228 55.247 55.32 55.394 55.346 55.261 58.94 63.864 71.767 75.637 77.334 78.711 79.249 69.651 78.64 66.229 63.213 56.454 65.397 64.31 63.533 59.956 68.339 68.716 72.008 72.403 72.363 71.344 70.57 70.966 69.939 67.318 58.886 56.878 56.838 57.039 64.923 66.436 67.12 61.542 58.182 57.443 57.573 57.687 57.818 57.929 58.096 58.238 58.398 58.491 58.61 58.728 58.869 58.978 59.096 60.309 60.427 59.464 59.809 59.845 60.784 61.009 60.128 61.42 61.23 61.466 61.691 61.87 65.722 66.27 68.196 69.416 70.026 67.446 62.702 62.592 62.683 62.928 62.97 63.388 63.299 68.79 70.272 71.368 72.557 71.852 70.749 66.213 63.321 63.35 64.588 65.009 65.153 64.08 64.87 64.571 65.216 64.439 64.474 64.361 64.786 71.638 72.306 70.728 67.791 66.917 67.317 66.623 66.641 66.61 66.607 66.546 67.267 66.95 66.994 67.045 67.083 67.137 67.137 69.489 71.2 72.272 70.917 68.514 70.083 72.05 71.452 70.737 70.43 67.439 67.522 67.707 67.923 67.939 67.923 67.958 68.094 68.132 68.121 68.1 68.065 68.192 68.095 68.241 68.036 68.292 68.084 68.55 67.947 68.075 67.64 67.981 68.093 68.492 67.716 67.179 67.123 67.07 67.287 67.228 67.506 66.961 67.798 67.074 66.96 67.764 66.412 67.193 73.523 74.496 74.703 74.947 75.276 75.312 75.172 74.643 67.488 66.315 66.611 66.455 66.776 66.825 66.817 67.168 66.974 67.135 66.776 68.713 66.554 66.726 67.76 66.588 66.591 66.501 66.381 66.31 66.125 66.012 65.953 65.939
34.515 34.17 36.061 37.382 40.203 41.826 40.251 36.978 36.201 35.584 35.494 35.512 35.498 35.493 35.452 35.516 35.497 35.517 35.47 35.514 35.464 35.498 35.452 35.494 35.471 35.488 35.474 35.5 35.475 35.485 35.436 35.463 35.416 35.454 35.472 35.469 35.512 35.856 35.683 35.501 39.715 43.358 48.497 50.718 51.208 51.365 49.236 48.496 48.44 47.109 45.821 44.534 42.587 41.345 37.447 36.594 36.877 36.46 37.462 38.195 38.602 41.573 44.309 40.815 36.143 35.86 35.867 35.702 35.945 36.278 40.349 43.932 46.582 49.297 51.002 51.397 50.138 41.171 38.391 38.737 38.974 39.126 39.345 39.476 39.766 40.226 48.743 53.069 53.392 53.398 53.27 51.054 46.36 45.74 48.968 54.995 54.419 56.098 52.705 44.186 42.487 42.576 42.514 42.519 42.52 44.885 46.635 46.222 44.647 43.947 43.989 43.907 44.255 44.261 47.532 49.35 48.731 45.58 45.271 45.366 45.38 45.564 45.486 50.55 54.544 54.818 55.711 51.14 47.57 47.501 47.606 49.078 48.121 47.822 47.322 47.269 47.87 48.38 47.827 47.581 47.561 47.645 47.835 47.915 48.927 48.904 48.465 50.767 50.759 52.057 51.94 51.85 55.253 58.747 55.323 50.623 51.205 52.003 51.529 50.691 51.054 52.09 50.629 50.665 50.754 50.914 51.105 51.272 51.466 51.63 51.778 52.181 52.959 53.011 52.322 52.225 52.112 52.945 52.825 52.141 54.034 53.145 58.226 61.086 61.937 62.518 63.103 62.716 63.149 62.333 56.85 54.926 53.729 53.795 53.705 53.728 53.777 53.747 53.695 53.62 57.412 56.819 65.52 68.595 68.91 69.624 69.93 63.502 56.993 53.898 53.948 53.999 54.097 54.111 54.191 54.308 54.323 54.419 54.404 54.418 54.483 54.597 54.581 55.175 54.664 54.626 54.706 54.734 54.81 54.855 54.902 54.855 54.948 55.023 55.083 55.085 55.073 55.132 55.163 55.153 57.863 63.518 73.827 76.246 73.221 78.857 79.144 78.157 75.363 73.01 68.953 62.093 68.769 63.603 64.569 67.535 70.591 69.611 71.622 72.882 70.658 73.047 70.962 71.57 70.245 67.378 63.094 56.766 56.699 56.808 59.265 58.063 57.035 57.23 57.255 57.414 57.541 57.729 57.855 57.987 58.076 58.281 58.396 58.503 58.601 58.737 58.785 58.875 58.993 59.299 59.366 59.489 61.079 61.779 61.582 60.538 60.326 61.197 61.317 64.715 65.644 67.126 69.702 71.135 72.162 71.434 71.335 71.533 63.703 62.735 62.858 63.076 63.932 63.364 63.5 64.431 69.695 71.504 72.218 71.914 71.472 68.038 63.922 64.19 64.563 65.04 65.114 65.31 65.229 65.252 65.204 64.283 64.278 68.973 72.777 74.272 73.509 72.328 67.611 66.999 67.087 66.759 66.816 66.719 66.705 66.723 67.088 67.024 67.103 67.144 67.212 67.22 67.212 70.315 71.695 72.052 70.472 68.87 69.807 71.815 71.942 72.132 70.74 67.553 67.779 67.969 68.023 67.958 67.928 67.948 67.957 68.053 68.056 68.054 68.057 68.074 67.991 68.008 68.019 68.211 68.035 68.047 68.086 68.218 68.248 68.349 68.57 68.239 68.457 68.089 68.096 68.022 67.704 67.649 68.644 67.458 68.627 67.161 67.088 67.387 66.363 67.436 72.969 73.204 73.571 73.824 74.112 74.234 74.495 73.638 68.205 66.889 66.486 66.454 66.795 66.965 66.904 67.044 67.189 67.213 66.961 69.498 71.401 73.22 68.922 68.002 66.856 66.548 66.595 66.543 66.49 66.529 66.196 65.974
36.284 35.284 37.262 36.242 39.527 41.223 38.413 36.47 35.743 35.422 35.636 36.574 35.698 36.471 38.744 35.695 36.402 38.026 36.415 38.045 36.383 35.622 35.515 35.636 35.618 35.596 35.479 35.546 35.686 36.297 38.014 35.513 35.459 35.449 35.411 35.442 38.694 36.228 37.624 40.022 40.906 42.259 47.579 49.937 50.657 50.566 49.699 49.206 49.075 47.746 47.039 45.219 43.358 41.133 36.804 35.696 36.018 36.008 36.634 37.683 39.33 42.538 42.578 38.894 35.883 35.84 35.878 35.967 35.978 36.312 36.435 40.194 41.93 44.401 48.347 48.431 45.398 39.156 38.451 38.702 38.965 39.076 39.265 39.436 39.618 41.397 42.804 49.585 50.664 50.664 44.641 45.82 44.957 45.996 48.665 51.668 52.006 48.205 51.889 43.193 42.404 42.429 42.453 42.438 42.381 43.105 45.582 45.451 45.175 44.035 43.93 43.923 44.055 47.806 48.548 48.899 49.437 47.837 45.206 45.274 45.342 45.389 45.4 45.354 50.911 53.772 49.069 48.83 49.109 50.278 49.45 47.092 47.118 47.359 47.127 47.012 47.12 47.231 47.194 47.224 47.377 47.58 47.613 47.829 48.086 48.894 52.983 55.335 55.528 52.008 51.337 50.085 50.046 50.282 50.607 50.611 54.962 55.89 50.746 51.139 50.523 50.341 50.199 50.394 50.553 50.772 50.94 51.081 51.338 51.524 51.72 51.829 52.307 52.146 52.058 51.945 52.469 52.019 52.484 52.668 52.983 59.994 61.977 62.473 62.642 62.509 62.954 62.478 61.046 55.093 53.684 53.285 53.575 53.461 53.438 53.595 53.673 53.699 53.654 53.651 53.721 58.183 63.691 64.312 64.707 64.759 65.313 56.388 53.646 53.837 53.748 53.783 53.855 53.898 53.924 54.049 54.07 54.135 54.129 54.224 54.211 54.371 54.396 54.512 54.497 54.434 54.488 54.581 54.64 54.674 54.704 54.699 54.824 54.769 54.885 54.9 54.922 54.993 55.016 55.129 62.854 64.325 71.536 68.686 64.885 78.106 78.068 77.519 76.929 69.38 71.918 68.348 70.578 70.957 67.883 66.353 71.094 70.865 71.008 65.428 71.988 73.924 73.748 72.463 70.164 67.289 57.257 56.478 56.555 56.664 57.203 56.865 57.015 57.18 57.334 57.448 57.617 57.723 57.862 57.975 58.553 58.517 59.274 59.526 58.552 58.696 58.79 59.012 59.218 59.879 59.932 59.741 60.098 60.369 61.886 65.306 66.257 65.932 69.734 71.148 70.672 70.68 70.874 71.653 71.845 72.346 71.74 71.493 63.796 62.98 63.06 63.281 63.936 63.654 63.957 63.393 68.611 71.704 72.982 73.695 72.475 70.988 64.737 64.683 65.036 65.232 65.427 66.303 65.474 65.443 65.579 64.279 64.22 70.875 74.498 75.213 74.348 72.129 67.036 66.991 66.954 66.93 66.896 66.86 66.83 67.032 67.226 67.086 67.164 67.535 67.62 67.312 67.287 70.542 71.653 72.095 68.494 68.027 70.097 70.621 72.167 71.116 69.298 67.588 67.944 68.115 68.071 67.941 67.951 67.954 67.944 67.966 67.936 67.935 67.983 67.994 67.927 67.939 67.933 67.971 67.952 67.995 67.988 68.092 68.168 68.256 68.386 68.316 69.291 68.82 68.587 68.638 68.248 68.362 68.446 68.584 68.971 68.259 67.83 68.72 67.917 68.26 67.524 68.865 68.328 69.299 71.389 72.943 73.27 73.163 67.08 67.144 66.511 67.225 67.239 67.504 67.299 67.115 67.317 67.487 67.264 68.702 71.775 72.042 71.005 67.886 68.094 68.56 67.439 67.262 66.804 66.788 66.535 66.504
36.899 38.229 36.418 36.772 38.237 38.927 37.268 36.089 35.495 35.428 35.752 40.597 40.665 40.654 40.731 40.569 39.948 40.611 39.557 40.565 40.015 40.155 39.979 39.784 40.395 39.648 40.037 40.123 40.518 40.005 39.729 38.306 35.484 35.384 35.357 35.514 44.232 39.814 43.183 45.034 44.962 46.471 47.754 48.018 49.255 50.782 50.996 49.957 49.869 49 47.065 43.524 44.154 41.967 39.679 35.596 35.91 35.942 35.779 36.713 39.692 42.361 41.252 36.886 35.837 35.844 37.754 36.272 36.342 36.554 36.533 39.55 46.549 46.247 41.914 39.95 38.894 38.155 38.47 38.639 38.802 38.997 39.163 39.28 39.524 39.73 39.827 39.919 40.968 40.279 40.867 47.895 45.981 48.43 50.386 49.345 45.998 52.106 51.115 45.178 42.355 42.387 42.412 42.358 42.362 42.428 42.752 43.724 42.801 43.874 46.868 47.233 48.707 49.027 49.67 49.991 50.419 50.863 49.729 45.268 45.256 45.315 45.352 45.384 46.768 47.825 46.369 48.575 49.506 49.94 49.563 46.503 46.686 47.152 46.662 46.824 46.696 46.83 46.941 47.101 47.681 48.348 47.706 51.729 53.253 54.307 55.61 56.03 56.659 51.628 51.894 50.544 51.423 53.323 51.996 51.113 54.065 59.392 54.579 50.238 50.078 49.875 50.01 50.236 50.426 50.636 50.811 51 51.62 52.283 51.628 51.616 51.872 52.603 53.019 52.259 51.559 52.305 52.594 57.266 60.788 62.467 62.159 62.397 62.31 61.645 61.219 59.06 54.787 53.368 53.353 53.07 54.006 54.081 53.35 53.457 53.595 53.596 53.629 53.619 53.573 53.683 57.613 59.261 64.385 61.746 54.919 60.11 61.509 61.099 55.227 60.901 58.251 64.958 54.15 55.489 53.866 53.886 54.171 53.978 53.963 54.085 54.193 54.161 54.253 54.285 54.301 54.644 55.684 54.58 54.45 54.519 54.583 54.594 54.652 54.71 54.832 54.866 54.87 59.465 65.348 66.547 66.516 67.771 75.003 77.088 75.965 75.478 72.921 57.759 62.003 63.267 61.185 72.191 73.489 67.08 71.693 72.195 71.894 69.395 71.739 73.409 73.214 71.759 70.034 59.844 56.33 56.457 56.568 56.681 56.828 56.93 57.092 57.168 57.285 57.427 57.554 57.736 57.837 58.462 59.157 58.417 58.659 58.59 61.913 63.691 61.196 59.212 59.321 61.402 60.949 63.145 65.288 67.061 66.897 68.896 69.665 70.085 71.025 71.028 73.009 71.508 71.397 71.72 71.375 71.88 70.69 70.146 66.042 63.116 63.312 63.46 63.587 63.974 63.943 63.757 69.289 71.969 73.022 73.695 72.85 71.404 65.55 64.56 65.385 65.583 65.647 65.842 65.664 65.566 65.885 64.303 68.905 73.654 74.926 74.906 74.015 69.382 66.961 67.421 67.046 67.005 66.99 66.926 66.931 67.064 67.423 67.2 67.357 70.077 70.344 69.154 67.827 67.973 68.593 71.142 67.852 67.453 67.475 67.711 68.376 68.75 68.85 67.769 68.145 68.125 68.009 67.986 67.995 67.96 67.971 67.939 67.978 67.975 67.969 67.982 68.022 67.975 67.961 67.952 67.938 68.005 68.053 68.04 68.142 68.194 68.297 68.962 68.608 68.311 68.534 68.345 68.465 68.757 68.272 68.365 68.491 68.36 68.463 68.508 68.56 68.628 68.586 68.956 69.644 69.379 68.229 68.185 68.139 69.001 67.427 67.923 67.642 67.321 67.81 68.005 67.925 67.583 67.794 67.61 67.429 67.404 68.739 68.399 67.986 68.24 68.294 69.723 70.062 67.197 69.883 68.067 66.948 66.582
39.308 38.914 35.773 38.172 39.871 39.281 37.427 35.61 35.39 35.473 35.745 41.206 41.315 41.296 41.234 41.233 41.249 41.267 41.101 40.976 41.085 41.056 41.048 41.201 41.037 41.124 41.03 41.127 40.996 41.08 41.015 38.131 35.417 35.342 35.31 41.753 48.127 47.323 45.959 47.309 47.945 49.811 44.56 48.136 48.165 50.901 51.533 50.245 49.143 49.398 47.591 45.925 44.204 38.359 35.479 35.568 35.868 36.336 36.018 36.032 38.22 40.535 38.874 35.563 35.469 36.418 35.749 41.025 38.396 38.777 41.506 44.304 48.585 43.88 48.306 41.313 38.567 38.084 38.355 38.419 38.59 38.815 38.918 39.003 39.266 39.605 39.818 39.86 39.93 40.037 40.907 41.942 48.108 50.138 50.387 48.964 50.788 50.705 51.891 47.678 42.335 42.316 42.353 42.267 42.27 42.359 42.398 42.739 46.583 48.381 48.84 49.346 49.7 50.259 50.752 51.107 51.431 51.543 49.488 46.108 45.257 45.236 45.312 45.355 46.128 49.121 49.09 48.168 46.48 47.098 46.263 46.304 46.384 46.335 46.332 46.425 46.55 46.699 46.8 47.005 47.184 47.769 51.971 54.524 55.224 55.666 56.93 56.943 57.015 56.634 52.448 52.422 52.787 54.549 50.324 49.682 59.802 61.549 54.213 49.448 49.547 49.692 49.924 50.145 50.299 50.534 50.956 52.035 51.439 51.444 51.671 51.635 51.875 52.04 51.358 51.397 51.508 53.986 52.275 60.486 61.535 62.033 62.186 62.02 62.114 60.716 56.17 52.98 53.09 52.564 52.668 52.951 53.046 53.135 53.202 53.297 53.448 53.488 53.607 53.573 53.555 53.608 54.676 63.854 62.285 65.163 59.04 64.457 65.35 65.472 62.332 67.433 68.302 65.421 65.938 63.906 55.815 59.116 56.464 61.062 54.343 53.929 53.975 54.029 54.363 54.136 55.076 59.176 60.123 55.184 54.284 54.307 54.295 54.382 54.4 54.529 54.631 54.622 54.578 60.558 65.152 65.113 66.768 69.092 70.695 74.715 74.843 74.785 66.643 55.861 58.022 59.817 64.836 72.217 73.801 73.254 66.913 72.946 71.619 70.278 71.659 72.221 71.53 70.684 61.805 56.21 56.373 56.487 56.593 56.646 56.794 56.937 57.004 57.168 57.255 57.407 57.536 57.657 57.84 58.077 58.144 58.33 62.231 60.998 62.584 63.29 60.177 60.031 63.207 65.908 67.247 68.883 69.304 69.885 70.032 70.723 70.684 70.96 71.528 71.312 72.018 70.68 70.344 70.183 70.211 69.809 69.314 65.103 63.771 63.393 63.534 63.64 64.339 64.588 64.33 64.169 67.512 71.597 72.756 73.814 73.115 71.924 66.462 64.508 65.527 66.111 66.546 65.681 65.775 65.743 65.618 64.364 70.986 74.249 75.103 74.825 74.175 70.838 67.461 68.114 67.197 67.103 67.061 67.059 67.108 67.26 67.941 67.523 67.51 70.491 71.722 71.878 69.848 67.399 67.339 67.407 67.41 67.587 67.663 67.802 67.941 67.923 67.961 68.067 68.087 68.036 67.991 68.019 67.958 68.014 68.038 68.01 67.986 68.08 68.077 68.111 68.184 68.119 68.099 68.099 68.125 68.096 68.16 68.096 68.152 68.207 68.253 68.274 68.266 69.016 68.554 68.429 71.836 71.433 70.725 69.242 68.87 68.373 68.384 68.422 68.415 68.496 68.379 68.301 68.347 70.3 69.893 69.944 69.091 68.439 68.184 69.151 67.975 68.825 69.023 68.242 68.498 68.471 68.071 68.231 67.801 68.109 68.576 68.504 68.114 68.202 68.077 68.308 67.959 75.241 78.103 77.054 74.506 67.694
40.187 37.664 36.63 39.349 40.353 39.71 38.571 35.389 35.35 35.482 35.592 40.638 41.84 41.868 41.816 41.759 41.792 41.791 41.773 41.699 41.753 41.719 41.707 41.644 41.691 41.804 41.656 41.775 41.58 41.717 41.722 38.437 35.425 35.387 35.481 43.92 47.57 47.833 47.963 50.352 51.591 51.704 51.946 48.925 47.731 50.294 50.638 50.036 50.099 48.905 46.979 44.858 43.889 37.702 36.743 36.311 37.201 36.529 35.372 35.05 36.446 38.143 36.865 35.162 34.971 39.004 40.355 42.009 40.477 42.634 45.157 47.386 48.761 51.215 48.574 40.113 42.582 38.264 38.154 38.279 38.45 38.571 38.755 38.888 39.078 39.242 39.648 39.738 39.807 40.029 40.817 42.681 46.487 48.915 48.52 46.681 49.855 50.347 50.431 52.246 42.662 42.509 42.25 42.198 42.21 42.212 46.239 47.904 49.068 49.468 50.034 50.419 50.815 51.269 51.56 51.225 47.528 50.542 50.303 49.353 45.487 45.179 45.256 45.906 46.658 48.428 48.639 47.088 46.15 46.228 46.259 45.998 46.031 46.076 46.142 46.272 46.459 46.545 46.666 47.182 52.693 54.094 54.66 55.351 56.577 56.72 56.63 56.587 56.085 55.715 55.172 52.462 52.615 52.159 51.106 49.484 50.64 57.351 49.865 49.199 49.415 49.544 49.838 49.95 50.253 53.956 52.397 50.829 51.815 51.2 51.498 51.601 51.656 51.599 51.401 52.9 55.918 59.196 59.367 55.27 61.575 61.694 61.458 61.815 57.648 54.422 52.498 52.057 52.336 52.721 53.613 52.776 52.764 52.924 53.041 53.258 53.353 53.484 53.527 53.535 53.56 53.494 59.233 65.002 66.274 64.981 56.112 64.052 65.274 66.362 65.513 58.649 68.858 68.588 69.704 67.714 59.17 62.855 68.879 67.235 59.448 60.16 53.945 58.579 58.506 59.799 64.763 64.599 64.089 59.141 62.115 56.11 54.155 54.184 54.536 54.41 54.455 55.494 58.989 64.891 66.864 70.539 69.896 72.358 74.06 74.791 74.252 73.764 65.504 57.082 56.396 57.368 61.516 73.758 73.976 73.83 71.908 70.193 72.138 71.746 68.193 69.936 70.042 68.206 56.309 56.252 56.38 56.493 56.559 56.63 56.748 56.923 57.045 57.153 57.264 57.452 57.668 57.83 58.094 58.191 58.853 58.948 60.17 60.355 59.812 60.539 59.899 64.472 68.302 69.954 70.051 70.101 70.132 71.072 71.075 71.123 70.807 70.396 70.415 70.838 70.331 69.594 68.728 65.383 64.382 66.412 66.136 63.541 64.889 63.727 63.811 63.864 64.145 64.499 64.458 64.685 69.365 71.083 72.441 73.575 73.426 72.281 68.247 64.661 65.503 65.84 66.458 66.045 65.866 65.933 65.937 66.157 68.947 74.805 75.045 74.125 70.224 69.006 67.865 67.833 67.402 67.217 67.197 67.179 67.416 67.499 68.453 67.412 68.804 70.921 71.887 71.514 68.361 69.185 67.503 67.613 67.575 68.649 67.993 68.08 68.116 68.121 68.045 67.981 68.042 68.016 68.011 67.983 68.063 68.097 68.112 68.148 68.289 68.33 68.402 68.418 68.454 68.458 68.461 68.465 68.45 68.283 68.313 68.243 68.17 68.198 68.267 68.294 68.306 68.427 68.458 68.432 72.562 72.569 72.418 72.276 71.365 69.794 68.529 68.845 68.521 68.412 68.371 68.367 68.397 69.671 68.926 71.82 71.542 71.069 71.352 68.877 68.288 68.812 70.518 70.215 69.838 70.432 70.046 68.585 68.393 68.864 68.949 68.979 68.8 70.879 69.613 72.136 79.548 83 80.807 79.734 77.59 73.829
41.354 37.627 39.152 39.441 41.471 40.956 35.786 35.316 35.387 35.49 35.62 42.418 42.372 42.455 42.439 42.361 42.471 42.39 42.37 42.406 42.24 42.218 42.338 42.317 42.339 42.333 42.272 42.284 42.281 42.288 42.175 41.16 35.518 35.364 36.472 45.73 47.048 46.088 46.927 50.345 51.115 52.046 52.35 50.734 47.662 47.486 48.366 48.302 49.694 48.15 45.814 43.522 41.892 36.473 37.698 38.61 38.512 37.052 35.521 35.101 34.204 34.184 34.279 34.954 34.914 41.727 39.749 44.469 43.523 48.141 42.629 49.493 50.492 51.302 49.848 47.836 47.337 41.685 38.104 38.164 38.278 38.509 39.892 38.963 39.01 39.184 39.289 39.537 39.63 40.142 40.728 40.963 43.782 44.288 45.587 42.386 50.695 51.947 52.805 52.795 45.407 43.163 42.159 42.164 42.069 42.163 47.656 49.597 50.043 50.415 51.03 51.531 51.509 51.402 50.86 50.453 50.014 49.538 49.247 49.651 47.302 45.135 45.298 45.619 47.311 47.943 46.684 45.774 45.687 45.697 45.658 45.703 45.845 45.889 45.994 46.148 46.323 46.94 51.176 53.579 54.312 54.841 55.75 55.778 56.622 56.143 55.875 56.231 55.215 54.496 50.151 48.921 49.51 52.181 52.117 48.998 48.737 48.771 48.891 49.065 49.232 49.403 49.634 49.815 50.892 51.874 52.423 51.897 50.843 51.083 51.35 51.275 51.329 51.341 53.81 57.011 59.856 60.665 61.133 57.479 54.04 61.562 61.371 55.656 52.905 52.243 52.083 51.834 52.792 52.082 52.282 52.366 52.63 52.84 52.95 53.418 53.336 53.387 53.438 53.527 53.515 53.606 62.161 65.545 60.883 63.786 59.659 61.697 64.5 65.677 58.467 67.141 68.181 68.034 68.758 69.081 65.773 68.338 71.343 72.237 61.52 62.085 64.747 68.217 63.577 70.324 59.197 66.369 68.183 64.773 59.568 61.07 64.612 60.013 55.783 54.107 54.325 57.571 61.296 66.839 68.18 73.13 76.059 76.349 73.647 73.243 72.665 68.756 58.066 55.691 55.541 56.093 68.074 72.056 72.218 71.69 71.356 71.56 71.697 68.14 66.59 65.746 64.809 56.985 56.124 56.204 56.311 56.468 56.511 57.495 56.947 56.929 57.07 57.934 57.523 58.426 58.62 59.134 58.539 58.418 59.206 60.917 62.668 64.666 66.111 66.598 60.353 61.984 69.736 70.128 70.777 70.544 70.669 70.477 70.261 71.107 69.435 68.973 68.874 63.965 66.432 65.975 63.134 63.24 63.334 64.984 64.548 63.276 64.338 64.202 63.967 64.145 64.345 65.524 64.514 64.752 68.286 70.828 72.153 73.201 73.575 72.491 70.804 65.525 64.779 66.203 66.502 66.198 66.007 66.092 66.104 66.194 69.574 72.83 73.39 73.307 67.024 67.018 67.501 67.649 67.389 67.289 67.28 67.277 67.469 67.619 67.924 67.576 69.405 71.228 72.303 70.921 68.121 69.18 67.699 67.806 67.979 69.263 68.233 68.122 68.073 67.977 68.006 68.003 68.038 68.119 68.133 68.287 68.462 68.573 68.561 68.465 68.553 68.641 68.707 68.656 68.708 70.9 69.061 68.823 68.701 68.548 68.479 68.345 68.298 68.264 68.282 68.305 68.312 68.354 68.457 68.45 71.75 72.15 72.189 72.33 72.204 71.91 71.587 71.04 69.768 68.443 68.408 68.491 68.725 68.659 70.58 72.644 72.517 72.503 72.274 70.157 68.325 68.513 71.37 68.834 68.402 68.472 68.592 68.564 70.015 70.301 68.405 68.564 71.073 73.466 75.452 75.648 80.224 81.888 79.551 79.543 76.739 74.257
40.371 39.122 42.737 45.007 43.868 42.336 35.831 35.358 35.414 35.451 35.624 42.853 42.85 42.776 42.827 42.817 42.795 42.877 42.847 42.79 42.875 42.875 42.765 42.811 42.793 42.851 42.765 42.747 42.796 42.845 42.744 37.707 35.453 35.542 44.398 48.096 48.564 47.632 47.303 48.515 50.034 50.98 51.536 50.559 47.727 47.924 47.056 46.693 46.938 46.066 44.576 43.077 37.217 37.81 39.531 39.717 39.358 36.908 35.441 34.905 35.04 36.22 36.406 36.213 39.955 44.642 45.781 45.957 47.803 48.979 50.398 52.42 51.855 49.712 51.45 51.453 49.958 47.101 38.701 38.012 38.216 40.085 41.574 39.053 38.996 39.098 39.239 39.575 39.606 40.426 40.847 41.027 41.69 45.443 47.054 42.195 48.86 52.43 52.804 53.128 46.172 42.022 42.062 42.126 42.019 42.007 44.055 50.949 51.111 51.475 51.471 51.193 50.697 50.445 49.98 49.256 48.971 48.982 49.212 49.803 49.332 47.213 45.281 45.671 45.851 45.582 45.65 45.448 45.296 45.397 45.471 45.597 45.681 45.813 45.986 49.516 51.521 52.587 53.838 55.623 55.075 55.375 55.891 55.972 55.329 55.675 54.763 54.303 50.215 48.989 48.241 48.301 48.721 48.984 48.91 48.565 48.571 48.655 48.749 48.948 49.033 49.319 49.442 49.735 50.945 50.405 51.871 50.915 50.904 50.154 50.502 51.603 51.234 56.179 58.095 58.932 60.827 61.207 61.169 60.286 52.836 53.786 52.712 51.751 51.845 51.83 51.459 52.51 52.097 51.869 52.057 52.206 52.475 52.741 53.195 53.579 53.683 53.328 53.407 53.442 53.468 53.479 59.477 64.513 65.839 65.706 59.411 56.78 55.152 62.205 55.754 66.747 66.981 66.697 67.298 68.111 66.331 67.524 71.125 71.475 70.971 56.506 69.434 66.799 75.664 71.706 65.7 68.153 70.046 70.245 68.713 66.069 64.908 70.728 57.333 61.641 60.225 57.131 60.165 58.289 69.125 74.079 65.12 75.877 72.818 71.45 67.376 65.043 57.926 55.249 55.229 54.945 62.222 67.965 69.256 68.888 68.311 65.495 66.397 68.139 64.335 59.018 56.801 56.021 56.084 56.175 56.505 56.94 56.715 56.895 56.912 57.207 58.38 57.931 58.491 57.92 57.809 58.288 61.834 61.714 64.016 65.605 66.264 67.098 67.596 67.635 61.267 63.248 70.541 70.4 71.755 69.788 69.124 69.125 68.919 68.32 67.855 65.243 62.943 62.139 64.23 65.421 64.711 62.938 63.524 63.114 64.857 63.809 63.848 63.857 64.167 64.352 64.499 64.579 64.652 64.875 65.746 70.481 71.963 73.233 73.804 72.764 71.623 65.709 65.712 67.064 66.692 66.701 66.151 66.194 66.297 66.58 71.666 72.407 72.747 67.917 67.182 68.21 68.567 67.561 67.484 67.4 67.354 67.331 67.471 67.68 68.567 67.796 68.426 68.722 71.205 70.515 67.854 67.735 67.944 68.059 68.151 68.072 68.026 68.061 68.035 68.049 68.068 68.166 68.233 68.47 68.655 68.749 68.9 68.939 68.888 68.659 68.772 68.895 68.941 68.888 68.765 71.439 73.113 73.455 69.673 68.709 68.633 68.638 68.511 68.463 68.343 68.345 68.339 68.358 68.42 68.469 70.012 70.979 71.279 71.443 72.646 72.57 72.638 72.4 70.845 68.554 68.512 68.56 69.698 68.577 72.316 73.875 73.584 73.467 72.477 72.859 71.467 71.062 75.18 72.204 69.742 70.469 69.771 68.496 71.721 71.659 71.509 71.018 69.931 75.507 77.211 78.764 77.027 81.789 83.188 81.474 77.562 77.23
40.939 37.836 42.69 45.001 44.95 42.337 35.572 35.405 35.411 35.443 35.617 42.352 42.286 42.303 42.37 42.255 42.302 42.341 42.328 42.309 42.339 42.418 42.407 42.408 42.444 42.4 42.319 42.406 42.392 42.445 42.448 41.063 35.531 35.501 43.659 48.923 49.597 48.53 45.218 47.394 48.678 50.613 49.773 48.36 45.923 46.266 45.31 46.167 46.247 45.389 44.047 44.645 41.876 42.066 39.839 40.045 39.542 37.078 35.412 34.821 35.091 36.702 37.983 44.684 45.688 49.275 51.219 51.18 41.694 50.635 51.712 52.176 52.234 50.008 51.206 51.663 50.417 46.127 38.158 37.879 38.102 39.856 39.656 38.965 38.923 39.121 39.198 39.496 39.953 40.522 40.764 40.983 41.129 41.158 41.283 41.36 43.926 49.166 44.447 47.221 44.477 41.956 41.998 42.026 41.953 42.038 45.177 51.731 51.429 51.026 50.69 50.259 49.64 49.298 49.099 49.066 49.237 49.545 49.49 51.269 51.596 51.427 46.348 45.021 45.159 45.107 45.11 45.043 45.178 45.276 45.322 45.483 45.661 49.126 50.937 52.852 53.275 54.111 54.742 55.326 55.45 55.684 55.333 54.946 54.18 53.815 48.923 48.078 49.212 48.229 48.215 51.32 49.846 49.925 48.445 48.368 48.336 48.457 48.612 48.791 48.952 49.192 49.375 49.581 49.969 50.298 50.254 50.075 49.884 49.77 50.497 52.529 56.237 59.747 60.384 60.913 61.238 60.846 60.134 59.541 53.404 51.411 51.662 52.977 51.184 51.644 51.631 51.441 51.539 51.693 51.885 52.197 52.465 52.824 53.119 53.406 53.411 53.419 54.105 53.402 53.423 53.425 53.605 63.551 63.864 65.727 66.787 55.696 62.878 63.789 55.013 55.737 59.433 66.611 59.284 66.326 55.648 64.951 67.669 68.799 60.572 56.182 66.85 74.063 73.163 59.761 72.72 65.875 72.73 73.022 60.389 66.116 66.065 70.398 72.622 63.76 59.816 64.691 65.167 65.847 70.418 71.337 74.762 68.172 68.127 68.01 64.161 61.298 57.947 55.455 54.881 54.998 56.365 57.279 58.087 57.071 56.439 57.414 56.478 55.623 55.708 55.812 56.637 57.15 56.17 56.214 56.42 56.697 56.672 57.003 57.633 57.835 57.357 57.532 58.244 61.31 61.514 64.267 65.481 65.647 66.213 67.103 67.585 69.38 67.799 67.453 62.427 61.13 67.609 69.003 68.988 68.499 67.455 63.445 63.052 64.384 65.48 63.959 62.411 63.173 62.684 63.714 63.376 63.645 63.453 63.319 63.484 63.621 63.771 64.006 64.378 64.608 64.75 64.832 64.838 65.37 64.879 68.783 71.738 72.489 69.436 67.653 66.503 65.581 65.81 68.175 68.174 67.81 67.969 67.548 67.563 67.458 66.991 73.991 69.269 67.434 67.64 67.69 67.935 67.65 67.572 67.521 67.483 67.481 67.543 67.52 67.633 67.665 67.73 67.818 67.846 67.91 68.004 67.98 68.104 68.057 68.012 68.057 68.037 68.047 68.13 68.13 68.23 68.44 68.615 68.856 69.054 69.545 69.801 69.181 69.114 68.984 68.904 69.051 69.095 69.01 68.926 72.373 73.455 73.551 70.42 69.831 68.823 68.831 68.801 68.721 68.53 68.44 68.409 68.424 68.409 68.452 68.471 68.866 69.165 69.044 71.487 71.783 72.137 72.155 68.968 68.554 68.591 68.713 69.199 68.465 72.474 75.022 74.796 74.447 74.419 73.922 74.073 74.098 74.469 73.772 73.561 73.502 71.728 71.403 72.855 72.585 72.72 70.408 68.375 73.181 76.159 78 79.681 84.092 84.656 83.813 81.736 79.353
42.438 42.245 43.28 44.975 44.837 39.736 35.391 35.414 35.442 35.839 35.646 40.476 41.77 41.665 41.784 41.777 41.682 41.777 41.773 41.665 41.772 41.724 41.762 41.768 41.737 41.723 41.763 41.84 41.876 41.804 41.856 40.587 35.481 35.444 44.438 47.675 49.21 45.558 45.947 46.553 47.474 48.271 47.679 45.307 43.258 46.422 45.553 47.519 47.547 40.801 45.821 43.797 42.872 43.595 40.584 38.394 37.735 38.354 38.611 37.398 35.84 36.277 39.189 47.372 49.3 50.497 52.246 50.868 48.44 52.026 52.123 51.047 46.328 47.886 43.807 52.07 51.159 46.553 39.325 37.913 37.965 38.254 38.543 38.724 38.872 39.054 39.167 39.346 39.946 40.618 40.801 40.959 41.07 41.173 41.173 41.246 45.207 42.961 41.813 42.621 42.408 42.357 41.993 41.92 41.953 41.896 42.582 48.35 50.485 49.958 49.493 49.073 48.959 49.069 49.279 49.462 48.408 49.508 51.761 53.374 48.631 50.005 44.851 44.724 44.714 44.723 44.813 44.919 45.048 45.097 45.256 46.015 51.289 52.33 52.976 53.544 54.276 54.873 55.143 54.667 55.634 55.643 54.159 53.339 49.414 47.498 48.61 49.831 49.396 49.473 48.028 51.125 52.991 53.235 48.764 48.115 48.21 48.276 48.523 48.618 49.306 49.157 49.202 49.471 49.65 49.888 49.828 49.823 49.769 49.782 50.087 57.399 59.99 60.612 61.072 61.245 60.524 60.181 58.23 53.153 51.106 52.299 50.675 51.109 51.05 51.026 51.125 51.242 51.346 51.48 51.704 52.016 52.487 52.865 53.677 53.491 53.498 53.426 53.985 53.648 53.391 53.392 58.582 63.827 67.556 67.417 65.437 68.73 68.515 67.964 64.631 54.915 63.73 59.325 52.994 53.34 53.427 55.729 57.922 54.35 53.245 54.096 58.968 69.175 70.093 59.773 60.92 63.931 63.95 63.06 63.67 55.311 54.895 61.501 61.503 62.335 67.037 67.188 64.846 69.129 69.963 71.478 71.79 70.126 58.229 62.313 56.758 55.401 54.739 54.829 54.926 54.982 55.041 55.149 55.218 55.237 55.369 55.378 55.474 55.555 55.663 55.703 55.884 55.961 56.157 56.333 56.823 56.897 58.725 57.325 57.862 58.515 59.601 63.263 64.319 64.886 65.174 65.697 67.668 66.901 66.81 67.123 66.766 66.629 66.399 65.77 63.089 63.123 64.564 67.213 66.25 65.122 61.887 61.74 62.773 62.692 63.977 63.456 62.772 63.766 63.194 63.181 63.325 63.123 63.264 63.385 63.562 63.88 64.858 65.073 64.65 64.831 64.937 65.082 65.062 65.815 65.071 65.634 65.58 65.454 65.663 65.686 65.734 65.786 66.585 71.435 68.924 67.569 67.457 67.459 67.954 68.612 72.393 74.633 73.504 67.735 67.788 67.841 67.771 67.759 67.662 67.632 68.082 67.775 67.666 67.695 67.698 67.726 67.729 67.774 67.872 67.857 67.951 67.987 68.06 68.036 68.084 68.036 68.12 68.193 68.373 68.395 68.397 68.695 68.882 69.083 69.148 72.677 73.656 73.03 70.765 69.222 69.085 70.286 70.425 69.247 70.816 72.632 73.717 72.652 70.922 71.119 69.112 68.946 69.021 68.985 68.956 68.631 68.525 68.502 68.486 68.451 68.483 68.505 68.52 68.609 69.988 70.751 70.929 69.426 68.978 68.647 68.656 68.669 68.93 68.486 71.658 75.132 75.285 75.206 75.38 75.386 75.242 75.128 74.883 74.847 74.71 74.381 74.247 73.985 73.989 73.746 73.604 70.257 68.471 71.173 74.898 78.833 81.402 83.67 85.026 85.185 81.387 77.922
42.185 43.218 43.056 44.71 43.804 36.325 35.414 35.453 35.448 36.609 39.724 40.691 41.107 41.049 41.177 41.143 41.091 41.129 41.199 41.207 41.104 41.15 41.2 41.137 41.221 41.152 41.095 41.121 41.251 41.262 41.215 38.253 35.432 35.345 37.552 44.718 47.509 47.446 43.617 44.306 44.934 45.33 40.512 46.131 47.129 47.225 45.233 46.831 46.905 45.793 44.462 38.245 43.611 43.036 41.425 39.083 37.813 38.6 39.32 36.41 36.252 36.831 39.548 49.073 50.925 49.359 49.658 52.573 52.724 51.37 51.362 52.396 50.972 47.607 48.032 50.183 50.335 48.837 45.829 37.972 38.021 38.293 38.547 38.689 38.887 39.001 39.157 39.457 40.171 40.697 40.865 40.947 41.632 47.436 42.462 42.085 41.426 41.763 45.348 45.943 45.267 42.794 41.869 41.875 41.816 41.857 41.915 43.621 49.365 49.075 48.855 49.21 49.367 49.449 49.651 47.567 44.569 48.822 54.972 54.48 46.812 48.418 44.457 46.818 44.513 44.57 44.706 44.776 44.938 45.703 48.998 51.547 52.808 54.093 54.018 54.444 54.758 54.405 55.588 54.138 53.345 53.026 48.072 47.808 47.403 47.339 48.695 49.622 49.669 50.065 49.714 50.085 48.988 47.877 47.944 47.897 47.977 48.107 48.282 48.665 48.921 50.084 49.118 49.398 50.123 49.49 49.74 49.799 49.797 54.005 57.439 58.954 59.74 61.151 60.808 60.317 59.541 53.817 51.754 51.277 50.375 50.443 50.52 51.145 50.868 50.804 50.953 51.104 52.363 51.622 51.617 51.908 52.373 56.783 59.015 57.42 56.746 53.724 53.38 54.146 53.328 53.47 56.99 65.242 65.065 62.572 64.641 64.634 68.858 68.253 62.806 53.466 53.078 53.118 53.155 53.304 53.451 53.341 53.202 57.053 54.607 56.514 54.029 53.309 61.364 56.636 55.164 61.628 62.665 63.156 58.237 55.411 56.657 56.716 65.085 60.083 65.109 68.878 66.344 70.203 69.396 67.749 57.468 56.446 54.518 54.588 54.624 54.742 54.77 54.851 54.911 54.983 55.036 55.056 55.174 55.192 55.281 55.353 55.35 55.709 55.75 56.717 57.546 56.674 56.621 56.586 56.631 57.493 58.802 62.36 63.1 58.975 58.298 64.451 65.71 65.905 66.321 66.077 66.561 65.867 65.625 65.46 62.685 61.518 63.333 60.511 61.95 62.398 61.618 64.591 64.453 64.302 63.512 61.68 63.007 62.363 64.357 63.284 62.691 63.598 62.786 62.857 62.972 63.17 63.344 64.31 66.531 66.393 65.159 65.062 64.96 65.041 65.146 65.249 65.322 65.391 65.598 65.638 65.682 65.833 65.786 70.294 70.794 69.466 68.418 71.566 71.832 70.599 68.047 67.543 71.275 74.927 75.537 74.963 72.787 68.488 68.082 68.065 67.922 67.905 67.826 68.55 68.269 69.944 68.69 68.251 68.013 67.932 67.947 67.953 67.946 67.921 68.013 68.007 68.067 68.09 68.147 68.253 68.404 68.587 68.802 68.733 68.565 68.903 69.114 69.198 70.697 72.817 73.743 73.599 71.761 69.355 69.306 69.416 71.606 69.518 69.554 72.596 73.542 72.258 69.283 69.335 68.994 69.199 70.087 69.24 69.185 69.197 68.856 68.678 68.622 68.574 68.57 68.568 68.533 68.575 68.582 68.666 68.735 68.733 68.708 68.72 68.724 68.758 68.864 68.667 72.148 71.025 73.792 74.233 74.507 74.451 74.903 74.979 75.244 75.031 75.219 75.358 75.342 75.226 75.037 74.825 74.592 70.516 68.518 69.798 71.711 76.783 79.13 83.362 83.927 82.799 79.356 74.668
41.628 42.629 42.588 43.66 42.006 35.477 37.872 35.699 36.466 38.799 36.221 40.324 40.461 40.641 40.466 40.582 40.545 40.483 40.563 40.562 40.591 40.465 40.57 40.491 40.65 40.526 40.597 40.534 40.572 40.642 40.708 37.065 35.417 35.335 36.342 44.166 46.553 46.333 41.923 44.055 45.913 43.93 45.223 44.678 46.604 44.964 44.478 45.376 45.491 44.316 42.228 37.043 41.944 45.101 43.754 40.328 38.969 37.425 36.901 35.669 36.327 37.006 37.628 45.68 48.685 51.251 52.396 52.848 52.162 50.246 52.222 52.734 52.02 42.176 43.24 48.851 49.932 47.5 46.326 39.392 38.073 38.251 38.442 38.578 38.734 39.017 39.183 39.97 40.413 40.702 40.846 41.133 48.706 49.775 48.6 44.485 41.202 42.236 47.059 48.668 49.808 46.574 41.938 41.786 41.771 41.779 41.818 41.937 48.362 49.387 50.041 49.036 45.966 44.801 44.943 46.125 42.691 50.532 55.094 50.75 51.909 45.98 47.483 45.188 44.311 44.475 44.614 44.78 49.73 51.452 52.528 53.868 53.664 54.034 54.216 53.945 54.59 53.442 52.882 49.552 48.293 47.401 47.201 46.929 47.38 47.315 47.293 48.958 49.447 48.073 48.356 47.944 47.619 47.685 47.68 47.726 47.846 48.027 48.18 49.19 48.846 49.065 49.211 49.173 48.831 49.67 49.735 49.943 55.704 58.452 59.106 59.577 59.739 59.555 59.88 57.754 51.522 51.409 51.357 50.53 50.236 50.267 50.358 50.496 50.591 50.607 51.192 51.168 51.111 51.438 51.665 51.896 52.162 57.722 59.94 59.631 59.057 56.125 54.027 53.701 53.301 53.257 53.488 66.483 68.209 68.269 65.861 63.323 63.379 67.494 63.627 57.641 53.085 53.093 53.107 53.136 53.199 53.263 56.323 60.706 61.59 60.727 54.797 53.318 54.373 56.057 59.326 58.662 60.744 62.824 62.239 59.854 58.78 68.482 63.227 62.019 62.479 63.455 69.176 69.501 68.38 64.175 54.626 54.568 54.653 54.654 54.702 54.727 54.796 54.833 54.852 54.902 54.945 54.962 55.051 55.103 55.2 55.454 59.103 59.65 59.434 55.964 56.808 57.439 57.432 57.692 63.025 63.464 63.867 64.625 64.913 64.545 58.767 64.102 65.878 65.592 64.955 64.827 64.296 61.362 60.66 59.963 60.041 60.164 62.777 61.405 60.963 61.251 65.702 63.232 62.237 62.052 62.17 61.728 62.459 63.45 63.996 63.23 62.502 62.596 62.759 63.416 63.775 65.15 65.905 68.265 68.105 67.802 65.28 65.214 65.172 65.293 65.388 65.502 65.535 65.585 65.721 66.405 69.207 67.881 72.509 75.861 73.331 68.883 68.229 70.348 71.106 68.96 67.436 67.902 74.325 75.287 75.199 74.336 70.106 68.667 68.148 68.255 68 67.953 68 68.45 68.219 70.763 70.224 68.505 68.772 68.863 71.95 70.196 69.421 68.197 68.19 68.18 68.24 68.494 71.033 68.894 68.949 69.096 69.142 69.026 68.686 69.021 69.328 69.316 70.835 73.311 74.133 73.372 71.868 71.622 72.424 71.559 71.202 69.443 69.068 68.982 68.993 69.725 68.935 69.157 69.001 73.464 73.751 74.021 74.093 73.427 72.736 69.255 69.113 68.75 68.678 68.647 68.63 68.647 68.659 68.652 68.702 68.7 68.729 68.726 68.754 68.803 68.818 69.376 68.918 69.983 68.994 69.306 70.218 70.001 73.34 72.829 70.886 73.825 74.332 74.315 74.661 74.918 75.003 75.151 74.868 69.459 68.514 70.06 72.451 73.356 76.53 80.292 80.408 75.264 73.337 71.273
41.768 42.811 44.662 43.667 36.348 35.504 39.118 40.741 40.656 40.688 40.601 40.738 40.6 40.681 40.643 40.578 40.66 40.606 40.694 40.641 40.593 40.594 40.664 40.623 40.593 40.603 40.42 40.503 40.398 39.553 39.323 35.963 35.37 35.32 35.38 38.373 38.373 37.859 37.237 44.389 40.642 40.867 45.378 46.105 46.407 45.792 45.029 43.218 42.236 43.107 36.679 43.117 44.852 45.213 44.391 41.247 41.328 37.062 36.003 34.951 36.01 36.405 37.72 37.273 37.611 44.715 51.776 52.394 54.028 52.903 52.951 50.974 46.437 46.547 46.834 49.198 49.286 47.16 41.882 38.053 38.067 38.197 38.39 38.586 38.68 39.038 39.687 40.161 40.538 40.738 40.895 46.643 48.605 49.406 49.894 49.197 44.557 41.757 49.593 50.242 48.622 46.886 42.464 41.757 41.755 41.662 41.74 41.93 48.256 49.362 50.092 49.175 45.739 44.75 43.315 45.821 44.058 50.238 52.531 54.691 51.225 52.017 48.671 44.905 44.302 44.82 44.769 44.769 44.756 52.221 53.389 53.933 54.028 53.807 54.498 53.059 52.367 51.219 47.51 47.463 46.596 46.429 46.652 46.936 47.506 47.309 47.404 47.735 47.354 47.228 48.13 47.817 47.479 47.633 47.637 47.661 47.705 48.431 48.405 48.264 48.912 48.763 48.899 48.39 49.235 51.008 50.891 57.231 58.927 59.146 59.729 59.453 58.864 58.322 51.416 50.184 51.813 51.368 50.002 50.77 50.337 50.231 50.217 50.329 50.327 50.82 51.179 50.984 51.18 51.457 51.728 51.8 52.09 56.457 58.954 58.906 60.081 59.521 54.629 53.415 53.756 53.273 53.23 62.475 67.563 68.813 69.628 70.18 69.551 67.95 62.215 53.209 53.059 53.067 53.078 53.093 53.17 53.261 58.246 61.337 62.422 60.794 54.461 53.364 55.206 58.851 59.879 59.932 58.597 61.491 62.128 60.856 58.446 60.607 61.81 61.378 57.922 65.235 59.21 59.406 56.145 57.323 54.511 54.512 54.569 54.618 54.668 54.727 55.639 55.241 54.795 54.961 55.115 55.013 55.015 55.133 55.213 55.379 59.884 60.605 57.987 58.872 60.325 62.134 62.53 63.349 64.607 64.939 65.68 65.905 65.869 64.231 58.852 62.996 64.621 64.057 60.745 60.216 59.562 61.588 60.384 60.353 60.271 61.744 63.021 63.647 62.276 61.563 65.248 65.179 63.669 61.751 61.982 62.373 62.465 62.276 62.261 62.429 62.586 62.784 63.175 65.642 65.558 65.314 65.253 67.129 65.892 65.435 65.262 65.319 65.376 65.457 65.597 65.666 66.499 66.082 67.531 66.22 69.677 73.083 74.132 74.657 73.571 69.865 67.042 68.758 68.211 68.517 67.609 72.283 74.815 75.5 74.934 71.466 67.884 68.591 68.253 68.2 68.166 68.028 68.648 68.333 70.048 72.495 71.582 69.406 68.519 69.67 71.447 73.482 70.296 69.144 71.244 71.153 70.783 70.805 74.379 71.397 69.269 69.347 69.36 69.14 68.893 69.207 69.435 69.398 71.604 73.19 74.052 72.697 69.575 72.724 74.458 74.178 73.774 72.974 69.479 69.478 69.52 69.279 69.165 69.322 69.386 76.295 76.259 75.963 75.622 75.467 75.296 73.533 72.763 69.679 69.006 68.83 68.811 68.757 68.759 68.753 68.773 68.79 68.801 68.807 68.852 68.86 68.874 68.952 69.612 69.037 68.903 68.748 69.116 68.575 68.476 69.338 68.695 68.828 69.697 69.743 69.934 73.627 72.812 71.066 74.067 68.74 69.112 71.138 72.606 73.212 73.247 73.662 71.61 71.371 71.055 70.926
41.973 42.559 44.098 42.206 35.868 35.528 39.489 41.219 41.31 41.243 41.239 41.331 41.204 41.257 41.156 41.265 41.14 41.216 41.182 41.247 41.16 41.197 41.238 41.209 41.178 41.245 41.166 41.085 40.983 37.213 38.33 35.48 35.345 35.361 35.39 35.478 35.51 35.258 36.662 41.88 42.167 45.158 45.608 45.465 46.654 45.75 43.063 41.664 43.854 41.14 37.686 47.474 46.201 41.133 43.412 43.473 42.946 38.02 35.291 34.653 35.371 35.55 35.083 37.657 35.646 37.696 50.917 49.295 50.893 51.982 51.718 50.439 48.327 43.537 41.514 40.606 46.912 47.527 43.636 41.962 38.634 38.293 38.404 38.568 38.877 39.539 39.971 40.347 40.615 40.768 40.893 46.377 48.789 49.662 50.048 49.903 49.583 48.835 49.722 48.801 50.307 48.174 42.345 41.683 41.645 41.644 41.64 41.684 46.866 49.277 49.97 49.162 46.925 47.605 49.422 48.654 48.097 47.123 45.72 50.949 50.883 44.474 43.906 46.401 47.333 45.541 47.801 44.798 44.687 52.127 54.005 53.573 53.988 52.815 52.345 51.881 47.146 46.494 46.134 46.414 46.438 46.373 47.078 47.075 46.765 47.223 46.884 47.249 47.685 47.315 47.26 47.324 47.392 47.554 47.571 47.574 47.557 47.782 49.217 48.181 48.998 48.701 48.372 48.672 48.371 53.311 58.326 58.944 59.547 59.762 58.207 58.266 57.717 49.935 49.563 49.94 50.091 49.727 49.781 50.064 50.022 50.06 50.126 50.202 50.249 50.387 50.606 50.966 50.86 50.935 51.194 51.745 51.991 52.138 53.404 57.35 59.549 56.163 53.867 53.392 53.24 53.227 53.186 55.456 64.922 67.563 69.71 68.954 60.772 64.087 58.752 53.129 55.901 54.754 53.632 53.059 53.125 53.185 57.283 59.945 61.485 57.795 53.902 53.426 53.461 54.675 60.058 59.284 55.14 55.479 56.204 54.004 54.741 57.728 55.906 54.18 56.144 56.745 54.371 54.39 54.381 54.46 54.47 54.533 54.514 54.563 54.574 54.774 54.776 55.023 55.1 59.965 61.279 57.229 55.308 55.203 55.265 55.948 59.605 59.843 56.796 62.932 63.364 64.034 64.21 64.638 65.325 65.665 65.037 64.727 64.381 63.87 60.48 59.017 60.206 58.949 59.191 59.078 59.529 60.044 60.155 61.415 61.179 62.335 63.16 63.66 63.392 61.411 66.864 67.323 65.176 62.074 61.84 61.956 62.038 62.198 62.292 62.653 63.653 64.589 64.503 65.163 65.32 65.298 65.242 65.182 65.148 65.229 65.486 65.764 65.791 65.708 65.775 65.914 66.357 66.13 66.31 66.943 66.565 72.67 74.057 76.341 74.464 73.035 67.149 67.352 72.506 73.97 69.023 73.156 75.171 75.22 74.534 69.816 68.922 68.397 68.382 68.342 68.232 68.279 69.243 68.423 69.162 72.263 72.654 69.818 69.192 68.617 70.954 70.539 69.416 70.922 72.351 72.637 71.43 74.689 75.263 75.031 70.048 69.359 69.344 69.189 69.059 69.33 69.512 69.531 69.462 69.423 70.203 70.112 69.375 70.245 73.583 73.845 74.009 72.135 69.548 69.754 69.777 69.645 69.541 69.52 70.588 75.671 75.81 75.967 76.174 76.285 76.149 76.074 75.895 75.288 69.618 69.017 68.896 68.868 68.929 68.894 68.835 68.882 68.886 68.841 68.917 68.891 68.919 69.406 69.489 69.291 69.115 69.037 69.031 69.003 69.027 68.951 68.876 68.86 68.747 68.897 69.111 68.652 68.523 69.276 69.634 68.904 70.6 72.025 73.037 74.17 73.273 71.934 71.506 71.169 70.319 69.725
42.272 41.211 43.071 37.737 35.41 35.44 39.886 41.869 41.926 41.915 41.898 41.796 41.847 41.749 41.79 41.854 41.796 41.802 41.79 41.743 41.827 41.799 41.853 41.81 41.706 41.842 41.828 41.715 41.609 37.602 38.378 35.731 35.347 35.358 35.449 35.513 35.741 35.346 37.665 40.888 43.827 42.526 44.029 44.627 43.829 41.945 41.658 42.144 43.394 42.59 39.464 45.877 45.237 44.388 45.581 44.786 45.124 41.723 34.625 34.483 34.684 34.684 34.841 34.93 35.926 34.981 44.513 46.164 42.2 51.201 48.669 47.177 45.522 44.533 42.042 40.895 43.231 41.612 44.11 43.552 41.845 38.366 38.5 38.682 39.266 39.852 40.277 40.487 40.585 40.728 44.568 47.833 49.399 50.142 49.654 49.171 44.339 41.347 46.669 48.094 49.723 47.11 41.62 41.61 41.609 41.618 41.555 41.652 46.018 49.029 49.936 49.502 47.097 47.247 48.883 48.57 47.719 44.174 43.14 43.281 43.588 43.724 44.084 47.368 48.407 45.016 47.178 47.77 44.954 44.961 53.844 52.327 52.458 51.325 46.103 46.447 45.85 45.754 46.309 46.09 47.536 46.315 46.569 49.563 46.609 46.463 46.573 46.863 46.787 46.943 47.06 47.161 47.302 47.433 47.445 47.559 47.52 47.644 47.987 49.928 49.282 48.312 49.902 51.975 55.741 57.2 58.843 59.682 59.571 58.978 58.258 54.903 52.076 49.698 49.619 49.429 49.5 49.597 49.737 49.759 49.939 50.442 51.248 50.333 50.337 51.198 50.511 50.387 50.091 50.072 50.192 51.199 52.655 52.154 52.403 52.735 54.087 53.136 53.295 53.297 53.314 53.135 53.228 53.194 63.714 67.264 64.801 65.199 62.33 63.487 63.259 55.76 58.715 60.313 54.782 53.035 53.119 53.142 53.985 56.971 60.786 61.097 54.068 54.127 54.397 53.959 53.77 53.841 53.881 53.927 53.984 54.097 54.141 54.224 54.196 54.227 54.314 54.29 54.343 54.343 54.373 54.37 54.444 54.471 54.531 54.646 54.851 55.064 61.295 61.833 61.951 62.996 63.653 63.883 56.347 55.382 55.381 55.471 56.621 56.655 58.364 63.69 64.851 65.885 64.344 63.843 63.885 64.099 63.752 60.949 58.641 58.066 58.825 59.262 59.218 59.095 59.309 59.46 59.582 60.262 61.989 62.774 61.485 61.173 63.151 63.392 63.608 61.944 66.26 66.856 64.332 61.704 61.798 62.348 63.118 63.796 64.039 64.091 64.338 64.451 64.416 65.333 65.361 65.388 65.743 70.077 71.816 72.222 74.182 66.394 66.034 65.962 66.058 66.11 66.234 66.234 66.541 67.16 66.758 71.367 74.057 75.062 74.585 73.483 68.268 68.098 77.032 77.762 69.856 67.678 73.3 75.002 71.682 68.699 68.516 68.542 68.537 68.445 68.428 68.456 68.81 68.597 68.532 70.329 70.451 68.927 68.764 69.068 69.506 69.229 69.156 72.31 73.598 71.728 69.9 70.72 73.612 74.281 70.571 69.548 69.406 69.318 69.212 69.395 69.497 69.616 69.6 69.628 69.591 69.523 69.477 70.186 72.395 72.912 73.122 70.811 69.685 69.949 69.959 69.957 69.764 69.605 69.85 71.501 74.267 73.927 75.209 75.556 75.755 75.997 76.264 72.819 72.528 70.363 70.488 69.646 71.412 70.654 69.22 69.008 69.037 69.008 68.98 69.025 69.077 69.869 69.968 69.199 69.148 69.098 69.334 69.216 69.194 69.171 69.113 69.072 69.105 69.087 69.068 69.048 68.977 68.985 68.91 68.962 69.556 72.295 73.292 73.943 73.487 71.854 71.397 69.716 69.639 69.546
40.408 39.55 36.31 35.384 35.413 35.453 40.497 42.495 42.424 42.47 42.343 42.413 42.427 42.378 42.41 42.461 42.373 42.442 42.45 42.361 42.366 42.289 42.321 42.297 42.262 42.339 42.305 42.376 42.33 38.256 36.245 35.637 35.31 35.373 35.447 35.511 35.551 35.774 36.125 40.668 43.956 43.306 43.753 43.099 42.137 41.587 41.058 41.195 41.768 39.42 40.767 42.68 43.522 46.729 47.593 45.944 44.946 38.976 34.388 34.325 34.355 34.37 36.683 35.613 35.535 35.738 40.591 42.192 37.269 45.891 47.213 46.507 42.153 41.782 43.251 43.129 40.892 40.132 39.335 42.681 39.224 38.485 38.556 38.711 39.496 40.251 40.471 40.591 40.579 40.845 47.463 49.195 50.033 49.73 48.798 44.88 42.045 41.782 41.468 42.631 46.714 42.293 41.446 41.544 41.546 41.549 41.538 41.545 42.884 48.789 47.964 42.631 42.529 43.054 47.487 43.112 42.72 42.845 43.057 45.42 43.778 44.701 45.58 44.475 45.296 43.962 44.886 47.701 48.284 45.549 49.787 50.468 45.458 46.282 45.558 45.692 46.11 45.703 45.836 46.226 47.398 46.734 46.112 46.19 46.159 46.317 46.414 46.522 46.662 47.856 47.384 47.143 47.369 47.692 47.466 47.438 47.431 47.523 47.936 48.749 48.252 48.244 53.436 55.761 57.07 57.814 58.235 58.827 58.897 57.831 52.631 50.711 50.145 49.315 49.195 49.295 49.465 49.539 49.608 49.627 49.765 50.125 50.17 50.059 50.158 50.157 49.97 49.592 49.476 49.257 52.601 55.565 55.271 52.485 52.372 52.557 52.791 52.993 53.113 53.203 53.275 53.147 53.199 53.141 55.641 64.156 67.825 60.404 64.663 58.467 52.903 53.029 59.13 60.364 54.609 53.107 53.181 53.203 53.35 53.498 54.868 54.527 53.875 53.726 53.724 53.729 53.781 53.88 53.919 53.994 54.091 54.131 54.132 54.189 54.201 54.242 54.273 54.479 54.423 54.277 54.373 54.392 54.899 59.55 58.775 61.347 61.565 62.837 63.148 63.744 64.074 64.27 64.518 64.283 60.29 55.525 55.561 55.553 55.779 56.674 58.708 62.447 63.706 63.433 62.975 61.77 59.958 58.11 57.796 57.958 58.153 58.294 58.827 59.833 59.756 59.541 59.367 59.642 59.73 60.233 61.74 62.281 62.888 60.992 61.599 61.671 61.587 61.919 62.495 62.57 62.091 61.985 62.347 63.579 64.067 64.243 64.15 64.37 64.529 64.637 64.817 64.931 65.583 68.353 73.926 75.145 75.316 75.754 75.023 66.6 66.359 66.313 66.213 66.427 67.247 67.247 66.752 67.268 67.147 71.836 73.828 77.103 75.378 74.059 70.686 68.18 72.409 75.333 68.405 67.879 72.723 74.274 68.838 69.303 68.728 68.674 68.624 68.556 68.576 68.827 70.434 72.695 68.744 69.944 70.463 68.996 70.327 69.956 70.182 69.271 69.339 70.193 72.975 70.156 69.457 70.522 71.003 69.624 71.676 70.875 71.395 69.861 69.35 69.396 69.358 69.443 69.597 69.693 69.782 69.82 69.823 69.823 69.77 69.89 70.479 70.309 69.919 70.212 70.27 70.253 69.904 69.691 69.361 69.349 69.299 69.247 70.174 72.478 71.936 74.774 75.044 71.134 74.734 75.983 74.905 75.418 74.773 74.109 70.768 69.714 69.634 69.44 69.264 69.272 69.2 69.189 69.199 69.965 69.172 69.166 69.192 69.242 69.268 69.251 69.205 69.156 69.192 69.172 70.706 69.853 69.146 69.135 69.09 69.073 70.259 72.471 72.857 73.331 73.916 71.845 71.275 69.805 69.621 69.363
39.203 35.402 35.342 35.364 35.424 35.414 41.21 42.887 42.798 42.89 42.853 42.721 42.826 42.823 42.754 42.815 42.825 42.799 42.828 42.784 42.788 42.878 42.762 42.813 42.873 42.838 42.854 42.816 42.805 37.658 35.39 35.276 35.289 35.36 35.447 35.488 35.52 36.077 35.432 40.263 42.481 43.543 43.811 44.983 45.645 42.917 41.723 44.783 44.216 37.985 42.607 43.342 43.853 46.223 46.978 46.201 40.754 38.74 35.837 34.421 34.273 35.73 41.574 42.612 42.003 39.841 38.154 36.826 43.03 37.541 44.319 45.156 42.01 41.583 42.052 40.704 39.327 42.695 44.123 39.272 39.572 39.81 38.625 38.636 38.76 39.927 40.475 40.59 40.577 44.919 49.277 49.972 49.977 49.038 48.369 41.823 40.893 40.992 41.009 41.207 46.128 44.002 41.347 41.497 41.486 41.442 41.482 41.52 42.822 43.461 41.63 41.803 42.098 42.173 42.323 42.394 42.61 42.957 43.607 46.673 46.655 46.526 45.675 43.329 43.396 43.907 43.997 46.417 48.049 46.31 45.582 45.673 45.297 45.408 45.426 45.4 45.804 46.598 47.284 45.993 46.041 45.782 45.89 45.917 46.033 46.194 46.312 46.489 47.762 47.648 46.989 47.611 47.453 47.635 47.492 47.367 47.377 47.412 47.597 48.468 48.561 54.173 56.988 56.855 58.127 58.132 57.498 57.344 52.815 50.016 50.026 50.153 49.034 48.974 49.042 49.271 49.285 49.426 49.387 49.543 49.81 49.927 49.843 49.947 49.627 49.428 49.318 49.229 49.459 54.692 55.722 56.322 55.793 54.045 52.384 52.495 52.624 52.789 52.945 53.172 53.256 53.208 53.086 53.128 53.114 53.151 57.338 66.191 66.778 60.474 53.079 53.462 53.774 54.542 53.199 53.138 53.817 53.816 53.672 53.659 53.636 53.618 53.675 53.688 53.778 53.826 53.882 53.891 54.003 54.063 54.042 54.035 54.091 54.71 54.592 54.137 54.334 54.594 54.446 54.636 55.859 55.662 61.458 63.169 64.328 63.661 64.013 63.974 64.466 64.459 64.323 64.172 63.83 64.062 63.504 56.244 55.655 55.716 55.767 56.362 57.688 58.344 59.702 58.075 59.668 57.22 57.467 58.797 58.099 58.184 58.778 58.561 59.761 60.809 61.354 61.277 59.692 59.795 59.912 61.273 61.544 61.668 61.384 61.082 60.864 60.983 61.191 61.437 64.347 66.052 65.836 64.603 64.08 64.028 64.243 64.337 64.458 64.564 64.645 67.53 65.99 65.298 71.998 75.185 75.873 76.351 76.873 76.769 75.487 68.956 66.672 66.584 66.497 66.583 66.684 67.669 66.903 67.672 70.237 69.177 74.116 75.704 75.515 74.712 71.543 67.686 68.439 69.907 68.442 68.37 68.38 69.905 68.675 68.784 68.767 68.826 68.727 68.68 69.35 68.823 69.991 71.499 69.44 70.689 69.309 69.191 71.514 70.903 69.481 69.375 69.4 70.028 69.782 69.636 69.847 71.105 69.465 72.355 73.208 73.173 72.785 72.451 71.707 72.024 70.307 69.754 69.381 69.673 69.885 69.953 70.028 70.103 70.125 70.075 70.026 70.104 70.282 70.47 70.509 70.483 70.083 69.933 69.796 69.489 69.546 69.326 69.266 69.331 69.32 69.367 69.322 70.196 76.588 76.776 76.809 76.676 76.245 76.025 75.297 74.504 72.802 69.676 69.781 69.883 69.908 69.8 69.69 69.646 69.509 69.479 69.396 69.284 69.238 69.164 69.226 69.291 70.532 71.878 72.661 70.722 69.117 69.142 69.161 69.166 71.007 77.446 76.121 75.032 73.169 71.272 71.495 69.873 69.397 69.149
45.533 47.892 36.065 35.39 35.418 35.423 40.812 42.276 42.25 42.299 42.295 42.185 42.34 42.26 42.246 42.354 42.286 42.287 42.379 42.33 42.259 42.354 42.359 42.285 42.358 42.38 42.383 42.295 42.373 38.14 35.415 35.328 35.324 35.36 35.439 35.513 35.54 38.232 43.048 41.705 41.048 42.76 44.093 44.589 44.016 44.626 41.15 47.871 46.723 37.959 41.291 42.004 44.373 44.349 44.887 44.03 42.349 40.814 34.583 34.232 34.285 39.338 43.926 44.054 38.355 45.858 43.077 45.424 46.64 44.228 40.591 39.84 37.396 36.444 38.425 40.139 40.893 39.576 39.623 38.445 38.026 40.452 41.591 39.073 39.637 38.72 40.401 40.533 46.381 48.867 49.712 49.985 49.3 48.36 41.615 41.607 42.062 40.824 40.925 41.158 48.311 47.48 41.464 41.375 41.414 41.428 41.367 41.33 41.409 41.546 41.766 41.835 41.954 42.039 42.227 42.359 44.554 47.573 47.373 44.973 46.638 43.786 43.134 43.159 43.256 43.343 43.359 43.437 47.488 48.907 48.387 45.11 45.21 45.175 45.784 45.733 45.605 45.809 45.263 45.319 45.38 45.499 45.673 45.746 45.918 46.289 46.926 46.448 46.677 46.943 47.292 47.413 47.378 47.387 47.464 47.929 47.418 47.319 47.428 49.885 56.554 57.221 58 58.073 57.747 57.298 56.477 50.54 49.841 50.043 49 48.703 48.747 48.874 49.036 49.066 49.153 49.205 49.321 49.666 49.664 49.693 49.529 49.396 49.687 49.43 49.235 52.51 55.52 56.055 56.526 56.997 56.592 55.677 54.511 52.41 52.482 52.835 52.905 53.158 53.24 53.235 53.036 53.126 53.128 53.076 53.064 56.423 54.55 53.029 53.265 53.047 53.014 53.659 54.189 53.459 53.457 53.461 53.496 53.572 53.596 53.703 53.759 53.758 53.79 53.792 53.816 53.866 53.901 53.929 54.544 54.854 54.68 54.488 54.126 54.187 54.527 57.639 59.591 56.975 59.401 55.517 61.152 63.884 64.396 64.586 64.481 64.261 64.169 63.673 64.002 64.002 62.916 62.389 57.719 56.496 55.822 55.804 55.915 56.072 56.878 56.812 56.452 57.016 59.193 57.931 57.593 58.512 58.232 58.279 58.756 58.754 60.503 61.17 61.461 61.684 60.553 60.011 60.785 61.049 60.994 60.786 60.659 60.822 60.889 63.303 66.5 66.91 66.575 68.484 67.842 64.273 64.138 64.415 64.542 64.55 64.596 64.927 64.813 70.114 67.698 65.74 67.678 76.236 76.826 77.074 76.812 76.234 76.225 69.333 66.857 67.549 66.862 66.83 66.913 67.945 67.471 68.153 67.655 67.939 73.946 74.848 75.767 74.729 72.846 68.079 69.062 69.232 68.781 68.673 68.785 71.368 71.431 69.052 68.965 68.929 68.818 68.92 69.842 69.758 70.019 71.049 70.889 69.935 69.423 69.321 71.686 70.383 70.187 69.519 70.07 71.256 69.723 69.807 70.071 71.678 69.585 72.166 73.471 73.634 73.546 73.554 73.336 73.074 72.704 72.145 70.478 69.674 69.946 70.181 70.258 70.359 70.359 70.367 70.393 70.35 70.495 70.737 70.798 70.647 70.484 70.773 70.632 70.409 70.242 69.859 69.669 69.622 69.553 69.666 69.721 70.349 75.591 75.993 76.105 76.425 76.624 76.755 76.846 76.631 72.867 69.724 70.02 71.31 70.314 70.131 70.121 70.082 70.02 69.841 69.661 69.575 69.38 69.288 69.23 71.024 72.105 72.977 73.396 73.133 70.13 69.075 69.159 75.024 79.057 81.019 81.508 80.719 78.343 71.842 71.303 69.778 69.21 69.511
36.124 42.505 37.879 35.345 35.609 35.733 39.924 41.668 41.635 41.69 41.662 41.661 41.678 41.67 41.631 41.715 41.703 41.739 41.741 41.732 41.699 41.696 41.794 41.821 41.767 41.741 41.854 41.772 41.762 36.937 35.411 35.346 35.323 35.329 35.447 35.503 35.539 40.054 43.566 40.4 40.497 41.652 43.064 43.152 39.142 45.203 43.458 47.992 49.338 44.217 43.565 44.27 44.94 43.849 43.225 38.129 36.135 34.693 34.719 34.282 34.615 38.183 41.745 42.371 45.744 42.897 44.074 44.947 43.959 41.807 37.702 35.935 36.882 38.186 41.453 40.941 39.396 42.776 38.82 39.363 38.085 41.308 44.196 42.937 43.974 40.313 39.233 41.488 47.029 49.488 49.987 49.526 48.544 45.913 41.536 41.116 40.826 40.774 40.818 43.091 47.116 46.245 41.725 41.33 41.333 41.342 41.313 41.343 41.344 41.483 41.555 41.701 41.857 42.5 43.429 43.033 46.871 46.112 44.595 44.232 42.872 42.978 43.017 43.108 43.124 43.276 43.265 43.318 45.207 48.925 45.616 44.663 46.046 45.54 44.839 44.917 44.94 45.018 45.085 45.152 45.318 45.408 45.494 46.381 45.836 46.193 46.317 46.447 46.859 47.009 47.039 47.079 47.262 47.388 47.605 47.631 48.502 47.276 47.307 47.436 54.465 57.126 57.941 57.536 57.052 56.233 50.529 48.271 48.832 48.621 48.499 48.595 48.724 48.788 48.905 48.959 48.985 49.12 49.394 49.45 49.414 49.38 49.289 49.276 49.289 49.464 54.668 55.629 56.25 56.791 57.028 57.262 56.233 55.99 55.472 54.165 52.492 52.614 52.771 53.017 53.195 53.232 53.111 53.069 53.122 53.113 53.062 53.074 53.156 53.77 53.2 53.667 53.379 53.27 53.307 53.383 53.427 53.484 53.528 53.567 53.671 53.675 53.695 53.734 53.75 53.8 53.745 53.816 54.525 54.249 53.951 54.118 54.084 58.728 61.076 61.836 61.905 62.266 62.547 61.562 58.294 56.712 62.068 64.303 64.178 64.612 63.906 63.694 63.099 62.509 62.156 57.639 57.646 56.03 56.301 57.022 55.942 55.998 56.014 56.224 57.373 59.515 57.332 57.072 58.886 59.396 58.005 58.913 58.578 58.449 58.7 59.001 59.518 61.304 60.752 61.725 60.548 60.984 63.355 60.847 60.493 60.526 60.669 61.022 61.814 64.329 66.971 66.708 66.382 68.043 66.428 65.225 64.528 66.486 64.965 65.696 67.596 70.371 70.766 71.677 71.956 66.339 66.669 75.156 76.575 76.087 75.616 75.434 76.63 70.718 66.998 67.465 67.653 67.061 67.14 67.213 67.244 67.674 67.668 67.698 72.739 75.282 76.147 75.612 74.624 69.315 71.636 72.115 69.679 68.912 69.26 74.972 73.143 69.172 69.056 69.09 68.983 69.147 70.115 69.835 76.339 75.231 71.063 71.404 69.739 69.666 69.752 70.149 70.005 69.826 69.887 70.795 69.876 70.075 70.926 71.419 69.547 71.545 72.155 72.536 72.88 73.057 73.431 73.572 73.508 73.418 69.652 69.73 70.102 70.363 70.46 70.566 70.594 70.658 70.677 70.679 70.829 71.076 71.157 71.141 71.188 71.268 71.178 71.205 71.136 71.011 70.641 70.481 70.338 70.179 69.953 69.684 70.858 71.196 71.428 75.15 75.511 75.642 76.156 76.301 73.062 69.903 73.257 73.335 73.122 72.487 71.751 70.666 71.783 70.099 69.963 69.784 69.293 70.622 71.476 72.409 73.315 73.578 72.954 72.443 70.053 69.169 69.363 79.113 82.216 82.815 83.363 82.646 80.354 72.873 70.701 69.389 69.174 69.322
36.114 54.735 35.662 35.355 36.056 35.61 39.408 41.088 41.061 41.162 41.071 41.035 41.157 41.143 41.123 41.108 41.108 41.174 41.102 41.137 41.16 41.099 41.162 41.152 41.093 41.105 41.19 41.192 41.197 37.455 35.446 35.295 35.314 35.309 35.408 35.465 35.54 39.567 40.428 37.311 40.03 41.438 43.837 45.836 44.019 42.268 41.523 43.864 41.155 39.3 42.873 44.581 44.894 43.702 37.691 34.69 34.743 35.174 34.445 34.371 34.194 37.5 38.425 39.166 41.651 42.509 43.421 42.952 40.538 44.004 37.078 39.848 39.371 40.89 44.001 45.575 45.633 46.546 40.179 42.459 38.733 39.934 47.169 46.51 47.876 47.437 40.514 39.419 41.349 50.043 49.464 48.744 44.478 41.833 40.96 40.684 40.619 40.69 40.748 41.144 45.935 46.465 41.468 41.269 41.263 41.265 41.265 41.242 41.246 41.347 41.472 42.37 42.297 42.124 42.202 44.436 47.11 44.479 45.995 43.909 42.773 42.828 42.948 42.964 43.024 43.067 43.16 43.231 43.321 45.33 46.281 46.407 45.143 44.646 44.572 44.642 44.786 44.845 44.96 45.049 45.17 46.087 45.864 46.058 45.986 48.863 49.12 46.648 46.733 47.22 48.224 48.171 47.289 53.273 56.092 48.982 47.153 47.189 47.213 47.375 49.236 56.314 57.044 56.42 51.94 49.036 48.478 48.22 48.234 48.259 48.369 48.527 48.554 48.678 48.661 48.743 49.021 49.206 49.307 49.153 49.243 49.212 50.274 53.279 55.129 55.408 55.854 56.391 56.893 56.77 56.31 55.787 55.655 55.804 55.994 54.745 52.23 52.207 52.67 52.765 53.085 53.185 53.11 52.988 53.091 53.098 53.112 53.053 53.102 53.127 53.07 53.102 53.215 53.243 53.361 53.389 53.473 53.472 53.529 53.52 53.575 53.619 53.714 53.915 53.668 53.645 53.742 53.862 54.05 54.14 59.919 60.995 61.619 62.005 62.697 62.905 63.686 63.512 63.684 61.358 57.744 55.754 58.015 63.248 63.145 62.888 62.254 57.579 57.574 55.826 55.83 56.377 56.85 56.123 56.128 56.083 56.019 56.103 56.163 56.251 56.899 58.079 57.259 57.151 57.724 59.607 58.375 58.375 58.785 58.695 59.036 63.068 60.537 60.898 60.923 60.221 60.09 60.777 61.108 60.304 60.426 60.882 61.57 62.673 63.41 64.025 64.942 64.579 64.171 65.357 65.89 65.953 65.121 65.214 69.979 71.002 71.377 71.84 72.108 72.142 71.647 67.241 66.696 73.814 76.176 75.216 74.232 70.985 67.438 67.191 67.229 68.137 67.689 67.286 67.37 67.446 67.51 67.709 69.424 68.04 72.524 75.003 76.646 75.778 74.779 72.751 72.915 77.454 72.558 74.022 72.06 71.255 69.828 69.391 69.206 69.142 69.141 70.902 70.283 74.029 77.042 77.501 78.061 75.528 75.301 70.996 70.081 70.135 71.248 71.081 71.166 70.849 70.118 70.757 70.874 70.612 69.43 70.289 70.322 69.806 70.888 71.226 72.195 72.39 72.502 71.04 69.449 69.791 70.282 70.535 70.699 70.762 70.846 70.94 71 71.042 71.072 71.271 71.336 73.695 73.249 72.471 71.951 71.434 71.738 71.299 71.299 71.118 71.582 72.077 70.464 70.319 69.857 69.921 69.782 69.766 71.155 70.721 71.346 75.073 71.452 70.021 74.523 74.452 74.121 73.921 73.814 73.408 73.214 73.002 70.695 69.577 70.62 72.035 72.537 73.393 73.345 72.827 72.054 69.944 69.293 69.381 70.786 81.226 83.32 84.515 84.84 84.572 83.286 73.889 71.003 69.471 69.168 70.806
47.31 59.395 41.793 40.259 35.671 35.757 39.932 40.423 40.501 40.565 40.489 40.514 40.53 40.478 40.451 40.581 40.497 40.545 40.606 40.626 40.58 40.531 40.52 40.59 40.558 40.648 40.619 40.515 40.655 40.123 35.595 35.386 35.316 35.26 35.377 35.437 35.515 35.549 36.264 36.305 37.985 40.17 40.879 45.812 45.654 43.131 40.448 40.33 38.707 36.122 38.221 44.487 44.415 40.471 34.644 34.726 34.592 35.017 35.289 34.324 34.341 36.946 40.601 40.551 41.687 43.717 42.6 41.944 38.34 40.728 41.841 41.278 39.311 37.664 42.74 46.444 47.256 47.329 44.37 44.549 43.283 42.647 45.649 41.986 47.834 46.408 41.224 39.48 39.444 39.351 47.116 43.301 39.779 41.125 40.345 40.948 42.015 40.654 40.647 46.381 50.324 51.454 42.814 41.148 41.23 41.183 41.239 41.204 41.25 41.257 42.084 42.832 42.001 43.825 43.569 42.609 44.877 44.057 45.618 42.634 42.65 42.696 42.777 42.85 42.897 42.988 43.02 43.168 43.202 46.126 48.018 48.816 45.668 44.537 44.435 44.542 44.626 44.748 45.355 44.98 45.654 45.679 45.504 46.001 46.047 48.137 48.192 46.93 47.104 51.508 54.395 53.94 56.307 57.011 56.824 55.385 47.302 47.128 47.228 47.285 47.38 53.461 56.146 48.249 48.225 48.066 48.061 48.026 48.116 48.298 48.307 48.391 48.383 48.465 48.514 48.75 48.873 49.042 48.97 49.029 49.187 49.327 52.033 56.45 56.149 56.195 56.665 57.083 56.692 56.164 55.645 55.625 55.79 56.455 56.522 55.589 52.623 51.818 52.252 52.7 52.973 53.166 53.095 52.988 53.078 53.063 53.058 53.109 53.094 53.01 53.061 53.147 53.229 53.288 53.368 53.39 53.377 53.362 53.423 53.486 53.461 53.489 53.767 53.966 53.726 55.139 56.856 59.796 61.888 61.982 63.307 62.654 63.145 63.276 63.552 63.639 63.71 63.582 63.537 62.864 57.706 55.87 57.048 62.254 57.567 56.083 55.419 55.632 55.722 56.621 55.97 55.762 55.84 55.898 55.978 56.045 56.111 56.195 56.332 56.468 56.628 57.534 57.549 59.69 60.459 60.076 58.724 58.669 59.169 59.015 62.991 66.578 60.786 59.556 59.592 59.857 59.932 60.082 60.311 60.854 61.641 61.951 62.37 63.138 63.77 64.253 64.394 64.253 64.714 65.227 65.696 66.411 65.545 65.456 69.024 72.169 72.301 71.727 71.85 71.605 70.864 67.955 66.939 68.345 74.346 72.572 67.727 67.209 67.339 67.297 67.395 67.432 68.48 67.556 67.555 67.649 67.841 67.902 68.433 68.125 68.449 70.571 75.586 75.921 75.074 73.326 73.96 77.071 72.986 69.111 71.204 71.347 70.165 69.38 69.371 69.349 69.372 71.337 70.595 75.47 77.5 78.257 78.074 77.426 75.933 70.134 70.297 70.42 76.227 72.009 71.892 73.882 73.004 70.662 71.466 70.977 70.633 70.863 71.867 70.991 71.045 71.077 70.438 69.777 70.128 70.324 70.23 69.964 70.338 70.794 70.903 71 71.092 71.116 71.182 71.178 71.257 71.318 73.879 75.083 75 74.806 74.559 74.456 74.253 73.631 72.082 74.406 76.41 79.321 73.247 71.757 71.239 70.937 70.638 70.275 70.26 70.043 69.908 70.043 70.137 72.327 73.442 73.735 74.077 74.26 74.202 74.452 74.325 74.024 71.748 69.391 71.855 72.922 73.522 73.214 72.514 71.832 69.614 69.363 69.576 69.784 72.072 79.621 83.129 84.166 84.85 84.655 83.014 84.029 80.401 70.752 69.729 69.204
44.472 54.329 63.124 50.153 39.766 40.926 40.817 40.873 40.778 40.846 40.837 40.925 40.823 40.807 40.679 40.757 40.689 40.653 40.686 40.804 40.747 40.683 40.641 40.739 40.747 40.591 40.717 40.632 40.548 39.717 40.64 38.912 35.416 35.308 35.32 35.425 35.523 35.542 35.679 42.73 42.733 38.847 38.901 39.377 43.405 41.075 40.534 39.87 42.265 35.95 35.789 44.963 46.063 41.58 34.852 34.33 34.132 34.454 35.233 34.726 35.984 35.781 36.999 36.501 40.615 40.943 37.648 38.856 41.58 42.283 41.06 41.591 40.622 38.626 41.87 45.733 46.394 42.059 45.477 44.225 44.346 44.364 41.733 42.827 41.058 42.544 41.654 39.6 39.42 39.355 39.653 39.964 39.051 39.04 39.254 40.613 42.031 41.701 42.38 49.77 50.842 51.612 46.347 42.892 41.139 41.159 41.091 41.116 41.217 42.456 41.949 41.841 46.679 46.397 44.88 42.661 42.319 42.395 42.412 42.462 42.519 42.544 42.638 42.73 42.82 42.863 42.938 43.033 43.085 44.711 46.591 48.143 45.467 44.661 44.415 44.422 44.543 45.357 45.306 45.095 45.184 45.409 45.766 45.875 45.958 46.523 46.39 49.219 53.197 55.827 56.953 56.914 57.245 57.757 57.989 55.451 47.52 47.067 47.11 47.129 47.327 47.361 47.619 47.747 47.809 47.803 47.86 47.935 48.02 48.161 48.33 48.266 48.283 48.411 48.49 48.731 48.801 48.911 48.924 49.022 49.123 49.308 56.176 57.348 56.749 56.913 56.913 56.372 55.772 55.628 55.547 55.999 56.736 57.097 56.482 56.2 55.288 52.081 51.911 52.485 52.881 53.068 53.128 53.33 52.991 53.007 53.079 53.071 53.021 53.113 53.135 53.191 53.234 53.252 53.24 53.266 53.987 53.996 53.333 53.265 53.675 53.716 57.497 57.803 60.514 57.381 57.034 57.891 62.627 63.114 64.799 63.741 63.503 63.619 63.462 63.494 63.533 63.541 63.021 62.256 57.369 55.292 55.206 55.297 56.36 55.534 55.482 55.675 55.604 55.675 55.748 55.833 55.916 56.017 56.405 56.258 56.256 56.387 56.54 56.656 56.822 57.419 58.226 59.169 60.032 60.407 59.479 59.1 60.37 59.078 64.346 65.928 62.691 59.497 59.655 59.93 60.243 60.72 61.674 61.852 62.52 62.57 62.763 63.363 63.793 64.161 64.156 64.214 64.787 65.283 65.82 66.86 66.744 65.881 67.337 71.24 71.462 70.956 70.721 70.811 71.448 67.874 67.026 67.79 68.046 69.131 69.745 67.273 67.392 68.368 68.899 68.275 68.07 67.788 67.837 67.948 67.974 68.117 68.183 68.204 68.235 68.3 68.406 69.831 68.613 68.785 70.564 70.909 71.985 71.615 69.551 69.603 69.773 69.561 69.509 69.587 69.667 70.648 70.477 71.958 75.024 76.813 76.871 76.912 72.006 70.208 70.609 75.145 78.087 77.961 78.15 76.726 75.554 71.081 72.748 71.166 70.647 70.808 71.212 70.759 70.977 71.048 70.89 69.983 69.962 73.806 75.133 72.191 70.681 70.935 71.113 71.225 71.31 71.311 71.299 71.31 71.361 71.356 72.399 75.395 75.4 75.615 75.599 75.495 75.378 75.004 74.899 73.375 75.479 76.734 72.386 73.299 76.43 73.639 72.472 71.701 72.459 72.322 72.145 75.584 73.485 74.076 71.623 71.04 72.848 73.214 73.454 73.794 73.973 74.273 71.239 69.548 72.229 73.385 73.122 72.32 71.475 69.521 69.563 69.67 69.871 73.466 72.037 76.041 80.381 83.354 84.499 84.514 84.14 85.347 82.248 75.201 71.217 70.642
62.304 62.206 50.706 41.669 41.723 41.727 41.656 41.742 41.669 41.634 41.681 41.541 41.683 41.563 41.504 41.523 41.499 41.515 41.562 41.665 41.585 41.577 41.518 41.569 41.491 41.396 41.523 41.536 41.404 41.411 41.382 37.794 35.412 35.325 35.299 35.372 35.452 35.549 39.577 42.348 41.972 36.958 36.977 38.719 41.42 41.162 40.378 39.872 38.505 35.577 36.877 36.603 36.621 34.96 34.728 34.15 34.077 36.561 36.822 35.973 35.853 35.804 35.929 36.662 36.288 40.002 39.104 42.278 41.363 42.199 40.957 41.87 40.816 41.821 42.378 44.598 44.394 45.928 44.572 44.858 45.314 45.467 42.936 38.996 38.484 37.501 37.761 38.527 39.852 39.805 39.017 38.772 38.882 39.034 39.21 40.019 41.25 40.905 40.765 45.934 50.354 50.676 45.871 42.853 41.079 41.128 41.078 41.059 41.107 41.355 43.718 47.392 48.405 48.814 45.618 44.403 42.289 42.25 42.261 42.31 42.402 42.464 42.603 42.607 42.694 42.759 42.825 42.88 42.943 43.077 44.031 47.186 46.04 45.368 44.469 45.353 44.602 44.721 45.117 45.772 45.871 45.662 45.665 45.72 46.484 53.913 54.197 54.854 56.116 56.63 57.717 57.778 57.743 57.478 57.43 56.485 48.903 46.992 47.042 47.066 47.237 47.286 47.392 47.506 47.553 47.625 47.781 47.932 48.048 47.995 48.012 48.2 48.4 48.622 48.658 48.691 48.754 48.88 48.903 49.062 51.792 49.211 53.259 57.359 57.342 56.913 56.315 55.698 55.563 55.731 54.366 56.463 57.016 56.391 55.833 55.311 52.434 50.772 51.558 52.441 52.786 53.052 53.19 53.009 52.968 52.999 53.066 53.085 53.043 53.063 53.136 53.106 53.21 53.905 53.581 53.175 53.558 53.432 53.73 58.657 59.411 60.774 61.928 61.848 62.483 58.297 56.069 55.684 63.545 63.529 63.304 63.281 63.093 62.719 62.145 62.035 58.23 61.091 56.145 54.926 54.988 55.039 55.187 55.259 55.465 55.443 55.501 55.605 55.668 55.782 56.453 56.055 56.47 56.326 56.211 60.165 58.179 58.16 56.988 56.924 57.111 57.384 60.778 60.687 58.881 60.489 61.298 61.331 59.087 59.261 59.507 60.491 61.231 59.592 63.064 62.708 62.03 62.085 62.347 62.376 62.719 62.89 63.11 63.61 63.81 63.906 64.057 64.317 64.644 65.239 65.973 66.393 66.962 66.419 66.41 69.882 70.726 71.336 68.475 67.948 67.837 67.123 67.157 67.053 68.129 68.573 69.09 68.574 67.757 67.713 67.677 67.766 67.825 67.918 67.982 68.131 68.191 68.306 68.359 68.424 68.511 68.503 68.601 68.647 68.771 68.811 68.987 69.154 70.076 69.588 69.465 69.531 69.628 69.685 69.742 69.849 69.875 70.239 70.67 70.39 70.416 73.569 73.105 75.829 71.062 70.456 70.854 75.807 78.197 79.01 79.184 78.225 77.297 71.854 72.895 70.936 70.854 71.01 71.154 71.132 71.227 71.148 71.211 71.231 71.186 72.545 74.89 72.109 70.889 71.23 71.454 71.54 71.557 71.48 71.444 71.401 71.417 71.39 72.661 74.378 74.487 74.701 74.734 74.984 75.23 75.464 75.519 72.194 74.269 75.285 72.341 73.633 72.069 72.379 73.042 72.005 72.073 72.115 74.187 77.84 78.142 75.792 73.105 76.101 71.859 70.489 71.045 71.948 72.85 73.188 70.59 69.917 69.299 72.069 72.197 69.621 69.422 69.699 69.959 75.33 74.42 79.706 80.923 73.508 75.553 79.132 81.247 82.067 83.724 79.338 75.418 73.915 75.014 71.878
52.886 51.463 46.54 42.479 42.55 42.583 42.475 42.432 42.395 42.453 42.402 42.361 42.464 42.481 42.327 42.378 42.438 42.344 42.464 42.341 42.467 42.352 42.335 42.391 42.384 42.27 42.345 42.156 42.151 42.269 42.157 38.564 35.415 35.38 35.303 35.404 35.428 35.522 37.797 42.462 38.79 37.158 38.478 44.587 45.405 44.602 42.197 39.938 39.062 35.769 35.461 36.264 34.829 34.7 34.206 34.044 34.283 36.901 36.637 36.339 35.945 35.818 35.862 36.325 36.469 40.098 41.62 41.471 40.188 40.763 41.339 40.629 43.411 43.892 44.07 44.679 45.047 45.323 45.511 45.909 45.937 40.297 43.959 39.372 38.875 37.818 37.8 37.948 40.681 41.218 38.834 38.764 39.306 40.828 39.125 40.293 49.811 45.365 47.291 42.155 43.424 44.313 43.469 41.884 41.048 41.037 41.039 40.966 41.215 45.941 47.805 48.422 49.267 49.881 48.35 45.415 42.652 42.228 42.166 42.197 42.265 42.369 42.468 42.537 42.691 42.61 42.704 42.742 42.844 42.942 45.125 45.733 47.443 45.008 45.117 45.076 44.848 46.066 45.201 45.451 45.604 50.173 51.353 51.505 55.056 55.721 56.135 56.669 57.136 57.295 57.027 57.26 56.75 56.446 55.98 55.44 48.317 46.924 46.919 47.016 47.157 47.24 47.319 47.404 47.51 47.621 47.723 47.961 47.83 47.888 48.065 48.253 48.509 48.546 48.67 48.64 48.752 48.792 48.854 51.766 52.26 50.874 52.249 55.47 57.378 56.884 56.189 55.602 55.925 56.276 57.079 56.683 56.268 55.463 54.031 50.113 49.917 50.858 51.703 55.755 55.662 53.778 53.124 53.057 52.927 53.034 53.044 53.059 53.072 52.976 53.064 53.082 53.178 53.304 53.38 57.179 56.232 59.857 62.116 62.578 62.383 62.815 63.196 63.328 63.675 62.76 55.128 55.073 60.363 63.106 63.107 62.318 62.884 58.476 56.521 55.408 54.777 54.805 54.848 54.96 55.06 55.166 55.284 55.369 55.477 55.507 55.582 56.343 55.695 56.097 56.264 56.033 60.751 62.276 63.609 65.005 65.24 66.613 58.272 57.14 57.226 57.374 58.594 59.809 59.211 59.255 61.281 59.808 59.063 58.942 59.147 59.846 60.426 62.38 63.515 63.754 62.773 62.218 62.809 62.904 63.157 63.337 63.596 63.841 64.004 64.141 64.201 64.405 64.892 65.343 65.713 66.315 67.007 67.612 66.589 66.857 67.156 67.078 66.908 67.228 66.976 67.426 67.266 67.516 68.051 67.791 67.443 67.517 67.633 67.705 67.778 68.043 68.018 68.054 68.194 68.274 68.392 68.462 68.557 68.614 68.673 68.726 68.858 68.933 68.984 69.067 69.241 69.312 69.468 69.498 69.614 69.677 69.791 69.904 69.979 70.081 70.137 70.368 70.63 70.569 71.87 71.512 70.664 70.576 70.64 71.216 71.149 76.851 77.255 79.011 78.362 78.155 75.517 72.84 71.891 71.066 71.106 71.337 71.563 71.561 71.647 71.578 71.527 71.516 71.507 72.114 72.047 72.461 71.438 71.574 71.751 71.79 71.844 71.746 71.658 71.578 71.527 71.567 72.48 71.656 72.04 72.038 72.127 73.49 73.673 74.159 74.505 71.449 72.984 71.929 71.875 72.18 72.215 72.343 72.307 72.091 71.91 75.627 79.064 79.47 79.027 74.26 74.955 75.85 76.288 74.042 74.882 71.837 72.045 71.757 70.263 70.26 70.154 70.859 72.024 70.01 71.772 71.385 71.292 78.258 81.939 80.693 83.11 81.384 78.445 77.026 74.929 75.138 74.234 77.121 82.096 85.098 81.927 78.535
37.495 43.781 43.192 43.146 43.077 43.138 43.116 43.045 43.164 43.119 43.122 43.181 43.13 43.19 43.141 43.11 43.216 43.222 43.143 43.149 43.137 43.113 43.114 43.202 42.941 43.045 43.009 43.089 43.001 43.027 43.017 42.972 35.504 35.412 35.347 35.348 35.408 35.534 35.532 35.729 37.263 37.332 42.58 42.866 42.873 44.41 42.752 40.348 38.339 35.803 35.481 35.555 35.224 34.438 34.192 34.024 34.322 36.198 35.995 35.756 35.791 35.846 35.869 36.008 36.459 38.425 41.419 39.182 41.248 41.558 43.088 39.891 43.027 44.937 45.152 45.701 45.753 45.907 45.992 45.405 40.199 43.795 43.69 40.572 40.227 38.274 38.03 38.018 38.432 39.864 39.522 39.138 40.449 42.493 40.681 47.248 51.847 44.869 46.184 45.064 45.834 44.311 40.98 40.905 40.962 40.993 40.957 40.97 42.25 48.034 48.655 49.377 49.857 49.702 48.994 47.71 45.236 42.974 42.096 42.126 42.169 42.312 42.539 44.529 43.035 43.205 42.655 42.626 42.756 42.843 42.982 45.956 46.639 47.847 45.627 44.968 44.719 45.295 45.319 46.369 51.768 54.429 54.988 55.362 57.52 56.746 56.925 56.72 56.815 56.363 56.025 56.522 55.583 51.44 47.491 46.778 46.814 46.979 46.844 46.956 47.047 47.132 47.233 47.378 47.478 47.676 49.428 51.144 52.178 47.978 48.154 48.376 48.384 48.467 48.651 48.649 48.684 48.728 48.834 48.915 52.845 50.145 49.925 53.814 55.933 57.412 56.774 54.51 56.853 57.089 56.426 55.899 55.293 51.943 49.362 49.79 50.524 51.32 51.801 57.324 58.969 55.244 53.175 54.252 53.079 52.933 52.968 53.033 53.017 53.009 53.042 53.279 57.163 57.114 60.163 61.895 62.06 62.434 62.438 63.617 63.518 63.408 63.498 63.039 62.919 62.528 56.441 54.377 60.255 61.63 56.543 56.398 54.527 54.543 54.606 54.639 54.803 54.9 54.962 55.051 55.107 55.219 55.304 55.38 55.422 55.466 55.76 55.889 56.16 63.278 61.55 63.76 64.936 65.279 65.849 66.25 66.338 67.381 60.324 57.391 57.438 57.592 57.821 59.59 58.801 58.371 58.421 58.61 59.192 59.69 60.962 60.895 61.139 62.49 63.483 63.301 62.873 62.859 63.066 63.15 63.47 63.62 63.87 64.059 64.207 64.36 64.579 64.851 64.945 65.204 65.46 66.348 67.443 67.798 67.081 66.908 66.972 67 66.966 66.991 67.549 67.204 67.276 67.319 67.36 67.466 67.558 67.651 67.765 67.823 67.93 68.034 68.113 68.23 68.269 68.355 68.487 68.55 68.64 68.664 68.821 68.904 68.985 69.617 69.161 69.348 69.371 69.474 69.555 69.655 69.752 69.891 69.973 70.138 70.174 70.328 70.421 70.581 70.964 72.213 72.696 72.43 72.144 71.18 70.955 71.3 71.301 71.44 72.457 76.671 77.003 77.241 74.526 73.964 72.119 71.325 71.479 71.864 75.589 76.537 77.852 73.942 73.062 75.117 72.876 71.651 71.677 71.767 71.826 71.86 71.938 72.026 72.026 71.973 71.996 71.952 71.858 71.9 71.768 71.713 71.741 71.605 71.555 71.436 71.339 71.296 71.59 71.835 72.665 71.94 71.975 71.981 72.195 72.182 72.089 71.954 72.036 72.999 78.609 79.616 79.448 75.661 72.705 73.608 75.921 77.748 74.647 74.328 73.289 73.077 72.98 71.711 72.323 72.87 72.518 72.207 75.083 75.43 77.159 82.482 82.958 81.977 84.258 82.516 81.042 76.827 75.92 75.269 81.451 79.992 87.477 80.067 85.465 78.437
35.289 36.694 42.425 42.409 42.456 42.49 42.412 42.464 42.525 42.476 42.515 42.581 42.602 42.607 42.586 42.572 42.582 42.642 42.634 42.834 42.772 42.68 42.702 42.681 42.735 42.686 42.712 42.659 42.784 42.657 42.769 42.428 35.505 35.449 35.379 35.41 35.418 35.43 35.514 35.5 35.772 37.352 41.711 44.987 44.428 43.22 42.419 39.834 35.858 35.691 35.475 35.656 35.5 34.444 34.137 34.031 34.188 35.044 35.893 35.732 35.752 35.795 35.844 35.907 36.097 36.338 40.886 42.104 40.792 37.89 36.485 37.207 42.563 45.823 46.009 45.834 45.528 45.235 44.898 44.311 40.683 44.359 44.561 42.478 41.184 38.603 38.174 38.518 39.934 40.764 43.173 40.505 42.261 45.129 49.593 51.713 52.246 52.248 53.275 50.971 48.436 44.984 41.234 40.804 40.881 40.956 40.936 40.897 41.186 48.211 49.097 49.785 49.671 48.655 48.102 47.666 45.837 45.173 43.216 42.074 42.173 43.648 45.691 46.519 45.957 43.571 42.575 42.569 42.659 42.719 42.82 43.038 48.479 49.341 45.376 45.148 45.656 51.309 52.845 53.653 54.683 55.233 56.044 56.315 56.411 56.57 56.205 55.694 55.619 55.38 50.59 47.396 46.053 46.226 46.323 46.668 46.668 46.797 46.794 46.942 47.027 47.105 47.192 47.302 47.357 47.662 53.695 56.953 57.877 50.399 48.255 48.268 48.322 48.428 48.475 48.572 48.619 48.644 48.756 48.758 51.715 52.697 49.498 49.871 54.365 57.123 57.388 57.106 56.9 56.319 55.804 55.158 49.974 49.345 49.748 50.377 51.082 51.732 52.125 54.225 58.993 55.455 53.125 54.782 52.993 52.893 52.985 53.039 53.008 53.028 53.144 59.499 61.274 61.685 62.158 62.425 63.107 63.077 62.946 62.787 63.05 62.934 62.134 61.796 61.369 61.158 57.34 54.728 54.304 54.284 54.304 54.382 54.528 54.626 54.71 54.729 54.842 54.898 54.993 55.059 55.611 56.378 55.477 55.431 55.494 56.843 62.65 62.618 64.057 64.798 64.938 65.434 66.361 66.778 67.042 67.165 66.849 66.851 64.151 57.816 57.649 57.744 57.93 58.036 58.191 58.322 59.023 59.639 60.224 60.972 61.163 61.653 61.708 62.171 62.627 63.012 63.289 63.227 63.372 63.457 63.637 63.923 64.04 64.249 64.437 67.719 67.397 65.096 65.26 65.408 65.461 66.174 66.546 66.847 68.222 66.968 67.12 67.298 67.122 67.284 67.314 67.262 67.376 67.429 67.488 67.562 67.674 67.817 67.871 67.884 67.953 68.037 68.09 68.085 68.204 68.292 68.336 68.428 68.512 68.616 68.711 68.831 68.932 70.834 69.16 69.307 69.375 69.548 69.562 69.735 69.887 70.025 70.137 70.185 70.319 70.485 70.544 70.7 70.873 71.376 71.09 72.825 72.973 71.67 72.149 71.622 71.483 71.895 72.972 72.071 71.582 73.168 72.619 73.501 71.997 71.627 71.965 72.519 75.796 78.8 80.134 80.373 79.639 78.585 75.958 74.161 71.902 72.022 74.47 72.216 72.13 72.268 72.259 72.251 72.241 72.266 72.268 72.241 72.193 72.178 72.175 72.107 72.013 71.859 71.767 71.622 71.558 71.95 72.689 72.569 72.117 72.111 72.285 72.316 72.262 72.324 72.497 72.955 74.359 76.934 74.55 77.401 77.278 74.578 75.946 76.83 76.861 75.036 75.374 72.092 73.105 71.893 72.059 71.592 71.742 73.094 75.887 74.799 79.019 83.491 84.148 84.671 81.251 83.551 80.021 76.825 75.868 79.342 85.061 80.638 88.193 88.325 87.779 83.105
