ncols 416
nrows 32
xllcorner    426050
yllcorner    436242
cellsize     2
NODATA_value -9999
56.36 56.321 59.307 57.311 56.342 56.514 58.581 59.229 59.83 57.643 60.41 59.504 60.431 65.873 69.439 69.473 71.792 71.458 75.767 74 76.084 71.777 61.544 67.662 70.546 66.438 62.845 61.785 61.75 61.843 62.333 62.53 62.987 63.109 63.835 64.287 64.585 65.112 64.976 64.91 65.189 70.823 73.985 75.253 75.605 74.849 73.692 68.057 65.405 66.662 67.469 66.097 65.699 65.847 66.442 66.276 66.312 66.305 68.719 67.07 68.077 67.608 75.104 76.335 70.383 69.012 68.476 68.745 69.285 69.351 69.427 72.874 80.891 81.545 78.808 78.23 85.93 89.031 89.502 91.557 91.499 89.158 90.347 89.624 84.923 75.738 74.934 74.873 74.743 75.242 76.628 81.889 90.595 82.742 90.574 92.741 91.988 91.664 86.258 95.008 87.215 86.232 91.859 95.039 97.328 94.985 91.177 93.842 92.262 89.904 93.019 101.147 102.305 102.726 103.197 95.968 103.593 102.484 97.878 101.311 101.225 99.754 101.363 98.594 97.116 100.025 100.054 102.262 102.455 101.582 100.855 96.068 98.61 98.732 102.302 102.528 101.338 99.075 91.032 91.361 92.934 92.92 92.908 92.911 90.298 87.791 87.87 88.377 87.806 87.393 87.998 91.457 91.989 91.98 91.983 91.835 87.286 91.146 91.683 91.709 91.664 90.86 87.374 86.697 88.605 87.21 87.395 87.084 86.236 86.142 86.05 86.08 86.641 86.038 86.603 86.031 85.928 86.029 86.03 85.901 85.61 85.581 85.609 86.224 86.127 86.127 86.396 86.157 88.876 90.995 84.726 84.186 84.088 84.086 84.518 84 84.01 84.104 86.516 88.891 89.054 89.068 89.064 89.049 88.687 85.411 88.034 89.075 88.077 84.221 84.074 84.32 83.711 83.686 83.475 83.382 84.023 85.595 84.199 83.376 86.505 87.568 87.395 85.103 82.973 82.838 82.761 82.591 82.575 82.525 82.47 82.477 82.411 82.287 82.209 82.459 82.504 82.487 81.878 81.929 81.796 81.517 81.564 81.618 81.587 81.584 81.578 81.505 81.165 81.237 81.494 81.96 81.932 81.541 81.266 81.406 81.536 81.653 81.557 83.35 86.14 87.03 86.818 85.572 84.52 86.657 86.436 83.431 83.333 85.89 83.963 83.052 82.665 82.406 82.227 82.334 82.28 84.267 83.82 85.492 85.04 82.827 83.068 82.882 82.388 82.591 82.553 83.646 85.421 89.123 87.447 83.975 82.49 82.373 82.381 82.227 82.143 81.953 81.854 81.86 81.788 81.831 81.898 82 81.897 81.971 82.419 82.551 81.885 81.783 81.878 82.063 81.973 81.741 82.41 82.89 83.761 86.181 84.47 85.1 87.725 87.418 85.925 82.798 81.788 82.625 85.637 87.863 85.65 84.977 85.959 85.234 83.829 82.069 81.654 81.749 81.961 82.03 81.623 81.544 81.764 82.193 81.786 82.056 82.152 82.02 82.385 82.74 82.511 82.074 81.793 81.796 81.829 81.639 81.995 82.329 82.042 81.937 82.257 82.592 82.94 83.574 83.101 82.289 81.557 81.755 81.448 81.799 81.876 82.14 82.158 82.448 83.302 86.13 88.189 88.66 89.168 88.531 86.171 83.846 83.1 83.159 83.202 83.52 85.373 87.893 88.716 87.432 84.002 83.227 83.442 83.494 -9999 -9999 83.024 82.866 82.821 83.031 83.004 82.933 82.925 83.081 83.431 83.514 83.449 83.268 83.197 83.971 83.987 83.601 83.583 83.625 83.585 83.602 83.708 83.751
56.455 56.269 56.222 56.201 56.167 56.231 56.644 57.208 56.938 56.492 56.611 57.419 58.978 66.465 65.9 68.259 68.294 64.374 73.103 75.87 76.676 71.117 61.394 61.421 61.923 62.587 61.696 61.725 61.749 61.736 62.562 67.174 72.072 65.117 63.476 64.124 64.716 64.796 64.984 65.444 66.221 66.911 73.266 74.577 75.606 75.742 75.806 66.581 65.53 67.318 65.546 65.395 66.556 65.851 65.9 66.026 66.334 66.741 66.517 66.579 66.947 74.397 81.331 81.706 74.909 68.265 68.219 68.482 68.861 69.472 69.511 71.73 79.1 80.019 77.774 75.144 83.171 87.504 89.829 79.437 90.207 90.511 86.197 87.647 88.011 85.496 75.499 74.909 74.743 74.87 75.655 81.172 87.085 89.109 88.007 82.965 91.729 92.945 80.946 89.24 93.86 93.16 94.375 88.186 86.357 91.653 90.212 96.358 94.394 94.573 96.616 99.773 100.79 102.471 103.009 102.177 102.408 95.058 98.521 98.288 100.264 96.685 99.154 88.527 100.19 99.902 101.927 98.598 101.355 90.471 91.245 95.312 99.515 101.976 101.614 102.994 102.733 101.558 90.383 88.807 91.109 92.901 92.917 92.916 90.065 88.269 89.008 87.851 88.214 87.183 87.983 91.883 91.981 92.001 92.001 89.054 87.881 91.436 91.692 91.708 91.715 91.693 90.721 86.79 87.337 88.877 87.549 86.611 86.106 86.102 86.026 85.953 85.859 85.838 85.879 86.451 86.12 86.032 85.962 85.683 85.78 85.684 85.601 85.955 86.928 87.7 86.166 85.724 86.094 87.926 84.417 84.155 83.964 84.006 84.596 83.978 83.965 83.96 85.241 86.038 86.804 89.061 89.069 89.082 89.052 89.05 86.491 85.611 85.149 85.728 84.819 84.544 84.1 83.66 83.391 83.418 84.255 85.415 84.355 83.776 87.469 87.671 87.613 87.254 82.971 82.698 82.735 82.604 82.518 82.549 82.472 82.336 82.248 82.244 82.145 82.175 81.978 81.858 81.817 82.07 81.879 81.491 81.573 81.538 81.424 81.484 81.535 81.297 81.119 81.283 81.275 81.368 81.538 81.571 81.307 81.181 81.473 82.064 83.358 84.488 86.798 86.658 84.837 83.222 83.348 84.312 84.301 83.006 82.587 82.783 82.622 82.713 82.5 82.405 82.118 81.94 82.65 86.779 90.031 93.08 85.871 82.241 82.89 82.409 82.503 82.619 82.498 83.177 84.344 88.124 85.895 83.998 82.788 82.471 82.26 82.224 81.896 81.831 81.685 81.605 81.606 81.802 81.925 81.744 81.834 82.004 82.063 82.385 81.99 81.866 81.841 82.162 81.957 81.93 81.778 81.775 82.456 82.386 82.372 83.168 84.475 83.475 82.498 81.809 81.859 83.653 86.213 87.151 87.581 88.107 88.21 88.046 84.956 81.941 81.544 81.671 81.791 81.608 81.413 81.334 81.385 81.64 81.452 81.661 82.284 82.154 82.339 82.087 81.775 81.835 81.808 81.901 82.023 81.81 82.712 83.587 83.383 82.163 81.988 81.941 82.749 82.667 81.969 81.499 81.472 81.678 81.702 81.45 81.65 81.776 81.711 81.943 82.226 83.402 85.151 87.258 86.021 85.892 86.279 84.334 82.943 83.23 83.218 83.135 83.602 84.722 86.254 84.902 83.532 83.142 82.853 82.915 -9999 -9999 -9999 82.784 82.795 82.821 82.8 82.687 82.591 82.819 83.076 83.266 83.136 82.964 83.441 84.977 83.905 83.272 83.613 83.615 83.513 83.547 83.617 83.632
57.776 56.738 57.715 56.122 56.116 56.104 56.149 56.249 56.274 56.267 56.472 56.649 56.892 57.854 57.86 62.18 68.505 67.338 66.27 69.282 67.565 65.663 61.653 61.534 64.119 61.699 61.675 61.762 61.726 61.716 63.704 71.428 74.192 68.951 64.549 63.938 64.373 64.806 64.776 64.898 64.938 65.051 70.003 74.434 75.846 69.963 66.593 64.865 64.801 64.954 66.861 67.557 66.372 66.076 65.798 65.901 66.1 66.84 67.092 67.731 68.251 67.255 76.351 75.174 70.823 68.501 68.622 68.428 69.201 75.872 76.684 73.825 72.39 72.345 71.141 71.329 79.932 79.904 85.137 88.242 90.679 90.526 91.479 91.361 89.34 89.384 85.77 75.037 74.781 74.695 74.891 77.48 86.162 83.184 89.434 91.458 88.892 90.405 89.53 93.404 93.802 93.74 83.969 88.107 94.564 85.348 87.249 97.509 95.493 95.07 94.086 96.395 99.811 101.249 100.258 98.385 101.047 92.751 97.006 92.897 91.871 89.1 89.155 94.563 98.093 101.397 102.724 100.74 100.545 91.975 96.968 95.454 99.761 100.943 103.427 103.268 101.766 100.828 89.281 87.642 87.851 90.5 92.774 88.806 88.563 89.448 89.405 88.121 87.065 89.455 91.977 91.964 91.986 91.993 88.539 86.842 86.739 86.841 90.808 91.707 91.71 91.698 91.711 91.622 89.362 86.625 86.721 88.482 86.994 86.021 86.015 85.898 85.813 85.831 86.32 85.93 86.077 85.954 85.824 85.744 86.152 85.497 85.012 85.78 85.926 85.838 85.426 85.442 85.015 84.352 84.107 83.979 84.428 84.076 84.703 83.931 84.044 83.966 83.91 84.605 84.698 85.486 88.823 89.084 89.047 89.062 88.976 85.605 84.68 84.281 84.513 83.653 83.617 83.391 83.312 84.191 84.377 82.823 83.853 87.179 87.688 87.67 87.614 86.296 82.696 82.597 82.65 82.534 82.401 82.357 82.383 82.301 82.169 82.098 82.129 81.969 81.879 81.795 81.789 81.788 81.724 81.697 81.553 81.466 81.331 81.273 81.174 81.05 81.068 81.136 81.068 81.018 81.222 81.439 81.366 81.206 81.428 83.152 83.933 84.742 85.722 84.071 83.006 81.942 81.836 82.088 83.077 83.037 82.761 82.64 82.719 82.636 82.689 82.477 82.126 81.867 82.35 82.921 87.294 86.003 82.31 81.83 82.169 82.322 82.366 82.19 82.132 82.75 84.522 84.216 82.19 82.234 82.454 82.694 82.704 82.296 81.93 81.976 81.824 82.337 84.385 82.191 81.901 81.873 82.376 82.358 82.01 82.026 81.855 81.765 82.082 82.785 82.113 81.932 81.761 81.722 81.676 81.768 81.691 81.618 81.663 81.855 81.709 81.68 81.605 83.881 86.007 83.953 85.19 87.612 88.018 88.171 85.578 82.57 81.409 81.543 81.621 81.428 81.395 81.597 83.828 84.74 83.213 82.693 83.309 81.868 82.235 82.758 81.568 81.899 81.742 82.032 82.473 82.553 83.951 84.707 83.05 81.886 81.76 81.62 81.717 82.174 81.801 81.29 81.469 81.684 81.647 81.458 81.494 81.419 81.451 81.457 81.893 82.392 82.513 83.693 82.866 83.03 83.818 82.95 82.751 82.976 83.031 83.094 83.189 83.34 83.669 83.248 83.298 83.193 82.51 82.526 -9999 -9999 82.665 82.69 82.7 82.617 82.467 82.444 82.279 82.622 82.95 82.962 82.91 83.228 85.098 86.857 85.208 83.668 83.692 83.42 83.394 83.438 83.489 83.494
56.161 58.016 57.768 56.586 56.087 56.102 56.06 56.097 56.196 56.202 56.344 56.579 57.858 58.447 57.226 58 65.785 64.895 62.422 65.14 70.608 68.518 73.066 68.83 72.829 63.704 62.546 61.728 61.698 61.734 61.828 64.514 65.379 68.946 68.915 65.878 64.896 64.288 64.282 64.503 64.735 64.971 66.182 71.977 69.225 64.529 64.468 64.486 64.692 65.321 67.627 65.893 65.711 65.68 65.679 65.851 65.943 66.225 69.097 68.49 66.946 66.692 66.81 66.9 67.695 68.647 70.24 73.355 76.344 77.654 78.469 72.643 71.195 70.373 70.519 72.921 73.698 77.549 84.829 86.993 90.16 90.74 91.451 91.833 90.933 85.156 88.815 74.924 74.884 74.728 74.686 75.725 80.005 84.882 86.405 89.348 90.508 91.174 91.298 89.532 86.552 94.161 86.893 86.356 87.725 92.883 90.059 97.68 97.424 95.699 93.386 96.829 98.618 99.226 92.868 97.447 101.082 99.06 96.022 89.176 96.466 97.225 96.319 98.973 99.557 103.337 102.944 101.873 102.429 89.203 96.132 103.667 101.626 102.105 103.242 102.457 101.311 98.759 99.087 94.685 93.168 88.564 93.446 87.622 87.376 87.643 89.477 89.158 87.682 90.729 91.993 91.994 91.997 91.832 87.148 86.78 86.751 86.641 86.706 88.663 91.349 91.697 91.693 91.709 91.685 89.826 86.596 87.656 86.677 86.02 85.916 85.859 85.929 86.921 86.214 86.077 85.954 85.799 85.896 85.607 85.495 84.894 84.903 85.293 85.77 85.43 85.655 85.915 84.463 84.21 84.034 83.966 83.95 83.934 83.983 84.112 84.155 83.89 83.911 84.104 83.901 84.135 86.932 88.908 89.059 89.036 89.077 84.59 83.761 84.5 83.699 83.967 83.399 83.323 84.615 85.332 83.686 82.999 86.605 87.682 87.693 87.664 86.428 82.759 82.536 82.558 82.6 82.466 82.349 82.219 82.228 82.246 82.108 81.969 81.906 81.99 81.982 81.711 81.681 81.639 81.718 81.607 81.5 81.473 81.369 81.138 81.02 80.983 80.965 80.956 80.957 81.015 81.137 81.271 81.363 81.66 83.135 84.257 84.361 83.33 82.599 82.978 81.452 81.556 81.375 81.993 82.328 82.778 82.856 82.948 82.607 82.978 85.246 84.616 82.227 81.677 81.964 84.476 86.708 82.758 82.082 81.98 82.062 82.12 81.973 81.987 81.925 82.105 82.697 82.319 82.034 82.717 85.972 83.293 88.08 83.307 81.621 82.81 83.669 85.579 95.329 86.209 82.617 83.194 87.9 86.59 82.976 81.831 81.726 81.793 82.437 83.364 82.121 81.798 81.797 81.639 81.699 81.885 81.778 81.526 81.532 81.707 82.33 81.816 81.836 81.742 81.61 81.402 82.097 83.575 85.829 86.915 84.515 81.708 81.951 81.64 81.38 81.312 81.383 82.431 86.104 87.303 87.121 86.646 86.708 85.735 85.092 84.518 81.526 81.847 81.842 81.778 81.677 81.89 83.332 82.638 82.076 81.772 82.036 81.789 81.795 81.614 81.436 81.369 81.459 81.508 81.422 81.4 81.368 81.31 81.228 81.368 81.486 81.734 81.838 81.943 82.135 82.189 82.335 82.497 82.601 82.753 82.868 82.979 83.011 83.067 83.124 83.193 83.366 83.319 82.866 82.48 82.246 82.329 82.486 82.608 82.713 82.402 83.06 83.692 83.351 82.812 83.089 83.17 83.106 84.493 87.474 88.359 86.228 83.755 83.361 83.408 83.415 83.341 83.394 83.454
55.612 56.044 57.889 58.191 57.548 56.087 56.011 56.066 56.084 56.831 56.965 56.722 61.802 60.799 58.093 57.72 60.814 67.111 64.861 70.064 72.911 74.306 70.634 74.903 67.531 70.787 62.205 61.704 61.676 61.741 61.699 61.867 66.647 71.767 71.897 65.014 64.142 63.834 64.098 64.367 64.588 65.004 64.917 65.105 64.251 64.129 64.244 65.406 65.011 65.455 67.455 65.412 65.48 67.182 67.46 66.713 65.857 65.97 68.639 70.173 70.311 67.165 66.761 66.852 67.161 68.527 72.456 73.059 76.478 76.749 74.595 70.284 70.235 69.285 76.611 79.856 83.359 84.904 86.862 80.536 85.973 89.584 81.742 86.899 87.358 90.237 90.078 85.388 75.029 74.845 74.654 74.789 75.812 82.56 84.207 88.89 82.052 85.947 87.821 91.067 89.492 94.772 94.957 88.74 88.781 95.069 95.468 96.989 96.764 93.062 87.356 89.399 97.157 94.762 97.923 98.46 99.997 98.864 92.309 89.048 99.904 100.136 92.982 98.495 98.209 102.137 103.005 102.358 93.625 99.344 93.186 97.331 101.081 102.096 101.509 101.426 100.608 99.344 99.181 101.124 99.978 99.831 99.367 94.432 87.369 87.185 87.278 87.989 91.385 91.997 92.008 92.002 90.954 86.894 86.898 86.844 86.744 86.601 86.632 86.649 89.832 91.427 91.698 91.705 91.695 91.742 89.359 86.498 90.021 86.527 86.001 85.861 85.841 86.068 86.231 86.001 85.896 85.838 87.238 86.781 85.342 84.784 87.942 87.56 85.064 85.535 86.011 84.657 84.294 84.002 87.262 86.957 83.964 83.874 83.935 83.96 83.878 83.944 86.424 85.148 83.807 83.888 84.323 84.992 87.652 88.673 84.847 83.734 83.643 83.33 83.892 83.553 83.342 83.374 83.625 83.43 82.964 85.48 87.477 87.667 87.693 87.677 83.591 82.632 82.618 82.555 82.475 82.404 82.296 82.154 82.192 82.113 82.021 81.917 81.827 81.795 81.87 81.767 81.622 81.566 81.556 81.522 81.564 81.496 81.227 81.161 81.064 81.016 80.958 80.917 80.953 81.024 81.113 81.068 81.582 83.153 84.378 84.539 84.726 82.045 81.183 81.227 81.083 81.357 81.432 81.912 83.217 87.514 85.037 82.743 82.477 87.095 92.137 86.817 82.803 82.46 81.9 83.972 87.013 85.445 82.404 82.127 81.729 81.714 81.677 81.879 81.874 81.861 81.902 81.624 82.097 82.329 89.448 88.515 85.044 82.023 81.521 83.695 89.416 94.313 94.666 90.16 87.896 86.014 87.793 85.722 83.199 81.867 81.863 81.851 81.75 81.972 81.918 81.902 81.734 81.687 81.764 81.615 81.741 81.68 81.646 81.546 81.845 81.665 81.497 81.196 81.329 81.482 82.036 81.821 82.651 82.742 81.864 81.38 82.402 81.586 81.32 81.285 81.346 83.764 87.125 88.152 88.589 88.551 88.398 88.4 87.575 84.156 81.425 82.553 84.968 83.596 83.631 83.327 82.873 82.577 81.422 81.342 81.913 82.06 81.928 81.761 81.458 81.349 81.346 81.429 81.412 81.394 81.282 81.228 81.061 81.186 81.286 81.415 81.5 81.654 81.616 81.448 82.015 82.221 82.412 82.591 82.76 82.937 82.933 82.928 82.952 83.164 83.336 82.91 82.581 82.097 82.091 82.285 82.412 82.641 83.066 84.475 86.496 87.514 85.415 84.478 83.638 83.753 85.275 87.304 88.168 89.167 88.058 86.11 83.415 83.777 83.411 83.182 83.239 83.332
55.69 55.599 55.864 56.995 58.092 58.137 56.393 56.716 56.081 56.338 57.731 56.799 64.156 64.43 65.015 63.698 68.779 69.549 59.487 72.206 71.37 70.196 72.747 73.545 66.562 73.055 66.125 61.804 61.66 61.692 61.695 61.672 62.902 72.203 70.165 63.881 63.506 63.689 63.953 64.157 64.602 65.267 64.218 63.754 63.799 64.017 65.477 65.587 71.171 74.953 71.83 65.8 70.027 69.313 68.477 67.348 65.809 65.825 65.938 70.429 70.829 67.028 66.675 66.911 70.466 72.441 74.48 72.277 71.807 71.36 70.709 69.176 69.571 68.982 77.199 79.375 84.025 85.525 87.11 87.598 87.718 88.706 89.598 91.272 90.904 91.384 91.295 81.906 74.919 74.897 74.734 74.637 75.031 76.282 77.149 87.03 88.801 81.717 88.333 90.957 91.402 91.317 94.01 93.807 95.271 94.664 95.49 93.833 94.093 93.868 85.528 92.501 98.299 94.351 95.672 97.032 97.761 96.205 94.206 90.092 100.123 98.748 91.78 95.509 98.928 99.713 100.911 100.611 101.381 100.102 96.494 100.952 99.157 101.448 92.69 100.96 98.688 93.862 91.451 90.551 100.712 98.633 101.313 95.873 88.064 87.085 87.082 87.082 87.179 90.961 91.962 91.927 89.27 86.814 86.728 86.884 86.625 86.666 86.686 86.539 86.858 87.782 91.571 91.717 91.701 91.693 88.241 88.636 91.386 91.446 88.369 85.991 85.963 86.061 86.003 85.941 85.672 85.608 85.88 85.841 84.899 86.661 89.722 89.799 89.533 85.828 85.386 84.329 84.166 84.086 87.242 89.045 88.683 84.713 84.004 84.008 85.67 87.58 87.723 86.133 84.132 83.922 83.76 83.772 84.062 84.264 83.774 83.832 83.369 83.441 83.317 83.319 83.608 85.183 84.109 83.037 86.479 87.671 87.656 87.642 87.511 83.448 83.099 83.212 82.714 82.599 82.41 82.357 82.262 82.209 82.162 82.074 82.002 81.882 81.883 81.815 81.705 81.709 81.663 81.528 81.453 81.429 81.412 81.165 81.259 81.269 81.011 80.929 80.955 80.925 80.901 80.988 81.311 81.549 81.884 83.651 84.26 83.601 84.49 81.699 81.027 80.798 81.088 81.176 81.216 82.33 88.114 93.674 87.638 82.292 82.856 86.54 85.443 83.795 90.227 83.516 81.176 82.002 83.259 82.61 81.777 82.034 81.714 81.538 81.409 81.638 81.718 81.726 81.627 81.408 82.725 87.476 88.334 84.589 81.777 81.248 83.389 88.337 95.212 95.456 95.018 89.276 96.079 88.732 87.836 83.456 83.115 81.982 82.137 82.012 82.638 82.302 81.85 81.762 81.634 81.699 81.801 82.279 81.96 81.679 81.487 81.62 81.682 81.485 81.329 81.328 81.369 81.797 84.72 83.173 81.28 81.279 81.547 81.297 81.116 81.578 81.237 81.13 81.128 83.227 85.967 87.203 87.295 87.169 87.734 87.844 87.124 83.303 81.271 83.306 86.293 86.782 87.285 86.449 84.786 85.41 84.364 81.895 82.453 82.247 81.825 81.568 81.439 81.296 81.327 81.559 81.44 81.452 81.404 81.255 81.194 81.202 81.063 81.221 81.391 81.316 81.215 81.383 81.72 81.758 82.138 82.518 82.814 83.03 82.853 82.588 82.158 82.384 82.724 82.563 82.182 81.902 82.075 82.318 82.44 82.644 85.255 87.592 88.262 88.511 86.937 84.746 83.202 83.126 83.864 85.702 87.301 89.972 89.136 87.255 83.507 83.355 82.983 82.872 83.183 83.336
55.388 55.4 55.369 55.4 56.967 57.626 57.384 58.171 57.861 57.742 61.845 62.88 63.918 67.322 69.715 67.107 60.701 67.672 74.481 74.205 72.718 71.073 73.634 76.172 77.48 76.755 65.493 63.832 61.968 62.886 61.671 61.703 61.897 63.587 65.936 65.105 64.608 66.508 63.957 64.123 63.779 63.606 63.531 63.555 63.778 65.793 65.516 72.934 73.907 74.996 74.035 72.967 72.307 71.125 68.815 68.332 67.234 66.776 65.91 68.848 67.9 66.962 67.416 67.568 71.479 73.695 71.701 70.811 69.095 70.296 69.39 69.261 73.029 72.858 70.956 78.618 82.232 86.238 86.604 87.436 86.347 87.673 89.128 90.655 92.086 88.17 90.96 83.473 74.97 74.84 74.831 74.606 74.657 75.584 78.66 84.658 88.232 83.492 85.95 82.961 84.523 90.49 89.905 92.523 93.804 95.432 95.015 92.213 95.4 98.236 97.57 96.725 98.314 98.467 97.496 98.389 91.806 89.499 94.378 96.809 99.64 98.581 100.677 97.238 97.535 98.374 101.365 99.928 98.804 101.291 100.644 100.41 101.17 101.211 99.64 96.993 96.757 100.909 99.728 99.156 101.33 100.103 102.131 100.642 97.018 87.075 87.08 87.017 86.978 86.952 88.314 87.866 86.956 86.871 86.69 86.637 86.636 86.613 86.702 86.704 86.993 86.596 86.701 90.701 91.661 87.593 89.257 90.922 91.406 91.406 91.204 86.581 85.941 85.913 85.941 85.741 85.645 85.811 85.207 84.911 86.044 89.266 89.83 89.797 89.783 86.723 84.548 84.146 84.592 88.56 89.035 89.034 89.048 87.176 86.521 83.915 84.274 84.889 87.62 83.783 83.489 83.541 83.616 83.652 83.689 83.507 83.748 84.598 84.38 84.25 83.338 87.908 86.171 84.351 88.391 83.032 86.688 87.646 87.668 87.677 86.889 82.731 83.907 82.897 82.722 82.425 82.37 82.325 82.368 82.257 82.15 82.054 82.064 81.956 81.814 81.799 81.621 81.578 81.616 81.487 81.387 81.305 81.283 81.173 81.211 81.406 81.529 81.069 80.97 80.875 80.799 81.389 84.332 84.308 82.545 83.381 83.31 82.379 83.53 81.542 80.921 80.845 80.984 80.812 80.858 82.56 87.038 89.612 84.709 82.401 81.925 81.967 86.247 85.162 87.572 82.649 81.453 81.706 81.493 81.482 81.668 81.577 81.283 81.398 81.403 81.163 81.373 81.593 81.493 81.197 82.624 84.261 84.968 81.486 81.252 82.662 85.837 90.39 90.875 89.253 97.642 99.331 94.574 89.509 94.49 92.018 83.736 81.739 81.454 81.931 83.473 83.844 82.102 81.741 81.555 81.659 81.82 83.012 82.39 81.64 81.807 82.401 82.522 82.273 83.254 82.055 81.759 83.426 85.388 84.993 81.659 81.302 81.301 81.136 81.155 81.571 81.255 81.108 81.204 81.397 81.778 83.61 83.957 82.818 84.378 86.136 83.373 81.634 81.155 82.746 86.382 87.626 88.527 88.108 88.253 87.776 86.979 84.722 82.694 82.141 81.498 81.334 81.318 81.328 81.394 81.678 82.008 81.596 81.4 81.334 81.326 81.375 81.242 81.202 81.236 81.189 81.097 81.377 81.419 81.439 81.956 82.906 83.256 83.229 82.58 82.131 81.806 81.895 82.112 81.892 81.689 82.002 82.204 82.442 83.133 84.144 86.521 87.969 87.669 87.457 84.369 84.344 84.547 83.605 82.82 83.194 84.503 88.781 89.749 88.863 86.009 83.752 83.316 83.352 83.524 83.42
55.097 55.124 55.758 57.627 59.569 59.867 57.833 58.371 60.204 61.913 63.277 63.451 63.827 67.691 68.187 65.98 58.595 67.283 74.223 76.305 76.81 77.337 75.408 77.297 75.886 75.014 72.821 61.562 66.572 71.255 63.908 61.666 61.659 62.01 67.842 68.893 68.269 68.464 63.948 63.242 63.269 63.174 63.251 63.549 64.21 65.111 69.588 74.413 75.314 75.626 74.578 73.689 74.847 72.788 70.959 68.656 67.751 66.433 66.039 65.814 66.216 67.46 69.36 71.697 71.226 70.863 71.482 68.66 70.733 71.629 70.374 74.042 75.414 74.619 69.052 77.34 81.44 85.555 86.147 85.048 85.826 85.119 87.507 88.895 92.116 91.498 90.228 85.364 75.393 74.865 74.821 74.731 74.592 74.797 76.426 77.996 81.504 90.549 86.695 88.352 87.018 90.627 94.756 84.543 80.821 89.279 91.393 84.405 95.438 97.041 91.021 97.716 98.062 92.217 92.244 98.514 95.833 94.736 88.857 97.67 96.428 99.956 98.971 97.694 100.062 98.548 95.894 92.931 93.105 99.373 100.834 98.29 97.316 92.788 99.356 97.662 91.48 87.556 98.447 92.445 100.301 101.807 99.288 100.216 99.024 90.829 87.037 86.974 87.014 86.946 86.968 86.989 86.941 86.784 86.691 86.631 86.625 86.579 86.595 86.578 86.702 86.633 86.588 86.705 87.803 86.658 91.14 91.426 91.412 91.415 90.657 86.748 86.38 85.857 85.776 85.667 87.176 86.864 87.02 85.231 89.434 89.819 89.818 89.802 89.206 84.679 84.495 84.131 84.781 87.155 88.985 89.021 89.056 89.019 89.06 86.882 84.281 84.057 84.394 83.857 84.759 83.637 83.456 84.118 83.386 83.258 83.647 83.339 83.288 83.318 83.363 90.081 90.658 83.711 84.765 87.51 87.685 87.677 87.673 86.57 82.864 82.7 82.652 82.584 82.495 82.349 82.311 82.308 82.318 82.221 82.056 82.347 82.029 81.969 81.807 81.65 81.886 81.57 81.384 81.488 81.382 81.29 81.176 81.16 81.056 81.284 81.906 81.51 80.97 80.864 80.744 82.541 87.405 87.944 85.951 84.034 82.016 81.725 81.855 81.323 80.898 80.828 80.616 80.693 80.797 81.367 82.554 83.415 82.512 82.08 81.617 81.802 84.156 83.751 82.251 81.699 81.457 82.6 83.824 81.515 81.346 81.342 81.471 81.295 81.24 81.133 81.804 82.137 81.999 81.412 81.832 82.079 81.177 81.381 82.175 84.313 87.692 89.301 84.372 82.535 92.874 96.654 92.607 87.968 97.184 90.594 87.247 82.076 81.68 81.356 82.299 83.651 83.5 83.58 81.61 81.587 82.554 83.243 83.086 83.016 82.301 82.95 82.535 82.337 85.801 84.905 84.035 84.554 83.804 82.35 81.279 81.053 81.309 81.3 81.605 82.631 81.484 81.154 81.15 81.209 81.731 81.485 81.393 81.556 81.665 82.025 81.343 81.092 81.024 82.721 85.981 85.666 86.652 87.581 87.939 88.131 87.578 86.343 83.522 81.927 81.779 81.345 81.617 83.177 81.681 82.081 82.293 81.731 81.407 81.374 81.386 81.421 81.432 81.339 81.233 81.208 81.246 81.578 81.628 82.273 84.821 82.704 85.396 83.765 81.752 81.712 81.686 81.751 81.859 81.84 81.822 82.043 82.206 83.078 85.95 86.511 87.836 88.302 88.079 84.613 84.056 83.544 84.047 83.6 82.884 83.043 84.886 87.972 89.286 89.337 88.523 86.893 83.822 83.821 83.78 83.543
54.836 55.075 58.942 58.797 61.409 60.719 60.265 58.154 57.578 63.381 65.863 63.138 66.142 68.331 67.758 66.555 60.337 61.764 70.995 72.686 74.566 68.334 73.921 75.842 76.25 76.555 70.779 61.672 63.027 64.47 61.649 61.662 61.795 67.818 69.256 69.846 69.133 69.061 66.313 62.786 62.834 62.972 63.734 64.653 64.922 64.979 68.73 74.895 74.854 75.662 75.398 74.292 73.354 72.914 71.87 67.582 66.042 65.671 67.633 67.037 68.203 67.646 70.745 70.503 70.32 70.464 70.614 69.211 71.222 73.442 75.13 75.69 76.382 75.506 72.975 70.053 71.659 79.331 83.153 84.493 77.506 84.216 86.313 87.319 88.229 88.719 87.322 77.181 75.681 74.933 74.881 74.77 74.64 74.603 75.505 80.067 82.894 87.564 90.364 90.746 90.625 93.056 88.086 91.759 88.961 82.035 90.231 85.164 93.694 96.444 96.808 97.248 94.491 97.198 94.306 97.148 87.664 92.478 95.764 96.464 98.3 99.152 100.091 100.488 99.597 99.518 89.064 93.161 99.078 88.675 93.716 98.71 90.038 89.501 92.004 97.994 97.301 92.495 95.245 101.33 102.62 100.803 101.309 99.524 91.657 97.739 93.936 91.852 91.331 87.703 86.958 86.922 86.81 86.631 86.609 86.593 86.598 86.583 86.579 86.538 86.557 86.542 86.539 86.415 86.325 89.698 91.39 91.373 91.4 91.225 87.06 86.295 86.048 85.997 87.269 88.259 85.437 85.974 87.058 88.501 89.692 89.794 89.808 89.635 85.673 84.617 84.434 84.213 84.234 84.387 87.605 88.913 89 89.041 89.056 89.062 87.92 84.051 84.325 83.828 83.647 83.866 85.427 83.704 83.237 83.252 83.252 83.271 83.255 83.26 84.099 89.647 84.743 82.737 85.514 87.677 87.682 87.691 87.684 83.338 82.792 82.777 82.69 82.485 82.34 82.303 83.072 82.955 82.219 82.086 82.033 84.792 84.473 82.156 82.413 82.83 83.31 82.944 84.394 81.598 81.383 81.302 81.226 81.069 81.082 81.23 81.439 81.467 81.038 80.818 81.577 83.047 88.948 89.376 87.031 84.118 82.195 81.267 80.641 80.69 80.715 80.72 80.673 80.822 81.166 81.187 81.752 82.436 83.046 82.042 81.127 80.763 81.158 81.409 81.769 81.428 81.311 81.221 83.423 83.312 82.082 81.2 81.206 81.141 81.176 81.175 84.702 84.864 83.43 83.339 82.012 81.223 81.133 81.929 87.752 87.686 87.749 81.915 81.099 81.542 87.287 87.761 95.2 90.876 89.309 85.352 84.265 86.332 83.019 81.208 81.132 82.403 85.42 83.408 81.612 81.362 82.231 83.786 83.974 83.586 82.729 82.333 81.981 82.64 84.057 82.525 81.87 83.478 81.914 81.193 81.018 81.119 81.874 83.119 82.251 82.718 81.13 81.078 81.158 81.372 82.321 81.43 81.34 81.422 81.332 81.159 81.128 81.035 81.005 81.753 84.014 81.62 83.774 86.098 84.65 83.268 86.979 85.404 83.546 81.857 81.733 81.444 82.69 86.197 85.464 84.316 83.711 83.184 82.108 81.64 81.467 81.491 81.751 81.363 81.306 81.185 81.103 81.19 82.155 84.101 89.704 86.18 84.058 83.122 82.4 82.047 81.81 81.836 81.98 82.106 82.236 82.135 82.307 83.408 85.943 87.095 88.355 88.531 87.301 85.205 83.134 82.55 83.161 83.241 82.865 82.718 83.673 85.548 88.237 89.446 87.803 85.784 83.259 83.112 83.525 83.63
55.89 55.301 58.915 61.286 60.719 61.188 60.155 55.911 59.648 58.792 64.474 65.435 66.405 67.668 68.151 65.185 61.568 58.147 64.283 60.799 73.075 70.217 67.588 75.64 73.827 75.416 70.66 61.566 61.333 61.634 61.67 61.658 61.677 67.859 70.133 69.807 68.855 68.077 63.873 62.493 62.923 63.519 64.804 64.933 65.218 65.12 65.869 72.073 74.013 75.051 75.762 75.119 74.033 72.941 66.468 65.533 65.573 65.794 68.276 70.467 68.886 67.649 68.7 66.839 66.763 68.328 68.768 68.786 73.366 75.527 77.43 77.012 76.711 75.752 75.083 70.591 68.886 71.733 71.501 74.146 75.739 77.269 79.75 79.399 84.636 79.674 77.012 75.528 75.871 75.123 74.816 74.826 74.732 74.566 74.78 76.072 79.075 86.028 87.465 79.768 87.186 92.6 89.423 92.292 84.205 92.883 92.116 92.619 94.556 95.735 89.125 91.732 96.532 92.997 94.911 93.372 96.009 94.77 97.04 97.663 95.888 98.332 99.41 98.244 100.036 99.391 90.406 90.105 89.609 94.933 89.999 97.606 99.84 90.447 88.385 91.253 92.478 99.331 101.165 101.891 101.289 102.216 99.448 100.252 100.297 99.743 97.527 97.593 98.071 92.782 88.866 86.787 86.638 86.64 86.595 86.606 86.558 86.584 86.575 86.547 86.693 87.509 86.459 86.894 90.696 91.42 91.409 91.395 91.383 87.984 87.437 86.882 85.921 85.605 86.62 86.24 85.268 84.825 88.613 89.813 89.808 89.826 89.775 85.555 84.706 84.597 84.311 84.198 84.142 84.055 83.986 84.975 88.772 89.041 89.065 89.052 89.072 88.806 85.614 84.287 83.861 84.181 84.095 83.71 83.316 83.23 83.246 83.277 83.216 83.307 83.524 84.412 82.917 85.41 87.661 87.648 87.677 87.678 85.069 83.041 82.554 82.562 82.543 82.514 82.324 83.394 83.1 82.95 83.635 82.426 85.945 86.984 86.959 85.856 83.4 86.417 85.336 87.626 87.023 82.037 81.196 81.144 81.21 81.122 81.084 80.998 80.982 81.086 80.959 80.761 84.672 88.731 88.571 86.299 85.412 83.907 82.113 81.007 80.461 80.574 80.565 80.691 80.612 81.916 82.865 83.243 82.495 86.166 85.569 82.566 81.718 80.424 81.198 81.604 81.512 81.462 81.474 81.227 82.109 85.942 82.078 81.183 81.126 81.135 81.077 81.226 83.322 87.951 84.821 87.543 82.228 84.012 85.698 84.155 87.59 87.728 83.904 81.722 80.89 82.118 88.1 91.545 94.731 85.655 87.187 85.918 84.047 87.676 85.907 82.197 80.891 81.217 82.433 83.258 81.476 81.072 81.108 82.237 82.941 83.127 83.424 81.94 82.024 81.496 81.545 80.946 81.11 82.077 82.452 81.788 81.772 81.409 81.356 82.369 83.264 83.567 81.368 81.054 81.093 81.146 81.143 81.238 81.232 81.564 81.376 81.143 81.063 81.081 81.006 81.009 80.994 81.118 81.427 82.122 81.686 81.608 83.066 81.725 82.63 81.563 81.706 82.77 86.468 87.568 87.511 87.195 86.4 85.192 84.271 82.646 81.768 81.751 81.933 81.319 81.342 81.222 81.099 81.051 81.165 82.455 84.897 85.728 84.957 87.565 84.931 82.888 -9999 81.846 82.056 82.091 82.143 82.197 82.278 83.485 85.309 86.846 87.183 86.942 84.541 83.133 82.795 82.876 83.095 83.24 82.99 82.711 83.19 83.865 85.77 87.714 87.456 85.246 83.396 82.506 83.075 83.146
55.159 55.032 58.696 58.037 60.843 59.708 58.301 60.892 62.47 58.359 63.461 60.897 64.235 64.533 65.672 64.926 57.811 58.091 57.012 64.536 72.785 70.957 72.55 74.937 70.958 70.419 68.364 62.165 61.183 61.495 61.69 61.593 61.661 66.037 67.772 69.938 70.334 70.029 67.186 66.261 64.331 64.093 65.821 65.098 65.167 65.156 65.253 65.506 71.868 74.432 75.344 75.758 74.831 73.714 68.106 67.051 66.459 65.996 68.861 70.25 69.143 66.053 66.409 66.408 66.882 68.299 68.882 69.855 73.631 75.626 76.461 76.3 75.745 75.376 71.548 68.748 69.3 69.742 73.572 76.169 77.524 77.487 76.406 71.327 72.882 75.397 73.802 74.709 76.276 75.927 74.978 74.819 74.735 74.601 74.548 74.99 76.667 84.112 79.657 87.577 92.139 81.852 90.963 89.314 82.011 80.084 89.618 89.722 93.465 95.947 96.155 91.385 86.98 91.573 91.888 94.918 93.318 93.63 85.952 93.573 94.997 98.035 98.93 91.368 98.787 98.849 95.45 91.633 97.414 101.098 92.049 86.71 93.285 93.119 96.554 99.883 98.677 93.199 91.318 98.987 96.246 98.849 96.908 101.134 100.735 100.022 98.661 99.254 98.307 97.124 87.663 86.648 86.641 86.619 86.61 86.603 86.537 86.549 86.536 86.522 86.547 86.429 86.425 86.679 90.842 91.417 91.422 91.399 90.264 86.812 86.454 87.13 86.012 85.569 86.856 85.421 84.89 85.214 89.275 89.816 89.827 89.83 88.653 84.688 84.797 84.596 84.351 84.291 84.104 84.056 84.064 84.113 84.688 87.131 88.794 89.071 89.082 89.13 88.908 86.974 84.126 84.09 83.871 83.485 83.81 83.271 83.245 83.248 83.44 83.833 83.419 82.888 82.903 86.126 87.665 87.644 87.671 83.847 82.575 83.913 83.746 82.552 82.373 82.287 82.251 82.276 82.238 82.164 82.146 82.456 86.864 87.078 87.045 87.036 84.428 88.035 87.415 87.338 87.154 81.544 81.178 81.148 81.078 81.066 80.917 80.908 80.861 80.92 80.884 81.502 85.094 86.744 83.425 83.315 83.883 81.361 80.39 80.425 80.316 80.389 81.059 80.703 82.154 86.179 84.633 82.959 82.283 90.667 91.312 85.48 82.727 80.765 81.153 81.353 81.351 81.557 81.284 81.14 81.337 83.676 81.904 80.986 81.113 81.315 81.549 81.296 81.504 81.998 81.801 93.293 89.876 90.274 89.246 93.32 89.32 86.189 92.251 83.778 80.544 81.328 86.565 90.02 87.282 87.66 87.795 83.605 81.28 82.73 84.229 81.137 80.653 80.746 80.727 80.971 84.16 81.138 80.768 80.627 81.813 83.087 91.914 81.584 82.312 81.328 83.041 81.785 81.522 83.544 85.943 82.407 81.456 81.374 82.074 81.495 82.199 82.638 81.719 81.078 81.018 81.967 82.042 81.958 82.085 81.588 81.223 81.108 81.136 81.27 81.141 80.912 81.003 80.95 80.93 81.149 81.085 80.954 80.904 81.404 81.827 81.386 82.488 85.876 87.658 88.271 89.257 88.854 88.084 87.536 86.461 85.15 82.139 81.471 81.332 81.328 81.369 81.207 81.145 81.024 80.934 81.735 81.993 83.067 84.662 85.398 84.611 -9999 82.393 81.806 82.052 81.755 81.959 82.358 82.269 83.47 85.025 86.632 85.729 83.714 82.572 82.413 82.707 82.975 83.685 83.261 82.71 82.437 82.421 82.996 84.725 86.69 85.089 84.09 82.54 82.306 82.43 82.37
54.324 57.351 59.836 60.781 58.728 56.834 61.907 64.106 59.478 62.761 63.344 62.619 60.356 60.616 58.617 62.769 59.939 59.965 57.68 64.743 73.959 73.413 71.505 71.205 68.778 64.647 61.941 60.99 61.078 61.361 62.039 61.741 61.586 61.655 62.919 67.907 70.199 72.93 71.053 66.19 68.653 67.882 65.251 64.893 64.741 64.944 64.859 65.111 70.843 73.728 74.687 75.632 75.435 74.628 68.628 67.289 67.398 67.163 66.946 69.734 68.016 66.669 66.279 66.529 67.333 66.918 67.959 68.748 71.161 74.904 75.696 75.674 74.68 71.578 68.769 68.614 69.02 70.019 76.386 77.482 78.483 78.44 77.165 75.322 71.554 71.598 73.443 74.377 75.441 76.09 75.447 74.955 74.748 74.702 74.547 74.627 75.715 77.319 89.143 88.268 90.807 93.186 87.262 92.744 92.959 83.448 94.001 92.021 92.862 95.188 95.239 92.339 86.718 91.326 93.637 96.142 85.477 91.241 89.789 92.569 93.818 97.38 95.488 99.997 99.604 98.851 94.292 100.825 97.355 100.927 88.961 95.766 101.246 92.387 100.873 100.568 94.022 91.24 97.055 96.166 94.793 92.762 99.341 100.076 99.768 98.026 96.954 98.286 98.299 94.976 90.141 86.622 86.611 86.61 86.58 86.56 86.525 86.52 86.515 86.472 86.512 86.372 89.262 91.399 91.401 91.41 91.402 89.032 86.417 86.236 86.293 86.175 85.834 86.256 84.902 85.266 86.193 89.764 89.823 89.797 89.834 88.369 84.94 84.71 84.718 84.522 84.489 84.433 84.249 84.067 84.07 83.965 83.932 84.656 86.247 88.95 89.02 89.062 89.058 89.047 86.419 84.497 84.955 84.449 83.264 83.244 83.236 83.199 83.314 83.654 83.355 82.929 86.629 87.667 87.67 87.675 87.564 83.578 82.502 82.534 82.821 83.467 82.323 82.605 83.678 82.459 82.146 82.058 83.129 86.605 87.086 87.089 87.078 86.341 82.511 87.583 89.303 88.777 87.12 83.16 81.171 81.354 81.114 81.018 81.186 80.822 80.747 80.768 80.653 80.56 83.646 83.28 82.747 82.741 81.721 80.45 80.523 80.375 80.146 80.586 80.991 80.547 83.901 90.045 83.061 82.785 81.625 87.077 88.475 82.035 81.353 80.357 80.692 80.508 80.971 81.139 81.028 81.015 80.994 80.88 80.75 80.947 81.564 85.202 81.926 82.661 80.809 82.274 83.741 87.823 85.226 86.812 88.08 84.573 85.441 94.502 92.443 83.632 80.413 81.102 87.081 91.426 84.158 83.637 81.86 80.768 80.796 80.77 80.859 80.661 80.664 80.728 80.726 80.953 82.689 81.681 82.032 81.432 81.987 82.699 87.099 85.89 88.646 86.548 86.069 81.85 81.183 81.083 82.455 81.315 81.3 81.074 80.843 80.793 80.987 80.963 80.867 80.881 82.132 85.563 90.582 86.887 84.138 82.643 81.874 82.456 82.228 82.03 81.281 80.979 80.951 80.89 80.911 80.976 80.85 80.9 80.981 81.36 82.355 82.506 82.159 83.681 86.8 87.268 87.724 88.578 88.535 88.574 87.389 83.043 81.599 81.267 81.244 81.235 81.264 81.2 81.144 81.514 82.403 82.306 81.151 81.571 -9999 -9999 -9999 -9999 81.486 81.328 81.683 82.161 82.145 83.454 83.588 85.042 84.965 84.779 83.738 82.62 83.399 83.237 83.243 83.315 85.047 83.498 82.558 82.359 82.339 82.308 82.682 83.65 83.429 82.53 82.232 82.203 82.222 82.202
55.285 57.241 57.876 62.037 62.56 62.606 64.319 66.472 64.084 63.646 63.193 57.931 60.056 57.404 67.512 70.177 69.639 62.631 59.457 66.384 71.399 71.133 73.177 73.058 71.088 64.48 70.775 62.154 60.982 63.321 64.286 62.457 61.561 61.599 61.629 67.225 70.816 72.359 70.846 71.464 67.098 69.225 64.993 64.708 63.643 64.63 64.743 64.783 65.824 72.59 74.756 75.129 73.685 67.26 67.385 66.636 67.087 67.09 67.297 67.031 66.337 66.371 67.267 67.266 67.442 66.63 69.655 68.622 68.864 73.242 74.765 74.457 69.53 69.049 68.487 68.387 68.748 69.477 74.651 77.252 77.954 78.652 78.071 77.053 75.167 70.984 73.163 74.016 74.148 76.121 75.986 75.217 75.008 74.757 74.622 74.44 81.843 88.914 92.193 93.803 91.477 83.283 91.01 91.061 84.592 89.892 90.769 92.842 84.685 91.146 90.436 88.427 93.609 93.629 93.848 94.688 93.458 95.957 95.155 90.137 96.334 90.418 94.701 89.664 90.543 96.009 99.137 98.905 99.49 100.45 99.091 97.748 100.998 100.823 97.839 92.836 93.405 89.578 93.751 99.561 97.295 92 96.933 90.314 96.966 97.316 97.715 92.28 96.16 93.729 91.473 88.025 86.548 86.562 86.538 87.718 86.493 86.462 86.488 86.423 86.44 86.298 87.502 91.389 91.382 91.394 91.178 86.464 86.465 87.065 86.747 85.853 86.94 86.87 84.788 85.165 87.608 89.84 89.775 89.808 89.678 86.088 85.925 84.824 84.635 84.679 84.56 84.427 84.254 84.016 83.917 83.862 83.867 83.835 83.997 85.257 88.779 89.092 89.028 89.055 85.867 84.047 85.494 83.709 83.194 83.198 83.196 83.285 83.444 83.291 83.532 84.598 87.347 87.652 87.655 86.715 83.839 83.863 82.609 82.454 82.487 82.325 82.175 82.944 83.113 82.42 82.517 82.232 86.199 87.089 87.084 87.07 85.764 82.209 81.728 83.302 89.219 83.841 82.645 82.509 81.927 81.142 81.109 81.168 81.143 80.798 80.619 80.652 80.59 80.503 80.44 82.206 82.478 81.662 80.566 81.069 80.709 80.595 80.788 80.554 80.672 80.615 83.068 85.085 84.597 83.461 82.979 84.033 82.826 81.188 80.699 80.192 80.245 80.294 80.546 80.743 80.861 80.816 80.665 80.67 81.064 81.049 82.112 91.527 92.515 84.13 81.036 88.092 82.7 81.263 81.703 84.24 86.492 88.322 93.316 92.722 86.306 81.236 80.43 80.787 86.038 89.716 93.016 83.503 80.776 80.745 80.658 80.658 80.713 80.589 80.554 80.648 80.702 81.958 82.716 81.974 82.111 82.796 82.125 82.375 84.341 84.593 90.28 86.387 81.507 80.871 80.621 81.291 81.093 81.108 80.722 80.581 80.511 80.489 80.446 80.463 80.574 80.635 81.424 92.43 90.459 83.655 84.78 85.092 84.927 84.129 83.466 82.021 81.208 81.051 80.842 80.933 81.123 81.074 80.948 80.979 80.938 80.975 81.463 81.504 81.344 81.843 83.704 83.946 85.796 86.351 87.65 87.796 86.215 83.939 81.904 81.33 81.277 81.198 81.167 81.148 81.326 82.256 83.835 82.811 81.85 81.208 -9999 81.831 81.754 81.276 80.935 81.03 81.459 82.489 82.548 83.041 84.131 85.761 85.367 84.142 82.562 83.035 83.092 83.473 83.981 84.149 84.248 83.358 82.934 82.9 82.627 82.311 82.252 82.283 82.33 82.245 82.164 82.105 82.118 82.164
54.819 58.765 56.817 61.544 64.392 64.112 66.801 67.904 66.877 63.627 62.592 61.365 59.397 62.81 66.371 68.882 70.239 63.083 60.956 63.425 66.382 70.236 71.865 71.947 69.66 65.649 68.572 65.888 61.186 61.031 61.544 61.41 61.556 61.534 61.588 65.869 69.755 70.658 71.282 69.583 63.131 63.932 63.43 63.582 64.109 63.716 65.053 64.75 64.945 67.88 72.325 71.537 66.449 65.056 65.687 64.645 65.286 66.253 67.105 66.907 66.594 66.243 66.189 67.499 67.446 70.204 71.796 69.011 68.707 71.361 68.792 68.553 68.405 68.821 68.179 68.177 68.494 69.324 71.36 75.631 77.279 78.128 78.628 77.911 76.647 73.551 72.425 72.919 73.745 74.835 76.134 75.612 74.936 74.791 74.676 74.539 79.524 86.129 91.418 92.753 93.282 91.809 91.033 91.254 93.322 87.307 92.273 91.387 83.852 92.494 91.44 88.727 95.437 93.46 92.829 97.197 90.025 94.255 85.181 97.568 89.693 97.562 100.746 95.736 99.508 98.459 99.085 98.268 98.436 99.608 94.214 99.844 98.873 99.506 95.799 91.255 90.776 90.263 89.806 97.794 95.871 89.113 95.054 97.091 96.768 96.38 97.781 97.222 90.196 88.339 93.065 94.692 89.463 86.573 86.454 86.5 86.487 86.47 86.391 86.341 86.48 90.547 91.407 91.381 91.4 91.373 86.409 86.009 85.861 86.457 86.561 86.823 87.849 90.304 88.586 88.2 89.794 89.793 89.797 89.618 87.428 85.593 86.008 84.724 84.625 84.67 84.991 85.175 84.135 84.367 83.917 83.822 83.735 85.911 87.755 86.221 86.071 88.059 89.006 87.344 84.427 84.043 84.902 83.262 83.145 83.155 83.178 83.342 83.462 83.293 83.14 82.931 82.828 86.914 87.703 85.719 82.522 82.921 82.808 83.942 83.163 82.183 82.402 83.385 83.545 82.264 82.381 85.543 86.908 87.06 87.069 87.052 83.358 81.697 83.54 83.815 83.963 82.383 84.1 82.107 82.834 82.98 82.359 83.633 81.293 80.986 80.773 80.757 80.575 80.463 80.371 80.447 81.223 80.61 80.403 80.889 80.595 80.845 80.912 80.273 80.841 80.614 80.962 82.162 -9999 -9999 81.597 81.302 80.347 80.311 80.348 80.366 80.407 80.672 80.312 80.342 80.818 80.738 80.661 81.137 85.422 85.156 81.992 86.09 82.906 81.041 81.07 84.096 81.549 80.532 81.561 88.991 89.824 92.239 90.589 86.761 80.859 80.514 82.024 81.947 88.058 89.879 92.436 82.458 81.026 80.658 80.627 80.683 80.714 80.672 80.358 80.5 80.842 81.453 82.961 81.924 81.865 80.683 81.349 80.955 81.656 86.421 84.099 80.934 81.471 81.128 80.396 81.554 85.034 82.756 80.453 80.351 80.345 80.251 80.321 80.336 80.604 80.459 82.13 86.008 82.389 81.14 86.282 93.154 86.62 84.598 83.781 83.203 81.391 81.14 81.031 81.057 81.264 81.223 81.253 81.163 80.885 81.106 81.203 81.133 81.041 81.038 81.027 81.603 81.861 81.867 84.31 86.591 86.081 84.261 82.134 81.558 81.377 81.189 81.023 81.09 82.054 86.411 88.053 82.689 81.784 81.068 80.814 80.716 80.624 80.643 80.743 80.854 80.92 81.599 82.054 81.791 82.408 83.532 83.804 83.999 83.212 82.548 81.749 82.081 83.054 83.659 83.839 83.599 83.943 84.654 82.627 82.354 82.152 82.092 82.143 82.184 82.131 82.08 82.073 82.098
54.732 59.727 63.212 65.923 66.265 68.489 68.341 69.116 68.91 66.011 63.984 63.899 64.438 59.835 64.914 65.072 67.597 57.826 68.041 68.427 62.287 68.546 70.797 70.98 69.591 65.596 67.602 64.725 65.725 66.235 61.108 61.324 61.5 61.545 61.513 62.626 67.589 68.198 67.003 66.024 62.636 62.512 62.84 63.139 63.354 63.765 64.484 64.587 64.809 66.214 69.07 71.321 70.217 65.781 69.312 70.296 64.808 64.721 66.728 65.688 65.789 66.263 65.773 65.761 66.962 69.775 71.058 68.138 71.667 70.963 68.796 68.797 68.33 68.332 67.894 68.039 68.08 68.455 69.836 70.486 76.754 77.608 77.621 76.887 76.071 73.707 73.414 72.643 73.263 74.161 75.635 76.001 75.118 74.97 74.717 74.634 74.447 76.764 85.917 89.633 91.483 91.627 94.003 94.061 86.398 93.953 93.15 88.725 92.624 85.66 93.852 84.221 88.399 96.332 95.109 96.217 95.337 96.095 86.668 86.443 98.109 87.013 99.584 89.921 99.16 95.265 98.292 98.785 95.297 97.452 97.23 98.971 97.737 90.524 95.891 98.452 92.956 93.176 91.773 95.749 91.899 97.844 98.015 89.283 97.719 98.362 97.87 96.47 89.762 86.845 94.351 94.791 92.883 87.013 86.953 88.953 93.163 89.786 86.319 86.356 87.212 91.273 91.397 91.41 91.42 90.22 86.122 86.172 86.687 85.685 85.807 85.457 85.062 88.422 89.257 89.765 89.793 89.807 89.808 86.296 85.142 84.822 84.7 84.654 84.733 84.621 84.522 84.554 85.659 86.409 83.922 83.772 83.934 87.31 88.769 88.757 85.54 84.691 85.853 84.12 83.854 83.326 83.248 83.643 83.139 83.077 83.18 83.334 83.317 83.282 83.139 83.044 82.88 83.702 85.657 82.821 82.542 82.434 82.426 82.272 82.207 82.123 82.162 82.72 84.552 82.605 85.98 87.082 87.048 87.06 87.036 82.977 81.778 81.518 82.742 82.375 82.864 83.072 80.779 81.28 82.281 86.102 83.931 86.443 82.265 81.308 80.882 80.79 80.559 80.443 80.39 80.515 80.266 80.07 80.127 80.081 80.496 80.384 80.476 80.423 80.538 80.627 80.601 80.741 80.389 -9999 80.445 80.21 80.594 81.039 80.653 80.657 81.551 81.7 80.475 80.166 80.247 80.76 81.153 85.643 91.527 89.098 82.505 82.054 81.222 81.104 80.637 80.827 80.572 80.291 85.026 92.07 94.408 89.096 84.374 88.377 80.75 81.967 87.481 92.6 89.589 86.081 91.277 83.546 82.185 80.434 80.708 80.487 80.558 80.606 80.502 80.326 81.048 81.947 81.24 80.261 80.266 80.453 80.051 80.032 80.726 82.266 81.397 80.279 81.335 80.768 80.421 81.326 82.6 81.193 80.178 80.139 80.084 80.075 80.219 80.409 81.386 81.671 80.214 80.372 80.339 80.521 83.14 92.962 91.442 82.738 81.302 82.228 81.437 81.052 81.07 81.077 81.319 81.295 81.722 81.591 81.27 81.284 81.515 81.178 80.859 80.845 80.912 81.022 80.88 80.967 81.915 82.293 81.967 82.136 81.213 81.851 81.556 81.139 80.891 82.126 86.414 88.385 86.212 83.542 81.379 80.904 80.815 80.751 80.623 80.577 80.456 80.433 80.79 81.088 81.136 81.28 81.386 81.466 81.623 83.191 83.794 82.025 81.363 81.246 81.544 82.232 82.957 83.71 85.531 84.707 83.743 82.167 82.042 82.026 82.089 82.281 82.451 82.143 81.974 82.004
53.563 60.713 63.238 64.727 66.443 66.818 69.097 69.934 69.078 65.495 63.439 62.911 63.859 62.044 56.246 56.661 56.96 65.909 68.403 68.087 66.358 68.339 69.742 70.014 65.326 64.377 67.676 67.261 62.791 69.586 61.061 61.054 61.34 61.53 61.485 61.541 61.502 61.489 62.697 63.622 63.049 65.291 63.072 62.84 63.194 63.496 63.867 64.28 64.604 64.176 65.222 71.102 70.209 69.957 71.088 71.042 66.347 65.228 65.843 65.372 65.246 66.292 65.795 66.688 67.154 68.356 68.719 70.286 72.557 71.201 70.431 68.111 68.166 67.887 68.011 68.109 68.127 68.162 68.758 69.804 70.092 75.428 76.553 74.568 73.287 73.387 74.927 72.58 72.238 73.412 74.31 76.382 75.609 74.899 74.858 74.652 74.545 74.469 78.281 79.939 83.34 90.366 91.371 92.946 92.625 92.699 93.018 86.304 90.787 85.265 92.42 86.202 83.249 90.085 94.312 95.655 93.265 95.553 97.303 96.202 88.096 95.167 99.518 100.621 99.492 98.219 96.45 95.577 90.781 96.742 100.48 99.414 98.23 96.24 96.307 91.403 94.383 94.513 96.205 96.711 98.943 97.142 93.235 94.055 96.676 97.708 97.765 99.818 97.204 93.931 94.112 95.048 96.502 97.165 99.845 99.949 99 100.521 96.613 88.947 91.423 91.377 91.375 91.397 88.127 86.222 85.789 85.977 87.278 86.613 87.06 87.312 84.947 85.384 89.089 89.806 89.839 89.786 88.685 85.778 87.44 84.74 84.645 84.705 84.72 84.569 85.578 86.409 90.388 90.095 84.127 84.143 88.494 88.784 88.772 88.759 87.59 83.953 83.9 84.096 84.302 83.221 83.745 83.257 83.058 83.034 83.1 83.311 83.236 83.21 83.127 83.039 82.901 82.753 82.632 83.238 82.49 82.45 82.369 82.531 82.165 82.147 82.171 82.19 83.778 85.501 86.771 87.072 87.064 87.061 85.808 81.956 81.443 82.522 82.419 83.095 81.506 81.274 84.689 83.645 84.759 86.401 87.294 83.303 85.443 81.326 80.93 80.514 80.448 80.435 80.343 80.192 80.027 80.025 79.995 79.974 80.187 79.984 80.367 80.284 80.616 80.484 80.256 80.373 80.329 80.442 81.028 81.531 82.159 82.537 82.497 82.795 83.473 83.057 82.078 80.719 79.954 80.739 85.046 89.79 92.535 89.396 82.854 85.554 86.244 81.74 80.592 80.894 82.442 82.32 92.095 91.4 93.738 91.118 87.451 86.135 81.815 81.796 89.27 88.021 93.172 94.595 91.595 89.049 90.08 85.385 81.558 80.236 80.416 80.329 80.034 80.048 80.535 80.321 79.889 79.865 79.933 79.832 79.855 79.902 80.462 81.329 88.103 82.114 80.636 84.433 83.683 83.443 83.87 80.712 79.983 80.022 80.017 80.409 79.973 80.106 87.075 83.698 80.053 79.858 80.015 82.193 80.447 86.91 85.558 80.7 79.99 80.647 80.905 80.733 80.753 80.671 80.731 80.896 81.056 81.312 81.336 81.577 81.367 81.317 81.063 80.907 80.897 80.9 80.876 80.914 81.084 81.151 81.397 81.426 81.023 81.041 80.85 80.837 81.753 87.169 91.935 90.549 84.765 81.219 80.841 80.804 80.822 80.768 80.632 80.508 80.394 80.418 80.663 80.815 80.899 80.946 80.994 80.965 81.353 83.748 86.234 84.329 81.956 81.336 81.489 81.601 81.858 82.587 84.736 84.246 86.081 83.394 82.163 82.016 82.056 82.233 82.796 82.169 81.889 81.776
53.478 55.197 62.652 62.6 62.859 65.758 67.832 68.533 67.443 65.089 63.934 62.265 60.706 58.751 59.697 64.455 56.757 57.846 63.222 61.385 59.654 58.996 63.824 66.014 62.833 60.167 68.924 70.374 68.624 70.562 62.501 60.973 61.197 61.337 61.43 61.44 61.466 61.409 61.535 62.45 63.304 62.388 62.564 62.736 63.018 63.238 63.537 64.489 65.234 64.164 63.633 64.648 70.257 71.397 72.147 71.512 70.64 65.968 64.746 65.239 65.043 66.269 65.801 67.067 67.764 67.689 66.94 71.956 71.728 73.103 71.254 70.062 68.542 68.007 68.068 68.159 68.171 68.154 68.39 69.833 70.036 71.347 71.07 71.243 73.273 75.52 76.91 72.761 71.845 72.989 73.678 75.057 76.057 75.395 74.833 74.71 74.615 74.451 74.463 75.957 78.808 88.439 89.738 92.047 89.859 89.861 90.693 86.925 88.283 86.547 92.563 93.567 93.786 83.771 90.666 91.134 93.172 90.329 98.4 99.005 96.175 96.899 96.9 100.819 100.271 98.443 96.85 92.979 92.493 95.346 98.696 98.194 97.131 89.942 87.75 87.314 86.831 89.273 94.825 96.478 92.497 88.784 96.663 98.466 91.908 96.879 91.652 98.726 99.628 99.238 98.58 94.82 99.194 97.762 99.25 99.068 101.461 100.512 99.053 94.757 92.54 91.375 91.373 91.403 86.525 85.923 86.715 85.814 85.496 85.676 85.361 85.059 85.459 89.433 89.812 89.821 89.837 89.637 86.671 97.125 96.953 93.993 88.092 85.836 84.593 84.485 84.326 85.944 86.074 88.679 83.992 84.711 88.225 88.774 88.762 88.758 86.894 83.745 83.548 83.92 83.292 83.075 83.07 83.003 83.01 82.994 82.974 83.146 83.117 83.087 83.059 82.953 82.846 82.65 82.577 82.356 82.253 82.595 82.449 82.682 82.164 82.21 82.071 82.083 83.08 86.565 87.047 87.047 87.069 86.355 82.594 82.786 83.349 81.872 82.488 83.609 82.056 80.774 85.348 85.63 86.039 87.266 87.765 86.061 85.55 85.145 83.603 80.441 80.312 80.153 80.36 80.314 80.007 80.002 80.016 80.111 80.092 80.085 80.269 80.421 80.663 80.553 80.47 80.492 80.157 80.374 81.477 82.664 82.814 83.061 83.009 83.799 84.127 83.625 82.726 82.207 80.897 84.278 87.927 91.735 93.015 90.301 83.624 89.11 84.231 81.316 80.287 80.546 82.109 87.09 92.578 86.496 92.821 93.163 91.185 83.653 80.337 81.225 81.017 82.738 88.573 94.616 92.575 87.577 93.351 86.017 80.823 80.135 80.147 79.977 79.856 80.246 80.812 80.046 79.811 79.682 79.624 79.673 79.739 79.981 81.126 88.287 86.46 81.448 80.804 83.955 84.675 83.118 81.404 80.429 79.859 80.072 80.939 83.619 81.285 80.794 81.511 80.305 79.91 79.802 79.943 81.92 90.406 84.681 81.173 80.646 79.966 80.033 80.313 80.317 80.408 80.341 80.197 80.443 80.5 80.677 80.781 81.018 80.899 81.061 81.276 81.262 81.109 81.19 81.122 80.896 80.822 81.049 81.065 80.98 80.833 80.633 80.603 80.659 81.077 88.679 95.442 88.594 82.196 80.921 80.771 80.772 80.72 80.705 80.629 80.451 80.339 80.355 80.464 80.669 80.674 80.652 80.765 80.891 82.64 86.293 87.095 87.166 85.754 84.228 82.125 81.52 81.585 82.88 84.829 85.172 84.912 82.608 82.349 82.233 82.055 81.982 81.984 82.094 81.904 81.685
57.936 54.402 54.929 53.635 54.972 61.187 57.403 65.246 60.197 56.057 54.789 62.643 64.079 57.858 62.375 59.829 57.954 61.215 56.511 60.322 63.867 58.509 58.25 57.76 59.371 58.705 69.613 64.925 62.021 62.198 66.887 64.538 61.006 61.211 61.414 61.357 61.377 61.397 61.4 61.561 65.035 65.864 62.493 62.584 62.77 63.068 65.019 66.034 66.362 63.324 63.524 64.892 68.694 71.116 72.158 72.861 71.749 69.228 64.975 65.776 66.758 66.699 66.914 66.88 66.091 65.842 66.193 66.66 70.222 72.786 69.985 68.362 68.045 68.086 68.121 68.198 68.26 68.19 69.951 73.455 71.369 69.772 70.195 73.613 76.625 77.277 77.593 76.684 72.08 72.73 73.3 73.994 75.822 76.116 74.898 74.842 74.619 74.501 74.383 74.83 75.927 84.589 81.868 90.232 90.829 89.198 82.503 92.514 92.967 89.386 89.725 94.815 90.218 94.714 91.748 92.716 93.196 97.554 96.601 97.97 97.882 97.772 98.304 99.481 99.86 99.363 97.635 94.334 89.836 95.703 97.801 95.747 97.575 95.939 92.97 88.018 86.212 87.051 85.556 92.806 89.934 89.366 95.78 98.546 97.15 94.347 97.523 95.761 90.318 98.765 100.206 92.828 94.394 99.737 101.692 97.993 102.651 102.142 101.021 97.2 97.441 91.706 90.531 86.976 86.532 86.502 87.076 87.426 87.15 86.496 85.022 84.735 85.848 89.416 89.84 89.802 89.864 92.182 97.027 98.487 100.123 99.291 99.468 100.024 94.279 85.008 84.19 84.666 90.196 84.34 87.174 88.715 88.767 88.735 88.752 85.721 83.837 83.468 83.403 83.561 83.075 83.056 83.016 83.025 82.956 82.876 82.838 82.862 83.022 83.018 82.954 82.911 82.775 82.697 83.173 82.339 82.23 82.534 83.185 82.335 82.249 82.18 82.155 82.07 83.403 86.924 87.075 87.063 87.071 82.462 81.796 82.554 82.067 81.319 82.353 81.662 82.301 85.313 85.658 85.687 85.677 84.82 81.334 81.502 84.885 85.8 85.516 83.337 80.291 80.14 80.072 80.214 80.156 79.935 79.972 79.983 80.075 80.064 80.168 80.412 80.612 80.599 80.543 80.628 80.65 80.659 81.877 82.623 82.397 82.972 83.773 83.988 83.871 83.661 83.054 82.42 82.321 90.177 89.561 92.296 94.149 92.353 85.835 82.123 80.362 80.144 79.999 79.975 80.114 84.022 89.512 91.566 90.223 88.412 84.994 80.666 80.508 80.029 80.779 83.671 94.172 92.905 94.095 94.458 87.873 80.593 80.034 79.798 79.649 79.682 80.225 80.713 80.741 80.096 79.724 79.401 79.515 80.456 80.206 79.985 82.526 84.366 81.567 79.715 79.759 81.915 82.779 82.007 79.984 79.677 79.828 79.831 81.852 84.614 83.115 84.31 80.768 80.146 79.742 79.608 79.748 80.514 81.438 80.499 85.131 82.462 79.723 79.872 80.124 80.117 80.232 80.233 80.116 80.146 80.234 80.335 80.351 80.414 80.766 80.877 81.147 81.447 81.287 81.373 81.265 81.073 80.848 80.859 80.862 81.502 82.137 80.752 80.555 80.516 80.86 85.081 87.796 84.693 81.789 80.694 80.635 80.722 80.695 80.649 80.56 80.452 80.254 80.208 80.262 80.374 80.327 80.357 80.616 80.656 82.522 85.652 87.099 88.489 87.639 86.263 83.026 81.424 81.186 81.756 82.641 84.166 84.736 83.08 82.632 82.775 82.281 81.785 81.514 81.766 81.818 81.586
61.368 55.128 53.416 53.429 56.969 53.924 55.824 60.433 55.694 55.54 54.673 64.024 66.006 65.693 58.665 62.478 58.618 60.456 64.578 66.471 65.126 66.647 61.168 59.056 62.587 64.677 68.929 70.235 67.816 69.126 69.417 68.63 62.394 61.121 61.323 61.392 61.344 61.337 61.319 61.468 65.008 65.475 62.501 65.115 62.814 64.168 63.546 65.543 67 65.978 63.427 64.801 64.164 70.495 71.68 72.463 71.914 70.821 68.93 66.165 66.822 66.711 66.654 66.439 65.519 65.591 65.842 66.644 69.002 70.553 68.86 68.202 69.128 68.826 68.137 68.211 68.237 68.215 68.33 69.463 69.186 69.591 70.234 76.409 77.545 78.266 78.318 77.308 73.365 72.075 71.869 72.503 75.046 76.377 75.691 74.75 74.788 74.588 74.425 74.404 75.674 76.572 77.649 86.807 84.11 89.751 87.918 91.795 88.557 92.408 81.421 91.155 94.223 91.723 95.328 92.167 96.278 96.606 96.608 95.159 96.805 98.406 97.59 98.223 98.974 97.99 90.148 97.11 89.392 86.799 94.89 93.993 90.14 91.068 86.255 95.639 85.694 86.103 85.5 92.922 85.603 91.846 94.316 93.058 98.388 90.904 90.928 99.891 91.851 98.925 88.662 99.366 100.589 101.756 97.848 102.422 101.794 101.181 97.287 99.224 97.187 91.011 87.339 86.159 85.971 85.806 86.132 85.611 85.369 86.405 84.884 88.403 89.824 89.818 89.815 89.811 86.388 90.648 89.058 99.05 101.292 100.416 101.135 101.205 99.412 95.768 84.15 83.944 83.756 83.778 87.676 88.765 88.76 88.736 88.658 84.202 85.035 84.353 83.303 83.229 83.059 83.065 83.007 82.988 82.939 82.837 82.783 82.709 82.722 82.835 82.839 82.78 82.639 82.678 82.507 82.307 82.304 82.365 82.412 82.805 82.21 82.114 82.096 85.059 86.941 87.037 87.07 87.053 83.706 82.106 82.195 81.958 81.619 81.398 81.217 81.324 83.755 85.66 85.682 85.691 83.576 80.582 80.638 81.385 85.203 86.371 86.082 84.805 80.4 80.154 80.055 79.911 80.083 80.06 80.007 79.881 79.814 79.711 79.691 80.377 80.507 80.535 80.42 80.388 80.643 81.539 82.256 81.622 80.065 81.761 83.34 83.437 83.963 84.041 83.667 84.104 88.441 90.746 91.616 93.374 94.555 91.639 86.369 81.042 80.179 79.852 79.872 79.883 79.878 79.719 83.466 86.718 85.37 84.306 83.155 82.043 82.029 81.097 81.031 82.958 91.853 94.131 93.068 89.325 81.767 80 79.732 79.509 79.464 79.692 80.445 81.884 80.877 79.874 79.488 79.329 80.365 83.1 81.922 80.269 79.433 79.686 79.366 79.264 79.306 80.732 81.787 80.23 79.584 79.556 79.786 79.858 81.199 87.646 86.287 92.319 82.558 79.972 79.523 79.581 79.586 79.554 79.424 79.838 80.598 80.204 79.452 80.885 81.688 80.047 80.002 79.962 80.031 79.925 80.061 80.151 80.173 80.222 80.421 80.681 80.906 80.947 80.995 80.839 80.735 81.031 80.996 80.883 80.797 81.272 87.67 84.806 81.192 80.504 80.386 80.903 80.937 81.346 80.508 80.492 80.501 80.585 80.591 80.661 80.572 80.398 80.221 80.112 80.207 80.226 80.136 79.932 80.298 80.551 80.948 82.438 84.502 87.184 88.056 86.716 83.261 81.815 81.363 81.199 81.437 81.742 82.756 82.332 83.146 82.614 81.846 81.657 81.663 82.009 82.177 81.688
58.782 62.208 54.316 56.388 59.672 56.328 65.574 58.948 58.801 60.133 61.713 63.042 65.364 65.71 62.628 63.573 65.26 63.762 64.413 66.427 67.84 66.75 64.451 57.714 58.353 58.497 61.302 64.576 69.076 69.997 68.574 65.011 67.776 61.23 61.215 61.348 61.282 61.27 61.276 61.232 64.701 65.427 64.054 66.591 65.768 62.46 62.369 63.438 66.694 64.47 64.811 64.897 64.057 69.078 70.978 71.577 71.334 70.368 66.047 64.471 66.353 66.744 66.661 65.561 65.319 65.487 65.693 66.298 68.204 68.716 68.462 68.715 76.039 69.502 68.192 68.509 75.522 68.482 68.321 68.573 68.979 69.756 70.044 71.651 77.189 77.713 78.873 78.113 77.077 74.906 71.515 72.976 73.589 77.082 76.597 75.658 74.86 74.611 74.571 74.416 74.877 75.885 76.717 80.563 88.211 86.387 86.399 87.44 93.343 84.63 86.901 82.972 91.479 84.152 88.178 95.036 92.813 94.882 95.459 96.002 88.464 96.287 89.835 96.442 96.671 98.988 96.534 90.653 89.257 95.104 93.968 88.373 85.609 90.922 85.272 93.892 85.046 87.299 93.117 86.407 87.123 93.416 97.344 96.52 94.53 91.536 97.351 99.054 92.538 90.07 96.267 99.24 92.106 99.14 101.531 101.864 100.855 98.246 99.101 99.909 96.028 89.865 86.304 86.153 86.581 87.063 85.643 85.448 85.268 85.051 84.907 89.07 89.812 89.816 89.82 89.701 85.389 92.177 97.27 100.376 102.269 102.052 101.86 101.381 99.559 97.77 83.914 83.894 83.963 87.918 88.775 88.784 88.759 87.726 84.28 83.686 83.438 84.572 83.084 83.013 83.015 83.011 83.004 82.92 82.92 83.346 83.274 82.7 82.608 82.517 82.562 82.618 83.227 82.612 82.325 82.288 82.299 82.412 82.392 82.245 82.308 82.229 82.319 82.825 83.776 86.872 87.024 83.162 81.821 82.096 83.109 81.392 82.865 81.277 80.633 83.325 85.597 85.664 85.649 85.676 81.391 80.642 81.212 81.96 82.223 86.669 86.44 84.777 80.308 80.004 79.997 79.958 79.822 79.728 79.95 79.881 79.788 79.673 79.647 79.6 80.267 80.25 80.109 80.606 82.217 83.154 83.433 81.645 79.944 80.025 80.204 82.081 83.873 83.562 82.584 85.598 89.386 89.504 90.317 92.587 92.914 89.732 86.004 81.897 80.264 79.841 79.793 79.658 79.727 79.589 79.867 82.126 83.225 86.271 89.146 83.713 85.363 83.62 80.77 85.269 87.744 90.73 87.683 83.892 81.277 79.782 79.592 79.528 79.28 79.747 80.364 80.314 79.893 79.447 79.463 80.784 83.148 83.82 82.244 79.786 79.349 79.316 79.185 79.12 79.182 79.638 79.574 79.517 79.436 79.465 79.814 79.868 81.181 82.769 81.817 91.236 82.969 79.581 79.419 79.554 79.552 79.421 79.378 79.406 79.579 79.751 81.688 82.876 82.841 80.485 79.711 79.714 79.666 79.891 80.031 80.152 81.719 84.067 80.798 80.36 80.339 80.431 80.43 80.807 80.678 80.766 80.776 80.479 80.352 81.003 83.776 85.343 85.528 84.21 81.139 80.385 81.135 81.62 81.236 80.345 80.429 80.463 80.473 80.566 80.519 80.358 80.227 80.212 -9999 80.112 80.032 79.996 80.215 80.326 81.099 81.799 82.387 86.078 87.636 87.368 86.521 84.358 82.264 81.482 82.163 83.038 82.294 82.816 82.096 81.691 81.511 81.514 81.5 81.986 82.226 82.542
59.497 60.095 55.74 53.165 59.015 63.861 66.036 57.478 61.124 60.243 63.35 57.961 61.219 62.823 63.237 65.521 67.905 66.708 64.562 65.097 65.71 65.405 60.08 57.47 58.084 58.34 58.82 62.609 63.848 69.378 67.588 65.729 66.716 62.352 61.541 61.19 61.328 61.235 61.224 61.177 61.229 61.739 63.608 64.932 65.977 62.268 62.497 62.887 63.454 63.82 64.096 64.441 63.833 63.818 68.953 70.665 70.056 65.859 64.303 67.813 65.491 65.176 64.984 64.968 65.135 66.082 66.27 65.95 66.287 67.5 75.232 75.503 80.08 75.018 79.181 80.22 78.355 69.343 68.235 68.481 69.453 69.786 70.416 71.01 74.635 77.126 78.469 78.362 77.748 76.628 71.846 72.641 73.473 73.949 75.769 75.639 74.876 74.647 74.543 74.418 74.43 75.028 76.206 84.231 85.447 87.076 87.758 85.844 85.258 90.05 87.445 91.03 92.902 92.092 94.48 92.441 86.059 88.681 91.388 87.973 85.472 91.94 93.802 88.964 95.414 97.746 95.187 93.623 97.29 86.723 85.778 87.85 97.426 91.424 87.08 92.938 84.909 86.578 85.779 88.47 90.637 95.887 96.046 97.651 89.56 95.935 98.74 98.23 92.97 95.213 97.756 99.139 88.541 97.821 100.99 101.014 93.132 99.488 96.121 98.023 97.631 93.914 88.802 86.002 86.189 89.605 91.072 93.921 88.65 86.8 87.408 89.657 89.849 89.812 88.808 84.836 85.084 92.798 98.61 99.587 101.548 102.253 102.814 102.088 100.424 97.809 83.948 85.403 87.748 88.775 88.776 88.764 88.68 83.953 83.623 83.377 83.244 83.358 82.993 82.978 82.966 83.064 82.798 82.772 82.861 83.116 83.512 82.928 82.719 82.52 82.488 82.421 82.407 82.29 82.267 82.28 82.43 82.379 82.319 82.23 82.209 82.238 82.465 82.697 81.845 83.547 85.895 82.349 81.732 81.719 82.424 81.856 81.919 81.934 83.566 85.64 85.668 85.664 85.647 83.838 80.739 80.64 81.486 80.555 84.001 85.862 84.511 81.444 80.015 79.949 79.957 80.094 79.845 79.762 79.688 79.841 79.802 79.7 79.629 79.529 79.548 79.952 80.095 81.182 83.169 83.708 83.185 82.361 80.866 79.965 79.413 80.437 81.867 80.958 80.026 81.251 85.021 84.793 86.046 87.869 88.521 88.62 86.222 83.183 80.204 79.629 79.511 79.571 79.655 79.552 79.653 81.135 82.835 84.704 85.429 83.138 82.472 82.978 80.971 85.219 86.308 84.222 84.689 85.445 80.231 79.489 79.493 79.591 79.548 79.873 80.157 79.602 79.356 79.506 80.862 83.254 83.904 83.564 81.181 79.299 79.254 79.11 79.014 79.03 79.161 79.215 79.302 79.339 79.247 79.34 79.977 81.181 81.196 81.181 85.695 82.013 79.616 79.423 79.363 79.333 79.343 79.384 79.307 79.278 79.411 80.97 87.192 83.046 80.563 79.76 79.637 79.727 79.658 79.765 80.371 82.624 87.452 94.109 86.761 80.404 79.996 80.014 80.553 83.006 85.391 81.92 80.143 80.168 80.868 81.69 82.762 82.733 91.664 86.689 84.957 81.169 83.486 84.853 82.483 80.48 80.34 80.414 80.433 80.461 80.494 80.519 80.328 80.307 80.205 -9999 -9999 80.075 80.185 80.416 81.367 81.956 81.934 83.664 86.859 87.784 86.925 85.193 83.37 82.408 84.249 84.676 84.33 82.378 81.628 81.424 81.378 81.412 81.348 81.596 81.815 82.833
64.9 63.025 55.677 54.107 60.41 64.617 65.93 55.988 57.245 59.444 58.843 60.944 58.797 60.848 63.116 65.398 66.358 66.111 63.632 61.053 62.276 62.334 61.14 60.193 58.146 57.855 58.089 58.625 67.064 68.038 68.391 67.94 69.05 63.116 61.314 61.098 61.223 61.165 61.128 61.12 61.103 61.304 67.539 63.039 62.729 62.237 62.234 63.484 64.115 63.844 63.384 62.982 63.572 63.84 65.071 65.633 63.902 65.07 68.251 69.193 67.325 64.909 64.447 65.005 66.257 66.316 66.837 66.272 66.542 75.706 79.715 80.76 81.362 81.184 81.753 82.009 81.401 77.747 68.497 68.252 69.152 69.756 69.95 70.244 70.557 77.12 77.636 77.738 76.939 74.487 73.037 73.156 73.539 73.654 74.014 75.558 75.255 74.767 74.625 74.533 74.303 74.462 75.381 76.758 86.808 85.24 89.525 92.704 83.068 87.292 89.083 89.275 86.517 90.51 93.314 93.246 91.993 88.053 94.277 95.251 87.73 92.089 96.232 97.551 97.624 97.416 92.502 93.142 97.963 95.995 96.751 86.471 96.885 90.209 85.986 91.341 97.244 87.74 92.945 87.558 90.666 98.233 97.883 91.609 97.144 95.518 92.079 91.107 96.977 97 93.123 94.573 97.538 90.377 100.081 98.847 98.253 90.917 89.257 98.204 98.165 95.218 90.368 87.738 86.808 93.461 96.697 96.126 96.879 94.682 85.238 88.583 89.73 89.843 87.109 84.801 84.865 93.499 97.851 98.546 100.768 101.577 100.747 101.492 99.885 96.343 84.189 85.641 86.99 88.422 88.766 88.778 86.959 83.807 85.145 84.33 83.061 82.937 83.033 83.002 83.035 82.916 82.62 82.67 82.676 82.695 82.89 82.661 83.261 83.823 82.508 82.392 82.3 82.242 82.223 82.283 82.33 82.279 82.213 82.2 82.101 81.794 81.814 81.848 82.675 82.264 81.826 82.911 83.25 81.511 81.943 82.013 81.107 80.806 84.456 85.584 85.645 85.643 85.68 82.804 82.251 80.785 81.333 80.946 80.965 80.456 80.304 80.037 79.833 79.833 79.874 80.016 79.731 79.777 79.666 79.593 79.738 79.664 79.562 79.514 79.706 79.576 79.741 80.902 82.147 83.241 82.927 80.288 80.22 79.46 79.332 79.343 79.788 79.823 79.575 79.699 80.161 80.348 82.356 83.602 84.216 85.179 84.746 81.782 80.168 79.437 79.378 79.475 79.51 79.439 79.729 80.329 81.324 82.058 82.845 83.079 82.495 81.763 80.668 80.388 80.773 80.763 80.974 79.844 79.413 79.586 79.732 79.87 79.973 81.003 80.532 79.469 79.41 79.699 82.378 83.773 83.9 83.178 84.463 80.546 79.124 79.038 79.004 79.02 79.123 79.237 79.235 79.224 79.164 79.693 81.073 86.182 80.193 80.992 80.14 79.229 79.342 79.258 79.135 79.042 79.145 79.208 79.319 79.294 79.338 79.865 80.079 81.876 79.416 79.438 79.568 79.559 79.493 79.734 81.881 89.986 85.668 88.199 83.892 80.101 79.922 79.904 80.217 81.001 85 81.814 80.223 80.744 84.395 85.025 82.177 82.821 83.507 80.424 81.173 82.657 84.729 86.388 84.501 80.63 80.205 80.346 80.396 80.395 80.462 80.494 80.362 80.331 80.149 80.014 79.972 80.059 80.235 80.239 80.383 80.967 80.934 81.074 83.045 85.047 85.485 84.875 83.136 84.629 86.36 85.826 81.52 81.449 81.688 81.324 81.181 81.218 81.25 81.27 81.219 82.008
63.844 59.192 57.882 56.408 58.875 64.274 63.187 59.166 60.395 65.11 66.054 66.225 63.851 61.187 60.279 63.696 65.585 60.25 62.118 60.799 60.846 60.186 60.939 60.714 57.729 57.674 57.977 58.301 65.328 66.471 68.189 71.886 71.945 70.298 62.789 60.903 61.006 61.076 61.027 61.073 60.99 62.433 69.526 68.347 65.197 62.252 62.97 63.58 63.207 62.525 62.892 62.777 63.043 63.939 64.507 64.291 64.511 66.402 70.651 71.279 70.293 67.565 64.766 66.222 66.354 66.169 74.567 75.137 72.561 75.3 80.396 81.081 79.059 79.845 82.005 82.05 79.09 79.32 69.56 68.3 68.521 71.11 70.565 70.095 70.171 70.788 76.739 76.509 71.471 71.107 72.396 73.117 72.788 73.556 73.404 75.044 75.836 74.904 74.749 74.511 74.451 74.287 74.508 75.98 86.551 84.186 93.124 94.532 85.129 78.628 89.505 91.625 88.442 93.109 83.52 92.92 89.302 86.589 82.445 86.298 91.682 87.584 88.825 96.162 96.315 96.743 94.945 90.427 97.203 95.983 98.922 85.073 96.115 84.698 86.566 90.753 96.892 97.669 95.645 86.131 84.984 95.658 95.409 95.473 95.082 98.661 99.389 100.957 90.97 99.394 99.607 97.65 97.685 99.261 96.918 98.138 97.145 98.031 98.287 97.156 92.23 93.07 90.877 90.906 94.072 97.453 99.058 100.059 99.297 97.37 93.427 86.005 86.021 85.612 84.808 84.815 84.723 87.235 97.092 99.634 100.216 101.291 97.554 99.969 94.333 96.99 91.39 85.778 83.881 84.515 86.644 85.318 84.138 83.906 83.556 84.923 82.997 82.957 82.951 83.024 83.058 82.626 85.163 87.226 85.983 83.268 83.85 82.64 83.31 82.709 82.442 82.368 82.276 82.262 82.259 82.311 82.237 82.216 82.189 82.158 82.031 81.798 81.767 82.063 82.244 81.939 81.831 81.616 82.638 81.569 82.829 81.386 81.204 85.048 85.635 85.682 85.663 84.627 80.879 80.6 81.383 83.013 84.202 85.817 80.631 79.906 79.939 79.764 79.836 79.853 79.818 79.907 79.769 79.702 79.679 79.589 79.465 79.415 79.564 79.533 79.481 79.346 79.281 79.91 80.605 81.779 81.824 80.048 79.269 79.177 79.258 79.348 79.528 79.733 79.353 78.997 79.271 79.336 80.433 82.177 82.928 82.844 80.386 81.205 79.508 79.621 79.542 79.386 79.411 79.537 79.704 79.738 79.761 79.697 79.578 80.779 82.221 81.458 81.322 80.801 82.254 80.691 79.655 79.733 79.877 81.566 81.217 82.478 82.327 82.87 81.091 79.61 79.13 81.221 83.394 83.288 82.192 81.716 83.09 82.835 79.912 79.167 79.21 79.056 79.172 79.175 79.108 79.255 79.552 79.465 79.56 80.929 82.144 81.94 79.992 79.435 79.33 79.182 79.21 79.078 78.937 79.122 79.304 79.427 79.435 79.298 79.598 79.849 79.62 79.461 79.552 79.56 79.61 79.559 81.187 82.855 84.187 80.38 79.87 79.914 79.795 79.814 79.834 80.704 83.482 84.738 80.805 84.445 91.123 84.537 82.115 79.875 80.364 80.366 82.14 83.797 86.534 87.709 82.993 81.268 80.351 80.396 80.38 80.406 80.396 80.454 80.353 80.243 80.015 79.889 79.92 -9999 80.012 80.081 80.038 79.917 80.815 80.951 81.864 82.881 81.924 83.355 83.811 84.539 84.68 83.042 80.91 80.836 81.236 81.029 81.044 81.108 81.126 81.182 81.17 81.157
61.572 58.164 61.923 56.931 52.928 62.143 62.472 61.924 55.604 66.255 68.279 68.607 67.173 62.353 56.912 58.935 62.751 61.28 62.318 63.055 59.261 57.664 59.742 57.354 57.247 57.58 57.818 58.27 59.231 65.427 70.207 72.55 71.876 70.141 65.597 62.119 61.712 61.006 61.068 60.935 60.981 64.826 66.829 69.259 69.875 66.989 63.716 62.749 62.455 63.337 62.888 63.606 63.061 63.121 63.19 63.75 68.166 70.572 71.695 72.031 71.005 69.981 65.034 65.988 66.453 70.844 70.975 79.291 79.175 75.996 80.249 80.854 80.952 80.489 81.644 75.244 77.592 74.024 69.311 68.379 68.754 69.209 69.505 69.922 70.105 70.143 72.016 72.088 71.036 71.381 74.779 74.684 72.579 71.673 73.225 73.564 75.897 75.443 74.714 74.642 74.543 74.315 74.274 75.106 85.166 84.074 91.382 93.131 92.256 91.545 81 91.701 93.154 86.761 93.836 92.888 93.076 94.192 95.314 96.73 95.457 91.884 97.698 91.054 90.943 95.924 88.844 84.602 87.208 96.795 97.941 94.293 97.058 88.377 96.231 92.652 96.364 90.099 90.996 91.045 90.333 92.593 90.698 95.044 92.189 98.161 99.327 99.381 91.865 98.016 91.311 94.663 95.976 92.599 96.322 95.681 95.971 95.013 89.629 97.87 93.876 94.965 93.524 93.062 97.917 98.869 100.658 101.837 101.597 100.125 94.959 88.511 86.139 84.8 84.871 84.687 84.644 85.842 88.299 98.95 100.78 100.899 100.919 101.351 96.683 98.28 94.917 88.637 84.333 83.763 83.778 84.895 85.369 83.874 83.452 82.926 82.962 82.986 82.968 83.45 82.749 82.619 86.425 87.36 87.385 87.28 84.593 82.528 82.824 83.548 82.541 83.344 82.396 82.216 82.091 82.144 82.168 82.159 82.124 81.906 81.805 81.767 81.778 81.774 81.808 81.904 81.733 81.628 81.582 81.764 81.47 81.164 82.016 85.504 85.657 85.701 85.607 80.961 80.563 80.568 80.395 80.738 85.816 81.702 80.71 79.771 79.82 79.817 79.78 79.761 79.776 79.768 79.781 79.72 79.626 79.545 79.426 79.348 79.315 79.49 79.334 79.304 79.264 79.189 79.348 79.729 79.603 79.114 78.933 78.954 79.127 -9999 79.295 79.304 80.24 78.941 78.719 78.919 79.064 79.582 79.968 79.597 79.196 79.252 79.125 79.954 79.615 79.385 79.329 79.473 79.557 79.498 79.52 79.373 79.27 80.575 82.207 82.081 82.295 82.515 82.177 80.549 79.603 80.58 83.132 84.848 82.445 85.302 84.914 84.688 84.031 79.403 79.028 80.629 83.082 81.668 80.452 79.072 79.831 85.028 81.184 79.611 79.823 79.452 79.246 79.221 79.101 79.045 79.263 79.486 79.528 80.962 82.238 86.764 87.657 80.55 79.467 79.295 79.216 79.066 79.04 79.146 79.577 79.554 79.407 79.346 79.437 80.107 80.535 80.172 80.228 79.648 79.647 79.54 79.92 80.654 79.649 79.677 79.727 79.655 79.647 79.684 79.941 80.567 82.942 81.173 80.992 83.138 87.064 84.472 80.532 79.744 81.132 83.523 84.13 91.469 89.134 88.628 89.14 83.269 81.039 80.819 80.771 80.516 80.353 80.321 80.216 80.024 79.931 79.903 79.887 79.86 79.831 79.786 79.65 79.782 80.39 80.469 80.999 81.653 81.548 82.814 84.315 83.365 81.844 80.412 80.31 80.521 80.69 80.731 81.015 81.16 80.968 81.09 80.985 80.759
63.903 65.545 62.889 63.244 62.502 59.318 61.872 59.748 60.745 64.419 68.217 67.929 65.923 63.769 56.774 58.313 55.41 55.327 61.526 62.863 62.482 56.643 56.39 56.683 57.059 57.4 57.659 57.974 58.437 64.009 67.747 70.592 71.11 69.662 73.133 72.076 66.741 60.977 61.013 60.902 60.852 60.767 66.457 69.159 66.425 63.922 62.098 62.201 62.358 62.672 62.362 63.762 62.792 62.851 63.807 64.268 64.588 69.894 71.051 72.623 71.902 70.756 68.754 65.235 66.899 76.337 74.525 78.817 79.24 69.022 71.688 79.776 73.21 78.142 78.381 81.164 79.915 68.812 68.347 68.3 68.582 69.291 69.164 69.561 69.601 69.947 70.308 70.586 71.15 77.001 78.297 77.776 73.245 72.2 75.581 76.202 75.718 76.088 75.04 74.729 74.52 74.476 74.207 74.328 85.134 90.088 91.267 91.161 89.632 82.555 84.948 82.665 91.741 85.262 91.446 80.054 90.457 83.186 94.914 96.136 95.676 93.549 96.336 95.846 93.536 96.022 89.437 85.495 86.447 97.803 98.427 94.889 92.878 98.475 97.344 95.79 95.735 93.202 85.826 93.035 93.328 85.555 87.156 91.634 92.722 96.123 95.486 88.809 94.159 95.243 97.119 96.141 96.353 96.936 92.511 89.439 92.119 94.528 96.449 88.258 92.621 93.261 93.624 93.424 98.011 100.512 101.342 102.432 102.227 101.684 97.925 90.644 84.623 84.661 84.631 84.619 84.58 84.56 84.847 96.101 99.424 100.143 101.202 101.193 97.234 98.639 97.946 88.598 83.486 83.737 83.595 83.493 85.192 85.092 83.005 82.936 82.977 83.291 83.36 84.814 83.084 86.107 87.364 87.365 87.354 87.357 87.297 84.197 82.582 82.411 82.387 82.634 82.257 82.134 82.114 82.005 81.924 81.991 81.882 81.839 81.788 81.771 81.814 81.84 81.864 81.821 81.607 81.766 82.902 81.783 80.757 83.315 85.544 85.635 85.626 85.559 83.884 80.745 80.776 80.45 80.18 80.263 81.35 82.274 79.861 80.361 80.694 79.814 79.704 79.605 79.647 79.68 79.708 79.749 79.617 79.478 79.378 79.294 79.302 79.274 79.383 79.305 79.184 79.038 78.965 79.1 78.938 78.881 78.758 78.864 78.817 78.571 79.08 78.84 79.762 79.938 78.834 78.79 79.063 81.392 80.306 80.108 79.233 79.63 79.485 78.648 78.839 79.042 79.05 79.218 79.329 79.314 79.221 79.192 79.564 79.885 80.953 81.874 82.396 82.14 80.94 79.929 79.493 79.35 83.094 84.742 82.135 80.682 82.372 82.345 80.415 78.826 78.781 79.096 80.102 79.353 78.833 78.482 79.403 81.788 80.519 79.612 79.199 79.018 79.282 80.515 79.058 78.596 79.005 79.604 84.017 88.325 89.076 85.994 80.888 79.66 79.741 79.404 79.397 79.248 79.226 79.716 79.48 80.183 79.977 79.718 79.665 79.746 82.268 85.512 85.048 80.352 79.69 79.843 79.791 79.777 79.689 79.69 79.605 79.49 79.362 79.413 79.714 82.647 82.131 80.025 79.511 79.902 80.713 79.622 79.639 80.23 82.704 87.44 90.883 88.528 83.881 90.573 90.831 84.07 80.621 81.023 80.704 80.447 80.252 80.019 79.72 79.825 79.843 79.958 79.856 79.834 79.793 79.679 79.619 79.659 79.9 80.064 80.28 80.635 81.197 83.614 85.223 84.609 82.12 80.956 80.311 80.432 80.424 80.477 81.252 81.463 80.709 80.697 80.69 80.705
62.843 64.389 61.218 64.267 64.712 62.945 62.737 58.882 60.393 60.872 65.972 65.512 62.77 61.689 63.109 61.876 57.107 55.735 54.95 56.442 56.224 55.842 56.154 56.549 56.874 57.218 57.497 57.808 58.134 58.448 59.711 65.818 71.349 73.303 73.459 67.046 67.56 61.287 60.889 60.911 60.776 60.766 62.074 62.013 62.705 61.975 61.921 62.137 61.951 61.915 62.086 62.387 62.768 62.993 63.496 64.088 63.561 65.546 70.432 71.801 72.149 71.365 70.326 65.413 66.46 76.54 76.955 73.952 78.296 68.465 73.006 68.051 67.795 78.093 72.063 82.183 80.779 77.575 68.815 68.286 68.385 68.456 68.516 68.797 69.159 69.814 70.254 70.617 77.505 78.674 79.186 78.487 76.403 72.48 73.434 74.805 73.817 75.736 76.707 74.766 74.679 74.495 74.327 74.217 74.448 82.566 87.521 87.399 89.871 91.559 91.507 91.702 89.954 89.903 92.607 82.319 84.581 81.051 81.62 90.969 84.969 96.272 97.607 95.833 90.421 95.649 95.793 90.62 93.474 94.793 95.792 97.227 99.032 97.192 94.827 95.387 87.243 91.803 86.638 83.848 92.38 91.291 97.768 95.487 95.677 97.631 94.573 85.187 85.188 95.161 90.995 94.232 99.514 99.451 94.552 90.636 91.63 92.561 91.174 91.73 95.114 90.747 91.927 92.76 98.125 100.384 101.788 102.485 102.947 102.51 100.389 94.703 86.656 84.612 84.543 84.563 84.442 84.096 85.759 90.434 97.48 96.124 100.55 100.978 100.51 95.658 97.227 84.991 83.569 84.71 83.751 83.325 83.177 82.988 82.875 82.891 83.084 84.076 83.554 84.165 84.932 84.277 86.278 87.277 87.355 87.394 87.36 87.373 85.527 82.72 82.414 83.432 82.53 82.298 82.548 81.955 81.932 81.846 81.826 81.758 81.757 82.587 82.763 82.388 81.928 81.73 81.716 82.722 81.879 81.127 81.366 85.529 85.669 85.665 85.661 81.72 80.571 80.545 80.552 80.302 80.8 81.118 79.797 79.662 79.693 80.722 79.872 80.252 79.716 79.475 79.515 79.536 79.621 79.625 79.623 79.507 79.367 79.256 79.262 79.247 79.213 79.245 79.194 78.982 78.898 78.754 78.67 78.686 78.738 78.739 78.754 78.522 78.535 79.346 80.151 80.053 79.663 80.343 82.787 84.5 82.739 81.25 79.302 80.187 80.223 78.552 78.177 78.145 78.625 78.945 79.044 78.967 79.044 79.16 79.203 79.392 79.976 80.923 81.757 81.706 80.493 79.689 79.431 80.287 82.332 82.658 80.194 79.669 80.498 81.583 80.933 79.053 78.66 78.62 78.805 78.749 78.667 78.62 78.656 78.961 79.304 79.31 78.752 78.813 79.45 79.712 78.625 78.714 78.798 82.597 90.302 91.783 87.556 79.425 78.731 79.354 79.407 79.218 79.132 79.016 78.802 80.014 80.072 79.439 80.001 80.02 79.687 79.492 81.234 86.841 85.911 80.15 79.786 79.732 79.693 79.991 79.762 79.545 79.608 79.557 79.367 79.371 79.387 79.753 79.881 79.387 79.464 79.429 79.355 79.368 79.357 79.589 80.093 90.083 91.416 88.252 87.008 91.329 87.353 82.134 80.19 80.584 80.284 80.157 79.928 79.548 79.778 80.161 79.758 79.67 79.774 79.812 79.756 79.73 79.61 79.608 79.75 79.742 80.157 80.138 80.883 84.056 86.028 86.235 85.513 83.617 80.87 80.402 80.303 80.263 81.074 81.702 80.751 80.424 80.493 80.512
54.421 56.914 60.831 60.926 61.468 59.926 60.728 62.046 64.103 63.259 62.725 62.373 61.334 63.56 63.24 60.29 61.413 56.126 55.809 55.058 55.295 55.626 56.02 56.343 56.667 57.054 57.317 57.626 57.874 58.264 58.464 60.731 70.825 73.266 74.061 73.139 70.252 61.734 60.811 60.841 60.699 60.687 60.662 60.591 60.706 62.516 62.749 61.536 61.42 61.629 61.906 62.124 62.148 62.155 62.907 63.31 63.449 63.953 69.427 70.699 71.2 70.576 69.963 65.167 65.629 73.297 76.421 77.866 78.206 77.14 71.031 68.908 78.221 80.885 82.971 83.253 83.209 80.354 71.647 69.742 68.418 68.472 68.515 68.686 68.971 69.811 69.977 70.773 75.649 78.253 79.598 79.805 78.412 76.22 72.274 73.074 73.558 74.415 76.157 75.365 74.767 74.539 74.506 74.242 74.169 75.365 81.807 85.878 88.291 82.676 83.429 83.568 85.09 81.699 91.985 93.155 84.075 91.348 90.907 91.769 94.34 95.543 93.641 96.099 84.481 87.871 86.946 97.35 95.828 91.364 98.742 95.709 95.496 95.337 94.132 94.297 86.301 84.684 85.785 86.056 91.616 98.107 98.564 97.75 98.422 96.064 93.734 92.149 95.276 97.838 88.003 96.465 101.158 101.536 100.764 100.769 101.052 100.999 98.674 92.696 97.364 96.61 88.718 91.196 96.139 100.08 101.3 101.736 102.573 102.189 99.099 93.915 85.411 84.491 84.498 84.228 83.949 83.827 84.152 86.401 91.093 97.934 99.552 99.643 99.408 98.167 90.804 84.096 85.615 84.213 84.132 83.498 83.004 82.885 82.911 83.456 82.911 84.4 83.633 82.953 85.859 87.089 84.002 85.824 85.611 87.362 87.36 87.362 87.37 86.585 83.299 82.954 82.293 82.799 81.991 81.89 81.884 81.844 81.754 81.716 82.358 82.238 82.049 82.095 81.791 81.481 81.389 81.258 80.836 80.824 80.945 85.246 85.673 85.676 85.659 81.754 80.706 80.407 80.343 80.01 80.516 79.691 79.619 79.606 79.753 79.635 79.517 79.719 82.437 79.861 79.368 79.469 79.514 79.537 79.503 79.42 79.29 79.194 79.199 79.141 79.188 79.093 79.184 79.084 78.809 78.731 78.695 78.681 78.722 78.826 78.871 78.613 78.285 79.024 79.645 79.987 79.803 81.098 83.381 84.178 83.461 79.965 78.508 80.293 81.676 79.896 78.465 78.679 79.214 78.952 78.897 78.945 79.119 79.069 78.877 79.087 79.61 80.725 81.081 80.947 80.265 79.68 79.347 79.487 79.323 79.339 78.913 78.614 79.097 80.78 81.12 79.868 79.513 78.866 78.671 78.63 78.669 78.506 78.56 78.686 78.72 78.726 78.84 78.916 78.605 78.611 78.512 78.555 78.971 81.826 90.334 88.642 80.663 78.666 78.713 78.737 79.13 78.68 78.541 78.386 79.43 79.635 79.876 79.576 79.031 79.115 78.904 79.032 79.91 81.237 80.652 80.004 80.566 79.897 79.635 79.605 79.556 79.471 79.5 79.393 79.298 79.127 80.829 82.887 80.573 79.391 79.283 79.17 79.18 79.231 79.119 79.21 80.475 84.589 89.139 90.769 89.119 84.778 81.46 82.935 80.369 80.089 79.767 79.308 79.332 79.365 80.444 83.601 80.57 79.625 79.731 79.965 79.778 79.811 79.641 79.539 79.607 79.617 80.254 80.01 80.737 83.692 86.076 87.126 86.751 85.193 81.848 80.456 80.191 80.239 80.682 80.541 80.417 80.395 80.415 80.426
51.697 51.92 52.193 58.244 58.865 54.81 59.194 63.079 65.685 65.22 62.345 62.299 63.19 63.527 61.629 62.963 62.433 61.346 56.523 54.807 55.157 55.4 55.819 56.112 56.46 56.776 57.089 57.42 57.776 58.068 58.368 62.818 69.855 72.135 71.635 70.239 68.987 64.704 61.056 60.758 60.771 60.569 60.532 60.507 60.509 60.816 61.27 60.982 61.249 62.208 62.291 61.684 61.688 61.87 62.866 62.861 63.204 62.848 65.752 68.241 70.333 66.601 64.517 64.141 64.915 66.461 68.534 77.292 75.798 79.045 76.966 69.817 79.17 80.832 81.528 80.166 82.635 77.737 70.072 71.068 69.175 68.398 68.522 69.131 69.052 69.803 69.91 70.554 72.276 77.551 78.602 79.544 78.832 77.642 73.581 72.631 73.385 73.921 80.79 82.407 76.918 74.612 74.458 74.352 74.171 74.251 75.468 85.58 85.268 88.542 82.913 89.495 84.675 79.836 82.318 86.819 93.914 92.441 94.062 94.573 91.74 86.25 83.533 96.175 97.596 96.534 94.207 89.737 97.668 95.909 99.836 98.221 92.877 93.93 94.467 91.639 90.176 95.757 95.621 96.52 88.146 88.786 98.602 97.281 97.599 94.769 98.384 98.327 95.501 99.253 91.988 100.761 92.407 97.786 98.123 101.882 102.564 102.607 102.748 100.138 97.494 94.889 89.981 87.976 93.724 93.016 92.642 96.663 101.189 100.723 98.013 95.349 86.85 84.483 84.305 83.888 83.738 87.468 85.361 83.534 83.862 89.157 95.85 94.256 93.578 91.471 87.189 83.656 84.402 84.867 83.221 82.925 82.905 82.907 82.958 83.077 83.354 85.14 83.27 82.845 86.682 87.641 87.525 83.9 82.926 86.682 87.351 87.37 87.369 87.34 87.275 84.695 82.193 82.631 82.309 81.874 81.859 81.816 81.798 81.76 81.823 81.894 82.004 81.876 81.528 81.838 81.282 80.754 81.235 85.34 84.684 81.481 84.805 84.624 80.811 80.47 80.606 80.423 80.015 80.959 79.653 79.517 79.519 79.729 80.746 79.983 79.277 79.242 83.325 83.527 80.331 79.369 79.387 79.389 79.37 79.348 79.14 79.044 79.102 79.133 79.124 79.12 79.102 78.805 78.756 78.691 78.676 78.76 78.701 78.895 79.014 79.352 79.646 79.483 -9999 -9999 -9999 81.671 81.952 83.056 83.262 82.103 81.342 83.309 83.716 84.378 81.451 79.609 79.071 78.189 78.347 78.465 78.778 79.209 79.209 79.073 79.648 81.477 81.096 82.311 80.194 79.376 79.067 78.795 78.847 78.888 78.686 78.575 78.733 78.88 78.832 79.786 81.286 80.507 78.701 78.553 78.97 78.727 79.598 79.374 78.577 78.77 79.152 79.205 78.873 78.481 78.274 78.046 78.633 80.084 81.61 80.433 78.841 78.595 78.279 78.531 79.502 78.576 78.353 78.45 79.118 79.434 79.482 79.983 79.159 78.588 78.589 78.577 78.728 79.63 79.705 79.072 81.114 80.997 79.828 79.498 79.193 79.516 79.419 79.267 79.161 80.034 83.622 88.515 86.007 80.071 79.308 79.188 79.05 79.064 79.095 80.245 83.857 83.454 90.319 89.392 86.044 84.524 92.002 84.738 81.211 80.692 79.832 79.247 79.24 79.239 80.753 82.932 81.829 80.105 79.701 80.249 80.078 79.828 79.72 79.531 79.492 79.292 79.533 79.758 79.983 82.363 85.005 86.574 87.171 86.013 83.077 80.329 80.17 80.52 81.672 80.909 80.149 80.276 80.34 80.381
51.504 54.401 58.227 58.924 55.549 62.549 60.085 57.422 64.487 63.994 60.804 61.982 62.506 62.739 61.721 62.959 63.216 55.458 54.444 54.663 55.018 55.255 55.494 55.878 56.2 56.564 56.933 57.282 57.543 57.879 58.093 58.433 58.978 65.747 69.547 70.264 69.685 69.112 60.907 60.646 60.674 60.559 60.497 60.488 60.402 60.404 60.572 60.845 62.714 62.992 61.632 61.597 61.797 63.511 63.328 62.925 62.587 62.695 63.742 67.638 65.219 63.801 64.177 64.905 64.67 64.772 64.479 73.424 77.059 77.175 75.609 66.219 75.349 81.46 82.289 81.467 83.125 82.614 70.007 69.554 68.563 68.229 68.456 68.818 68.948 69.44 69.894 71.209 71.116 75.89 78.383 78.696 78.295 77.523 72.067 72.311 77.892 81.015 78.552 85.798 85.79 77.236 81.765 74.581 74.304 74.106 74.799 77.251 77.11 87.239 87.787 89.324 84.915 90.928 81.49 90.336 91.252 94.04 91.43 88.33 91.661 95.786 84.586 91.335 96.432 95.446 96.684 88.747 97.579 97.808 99.369 98.582 95.752 96.318 96.51 96.941 90.36 97.275 96.347 89.874 95.61 97.884 97.776 96.424 93.789 94.279 95.887 96.95 94.876 98.96 99.948 101.948 101.511 100.392 99.486 101.857 103.447 103.377 102.804 102.093 96.942 86.199 94.347 90.805 96.85 99.107 91.187 89.427 91.051 93.773 87.744 97.115 94.761 87.235 83.94 84.596 88.036 88.572 88.602 88.143 85.046 83.824 83.934 89.695 89.829 89.344 83.88 83.544 83.83 83.074 82.95 82.9 82.912 82.924 82.868 84 83.203 83.154 83.419 87.198 87.639 87.666 87.662 86.941 82.957 82.444 85.217 87.224 87.38 87.367 87.358 87.246 86.402 82.734 81.991 81.839 81.795 81.832 81.966 82.134 81.864 81.969 81.857 81.701 81.475 82.52 81.061 80.71 82.467 85.568 85.678 85.322 81.876 81.491 80.616 80.485 80.248 80.388 80.268 80.241 79.537 79.545 79.552 79.515 79.478 80.691 81.346 84.106 84.325 84.319 84.254 79.652 79.3 79.296 79.241 79.169 79.047 79.01 79.017 79.039 78.909 79.036 78.847 78.772 78.711 78.676 78.667 78.826 78.743 78.659 79.36 80.33 80.592 80.22 80.343 80.679 -9999 81.066 81.13 81.923 83.48 84.679 86.855 86.866 86.838 86.537 84.168 81.274 79.741 79.034 78.417 77.851 78.321 79.052 79.301 78.72 79.399 81.896 82.248 82.399 79.785 79.089 78.858 78.73 78.783 78.629 78.69 78.777 78.658 78.65 78.765 78.982 79.473 80.371 78.729 78.495 79.588 79.409 78.925 78.786 79.263 79.072 79.18 79.105 79.048 79.118 79.858 78.862 78.811 78.815 77.964 78.066 78.56 78.175 78.015 78.433 78.861 78.459 78.411 78.445 78.364 78.758 79.853 79.529 79.203 78.656 78.527 78.435 78.538 78.869 78.865 78.569 79.74 80.131 79.595 80.232 79.976 79.641 79.367 79.196 79.07 81.663 92.011 93.949 86.771 79.75 79.096 78.778 78.737 78.886 79.027 84.7 91.181 85.395 85.591 80.758 85.714 88.269 89.064 81.193 86.016 86.044 80.102 79.194 79.035 79.107 79.734 82.725 82.513 80.772 79.688 80.197 79.982 79.826 79.739 79.516 79.455 79.449 79.494 79.519 79.748 80.927 83.416 85.501 87.109 86.578 84.51 80.801 80.563 81.163 81.603 81.076 80.206 80.172 80.215 80.22
55.623 59.849 61.56 61.332 61.267 64.094 62.013 61.47 61.814 60.863 60.109 60.725 62.623 62.522 63.973 64.493 61.741 56.185 54.207 54.452 54.793 54.981 55.317 55.678 56.018 56.44 56.692 57.04 57.353 57.633 58.003 58.298 58.569 59.834 69.154 70.963 70.199 67.701 65.225 61.359 60.608 60.582 60.405 60.4 60.345 60.305 60.442 61.955 62.083 62.724 61.68 61.983 61.673 62.697 62.739 62.438 62.506 62.638 62.977 63.761 64.237 64.032 63.733 64.121 69.987 68.347 67.376 65.474 67.758 65.517 65.599 65.482 75.061 79.38 78.851 72.239 81.908 80.108 72.715 69.615 68.56 68.186 68.397 68.496 68.594 69.148 70.666 70.384 70.724 71.468 76.244 77.795 74.204 71.333 72.041 72.48 74.992 85.182 86.155 81.747 85.811 85.885 85.644 74.592 74.418 74.188 74.159 74.895 76.289 83.728 86.668 86.858 88.043 91.117 82.764 82.972 92.214 93.606 85.12 94.328 93.198 85.942 87.568 91.804 97.307 97.354 94.59 88.816 95.837 95.374 90.816 97.09 95.987 97.565 95.612 95.461 94.506 97.374 96.903 94.867 94.494 89.103 97.495 98.388 97.495 96.07 98.384 97.065 96.745 89.068 97.407 101.592 101.967 96.396 101.303 102.584 103.592 103.457 102.949 101.969 93.618 93.51 95.648 92.748 98.525 95.555 97.568 93.385 88.052 85.537 95.477 98.066 94.485 92.314 85.45 84.748 88.444 88.577 88.594 88.6 87.602 86.056 83.632 84.562 83.708 83.691 83.5 83.458 83.262 83.073 82.842 82.858 82.854 83.366 83.092 85.241 82.874 82.674 83.79 87.654 87.7 87.673 87.697 85.681 82.841 82.328 82.438 86.033 85.535 87.337 87.384 87.345 87.011 82.387 82.82 81.857 81.808 81.86 81.89 81.983 82.207 81.972 81.67 81.64 81.414 81.335 80.828 84.003 85.685 85.678 85.689 85.68 82.777 80.742 80.855 80.569 79.956 79.827 79.581 79.567 80.361 79.835 79.47 79.429 79.35 79.21 80.496 84.163 84.312 84.313 83.503 80.094 79.769 79.194 79.149 78.922 78.925 78.976 78.993 78.901 78.933 78.888 78.829 78.76 78.725 78.673 78.635 78.819 78.733 78.632 78.94 80.252 80.207 80.237 80.166 80.842 81.486 80.469 78.538 80.252 83.646 85.837 89.476 88.249 87.489 86.238 85.093 83.557 81.397 80.771 80.383 78.399 78.245 78.719 78.709 78.809 78.941 79.712 80.277 79.44 79.012 78.888 78.671 78.516 78.456 78.514 78.436 78.547 78.495 78.639 78.53 78.551 79.899 79.466 78.314 78.207 78.688 79.255 78.148 79.359 82.896 81.936 82.73 82.387 81.372 82.688 83.661 81.487 78.848 78.236 78.092 78.803 80.5 79.038 80.16 80.185 78.789 78.464 78.344 78.28 77.86 78.246 78.809 78.874 78.665 78.365 78.595 78.488 78.388 78.491 78.61 78.516 78.507 78.918 79.447 80.29 80.25 79.241 79.024 78.839 78.937 83.876 93.139 88.436 80.612 79.117 78.623 78.465 78.629 79.964 80.968 81.602 91.315 87.138 79.885 81.586 86.037 91.16 92.941 91.942 90.651 82.509 79.197 79.077 79.116 79.108 79.637 82.456 85.287 82.972 81.061 80.456 79.815 79.899 79.734 79.578 79.462 79.383 79.424 79.429 79.702 80.491 80.931 83.313 85.927 87.384 85.605 82.686 81.012 81.676 81.544 80.7 79.992 80.003 80.127 79.931
55.196 58.442 61.874 62.263 60.734 63.574 64.461 64.193 58.58 52.566 54.525 59.052 63.031 64.584 60.734 64.346 63.409 56.27 54.087 54.328 54.594 54.849 55.15 55.471 55.733 56.089 56.438 56.827 57.137 57.47 57.765 58.101 58.317 58.594 61.252 66.713 63.452 65.562 67.429 62.479 60.481 60.497 63.087 60.367 60.282 60.232 60.257 60.808 62.616 62.804 62.942 61.936 61.832 61.531 62.984 62.387 62.242 62.46 63.572 64.756 63.602 63.17 63.584 64.306 70.895 71.091 70.825 70.473 70.398 69.296 64.637 64.99 67.677 75.022 77.915 79.393 81.909 72.004 76.221 71.245 71.258 68.218 68.236 68.385 68.494 68.673 68.973 70.495 70.17 70.386 70.951 71.362 71.666 71.937 72.59 72.401 77.742 83.477 87.11 87.583 88.388 88.285 85.626 76.864 74.406 74.342 74.163 74.167 75.364 76.538 83.801 85.444 81.845 86.244 91.298 91.076 90.179 90.38 89.89 83.476 92.967 92.392 90.818 96.366 88.76 97.184 97.519 95.172 95.948 89.882 98.032 97.228 95.133 97.19 98.026 95.591 94.015 96.034 96.769 91.374 91.903 95.436 97.71 98.66 98.673 99.022 90.087 87.227 95.171 85.84 90.74 96.647 100.505 96.494 99.413 101.452 101.627 102.359 101.439 100.136 97.165 94.072 99.903 101.475 101.453 102.079 100.407 101.031 87.516 94.216 95.495 94.381 97.935 97.789 92.776 84.047 88.3 88.578 88.609 88.598 88.608 88.559 84.25 83.511 83.558 84.654 85.513 83.475 83.255 83.003 82.833 82.877 82.898 83.735 84.754 84.098 83.256 85.986 87.699 87.668 87.675 87.655 84.347 82.608 82.545 82.566 82.421 82.486 83.673 87.082 87.387 87.383 85.691 82.755 82.104 81.816 82.262 82.703 81.821 81.929 81.951 81.782 81.54 81.943 81.162 81.226 81.305 85.517 85.702 85.643 85.665 85.477 80.704 80.458 80.233 80.016 79.859 80.066 79.357 79.568 79.645 79.497 79.592 80.015 79.353 82.561 84.173 84.318 84.327 84.334 80.263 79.21 79.122 80.299 79.382 78.968 78.898 78.949 78.982 78.978 78.969 78.841 78.849 78.776 78.778 78.747 78.649 78.605 78.74 78.667 78.519 78.527 78.5 80.232 79.959 81.143 82.245 81.027 79.698 81.945 84.28 84.398 86.399 88.359 88.55 87.87 87.446 84.542 82.102 81.526 80.433 78.824 78.413 77.959 78.606 78.78 78.469 78.596 78.896 79.006 78.84 78.693 78.486 78.366 78.433 78.278 78.363 78.453 78.511 78.628 78.336 78.507 80.203 80.109 78.06 78.223 79.094 79.454 78.727 79.082 82.073 84.664 85.46 84.449 85.035 85.579 84.917 82.988 79.175 78.405 78.683 79.758 83.617 82.809 84.015 83.204 80.853 80.352 80.791 78.939 78.562 78.582 78.079 78.941 78.984 78.418 78.327 78.431 78.299 78.327 78.363 78.345 78.397 78.815 80.061 79.693 78.9 78.648 78.506 78.727 78.995 83.246 88.283 88.454 79.96 78.687 78.577 78.552 78.93 82.777 84.251 79.773 82.391 80.613 79.799 81.242 89.904 93.998 93.392 89.617 81.476 79.577 79.131 79.277 79.39 79.147 79.313 81.657 86.469 85.021 82.024 81.514 80.136 79.986 79.969 79.57 79.332 -9999 79.238 79.338 79.559 80.336 80.71 82.261 84.897 86.244 84.901 82.314 80.404 81.111 80.75 79.957 79.898 79.95 80.623 81.174
57.478 57.492 56.718 60.772 58.256 62.238 62.25 62.252 59.539 53.927 52.521 53.819 60.816 62.261 62.863 61.674 60.678 55.241 53.868 54.067 54.299 54.565 54.945 55.221 55.545 55.841 56.23 56.569 56.923 57.266 57.518 57.807 58.124 58.422 58.734 64.384 67.594 68.718 63.996 65.893 60.577 60.452 60.398 60.232 60.172 60.213 60.16 60.308 63.068 62.923 62.266 61.465 61.333 61.495 61.569 61.695 62.943 63.393 63.151 63.113 62.658 63.074 63.535 68.4 71.255 72.178 72.271 71.999 71.379 70.474 65.776 65.64 73.486 77.563 81.836 82.876 82.747 81.344 68.982 80.35 79.437 70.402 69.887 68.255 68.462 69.696 71.075 69.692 70.366 71.08 71.728 71.214 72.161 71.342 74.122 74.23 74.993 81.709 85.992 85.885 85.784 81.486 85.347 77.925 74.495 74.358 74.309 74.061 74.727 75.571 76.786 84.399 84.419 88.212 91.121 85.665 86.019 89.857 93.529 94.425 94.511 92.359 92.174 95.815 89.426 95.352 95.359 91.931 91.529 96.372 95.252 96.779 97.391 98.099 94.275 86.592 95.465 88.442 94.479 86.983 94.721 89.023 97.553 98.767 96.963 98.611 98.736 96.717 96.753 94.226 94.712 98.518 98.326 99.496 99.534 98.748 99.217 91.763 98.511 99.092 99.078 100.535 102.432 102.533 103.464 102.773 97.681 101.156 91.589 94.533 91.721 98.201 98.638 97.581 95.522 86.586 83.499 86.799 88.481 88.561 88.583 88.601 88.569 85.242 83.541 85.459 86.149 84.08 83.003 82.832 82.814 82.782 82.834 83.807 83.444 82.885 83.01 86.809 87.681 87.7 87.683 87.456 82.939 82.655 82.456 82.461 82.279 82.256 82.19 82.618 85.179 83.174 82.42 82.296 81.82 81.831 82.043 83.225 83.953 81.977 81.795 81.427 81.408 81.364 81.182 81.381 84.258 85.691 85.676 85.681 85.693 81.588 80.436 80.184 80.045 79.723 79.658 79.319 79.308 79.35 79.376 79.422 79.375 79.694 82.705 84.272 84.331 84.305 84.313 83.176 79.558 79.685 79.188 79.725 79.419 79.264 78.839 78.941 79.087 78.915 78.685 78.589 78.767 78.81 78.641 78.582 78.654 78.583 78.505 78.625 78.602 78.462 78.462 80.56 80.712 81.553 82.284 81.704 81.188 80.597 80.694 83.183 82.71 86.367 88.091 88.627 89.22 86.921 83.709 82.176 81.245 80.612 80.433 80.058 79.358 78.48 78.363 78.389 78.497 78.392 78.381 78.571 78.46 78.394 78.486 78.266 78.245 78.564 78.428 78.555 78.434 78.133 78.057 78.371 78.176 78.118 79.347 79.816 78.901 78.649 81.91 83.873 84.69 84.522 84.853 85.244 84.607 83.518 79.974 78.174 78.677 81.864 83.462 85.091 85.572 84.615 83.441 84.022 83.887 82.061 79.506 78.253 78.356 79.809 81.905 79.22 78.958 80.491 79.207 78.319 78.055 78.171 78.506 78.249 79.953 79.901 78.328 78.268 78.496 78.568 78.614 81.638 84.888 85.688 80.592 79.375 79.808 79.082 79.414 79.85 85.127 80.276 79.319 80.778 88.709 89.071 92.333 91.07 85.282 80.027 78.96 79.071 79.255 79.292 79.248 79.203 79.143 79.785 83.018 83.898 82.303 80.88 79.775 79.735 79.593 79.253 79.124 79.082 79.081 79.145 79.145 79.806 80.516 81.692 83.865 83.939 83.348 82.567 80.736 80.302 79.795 80.241 81.453 82.81 83.883 83.886
