ncols 466
nrows 30
xllcorner    426014
yllcorner    433918
cellsize     2
NODATA_value -9999
-9999 -9999 -9999 -9999 -9999 -9999 -9999 -9999 -9999 -9999 -9999 -9999 -9999 -9999 -9999 -9999 -9999 -9999 -9999 -9999 -9999 -9999 -9999 -9999 -9999 -9999 -9999 -9999 -9999 -9999 -9999 -9999 -9999 -9999 -9999 -9999 -9999 -9999 -9999 -9999 -9999 -9999 -9999 -9999 -9999 -9999 -9999 -9999 -9999 -9999 -9999 -9999 -9999 -9999 -9999 -9999 -9999 -9999 -9999 -9999 -9999 -9999 -9999 -9999 -9999 -9999 -9999 -9999 -9999 -9999 -9999 -9999 -9999 -9999 -9999 -9999 -9999 -9999 -9999 -9999 -9999 -9999 -9999 -9999 -9999 -9999 -9999 -9999 -9999 -9999 -9999 -9999 -9999 -9999 -9999 -9999 -9999 -9999 -9999 -9999 -9999 -9999 -9999 -9999 -9999 -9999 -9999 -9999 -9999 -9999 -9999 -9999 -9999 85.735 -9999 88.612 87.754 85.755 85.893 85.435 84.697 84.734 84.674 84.489 84.183 84.388 93.212 94.826 97.393 99.704 98.999 96.331 94.969 95.206 96.46 91.519 98.361 98.838 98.874 97.014 94.84 93.149 86.329 90.67 87.183 88.674 89.002 87.615 82.881 82.552 82.65 82.652 82.686 82.672 82.876 82.67 82.165 81.868 81.809 81.729 81.674 81.684 81.646 81.617 81.658 81.541 81.467 81.371 81.324 81.266 81.245 81.178 81.228 81.205 81.175 81.148 81.096 81.109 81.041 80.936 80.955 81.071 81.016 81.38 81.451 81.447 81.46 81.476 91.707 86.185 95.112 89.046 85.914 80.772 80.658 80.625 80.888 80.667 80.618 80.59 82.308 84.446 84.685 89.156 91.306 92.179 89.155 92.009 90.268 93.81 94.029 91.749 84.816 80.153 81.15 79.366 78.499 78.223 77.766 78.01 77.208 76.234 76.399 76.064 76.047 75.588 75.364 74.737 74.407 74.243 74.249 74.208 74.402 74.484 74.474 74.295 74.226 74.133 73.938 73.804 73.734 73.736 73.634 74.538 73.927 73.633 73.224 73.139 73.043 72.93 72.824 72.745 72.718 72.65 72.56 72.608 72.632 72.566 72.362 72.394 72.303 72.269 72.238 72.206 72.187 72.238 72.257 72.369 73.681 73.039 72.637 73.833 78.413 78.723 74.133 71.991 71.835 71.748 71.776 71.765 71.79 71.676 71.726 71.649 71.602 71.552 71.533 71.529 71.513 71.473 71.45 71.448 71.427 71.401 71.36 71.342 71.309 71.313 71.286 71.233 71.434 81.257 81.42 73.914 70.943 70.861 70.892 73.298 72.182 78.565 81.924 82.517 83.894 84.081 80.497 75.631 72.229 80.776 79.629 77.298 81.468 86.227 85.326 74.552 79.202 75.278 70.653 70.624 70.561 70.546 70.535 70.471 70.494 70.478 70.486 70.476 70.482 70.519 70.453 70.441 70.414 70.444 70.428 70.413 70.397 70.405 70.398 70.375 70.323 70.326 70.329 70.308 70.287 70.247 70.247 70.23 70.211 70.223 70.221 70.221 70.193 70.202 70.162 70.215 70.226 70.259 70.199 70.22 70.194 70.236 70.285 70.215 70.233 70.258 70.239 70.23 70.223 70.218 70.273 70.332 70.321 70.171 70.049 70.026 70.001 69.998 70.013 70.068 70.136 70.125 70.087 70.092 70.1 70.106 70.075 70.072 70.075 70.118 70.087 70.095 70.079 70.097 70.125 70.145 70.245 70.334 70.496 70.629 70.754 70.894 70.914 71.055 71.091 71.203 71.344 71.37 71.464 71.645 71.745 71.78 71.809 71.755 71.735 71.726 71.716 71.698 71.769 71.723 71.726 71.804 71.773 71.841 71.888 71.935 71.918 71.969 71.959 71.967 72.058 72.036 72.073 72.085 72.086 72.096 72.144 72.066 72.063 72.161 72.212 72.238 72.281 77.855 75.219 78.183 79.214 80.041 77.211 72.964 73.853 72.281 72.273 72.294 72.324 72.356 72.371 72.39
-9999 -9999 -9999 -9999 -9999 -9999 -9999 -9999 -9999 -9999 -9999 -9999 -9999 -9999 -9999 -9999 -9999 -9999 -9999 -9999 -9999 -9999 -9999 -9999 -9999 -9999 -9999 -9999 -9999 -9999 -9999 -9999 -9999 -9999 -9999 -9999 -9999 -9999 -9999 -9999 -9999 -9999 -9999 -9999 -9999 -9999 -9999 -9999 -9999 -9999 -9999 -9999 -9999 -9999 -9999 -9999 -9999 -9999 -9999 -9999 -9999 -9999 -9999 -9999 -9999 -9999 -9999 -9999 -9999 -9999 -9999 -9999 -9999 -9999 -9999 -9999 -9999 -9999 -9999 -9999 -9999 -9999 -9999 -9999 -9999 -9999 -9999 -9999 -9999 -9999 -9999 -9999 -9999 -9999 -9999 -9999 -9999 -9999 -9999 -9999 -9999 -9999 -9999 -9999 -9999 -9999 -9999 -9999 -9999 -9999 -9999 -9999 -9999 -9999 -9999 85.236 84.847 84.906 84.9 84.961 84.816 86.351 84.658 84.6 84.454 84.402 90.962 95.755 97.578 98.128 97.545 96.504 90.298 86.965 92.904 92.691 95.185 94.73 95.753 94.171 93.047 92.754 91.155 83.744 82.763 84.835 86.83 84.563 82.95 82.553 82.67 82.764 82.788 82.77 82.864 82.974 82.971 81.978 81.885 81.835 81.762 81.696 81.65 81.624 81.638 81.523 81.547 81.77 81.411 81.356 81.277 81.239 81.15 81.119 81.14 81.137 81.107 81.106 81.092 81.043 80.996 80.942 80.913 80.894 81.225 81.267 81.4 89.593 93.72 88.947 97.355 95.185 90.124 81.28 80.95 84.331 83.153 84.197 80.73 80.611 80.983 81.884 84.722 88.068 90.821 91.541 92.831 90.059 93.937 91.886 92.167 86.88 84.849 82.806 85.13 86.796 82.286 78.956 78.898 78.819 78.01 77.947 77.41 76.92 76.611 76.384 76.016 75.532 75.36 74.477 74.608 74.443 74.572 74.648 74.563 74.451 74.452 74.17 74.022 74.002 73.915 74.126 73.888 75.384 74.567 73.995 73.506 73.692 73.129 72.991 73.044 72.891 72.802 72.702 72.793 72.732 73.019 72.991 72.442 72.485 72.462 72.401 72.57 72.409 72.666 72.273 72.341 72.444 74.795 74.942 72.766 72.899 76.183 77.098 76.86 73.228 71.826 71.806 71.839 71.796 71.835 71.776 71.735 71.677 71.588 71.557 71.502 71.495 71.458 71.494 71.385 71.423 71.424 71.357 71.339 71.301 71.334 71.291 71.276 71.249 71.19 73.055 71.009 70.961 70.904 70.928 70.847 70.861 71.316 80.462 81.413 82.721 84.296 81.917 81.362 71.655 75.699 75.962 72.908 72.665 72.694 73.116 71.631 70.78 70.723 70.647 70.586 70.546 70.517 70.524 70.486 70.467 70.462 70.429 70.427 70.418 70.435 70.425 70.42 70.393 70.375 70.377 70.365 70.368 70.287 70.3 70.277 70.313 70.279 70.248 70.207 70.234 70.184 70.189 70.182 70.189 70.13 70.131 70.133 70.127 70.125 70.15 70.143 70.163 70.13 70.147 70.162 70.195 70.187 70.193 70.169 70.165 70.181 70.172 70.168 70.191 70.199 70.218 70.284 70.236 70.181 70.028 69.937 69.966 69.934 70.021 69.974 69.98 70.046 70 70 70.018 70.027 70.049 70.024 70.074 70.073 70.072 70.072 70.036 70.083 70.05 70.063 70.104 70.106 70.154 70.237 70.319 70.435 70.526 70.658 70.816 70.885 71.031 71.204 71.296 71.403 71.532 71.692 71.759 71.734 71.756 71.655 71.683 71.62 71.639 71.714 71.71 71.755 71.779 71.766 71.785 71.822 71.831 71.856 71.926 71.948 71.93 71.96 71.956 72.011 72.013 71.959 71.99 71.993 72.07 72.065 72.078 72.116 72.162 72.148 75.392 76.435 75.431 81.112 82.339 82.119 75.449 74.191 74.898 72.268 72.229 72.317 72.323 72.287 72.342
-9999 -9999 -9999 -9999 -9999 -9999 -9999 -9999 -9999 -9999 -9999 -9999 -9999 -9999 -9999 -9999 -9999 -9999 -9999 -9999 -9999 -9999 -9999 -9999 -9999 -9999 -9999 -9999 -9999 -9999 -9999 -9999 -9999 -9999 -9999 -9999 -9999 -9999 -9999 -9999 -9999 -9999 -9999 -9999 -9999 -9999 -9999 -9999 -9999 -9999 -9999 -9999 -9999 -9999 -9999 -9999 -9999 -9999 -9999 -9999 -9999 -9999 -9999 -9999 -9999 -9999 -9999 -9999 -9999 -9999 -9999 -9999 -9999 -9999 -9999 -9999 -9999 -9999 -9999 -9999 -9999 -9999 -9999 -9999 -9999 -9999 -9999 -9999 -9999 -9999 -9999 -9999 -9999 -9999 -9999 -9999 -9999 -9999 -9999 -9999 -9999 -9999 -9999 -9999 -9999 -9999 -9999 -9999 -9999 -9999 -9999 -9999 -9999 -9999 -9999 -9999 84.918 84.959 84.991 84.894 91.789 87.657 92.191 85.461 84.488 84.389 87.266 95.385 95.81 95.65 96.101 93.694 89.326 88.147 88.699 94.204 90.751 92.011 90.682 87.635 89.96 90.371 82.746 82.732 82.808 83.616 83.999 83.096 82.889 82.798 82.727 82.852 82.891 82.876 82.88 82.933 83.103 82.678 81.922 81.903 81.861 81.781 81.717 81.665 81.631 81.634 81.582 81.509 81.472 81.452 81.456 81.307 81.24 81.106 81.035 81.028 81.035 81.021 81.066 81.058 81.065 81.017 80.959 80.907 80.862 80.769 81.071 87.381 86.311 89.358 91.98 85.376 81.588 81.314 83.826 83.344 86.822 85.019 82.149 80.709 80.565 80.542 80.9 80.633 84.786 90.3 90.315 89.507 92.939 91.603 88.988 86.261 82.213 86.526 88.784 89.669 87.48 81.071 79.329 78.898 78.959 79.013 78.112 77.523 77.438 77.108 76.862 76.384 75.288 75.299 75.484 74.933 74.878 74.768 74.598 74.541 74.553 74.426 74.119 74.024 74.078 76.444 75.174 75.479 75.557 73.864 73.572 73.468 73.374 73.212 73.063 73 73.049 72.826 72.79 72.815 73.013 72.937 72.545 72.486 72.678 72.722 72.48 72.42 72.646 72.793 72.754 72.885 76.931 74.731 72.983 72.988 73.129 76.79 77.537 74.445 71.897 71.839 71.842 71.861 71.861 71.835 71.787 71.713 71.622 71.576 71.55 71.503 71.447 71.417 71.422 71.402 71.366 71.328 71.323 71.264 71.239 71.23 71.245 71.191 71.14 71.087 71.057 70.99 70.956 70.916 70.865 70.841 70.944 79.948 80.008 83.585 84.329 82.808 73.744 70.814 73.642 81.561 78.985 76.528 70.918 70.714 70.755 70.745 70.649 70.617 70.534 70.501 70.472 70.428 70.446 70.4 70.439 70.396 70.39 70.393 70.375 70.393 70.379 70.348 70.322 70.319 70.304 70.314 70.261 70.282 70.234 70.228 70.193 70.199 70.155 70.197 70.124 70.152 70.115 70.114 70.063 70.051 70.105 70.053 70.035 70.069 70.112 70.054 70.048 70.103 70.035 70.062 70.101 70.097 70.101 70.086 70.13 70.128 70.149 70.161 70.157 70.166 70.194 70.167 70.04 69.966 69.949 69.904 69.899 69.911 69.882 69.929 69.961 69.935 70.006 70.03 70.031 70.061 70.026 69.99 70.056 70.003 70.084 70.106 70.064 70.022 70.07 70.055 70.072 70.03 70.043 70.132 70.214 70.253 70.411 70.512 70.56 70.73 70.917 71.085 71.219 71.409 71.589 71.672 71.698 71.657 71.652 71.592 71.62 71.624 71.608 71.649 71.606 71.699 71.654 71.765 71.765 71.83 71.861 71.836 71.889 71.824 71.865 71.853 71.902 71.938 71.915 71.967 71.982 71.978 71.936 72.012 72.02 72.245 75.271 77.068 78.199 76.715 80.179 82.16 81.183 76.553 76.691 72.623 72.132 72.233 72.176 72.171 72.197 72.255
-9999 -9999 -9999 -9999 -9999 -9999 -9999 -9999 -9999 -9999 -9999 -9999 -9999 -9999 -9999 -9999 -9999 -9999 -9999 -9999 -9999 -9999 -9999 -9999 -9999 -9999 -9999 -9999 -9999 -9999 -9999 -9999 -9999 -9999 -9999 -9999 -9999 -9999 -9999 -9999 -9999 -9999 -9999 -9999 -9999 -9999 -9999 -9999 -9999 -9999 -9999 -9999 -9999 -9999 -9999 -9999 -9999 -9999 -9999 -9999 -9999 -9999 -9999 -9999 -9999 -9999 -9999 -9999 -9999 -9999 -9999 -9999 -9999 -9999 -9999 -9999 -9999 -9999 -9999 -9999 -9999 -9999 -9999 -9999 -9999 -9999 -9999 -9999 -9999 -9999 -9999 -9999 -9999 -9999 -9999 -9999 -9999 -9999 -9999 -9999 -9999 -9999 -9999 -9999 -9999 -9999 -9999 -9999 -9999 -9999 -9999 -9999 -9999 -9999 -9999 -9999 -9999 84.98 85.001 85.505 86.596 90.447 91.871 87.566 85.697 84.336 85.627 93.47 94.624 95.593 95.947 90 83.938 84.072 84.27 89.615 90.859 88.151 87.515 85.658 86.088 83.068 82.817 82.939 84.117 83.087 82.979 82.883 84.166 83.248 82.848 82.884 82.972 83.011 82.994 82.979 83.209 83.499 82.419 81.936 81.895 81.839 81.804 81.753 81.715 81.67 81.617 81.594 81.555 81.445 81.433 81.372 81.44 81.221 81.183 81.075 81.014 80.954 80.953 81.002 81.007 81.009 80.969 80.957 80.905 80.878 80.83 80.785 80.698 80.903 87.732 82.636 81.829 81.35 81.486 84.979 85.035 86.516 81.978 81.937 80.69 80.514 80.494 80.45 80.469 85.84 85.395 82.551 83.138 85.672 86.423 83.081 80.205 83.411 89.056 89.243 87.82 82.776 81.366 81.568 82.114 82.241 81.746 78.464 77.844 77.627 77.507 77.205 76.977 76.585 76.38 76.027 75.946 75.446 75.009 74.864 74.663 74.726 74.403 74.276 74.284 74.266 74.521 74.676 74.888 73.797 73.59 73.465 73.431 73.544 73.272 73.144 73.22 72.986 72.98 72.93 72.873 72.718 72.76 72.71 72.754 72.794 72.58 72.953 73.081 72.956 72.651 72.481 73.323 77.488 73.175 73.159 73.233 74.889 76.229 74.232 71.985 71.945 71.954 71.939 71.915 71.919 71.873 71.772 71.653 71.613 71.597 71.546 71.516 71.439 71.412 71.35 71.309 71.264 71.289 71.246 71.209 71.154 71.129 71.157 71.1 71.077 71.027 71.023 70.955 70.924 70.86 70.815 70.793 72.327 79.377 83.156 82.074 81.109 72.677 70.965 78.34 81.034 82.416 80.793 70.804 70.682 70.693 70.639 70.578 70.544 70.468 70.428 70.415 70.385 70.382 70.376 70.375 70.358 70.357 70.345 70.302 70.342 70.29 70.291 70.27 70.243 70.221 70.238 70.22 70.174 70.149 70.177 70.119 70.121 70.089 70.102 70.081 70.076 70.052 70.062 70.02 70.041 70.012 70.01 70 69.987 70.018 70.044 69.994 70.041 69.996 70.02 70.007 70.051 70.053 70.057 70.081 70.114 70.109 70.044 70.07 70.102 70.155 70.119 70 69.91 69.835 69.87 69.854 69.884 69.899 69.949 69.937 69.921 69.93 69.97 69.981 69.966 69.969 70.008 70.023 69.992 70.034 70.034 70.011 70.041 70.022 70.037 70.047 70.071 70.022 70.029 70.017 70.046 70.113 70.191 70.403 70.56 70.649 70.737 70.932 71.102 71.29 71.483 71.585 71.633 71.6 71.571 71.556 71.506 71.533 71.548 71.571 71.648 71.661 71.712 71.737 71.749 71.721 71.745 71.822 71.801 71.793 71.796 71.876 71.868 71.866 71.828 71.871 71.919 71.938 71.984 71.987 73.828 76.3 78.488 78.501 77.905 78.363 80.295 78.283 74.029 72.734 72.072 72.104 72.187 72.171 72.146 72.128 72.141
-9999 -9999 -9999 -9999 -9999 -9999 -9999 -9999 -9999 -9999 -9999 -9999 -9999 -9999 -9999 -9999 -9999 -9999 -9999 -9999 -9999 -9999 -9999 -9999 -9999 -9999 -9999 -9999 -9999 -9999 -9999 -9999 -9999 -9999 -9999 -9999 -9999 -9999 -9999 -9999 -9999 -9999 -9999 -9999 -9999 -9999 -9999 -9999 -9999 -9999 -9999 -9999 -9999 -9999 -9999 -9999 -9999 -9999 -9999 -9999 -9999 -9999 -9999 -9999 -9999 -9999 -9999 -9999 -9999 -9999 -9999 -9999 -9999 -9999 -9999 -9999 -9999 -9999 -9999 -9999 -9999 -9999 -9999 -9999 -9999 -9999 -9999 -9999 -9999 -9999 -9999 -9999 -9999 -9999 -9999 -9999 -9999 -9999 -9999 -9999 -9999 -9999 -9999 -9999 -9999 -9999 -9999 -9999 -9999 -9999 -9999 -9999 -9999 -9999 -9999 -9999 -9999 -9999 -9999 -9999 -9999 -9999 86.345 87.99 86.66 84.465 88.935 93.877 95.801 96.283 96.29 86.653 84.478 84.595 84.036 83.974 86.549 90.126 85.219 83.029 82.899 82.909 82.892 83.092 83.434 83.186 83.016 82.956 83.1 83.491 83.072 82.964 83.041 83.097 83.138 83.108 83.15 83.288 83.387 82.381 81.939 81.944 81.911 81.813 81.776 81.728 81.725 81.714 81.619 81.569 81.505 81.42 81.386 81.342 81.29 81.208 81.184 81.147 81.065 80.908 80.921 80.958 80.939 80.905 80.94 80.94 80.895 80.842 80.821 80.772 80.735 80.838 81.354 81.231 81.288 81.295 83.607 85.144 83.783 81.665 83.766 81.361 83.897 83.482 81.792 80.366 80.394 80.422 80.441 80.306 80.368 80.287 80.22 81.272 87.842 88.135 86.712 81.188 84.25 84.824 86.638 86.302 85.245 82.805 82.032 78.039 77.979 77.997 77.783 77.319 77.031 76.589 76.286 75.971 75.592 75.227 75.456 75.092 74.646 74.499 74.509 75.836 75.919 74.709 74.238 73.986 73.791 73.556 73.652 73.538 73.423 73.32 73.277 73.194 73.193 73.15 73.063 72.887 72.822 72.832 72.795 72.706 72.649 72.757 72.842 72.965 72.899 72.59 73.202 77.8 74.518 73.332 73.387 73.59 72.962 72.289 72.067 72.035 72.033 72.007 72.01 71.965 71.888 71.794 71.698 71.65 71.618 71.562 71.52 71.519 71.452 71.398 71.351 71.283 71.245 71.177 71.155 71.109 71.069 71.014 71.036 71.065 71.047 71.02 70.975 70.908 70.858 70.766 70.77 70.688 77.369 80.442 75.812 77.699 73.593 71.096 76.947 80.132 81.33 72.623 70.669 70.644 70.583 70.559 70.543 70.459 70.406 70.413 70.397 70.344 70.349 70.322 70.334 70.298 70.29 70.276 70.282 70.29 70.225 70.22 70.197 70.196 70.175 70.209 70.18 70.13 70.092 70.11 70.062 70.06 70.015 70.057 69.983 70.053 70.009 69.954 69.943 69.919 69.932 69.917 69.942 69.996 69.973 69.969 69.944 69.991 69.929 69.961 69.935 69.97 69.95 69.957 70.047 70.1 70.055 70.003 70.042 70.078 70.074 69.981 69.901 69.872 69.906 69.849 69.915 69.887 69.895 69.843 69.869 69.86 69.891 69.946 69.926 69.955 69.971 69.956 69.91 69.94 69.959 69.959 70.034 69.987 70.009 70.015 70.017 70.056 69.999 69.96 69.954 69.997 70.012 70.03 70.102 70.178 70.255 70.467 70.592 70.729 70.932 71.117 71.155 71.429 71.474 71.475 71.524 71.499 71.518 71.518 71.578 71.567 71.538 71.574 71.663 71.688 71.718 71.758 71.721 71.752 71.731 71.767 71.753 71.812 71.821 71.823 71.829 71.822 71.849 71.866 71.94 72.089 77.348 78.934 77.091 74.172 78.672 78.627 77.401 73.371 72.057 72.075 72.121 72.092 72.057 72.12 72.05 72.038
-9999 -9999 -9999 -9999 -9999 -9999 -9999 -9999 -9999 -9999 -9999 -9999 -9999 -9999 -9999 -9999 -9999 -9999 -9999 -9999 -9999 -9999 -9999 -9999 -9999 -9999 -9999 -9999 -9999 -9999 -9999 -9999 -9999 -9999 -9999 -9999 -9999 -9999 -9999 -9999 -9999 -9999 -9999 -9999 -9999 -9999 -9999 -9999 -9999 -9999 -9999 -9999 -9999 -9999 -9999 -9999 -9999 -9999 -9999 -9999 -9999 -9999 -9999 -9999 -9999 -9999 -9999 -9999 -9999 -9999 -9999 -9999 -9999 -9999 -9999 -9999 -9999 -9999 -9999 -9999 -9999 -9999 -9999 -9999 -9999 -9999 -9999 -9999 -9999 -9999 -9999 -9999 -9999 -9999 -9999 -9999 -9999 -9999 -9999 -9999 -9999 -9999 -9999 -9999 -9999 -9999 -9999 -9999 -9999 -9999 -9999 -9999 -9999 -9999 -9999 -9999 -9999 -9999 -9999 -9999 -9999 84.72 84.862 85.308 85.647 84.469 91.624 88.81 95.139 96.612 93.402 84.751 84.187 83.896 83.921 83.913 83.959 89.459 89.62 85.779 83.425 83.094 83.04 83.033 84.15 87.949 86.256 83.163 83.041 83.581 83.308 83.05 83.064 83.175 83.248 83.248 83.232 83.224 83.45 83.768 82.122 81.998 81.965 81.893 81.844 81.822 81.812 81.766 81.69 81.638 81.578 81.547 81.484 81.435 81.396 81.323 81.657 81.643 81.115 80.992 80.928 80.96 80.923 80.854 80.876 80.872 80.88 80.846 80.829 80.81 80.82 80.725 80.707 80.755 81.021 81.093 81.238 81.294 81.326 82.104 86.208 81.935 89.944 88.449 87.147 80.524 80.376 80.347 80.329 80.357 80.346 80.314 80.259 80.232 80.305 82.324 80.07 80.17 80.794 81.888 85.401 87.867 86.987 85.222 83.052 83.642 83.746 79.932 78.419 78.206 78.249 78.087 77.47 77.198 76.654 76.316 76.616 76.09 75.11 75.066 75.465 78.338 78.406 78.03 77.089 74.496 74.056 73.772 73.856 73.699 73.62 73.565 73.422 73.34 73.344 73.248 73.149 73.137 73.146 72.962 72.872 72.858 72.796 72.775 73.407 73.155 72.686 72.727 72.861 77.286 78.24 73.657 73.572 73.7 73.754 72.605 72.153 72.141 72.117 72.033 72.043 72.011 71.953 71.86 71.78 71.673 71.641 71.629 71.599 71.516 71.449 71.408 71.391 71.329 71.274 71.183 71.104 71.077 70.974 70.953 70.969 71.023 71.029 70.98 70.957 70.913 70.857 70.778 70.723 70.673 70.664 73.051 79.641 73.855 77.892 73.33 71.04 73.953 71.666 70.658 70.688 70.619 70.552 70.502 70.432 70.367 70.347 70.355 70.358 70.333 70.325 70.287 70.262 70.248 70.245 70.201 70.228 70.219 70.172 70.13 70.114 70.141 70.072 70.11 70.089 70.064 70.041 70.057 69.975 69.997 69.975 69.996 69.945 69.926 69.917 69.884 69.831 69.845 69.887 69.886 69.906 69.913 69.904 69.91 69.912 69.919 69.9 69.912 69.888 69.856 69.848 69.911 70.016 70.011 69.913 69.927 69.969 69.985 69.977 69.904 69.844 69.821 69.837 69.848 69.846 69.868 69.837 69.842 69.847 69.867 69.86 69.887 69.919 69.862 69.887 69.927 69.909 69.962 69.935 69.969 69.934 69.919 69.932 69.939 69.977 69.979 70.008 69.996 69.952 69.935 69.943 69.934 69.932 70.01 70.06 70.115 70.266 70.336 70.502 70.696 70.79 71.006 71.161 71.303 71.381 71.411 71.386 71.444 71.382 71.44 71.466 71.485 71.558 71.565 71.593 71.526 71.581 71.655 71.651 71.703 71.712 71.744 71.733 71.725 71.718 71.743 71.819 71.847 71.881 75.23 75.115 75.473 74.562 78.168 76.288 76.932 74.637 72.248 71.945 72.056 71.991 71.975 72.009 72 72.037 72.036
-9999 -9999 -9999 -9999 -9999 -9999 -9999 -9999 -9999 -9999 -9999 -9999 -9999 -9999 -9999 -9999 -9999 -9999 -9999 -9999 -9999 -9999 -9999 -9999 -9999 -9999 -9999 -9999 -9999 -9999 -9999 -9999 -9999 -9999 -9999 -9999 -9999 -9999 -9999 -9999 -9999 -9999 -9999 -9999 -9999 -9999 -9999 -9999 -9999 -9999 -9999 -9999 -9999 -9999 -9999 -9999 -9999 -9999 -9999 -9999 -9999 -9999 -9999 -9999 -9999 -9999 -9999 -9999 -9999 -9999 -9999 -9999 -9999 -9999 -9999 -9999 -9999 -9999 -9999 -9999 -9999 -9999 -9999 -9999 -9999 -9999 -9999 -9999 -9999 -9999 -9999 -9999 -9999 -9999 -9999 -9999 -9999 -9999 -9999 -9999 -9999 -9999 -9999 -9999 -9999 -9999 -9999 -9999 -9999 -9999 -9999 -9999 -9999 -9999 -9999 -9999 -9999 -9999 -9999 -9999 -9999 -9999 84.576 84.601 84.497 84.476 85.072 90.602 93.881 95.252 91.882 84.77 84.544 83.979 84.017 84.575 84.007 86.26 88.324 87.966 85.274 83.568 83.306 87.137 88.293 89.459 87.472 84.522 83.287 83.282 83.342 83.458 83.263 83.229 83.329 83.367 83.415 83.355 83.47 83.676 82.973 82.077 82.007 82.171 82.227 81.954 81.883 81.825 81.817 81.815 81.688 81.657 81.586 81.533 81.401 83.897 84.734 81.669 81.267 81.185 81.09 81.069 81.151 80.989 80.95 80.942 80.832 80.837 80.823 80.82 80.8 80.77 80.761 80.693 80.663 80.703 80.728 80.97 81.149 81.327 85.943 89.596 89.213 86.389 84.481 81.069 80.882 80.543 80.265 80.262 80.298 80.286 80.303 80.261 80.245 80.207 80.118 80.096 80.235 81.812 86.672 87.078 86.051 84.69 85.925 87.099 87.096 83.68 79.335 79.442 87.424 85.541 81.773 78.17 78.943 81.08 81.556 80.145 75.87 75.74 75.685 75.633 78.568 76.853 80.196 78.399 74.331 74.162 74.206 73.933 73.778 73.701 73.597 73.567 73.421 73.381 73.388 73.237 73.243 73.144 73.073 72.935 73.533 73.959 73.299 73.112 72.752 72.97 72.999 76.357 76.368 74.697 73.78 73.755 73.682 72.914 72.429 72.355 72.213 72.143 72.068 72.003 71.969 71.93 71.813 71.767 71.761 71.681 71.578 71.547 71.519 71.439 71.401 71.323 71.267 71.229 71.139 71.035 70.998 70.97 70.908 70.937 70.951 70.987 70.946 70.889 70.8 70.747 70.715 70.701 70.675 74.474 74.239 78.636 79.195 74.944 70.912 70.661 70.643 70.656 70.631 70.579 70.478 70.39 70.346 70.329 70.282 70.265 70.263 70.262 70.284 70.27 70.246 70.209 70.197 70.192 70.159 70.201 70.103 70.093 70.044 70.064 70.019 70.022 70.029 70.021 69.954 70.002 69.956 69.93 69.903 69.909 69.838 69.88 69.851 69.851 69.788 69.817 69.802 69.821 69.802 69.841 69.868 69.892 69.863 69.848 69.852 69.836 69.836 69.789 69.805 69.876 69.927 69.897 69.848 69.881 69.922 69.91 69.837 69.801 69.792 69.773 69.774 69.872 69.85 69.861 69.807 69.776 69.797 69.78 69.872 69.798 69.887 69.87 69.884 69.886 69.898 69.895 69.89 69.857 69.875 69.869 69.87 69.927 69.914 69.938 69.946 69.935 69.925 69.911 69.959 69.943 69.943 69.933 69.96 69.921 69.971 70.06 70.143 70.237 70.408 70.585 70.787 70.943 71.068 71.188 71.183 71.32 71.331 71.372 71.404 71.389 71.403 71.466 71.458 71.546 71.572 71.593 71.597 71.624 71.654 71.653 71.607 71.629 71.737 71.759 71.746 71.779 71.811 75.345 74.614 72.725 73.279 73.883 78.317 74.86 71.868 71.875 71.885 71.938 71.972 71.942 71.914 71.959 71.966 71.926
-9999 -9999 -9999 -9999 -9999 -9999 -9999 -9999 -9999 -9999 -9999 -9999 -9999 -9999 -9999 -9999 -9999 -9999 -9999 -9999 -9999 -9999 -9999 -9999 -9999 -9999 -9999 -9999 -9999 -9999 -9999 -9999 -9999 -9999 -9999 -9999 -9999 -9999 -9999 -9999 -9999 -9999 -9999 -9999 -9999 -9999 -9999 -9999 -9999 -9999 -9999 -9999 -9999 -9999 -9999 -9999 -9999 -9999 -9999 -9999 -9999 -9999 -9999 -9999 -9999 -9999 -9999 -9999 -9999 -9999 -9999 -9999 -9999 -9999 -9999 -9999 -9999 -9999 -9999 -9999 -9999 -9999 -9999 -9999 -9999 -9999 -9999 -9999 -9999 -9999 -9999 -9999 -9999 -9999 -9999 -9999 -9999 -9999 -9999 -9999 -9999 -9999 -9999 -9999 -9999 -9999 -9999 -9999 -9999 -9999 -9999 -9999 -9999 -9999 -9999 -9999 -9999 -9999 -9999 -9999 -9999 -9999 -9999 84.687 84.668 84.685 84.554 85.681 85.327 86.038 84.365 84.287 84.209 84.063 85.405 88.544 87.782 86.815 85.318 86.411 85.546 84.913 84.649 88.024 89.429 90.493 89.932 88.224 83.959 83.229 83.19 83.407 83.355 83.352 83.347 83.432 83.493 83.475 83.479 83.631 83.794 82.594 82.084 85.119 84.557 84.548 83.947 82.002 81.88 81.89 81.821 81.804 81.716 81.608 83.478 89.198 88.858 82.83 81.46 81.394 81.456 81.393 82.374 81.516 81.391 80.993 80.958 80.877 80.74 80.741 80.721 80.736 80.758 80.741 80.71 80.67 80.654 80.572 80.642 80.66 81.038 86.863 87.911 85.478 85.362 82.083 81.063 80.977 80.844 80.462 80.247 80.25 80.234 80.25 80.211 80.235 80.228 80.155 80.101 80.041 80.429 81.974 80.068 80.388 85.206 86.925 87.022 86.916 87.352 89.65 85.543 90.006 88.479 79.868 80.655 82.932 84.384 82.993 77.781 76.654 76.154 75.752 77.321 81.687 82.91 81.841 76.794 74.412 74.529 74.093 74.073 73.81 73.771 73.721 73.641 73.502 73.569 73.464 73.38 73.354 73.381 73.168 73.289 73.468 73.484 73.061 72.902 72.991 73.377 74.176 79.005 75.175 73.95 73.984 74.04 73.249 72.609 72.487 72.441 72.27 72.143 72.088 72.06 72.016 71.937 71.916 71.871 71.877 71.687 71.603 71.603 71.505 71.448 71.341 71.321 71.206 71.166 71.096 70.961 70.966 71.003 70.972 70.887 70.901 70.908 70.859 70.814 70.772 70.721 70.686 70.73 71.934 77.832 78.937 78.4 73.628 70.68 70.615 70.607 70.673 70.597 70.51 70.376 70.313 70.292 70.234 70.226 70.173 70.201 70.162 70.205 70.187 70.173 70.156 70.133 70.175 70.174 70.168 70.075 70.032 70.048 69.998 69.97 69.97 69.96 69.959 69.89 69.906 69.847 69.839 69.839 69.832 69.829 69.825 69.803 69.768 69.736 69.731 69.717 69.725 69.755 69.785 69.759 69.757 69.701 69.728 69.71 69.722 69.748 69.731 69.761 69.819 69.836 69.765 69.765 69.853 69.816 69.815 69.776 69.721 69.736 69.758 69.766 69.802 69.792 69.764 69.749 69.717 69.74 69.765 69.796 69.853 69.835 69.842 69.779 69.828 69.807 69.801 69.832 69.901 69.839 69.842 69.817 69.789 69.874 69.875 69.927 69.907 69.943 69.949 69.916 69.889 69.898 69.877 69.928 69.914 69.914 69.881 69.934 70.012 70.047 70.229 70.412 70.595 70.725 70.84 70.912 71.028 71.205 71.255 71.36 71.359 71.356 71.435 71.43 71.379 71.486 71.513 71.497 71.573 71.618 71.627 71.632 71.588 71.628 71.62 71.667 71.721 74.69 77.068 74.01 78.762 78.021 78.764 77.636 73.241 71.792 71.816 71.869 71.879 71.887 71.775 71.776 71.865 71.953 71.828
-9999 -9999 -9999 -9999 -9999 -9999 -9999 -9999 -9999 -9999 -9999 -9999 -9999 -9999 -9999 -9999 -9999 -9999 -9999 -9999 -9999 -9999 -9999 -9999 -9999 -9999 -9999 -9999 -9999 -9999 -9999 -9999 -9999 -9999 -9999 -9999 -9999 -9999 -9999 -9999 -9999 -9999 -9999 -9999 -9999 -9999 -9999 -9999 -9999 -9999 -9999 -9999 -9999 -9999 -9999 -9999 -9999 -9999 -9999 -9999 -9999 -9999 -9999 -9999 -9999 -9999 -9999 -9999 -9999 -9999 -9999 -9999 -9999 -9999 -9999 -9999 -9999 -9999 -9999 -9999 -9999 -9999 -9999 -9999 -9999 -9999 -9999 -9999 -9999 -9999 -9999 -9999 -9999 -9999 -9999 -9999 -9999 -9999 -9999 -9999 -9999 -9999 -9999 -9999 -9999 -9999 -9999 -9999 -9999 -9999 -9999 -9999 -9999 -9999 -9999 -9999 -9999 -9999 -9999 -9999 -9999 -9999 -9999 -9999 84.805 84.85 90.391 88.378 84.822 84.849 84.482 84.358 84.506 88.801 89.519 89.829 89.311 87.22 86.375 85.182 84.65 84.498 86.465 87.929 89.508 90.271 90.706 89.658 88.108 83.569 83.234 83.312 83.558 83.533 83.403 83.485 83.581 83.579 83.612 83.595 83.742 83.753 83.518 85.307 85.539 85.687 84.667 85.444 84.683 82.587 82.07 81.92 81.842 81.763 88.639 90.031 89.872 84.052 81.688 81.584 81.633 81.602 82.193 82.464 82.18 81.275 81.276 80.943 80.884 80.811 80.773 80.712 80.721 80.724 80.721 80.685 80.622 80.591 80.59 80.548 80.526 80.533 80.827 81.001 82.437 81.197 81.062 81.08 81.067 80.968 80.965 80.82 80.435 80.2 80.373 80.236 80.156 80.163 80.123 80.12 80.034 80.019 79.954 79.946 81.365 85.497 85.584 87.55 91.337 92.278 91.171 91.519 91.184 85.257 80.77 82.642 84.561 83.89 83.411 80.867 77.007 76.766 78.623 80.61 81.919 80.725 77.143 75.029 74.931 74.784 74.238 74.008 74.005 73.944 73.849 73.829 73.719 73.669 73.551 73.534 73.664 74.347 74.819 73.349 73.177 73.023 73.054 73.898 73.843 73.857 79.383 75.851 74.061 74.129 74.208 73.841 73.173 72.762 72.556 72.425 72.264 72.259 72.13 72.195 72.351 72.365 72.319 72.097 71.879 71.743 71.649 71.591 71.501 71.383 71.316 71.225 71.161 71.108 71.05 71 70.951 70.99 70.973 70.92 70.864 70.82 70.788 70.722 70.881 74.502 70.873 70.705 72.721 76.438 73.074 70.593 70.579 70.574 70.626 70.674 70.496 70.39 70.27 70.237 70.238 70.174 70.157 70.162 70.12 70.094 70.118 70.129 70.076 70.062 70.083 70.119 70.12 70.132 70.056 70.026 69.969 69.94 69.898 69.91 69.879 69.832 69.822 69.801 69.786 69.753 69.747 69.762 69.724 69.761 69.738 69.718 69.695 69.708 69.68 69.713 69.692 69.708 69.692 69.648 69.574 69.55 69.556 69.547 69.597 69.642 69.734 69.776 69.751 69.715 69.698 69.706 69.744 69.76 69.739 69.68 69.686 69.666 69.703 69.716 69.762 69.755 69.736 69.735 69.722 69.732 69.705 69.777 69.771 69.75 69.782 69.83 69.812 69.76 69.812 69.747 69.801 69.762 69.795 69.773 69.775 69.832 69.868 69.868 69.829 69.853 69.832 69.92 69.919 69.886 69.902 69.85 69.861 69.841 69.84 69.885 69.859 69.903 70.006 70.207 70.315 70.548 70.618 70.777 70.908 71.04 71.157 71.236 71.255 71.316 71.336 71.396 71.438 71.455 71.463 71.526 71.561 71.567 71.488 71.505 71.599 71.644 71.647 71.594 75.808 77.786 78.561 78.701 76.853 76.423 75.92 72.302 71.745 71.815 71.856 71.759 71.778 71.806 72.344 72.216 72.006 71.744
-9999 -9999 -9999 -9999 -9999 -9999 -9999 -9999 -9999 -9999 -9999 -9999 -9999 -9999 -9999 -9999 -9999 -9999 -9999 -9999 -9999 -9999 -9999 -9999 -9999 -9999 -9999 -9999 -9999 -9999 -9999 -9999 -9999 -9999 -9999 -9999 -9999 -9999 -9999 -9999 -9999 -9999 -9999 -9999 -9999 -9999 -9999 -9999 -9999 -9999 -9999 -9999 -9999 -9999 -9999 -9999 -9999 -9999 -9999 -9999 -9999 -9999 -9999 -9999 -9999 -9999 -9999 -9999 -9999 -9999 -9999 -9999 -9999 -9999 -9999 -9999 -9999 -9999 -9999 -9999 -9999 -9999 -9999 -9999 -9999 -9999 -9999 -9999 -9999 -9999 -9999 -9999 -9999 -9999 -9999 -9999 -9999 -9999 -9999 -9999 -9999 -9999 -9999 -9999 -9999 -9999 -9999 -9999 -9999 -9999 -9999 -9999 -9999 -9999 -9999 -9999 -9999 -9999 -9999 -9999 -9999 -9999 -9999 -9999 -9999 85.771 87.32 84.868 84.799 84.601 84.634 85.772 89.303 90.285 91.094 91.776 90.893 87.909 87.002 85.164 83.715 83.336 85.198 86.882 88.6 89.714 91.764 90.409 89.3 87.086 83.565 83.31 83.566 83.894 83.511 83.568 83.608 83.672 83.73 83.7 83.744 84.016 83.998 84.106 84.854 85.173 85.3 85.977 85.37 86.283 85.42 82.771 82.652 82.2 83.894 83.188 86.044 82.954 81.849 81.822 81.832 84.785 86.792 83.736 82.334 82.385 82.63 82.389 82.262 82.01 80.923 80.83 80.767 80.67 80.671 80.639 80.639 80.649 80.582 80.548 80.563 80.518 80.463 80.435 80.727 80.719 80.976 81.07 81.179 81.088 81.004 81.02 80.922 82.059 81.696 81.266 80.415 80.326 80.272 80.297 80.066 80.009 79.989 79.981 79.921 81.254 80.082 84.018 91.135 92.653 92.728 91.407 91.309 86.507 80.711 80.384 83.692 85.696 86.324 84.416 82.488 77.959 77.559 79.632 79.811 77.751 75.907 75.81 75.545 75.403 74.84 74.305 74.188 74.106 74.091 73.983 73.895 73.809 73.69 73.584 73.506 73.899 74.656 73.307 73.153 73.477 73.543 74.178 73.812 73.878 77.721 78.415 74.755 74.289 74.315 74.645 75.253 74.881 73.721 72.66 72.541 72.128 72.084 72.096 72.403 72.738 72.684 72.461 72.223 72.006 71.772 71.657 71.596 71.513 71.35 71.202 71.133 71.12 71.083 71.064 71.041 70.973 70.966 70.942 70.851 70.774 70.753 70.77 75.955 77.901 76.246 74.111 71.27 70.849 70.612 70.595 70.616 70.58 70.636 70.638 70.454 70.327 70.236 70.21 70.198 70.14 70.082 70.116 70.121 70.027 70.085 70.065 70.033 69.986 69.995 70.06 70.012 70.076 70.053 69.972 69.936 69.906 69.868 69.868 69.833 69.822 69.785 69.775 69.745 69.71 69.692 69.712 69.675 69.678 69.66 69.65 69.632 69.648 69.641 69.635 69.665 69.692 69.688 69.587 69.546 69.489 69.472 69.481 69.5 69.602 69.681 69.706 69.662 69.645 69.68 69.653 69.666 69.649 69.631 69.607 69.686 69.693 69.685 69.701 69.693 69.71 69.684 69.649 69.648 69.662 69.768 69.767 69.752 69.777 69.74 69.712 69.714 69.708 69.78 69.762 69.753 69.788 69.749 69.73 69.783 69.739 69.787 69.78 69.87 69.88 69.868 69.89 69.832 69.862 69.854 69.844 69.888 69.868 69.876 69.8 69.821 69.773 69.81 69.914 70.03 70.208 70.425 70.481 70.695 70.812 70.968 71.089 71.139 71.303 71.333 71.337 71.395 71.392 71.436 71.403 71.458 71.506 71.513 71.501 71.515 71.573 71.521 71.568 78.031 78.033 73.684 78.832 81.842 81.845 79.018 72.105 71.704 71.759 71.794 71.698 71.697 73.751 74.913 74.511 71.927 72.107
-9999 -9999 -9999 -9999 -9999 -9999 -9999 -9999 -9999 -9999 -9999 -9999 -9999 -9999 -9999 -9999 -9999 -9999 -9999 -9999 -9999 -9999 -9999 -9999 -9999 -9999 -9999 -9999 -9999 -9999 -9999 -9999 -9999 -9999 -9999 -9999 -9999 -9999 -9999 -9999 -9999 -9999 -9999 -9999 -9999 -9999 -9999 -9999 -9999 -9999 -9999 -9999 -9999 -9999 -9999 -9999 -9999 -9999 -9999 -9999 -9999 -9999 -9999 -9999 -9999 -9999 -9999 -9999 -9999 -9999 -9999 -9999 -9999 -9999 -9999 -9999 -9999 -9999 -9999 -9999 -9999 -9999 -9999 -9999 -9999 -9999 -9999 -9999 -9999 -9999 -9999 -9999 -9999 -9999 -9999 -9999 -9999 -9999 -9999 -9999 -9999 -9999 -9999 -9999 -9999 -9999 -9999 -9999 -9999 -9999 -9999 -9999 -9999 -9999 -9999 -9999 -9999 -9999 -9999 -9999 -9999 -9999 -9999 -9999 -9999 -9999 84.895 84.948 85.032 85.464 85.506 89.764 90.916 91.188 92.81 91.553 91.235 90.129 87.25 84.759 84.755 83.221 84.307 85.939 85.842 88.858 89.817 90.439 89.961 87.753 84.993 83.401 83.424 84.093 83.962 83.589 83.614 83.774 83.835 83.81 83.819 83.867 84.072 83.921 85.057 84.95 85.251 84.903 85.187 85.927 86.263 86.201 85.906 84.086 83.122 82.498 85.21 82.334 82.115 82.193 82.118 91.194 91.595 89.949 87.971 85.106 83.473 83.176 83.442 82.89 82.366 82.36 80.954 80.765 80.716 80.688 80.603 80.586 80.542 80.571 80.57 80.512 80.5 80.458 80.432 80.379 80.503 80.411 80.87 81.446 81.428 81.373 81.145 82.4 83.217 81.834 81.738 83.445 82.095 85.969 80.114 79.97 80.005 80.006 79.979 79.955 79.92 81.333 89.574 91.341 91.485 90.79 90.108 86.205 82.638 82.659 86.617 88.361 86.616 87.477 84.49 79.512 78.326 77.841 77.643 77.026 76.861 76.529 76.163 76.175 75.71 75.308 74.641 74.244 74.293 74.155 74.043 74 73.925 73.847 73.839 73.668 73.641 73.568 73.18 73.387 73.62 73.655 73.896 74.317 76.445 79.297 75.246 74.434 78.027 82.433 82.776 81.291 78.09 74.123 72.735 72.263 72.121 72.187 72.821 72.788 72.741 72.702 72.605 72.356 72.102 71.861 71.653 71.546 71.393 71.299 71.199 71.154 71.123 71.139 71.099 71.069 70.955 70.868 70.87 70.835 71.081 75.27 78.324 78.777 78.219 76.992 71.685 70.656 70.572 70.575 70.577 70.594 70.66 70.51 70.382 70.314 70.188 70.141 70.15 70.093 70.045 70.04 70.025 70.029 70.039 70.032 70.006 69.946 69.982 69.95 69.972 69.958 69.932 69.87 69.849 69.872 69.834 69.839 69.837 69.794 69.751 69.724 69.701 69.659 69.664 69.652 69.609 69.627 69.624 69.603 69.594 69.571 69.589 69.64 69.593 69.606 69.644 69.554 69.524 69.476 69.431 69.441 69.511 69.584 69.624 69.611 69.594 69.605 69.64 69.628 69.624 69.624 69.574 69.515 69.783 69.638 69.639 69.641 69.62 69.634 69.629 69.671 69.653 69.69 69.654 69.73 69.687 69.693 69.673 69.703 69.729 69.709 69.711 69.71 69.656 69.682 69.683 69.704 69.744 69.74 69.772 69.779 69.759 69.799 69.774 69.85 69.801 69.805 69.849 69.823 69.839 69.823 69.809 69.767 69.81 69.769 69.77 69.757 69.836 69.849 69.991 70.174 70.459 70.676 70.878 71.034 71.111 71.168 71.251 71.259 71.311 71.309 71.365 71.382 71.428 71.439 71.456 71.409 71.45 71.524 71.526 74.824 77.009 78.38 78.728 81.124 82.988 82.655 80.616 75.352 71.645 71.718 71.666 71.579 71.6 73.272 75.746 79.185 74.183 73.578
-9999 -9999 -9999 -9999 -9999 -9999 -9999 -9999 -9999 -9999 -9999 -9999 -9999 -9999 -9999 -9999 -9999 -9999 -9999 -9999 -9999 -9999 -9999 -9999 -9999 -9999 -9999 -9999 -9999 -9999 -9999 -9999 -9999 -9999 -9999 -9999 -9999 -9999 -9999 -9999 -9999 -9999 -9999 -9999 -9999 -9999 -9999 -9999 -9999 -9999 -9999 -9999 -9999 -9999 -9999 -9999 -9999 -9999 -9999 -9999 -9999 -9999 -9999 -9999 -9999 -9999 -9999 -9999 -9999 -9999 -9999 -9999 -9999 -9999 -9999 -9999 -9999 -9999 -9999 -9999 -9999 -9999 -9999 -9999 -9999 -9999 -9999 -9999 -9999 -9999 -9999 -9999 -9999 -9999 -9999 -9999 -9999 -9999 -9999 -9999 -9999 -9999 -9999 -9999 -9999 -9999 -9999 -9999 -9999 -9999 -9999 -9999 -9999 -9999 -9999 -9999 -9999 -9999 -9999 -9999 -9999 -9999 -9999 -9999 -9999 -9999 -9999 85.021 85.259 86.263 85.869 89.224 90.815 91.562 91.399 91.052 90.326 88.198 84.464 84.297 85.247 83.916 85.242 86.79 83.72 84.749 89.28 89.957 88.978 87.763 84.146 83.341 83.63 83.861 83.731 83.751 83.735 83.773 83.843 83.921 83.931 83.926 84.125 84.153 84.13 84.463 85.136 85.138 85.098 86.08 86.331 86.32 86.328 85.158 83.358 83.116 83.612 82.718 82.342 82.473 85.415 93.946 93.389 93.308 92.985 92.232 92.444 87.871 84.21 82.994 82.974 82.21 82.593 82.269 81.114 80.829 80.72 80.679 80.668 80.511 80.52 80.534 80.467 80.482 80.478 80.432 80.413 80.363 80.314 80.394 80.754 80.921 80.773 81.874 81.468 81.754 81.679 80.705 81.262 82.435 80.257 82.304 80.025 79.901 79.936 79.96 79.934 80.066 83.587 85.596 88.786 87.992 83.451 80.331 79.898 80.663 83.107 87.123 88.953 87.887 84.71 79.72 79.361 78.813 78.471 77.996 77.85 77.578 77.151 77.132 76.648 76.284 75.298 75.001 74.723 74.344 74.301 74.257 74.154 74.039 74.102 73.996 73.985 73.78 73.763 73.689 73.701 73.69 73.89 74.395 75.587 80.178 75.307 74.709 81.86 83.63 84.802 83.845 81.957 76.649 72.961 72.663 72.294 72.565 72.993 72.813 72.739 72.736 72.684 72.666 72.284 71.947 71.862 71.704 71.483 71.319 71.251 71.255 71.18 71.183 71.099 71.054 71.024 70.931 70.987 72.454 81.746 80.834 80.986 78.819 77.61 74.91 70.985 70.597 70.555 70.602 70.648 70.671 70.649 70.467 70.343 70.295 70.221 70.109 70.096 70.02 70.021 70 70.019 69.966 70.016 70.013 69.952 69.907 69.905 69.908 69.903 69.849 69.829 69.829 69.801 69.792 69.794 69.807 69.785 69.744 69.702 69.672 69.644 69.619 69.584 69.61 69.578 69.555 69.569 69.539 69.525 69.508 69.499 69.536 69.521 69.528 69.541 69.543 69.496 69.469 69.444 69.442 69.479 69.553 69.573 69.552 69.498 69.568 69.589 69.579 69.612 69.576 69.538 69.954 69.439 69.514 69.548 69.557 69.569 69.564 69.589 69.608 69.587 69.653 69.669 69.705 69.718 69.682 69.653 69.635 69.67 69.645 69.665 69.654 69.705 69.708 69.678 69.686 69.669 69.614 69.664 69.728 69.703 69.781 69.782 69.762 69.74 69.766 69.758 69.76 69.769 69.839 69.791 69.76 69.744 69.712 69.703 69.676 69.712 69.719 69.832 69.908 70.145 70.492 70.703 70.918 71.019 71.17 71.203 71.213 71.261 71.288 71.29 71.338 71.323 71.38 71.45 71.42 71.461 71.456 71.599 76.64 76.267 75.745 78.073 81.426 83.157 83.476 82.915 74.051 71.624 71.599 71.569 71.707 72.114 73.047 78.843 76.041 76.652 79.073
-9999 -9999 -9999 -9999 -9999 -9999 -9999 -9999 -9999 -9999 -9999 -9999 -9999 -9999 -9999 -9999 -9999 -9999 -9999 -9999 -9999 -9999 -9999 -9999 -9999 -9999 -9999 -9999 -9999 -9999 -9999 -9999 -9999 -9999 -9999 -9999 -9999 -9999 -9999 -9999 -9999 -9999 -9999 -9999 -9999 -9999 -9999 -9999 -9999 -9999 -9999 -9999 -9999 -9999 -9999 -9999 -9999 -9999 -9999 -9999 -9999 -9999 -9999 -9999 -9999 -9999 -9999 -9999 -9999 -9999 -9999 -9999 -9999 -9999 -9999 -9999 -9999 -9999 -9999 -9999 -9999 -9999 -9999 -9999 -9999 -9999 -9999 -9999 -9999 -9999 -9999 -9999 -9999 -9999 -9999 -9999 -9999 -9999 -9999 -9999 -9999 -9999 -9999 -9999 -9999 -9999 -9999 -9999 -9999 -9999 -9999 -9999 -9999 -9999 -9999 -9999 -9999 -9999 -9999 -9999 -9999 -9999 -9999 -9999 -9999 -9999 -9999 -9999 -9999 85.757 85.353 85.716 90.242 90.988 90.314 89.864 86.911 84.157 84.185 84.921 86.818 85.886 85.528 84.79 84.041 83.893 87.898 88.749 87.047 83.5 83.752 83.706 83.795 83.81 83.863 83.794 83.764 83.843 83.863 84.003 84.037 84.033 84.045 84.236 84.434 84.121 85.006 85.61 84.87 85.968 86.267 86.335 86.026 83.584 83.251 83.123 83.081 82.723 82.731 82.704 92.092 93.688 94.397 94.971 94.006 93.685 93.298 92.705 92.682 90.275 87.628 83.611 83.849 82.507 82.453 82.657 81.173 81.443 82.401 80.624 80.563 80.509 80.423 80.446 80.476 80.427 80.43 80.401 80.368 80.322 80.275 80.252 80.474 80.644 80.846 81.765 81.563 81.38 87.182 86.325 81.396 84.67 80.701 80.226 79.986 79.916 79.925 79.883 79.901 80.29 81.311 79.796 79.765 79.698 79.654 79.711 82.468 86.851 87.03 85.626 83.538 82.753 82.274 81.745 83.109 80.321 78.657 78.139 78.048 77.571 77.234 77.022 76.439 76.054 76.039 75.668 74.887 74.848 74.407 74.468 74.335 74.251 74.258 73.994 74.016 74.053 73.866 73.756 74.241 74.36 74.389 80.16 79.112 75.003 81.171 84.237 85.365 84.677 82.182 76.148 73.063 73.061 73.038 73.179 73.083 72.842 72.829 72.784 72.762 72.78 72.385 71.871 71.785 71.83 71.542 71.48 71.43 71.372 71.356 71.29 71.201 71.142 71.043 70.992 76.313 80.283 83.675 83.581 82.608 80.662 73.686 72.047 70.622 70.59 70.66 70.686 70.699 70.671 70.572 70.426 70.358 70.282 70.162 70.079 70.08 70.016 69.969 69.991 69.992 69.943 69.944 69.946 69.918 69.858 69.875 69.871 69.877 69.845 69.776 69.771 69.768 69.732 69.722 69.698 69.693 69.712 69.693 69.663 69.601 69.567 69.533 69.568 69.534 69.501 69.507 69.491 69.481 69.477 69.465 69.448 69.438 69.461 69.489 69.465 69.476 69.449 69.424 69.43 69.466 69.491 69.485 69.465 69.472 69.488 69.564 69.533 69.53 69.513 69.532 70.109 69.426 69.453 69.47 69.507 69.561 69.51 69.505 69.547 69.661 69.628 69.63 69.611 69.655 69.568 69.6 69.574 69.652 69.666 69.638 69.65 69.621 69.608 69.664 69.601 69.629 69.652 69.707 69.674 69.686 69.706 69.694 69.675 69.714 69.682 69.731 69.722 69.727 69.735 69.714 69.698 69.709 69.702 69.717 69.727 69.695 69.7 69.731 69.825 69.95 70.272 70.671 70.928 71.01 71.101 71.145 71.179 71.172 71.177 71.248 71.269 71.3 71.35 71.332 71.344 71.283 71.395 76.635 77.998 79.451 77.959 75.004 75.465 81.896 81.946 80.531 72.543 71.584 71.553 71.577 72.234 71.509 78.523 79.383 78.545 76.571 75.263
-9999 -9999 -9999 -9999 -9999 -9999 -9999 -9999 -9999 -9999 -9999 -9999 -9999 -9999 -9999 -9999 -9999 -9999 -9999 -9999 -9999 -9999 -9999 -9999 -9999 -9999 -9999 -9999 -9999 -9999 -9999 -9999 -9999 -9999 -9999 -9999 -9999 -9999 -9999 -9999 -9999 -9999 -9999 -9999 -9999 -9999 -9999 -9999 -9999 -9999 -9999 -9999 -9999 -9999 -9999 -9999 -9999 -9999 -9999 -9999 -9999 -9999 -9999 -9999 -9999 -9999 -9999 -9999 -9999 -9999 -9999 -9999 -9999 -9999 -9999 -9999 -9999 -9999 -9999 -9999 -9999 -9999 -9999 -9999 -9999 -9999 -9999 -9999 -9999 -9999 -9999 -9999 -9999 -9999 -9999 -9999 -9999 -9999 -9999 -9999 -9999 -9999 -9999 -9999 -9999 -9999 -9999 -9999 -9999 -9999 -9999 -9999 -9999 -9999 -9999 -9999 -9999 -9999 -9999 -9999 -9999 -9999 -9999 -9999 -9999 -9999 -9999 -9999 -9999 -9999 85.004 84.952 87.638 90.119 88.859 84.597 84.528 84.294 84.848 86.015 87.086 86.357 84.506 84.098 83.98 83.916 85.256 84.293 83.565 83.706 83.754 83.966 83.94 83.911 83.918 83.981 83.994 84.081 83.971 84.052 84.134 84.182 84.174 84.207 84.411 84.497 84.208 84.712 85.072 85.121 85.407 85.946 85.184 83.413 83.429 83.193 83.104 82.993 82.994 82.944 90.605 92.276 92.948 93.829 94.244 94.978 93.986 94.958 93.726 92.97 93.244 90.688 87.998 88.666 84.028 83.17 82.707 84.649 83.509 82.461 81.072 80.858 80.674 80.464 80.447 80.389 80.358 80.394 80.359 80.339 80.302 80.293 80.264 80.196 80.359 84.117 84.774 82.12 82.496 82.678 82.278 80.907 80.704 80.668 80.549 80.333 80.033 79.878 79.87 79.798 79.81 79.888 79.807 79.764 79.72 79.68 79.639 79.778 82.6 80.688 80.465 85.457 84.122 85.08 86.209 86.083 80.982 79.365 79.037 78.245 78.21 77.904 77.81 77.408 77.555 76.982 76.643 75.574 75.326 75.404 75.112 74.695 74.197 74.37 74.36 74.305 74.206 73.999 74.413 74.45 74.684 76.112 79.783 75.604 75.561 84.078 84.986 84.479 80.974 74.994 73.086 72.989 73.067 73.09 72.984 72.864 72.822 72.827 72.814 72.954 72.466 71.969 71.77 71.854 71.718 71.621 71.551 71.51 71.499 71.399 71.291 71.183 71.129 71.186 77.266 80.048 83.619 83.532 83.344 81.042 72.567 70.67 70.628 70.618 70.695 70.733 70.704 70.648 70.558 70.4 70.264 70.249 70.153 70.047 70.073 69.99 69.959 69.97 69.964 69.932 69.911 69.9 69.858 69.848 69.83 69.858 69.841 69.758 69.737 69.775 69.638 69.639 69.683 69.653 69.658 69.646 69.573 69.603 69.53 69.502 69.508 69.483 69.479 69.472 69.445 69.418 69.408 69.412 69.382 69.432 69.404 69.383 69.418 69.435 69.447 69.396 69.405 69.423 69.487 69.458 69.466 69.439 69.465 69.481 69.466 69.464 69.505 69.433 69.852 69.433 69.43 69.429 69.428 69.464 69.398 69.448 69.508 69.53 69.574 69.537 69.601 69.546 69.569 69.552 69.559 69.592 69.584 69.575 69.546 69.546 69.556 69.589 69.574 69.617 69.581 69.591 69.613 69.6 69.595 69.621 69.651 69.678 69.652 69.642 69.648 69.663 69.662 69.649 69.695 69.673 69.643 69.685 69.7 69.583 69.612 69.618 69.66 69.698 69.898 70.282 70.605 70.83 70.93 71.025 71.091 71.102 71.147 71.154 71.157 71.182 71.17 71.2 71.222 71.269 71.275 73.104 73.769 78.184 78.528 78.343 78.023 78.114 77.758 74.22 71.934 71.488 71.491 71.437 71.708 71.94 71.613 78.225 81.261 81.079 79.652 77.858
-9999 -9999 -9999 -9999 -9999 -9999 -9999 -9999 -9999 -9999 -9999 -9999 -9999 -9999 -9999 -9999 -9999 -9999 -9999 -9999 -9999 -9999 -9999 -9999 -9999 -9999 -9999 -9999 -9999 -9999 -9999 -9999 -9999 -9999 -9999 -9999 -9999 -9999 -9999 -9999 -9999 -9999 -9999 -9999 -9999 -9999 -9999 -9999 -9999 -9999 -9999 -9999 -9999 -9999 -9999 -9999 -9999 -9999 -9999 -9999 -9999 -9999 -9999 -9999 -9999 -9999 -9999 -9999 -9999 -9999 -9999 -9999 -9999 -9999 -9999 -9999 -9999 -9999 -9999 -9999 -9999 -9999 -9999 -9999 -9999 -9999 -9999 -9999 -9999 -9999 -9999 -9999 -9999 -9999 -9999 -9999 -9999 -9999 -9999 -9999 -9999 -9999 -9999 -9999 -9999 -9999 -9999 -9999 -9999 -9999 -9999 -9999 -9999 -9999 -9999 -9999 -9999 -9999 -9999 -9999 -9999 -9999 -9999 -9999 -9999 -9999 -9999 -9999 -9999 -9999 -9999 84.903 84.979 86.973 84.804 84.553 84.508 84.786 84.552 84.663 86.965 86.954 85.811 84.642 84.058 84.596 85.679 84.022 84.222 84.15 84.093 84.018 83.984 83.952 87.664 84.906 84.237 84.234 84.144 84.116 84.187 84.246 84.25 84.302 84.376 84.549 84.541 84.193 84.149 85.603 85.168 85.092 84.074 83.575 84 83.581 83.353 83.279 83.312 83.268 84.086 89.597 91.475 92.041 92.713 93.036 93.592 94.104 94.321 94.802 93.99 93.345 93.132 93.314 90.833 90.589 85.586 85.261 86.008 83.736 83.837 86.732 85.863 82.091 80.545 80.444 80.451 80.366 80.342 80.336 80.346 80.271 80.275 80.261 80.165 80.375 83.655 82.513 84.687 85.923 85.878 83.853 80.747 80.777 80.697 80.657 80.591 80.411 79.984 79.827 79.777 79.745 79.796 79.828 79.757 79.723 79.715 79.616 79.57 79.559 79.523 81.781 81.293 85.165 87.002 87.191 84.351 80.914 79.868 79.561 78.953 78.605 78.345 78.324 78.257 77.672 77.65 77.208 76.303 75.771 75.321 75.01 74.686 74.932 74.94 74.584 74.378 74.051 74.636 74.705 74.679 74.565 81.53 75.423 75.226 77.954 80.06 80.459 76.293 73.303 73.201 73.033 72.949 72.989 72.948 72.834 72.852 72.82 72.848 73.096 72.707 72.359 72.011 72.068 71.92 71.821 71.758 71.687 71.628 71.552 71.462 71.291 71.186 74.049 81.762 82.109 82.364 84.135 83.157 78.289 72.189 70.669 70.695 70.698 70.712 70.693 70.72 70.617 70.522 70.367 70.237 70.231 70.154 70.028 70.028 69.978 69.98 69.952 69.928 69.915 69.906 69.884 69.829 69.804 69.805 69.798 69.775 69.727 69.679 69.687 69.672 69.623 69.566 69.51 69.548 69.56 69.534 69.513 69.474 69.422 69.446 69.435 69.421 69.408 69.384 69.342 69.322 69.341 69.33 69.384 69.35 69.346 69.357 69.361 69.337 69.332 69.362 69.398 69.41 69.444 69.41 69.423 69.447 69.474 69.446 69.428 69.378 69.391 69.408 69.411 69.437 69.432 69.427 69.41 69.362 69.36 69.418 69.493 69.467 69.522 69.515 69.536 69.524 69.492 69.449 69.501 69.479 69.541 69.572 69.571 69.543 69.566 69.566 69.51 69.496 69.486 69.482 69.58 69.639 69.576 69.563 69.582 69.574 69.578 69.589 69.648 69.65 69.629 69.641 69.655 69.6 69.622 69.638 69.595 69.593 69.645 69.61 69.699 69.827 70.22 70.573 70.801 70.936 70.982 71.024 71.023 71.077 71.089 71.078 71.103 71.178 71.242 71.181 71.171 71.133 74.4 76.591 76.702 77.434 78.866 77.281 79.219 78.562 74.101 71.359 71.437 71.443 71.438 71.898 72.085 71.716 71.526 79.16 76.131 76.361 71.449
-9999 -9999 -9999 -9999 -9999 -9999 -9999 -9999 -9999 -9999 -9999 -9999 -9999 -9999 -9999 -9999 -9999 -9999 -9999 -9999 -9999 -9999 -9999 -9999 -9999 -9999 -9999 -9999 -9999 -9999 -9999 -9999 -9999 -9999 -9999 -9999 -9999 -9999 -9999 -9999 -9999 -9999 -9999 -9999 -9999 -9999 -9999 -9999 -9999 -9999 -9999 -9999 -9999 -9999 -9999 -9999 -9999 -9999 -9999 -9999 -9999 -9999 -9999 -9999 -9999 -9999 -9999 -9999 -9999 -9999 -9999 -9999 -9999 -9999 -9999 -9999 -9999 -9999 -9999 -9999 -9999 -9999 -9999 -9999 -9999 -9999 -9999 -9999 -9999 -9999 -9999 -9999 -9999 -9999 -9999 -9999 -9999 -9999 -9999 -9999 -9999 -9999 -9999 -9999 -9999 -9999 -9999 -9999 -9999 -9999 -9999 -9999 -9999 -9999 -9999 -9999 -9999 -9999 -9999 -9999 -9999 -9999 -9999 -9999 -9999 -9999 -9999 -9999 -9999 -9999 -9999 -9999 85.204 84.537 84.529 84.627 84.575 84.558 84.642 84.527 85.647 86.956 86.337 85.347 85.508 85.721 85.799 84.96 84.313 84.252 84.178 84.102 84.111 87.819 88.895 87.633 84.603 84.262 84.318 84.217 84.205 84.313 84.402 84.439 84.414 84.526 84.679 84.702 84.392 84.319 85.412 85.376 84.36 83.951 85.237 84.102 83.67 83.555 83.471 84.352 86.073 87.419 85.185 88.737 89.975 91.111 92.316 92.678 93.394 93.757 94.241 95.478 94.293 93.632 93.486 93.41 91.83 89.224 88.365 84.833 83.494 86.717 86.666 82.597 81.702 81.325 80.482 80.426 80.397 80.286 80.297 80.268 80.304 80.272 80.218 80.194 80.193 80.382 83.179 84.91 81.307 80.579 80.584 80.673 80.735 80.738 80.7 80.645 80.584 80.519 80.313 80.072 80.079 79.746 79.776 79.727 79.723 79.637 79.658 79.587 79.536 79.48 79.698 84.312 86.608 86.34 81.708 80.003 82.753 83.39 80.104 79.417 80.855 78.738 78.11 78.133 78.018 77.644 77.607 76.702 75.961 75.744 75.61 75.589 75.666 75.46 74.858 74.298 74.459 74.937 74.808 75.028 79.343 77.147 75.828 75.326 76.144 75.918 74.008 73.433 73.217 73.015 72.96 72.953 72.939 72.914 72.831 72.796 72.817 72.905 72.914 72.772 72.434 72.209 72.107 71.99 71.919 71.822 71.75 71.682 71.583 71.465 72.396 75.348 81.781 81.564 81.817 82.092 81.063 78.402 71.081 70.758 70.767 70.741 70.71 70.779 70.683 70.621 70.486 70.373 70.231 70.204 70.112 70.021 70.046 69.995 69.975 69.931 69.925 69.898 69.874 69.832 69.812 69.804 69.772 69.757 69.758 69.702 69.656 69.625 69.636 69.551 69.533 69.533 69.495 69.504 69.482 69.42 69.443 69.408 69.375 69.347 69.361 69.375 69.362 69.357 69.281 69.263 69.287 69.312 69.281 69.275 69.3 69.301 69.278 69.32 69.347 69.355 69.415 69.418 69.4 69.394 69.441 69.419 69.402 69.355 69.344 69.37 69.38 69.408 69.434 69.419 69.42 69.387 69.346 69.345 69.374 69.429 69.446 69.454 69.484 69.424 69.424 69.429 69.488 69.441 69.466 69.466 69.492 69.491 69.438 69.469 69.488 69.511 69.476 69.463 69.477 69.443 69.492 69.517 69.607 69.594 69.587 69.604 69.606 69.549 69.565 69.565 69.603 69.641 69.633 69.611 69.577 69.575 69.572 69.536 69.545 69.627 69.896 70.253 70.586 70.797 70.839 70.907 70.927 70.934 70.986 71.062 71.081 71.054 71.085 71.08 71.088 71.098 71.208 74.826 76.166 76.814 78.69 77.569 79.017 80.005 76.902 71.888 71.343 71.424 71.358 71.377 71.904 72.114 71.901 74.144 71.336 71.175 71.199 71.207
-9999 -9999 -9999 -9999 -9999 -9999 -9999 -9999 -9999 -9999 -9999 -9999 -9999 -9999 -9999 -9999 -9999 -9999 -9999 -9999 -9999 -9999 -9999 -9999 -9999 -9999 -9999 -9999 -9999 -9999 -9999 -9999 -9999 -9999 -9999 -9999 -9999 -9999 -9999 -9999 -9999 -9999 -9999 -9999 -9999 -9999 -9999 -9999 -9999 -9999 -9999 -9999 -9999 -9999 -9999 -9999 -9999 -9999 -9999 -9999 -9999 -9999 -9999 -9999 -9999 -9999 -9999 -9999 -9999 -9999 -9999 -9999 -9999 -9999 -9999 -9999 -9999 -9999 -9999 -9999 -9999 -9999 -9999 -9999 -9999 -9999 -9999 -9999 -9999 -9999 -9999 -9999 -9999 -9999 -9999 -9999 -9999 -9999 -9999 -9999 -9999 -9999 -9999 -9999 -9999 -9999 -9999 -9999 -9999 -9999 -9999 -9999 -9999 -9999 -9999 -9999 -9999 -9999 -9999 -9999 -9999 -9999 -9999 -9999 -9999 -9999 -9999 -9999 -9999 -9999 -9999 -9999 -9999 84.504 84.528 84.612 84.561 84.851 85.342 84.781 85.053 86.915 86.293 85.437 85.898 85.725 84.896 84.527 84.341 84.285 84.21 84.191 84.155 84.026 87.156 85.257 84.271 84.326 84.354 84.944 84.481 84.349 84.426 84.453 84.545 84.527 84.665 84.883 84.753 84.491 84.229 84.703 84.347 84.606 85.877 84.413 83.8 83.759 83.717 83.769 84.834 84.508 84.673 87.24 85.054 86.39 86.243 90.205 91.946 92.41 93.266 94.047 94.097 94.606 94.698 93.989 93.787 93.749 92.81 89.782 89.431 87.636 84.198 83.826 82.726 83.276 81.087 80.927 81.208 80.483 80.397 80.282 80.286 80.217 80.218 80.183 80.196 80.16 80.155 80.102 80.037 80.021 80.192 80.38 80.565 80.667 80.691 80.647 80.694 81.798 80.79 82.039 82.798 81.419 80.189 79.747 79.656 79.643 79.684 79.682 79.596 79.536 79.487 79.382 82.703 83.821 79.483 79.518 83.588 83.042 82.375 84.667 82.026 80.541 79.09 78.698 78.338 78.009 77.824 77.579 76.955 76.411 76.437 76.248 76.063 76.275 75.626 74.939 74.694 75.252 75.065 74.992 77.899 80.537 75.71 75.509 75.652 75.564 74.298 73.543 73.29 73.065 72.986 72.969 72.973 72.913 72.841 72.84 72.808 72.823 72.802 72.737 72.471 72.339 72.155 72.109 72.065 71.926 71.909 71.795 71.714 71.648 71.515 71.896 78.821 76.974 74.173 74.179 72.067 71.505 71.389 70.863 70.843 70.805 70.785 70.825 70.748 70.623 70.466 70.322 70.243 70.219 70.131 70.042 70.023 69.975 69.948 69.928 69.88 69.833 69.812 69.796 69.764 69.752 69.709 69.693 69.715 69.656 69.622 69.579 69.579 69.532 69.502 69.486 69.485 69.472 69.447 69.402 69.392 69.343 69.31 69.322 69.306 69.277 69.275 69.298 69.254 69.267 69.23 69.218 69.198 69.229 69.26 69.208 69.23 69.261 69.3 69.345 69.367 69.358 69.353 69.372 69.376 69.399 69.384 69.341 69.314 69.332 69.341 69.396 69.4 69.403 69.371 69.368 69.36 69.317 69.321 69.356 69.396 69.361 69.368 69.42 69.361 69.393 69.363 69.411 69.372 69.375 69.386 69.419 69.476 69.463 69.477 69.365 69.388 69.384 69.46 69.488 69.52 69.493 69.544 69.57 69.573 69.512 69.491 69.536 69.552 69.597 69.556 69.557 69.594 69.534 69.538 69.497 69.53 69.565 69.583 69.678 69.95 70.271 70.566 70.728 70.865 70.853 70.904 70.937 70.969 70.977 70.946 71.001 71.006 71.086 71.111 71.062 71.187 73.885 76.953 79.619 79.65 80.956 78.521 77.951 72.721 71.2 71.363 71.309 71.28 71.732 72.092 72.149 71.897 72.42 71.241 71.113 73.588 71.023
-9999 -9999 -9999 -9999 -9999 -9999 -9999 -9999 -9999 -9999 -9999 -9999 -9999 -9999 -9999 -9999 -9999 -9999 -9999 -9999 -9999 -9999 -9999 -9999 -9999 -9999 -9999 -9999 -9999 -9999 -9999 -9999 -9999 -9999 -9999 -9999 -9999 -9999 -9999 -9999 -9999 -9999 -9999 -9999 -9999 -9999 -9999 -9999 -9999 -9999 -9999 -9999 -9999 -9999 -9999 -9999 -9999 -9999 -9999 -9999 -9999 -9999 -9999 -9999 -9999 -9999 -9999 -9999 -9999 -9999 -9999 -9999 -9999 -9999 -9999 -9999 -9999 -9999 -9999 -9999 -9999 -9999 -9999 -9999 -9999 -9999 -9999 -9999 -9999 -9999 -9999 -9999 -9999 -9999 -9999 -9999 -9999 -9999 -9999 -9999 -9999 -9999 -9999 -9999 -9999 -9999 -9999 -9999 -9999 -9999 -9999 -9999 -9999 -9999 -9999 -9999 -9999 -9999 -9999 -9999 -9999 -9999 -9999 -9999 -9999 -9999 -9999 -9999 -9999 -9999 -9999 -9999 -9999 -9999 -9999 84.647 84.577 85.869 85.683 85.286 86.903 87.093 87.129 85.437 85.293 84.838 84.7 84.521 84.455 84.37 84.332 84.34 83.937 83.86 85.762 85.112 84.864 84.336 84.651 87.301 87.433 84.599 84.488 84.56 84.638 84.618 84.671 84.826 84.942 84.902 84.588 84.43 84.461 84.555 84.551 84.179 84.077 83.995 84.001 83.965 83.949 84.004 84.036 84.129 84.781 86.932 85.025 87.141 87.205 90.332 92.436 92.352 93.3 94.105 94.311 94.266 94.755 94.583 94.353 93.773 93.549 91.325 90.882 90.379 85.739 84.025 83.374 83.845 83.603 82.113 82.255 80.511 80.389 80.262 80.179 80.175 80.204 80.151 80.159 80.121 80.122 80.02 80.039 79.96 80.033 80.067 80.443 80.727 83.93 83.816 83.048 81.388 81.916 82.466 82.639 80.468 79.777 79.683 79.614 79.604 79.591 79.604 79.588 79.519 79.444 79.419 79.307 79.307 79.328 79.892 82.707 84.664 80.347 83.865 80.441 81.148 79.293 78.851 78.629 77.951 77.787 77.358 76.927 76.475 76.597 76.497 76.193 75.677 75.575 75.611 75.34 75.045 75.566 80.379 76.877 75.73 75.71 75.807 74.781 73.742 73.418 73.122 73.024 72.997 73.008 72.963 72.887 72.862 72.82 72.806 72.779 72.695 72.451 72.322 72.301 72.233 72.139 72.074 72.041 71.936 74.857 71.842 71.644 71.737 71.866 74.42 72.093 71.125 71.011 70.949 70.965 70.915 70.936 70.852 70.854 70.856 70.726 70.58 70.428 70.339 70.267 70.203 70.109 70.046 70.001 69.983 69.946 69.9 69.839 69.824 69.811 69.782 69.679 69.712 69.697 69.7 69.679 69.607 69.614 69.568 69.555 69.497 69.492 69.45 69.485 69.438 69.404 69.367 69.344 69.288 69.255 69.246 69.239 69.278 69.224 69.205 69.187 69.162 69.178 69.201 69.2 69.159 69.191 69.178 69.194 69.203 69.237 69.282 69.319 69.309 69.287 69.34 69.34 69.355 69.326 69.298 69.324 69.33 69.312 69.318 69.334 69.321 69.332 69.328 69.306 69.323 69.34 69.327 69.314 69.315 69.336 69.309 69.291 69.298 69.288 69.308 69.375 69.338 69.398 69.393 69.377 69.369 69.39 69.365 69.395 69.394 69.415 69.439 69.4 69.43 69.471 69.489 69.511 69.493 69.499 69.537 69.541 69.522 69.515 69.518 69.512 69.507 69.527 69.495 69.506 69.521 69.528 69.718 69.994 70.407 70.636 70.756 70.818 70.836 70.863 70.87 70.91 70.94 70.975 70.967 70.982 71.021 70.999 70.974 71.827 75.751 78.365 80.598 78 83.198 81.168 76.856 71.589 71.217 71.302 71.258 71.511 71.893 72.102 72.143 71.811 71.362 71.181 71.161 71.129 71.054
-9999 -9999 -9999 -9999 -9999 -9999 -9999 -9999 -9999 -9999 -9999 -9999 -9999 -9999 -9999 -9999 -9999 -9999 -9999 -9999 -9999 -9999 -9999 -9999 -9999 -9999 -9999 -9999 -9999 -9999 -9999 -9999 -9999 -9999 -9999 -9999 -9999 -9999 -9999 -9999 -9999 -9999 -9999 -9999 -9999 -9999 -9999 -9999 -9999 -9999 -9999 -9999 -9999 -9999 -9999 -9999 -9999 -9999 -9999 -9999 -9999 -9999 -9999 -9999 -9999 -9999 -9999 -9999 -9999 -9999 -9999 -9999 -9999 -9999 -9999 -9999 -9999 -9999 -9999 -9999 -9999 -9999 -9999 -9999 -9999 -9999 -9999 -9999 -9999 -9999 -9999 -9999 -9999 -9999 -9999 -9999 -9999 -9999 -9999 -9999 -9999 -9999 -9999 -9999 -9999 -9999 -9999 -9999 -9999 -9999 -9999 -9999 -9999 -9999 -9999 -9999 -9999 -9999 -9999 -9999 -9999 -9999 -9999 -9999 -9999 -9999 -9999 -9999 -9999 -9999 -9999 -9999 -9999 -9999 -9999 -9999 84.898 86.928 86.134 85.417 86.882 87.109 87.262 85.451 84.945 84.885 84.71 84.547 84.479 84.394 85.308 84.883 84.09 85.327 90.751 90.097 85.41 84.258 84.613 87.389 86.989 84.653 84.53 84.646 84.745 84.74 84.817 84.814 84.92 85.076 85.027 84.909 84.896 85.202 84.639 84.413 84.517 84.332 84.435 84.478 84.322 85.348 84.267 84.207 84.223 84.293 84.439 86.827 86.588 86.599 86.153 87.539 89.786 91.49 93.507 93.177 93.483 94.294 95.824 95.355 94.544 94.106 94.701 93.599 92.832 91.038 85.953 87.579 84.746 83.735 83.353 81.513 81.855 81.143 83.119 80.422 80.143 80.155 80.1 80.12 80.09 80.088 80.061 80.03 80.034 79.958 79.931 82.915 84.43 84.293 83.997 83.975 82.584 80.935 80.612 80.831 80.416 80.25 79.988 79.82 79.591 79.56 79.526 79.52 79.525 79.443 79.406 79.339 79.294 79.254 79.335 80.552 82.655 82.543 81.715 83.014 82.727 79.76 79.362 78.345 78.224 78.325 77.836 77.097 76.909 76.774 76.504 76.103 76.115 75.805 75.584 75.177 75.431 80.207 79.6 75.99 75.879 76.208 75.539 74.411 73.574 73.335 73.088 73.023 72.993 72.987 72.905 72.909 72.834 72.81 72.819 72.685 72.619 72.481 72.31 72.227 72.194 74.717 74.108 75.432 78.924 77.787 74.793 71.889 71.61 71.451 71.356 71.25 71.178 71.105 71.076 71.031 70.996 70.916 70.868 70.858 70.723 70.64 70.489 70.368 70.266 70.225 70.119 70.042 70.019 69.953 69.925 69.883 69.86 69.807 69.797 69.733 69.694 69.693 69.661 69.657 69.635 69.589 69.54 69.545 69.541 69.454 69.453 69.44 69.446 69.387 69.364 69.308 69.273 69.279 69.243 69.24 69.186 69.196 69.166 69.109 69.106 69.093 69.12 69.136 69.159 69.176 69.193 69.161 69.198 69.212 69.204 69.291 69.244 69.286 69.314 69.335 69.318 69.303 69.237 69.248 69.251 69.283 69.303 69.308 69.314 69.284 69.268 69.259 69.273 69.268 69.273 69.294 69.282 69.311 69.242 69.278 69.278 69.327 69.268 69.282 69.278 69.314 69.321 69.34 69.389 69.407 69.394 69.345 69.371 69.415 69.378 69.406 69.468 69.464 69.478 69.479 69.467 69.446 69.439 69.449 69.465 69.539 69.532 69.486 69.462 69.482 69.42 69.427 69.409 69.479 69.573 69.866 70.172 70.499 70.658 70.724 70.815 70.76 70.78 70.875 70.892 70.871 70.894 70.895 70.953 70.94 71.009 70.966 73.4 76.429 76.611 78.923 81.036 80.201 78.325 76.121 72.285 71.21 71.199 71.186 71.454 72.02 72.19 72.099 71.543 71.262 71.108 71.027 71.084 71.022
-9999 -9999 -9999 -9999 -9999 -9999 -9999 -9999 -9999 -9999 -9999 -9999 -9999 -9999 -9999 -9999 -9999 -9999 -9999 -9999 -9999 -9999 -9999 -9999 -9999 -9999 -9999 -9999 -9999 -9999 -9999 -9999 -9999 -9999 -9999 -9999 -9999 -9999 -9999 -9999 -9999 -9999 -9999 -9999 -9999 -9999 -9999 -9999 -9999 -9999 -9999 -9999 -9999 -9999 -9999 -9999 -9999 -9999 -9999 -9999 -9999 -9999 -9999 -9999 -9999 -9999 -9999 -9999 -9999 -9999 -9999 -9999 -9999 -9999 -9999 -9999 -9999 -9999 -9999 -9999 -9999 -9999 -9999 -9999 -9999 -9999 -9999 -9999 -9999 -9999 -9999 -9999 -9999 -9999 -9999 -9999 -9999 -9999 -9999 -9999 -9999 -9999 -9999 -9999 -9999 -9999 -9999 -9999 -9999 -9999 -9999 -9999 -9999 -9999 -9999 -9999 -9999 -9999 -9999 -9999 -9999 -9999 -9999 -9999 -9999 -9999 -9999 -9999 -9999 -9999 -9999 -9999 -9999 -9999 -9999 -9999 -9999 86.595 86.114 85.384 85.31 86.091 85.104 84.976 84.874 84.839 84.731 84.589 84.539 84.568 84.553 84.55 84.066 89.119 90.333 90.762 89.744 87.843 84.655 85.772 85.557 84.775 84.684 84.692 84.766 84.865 84.928 84.895 84.906 85.074 85.164 85.191 85.151 84.951 84.875 84.632 84.74 85.078 88.212 85.595 86.452 85.454 84.453 84.428 84.37 84.415 84.42 84.547 85.194 86.205 85.853 85.998 88.14 86.427 90.583 91.882 92.436 92.932 93.943 94.046 94.14 95.304 95.273 94.615 95.576 94.113 93.253 93.117 90.612 89.089 85.128 83.059 83.045 83.958 83.542 83.153 80.836 80.252 80.185 80.117 80.021 80.084 80.043 80.027 80.041 79.97 79.954 80.006 81.305 82.148 83.204 83.518 82.024 80.564 81.251 81.596 80.781 80.563 80.404 80.316 81.716 80.075 79.602 79.474 79.453 79.415 79.435 79.463 79.368 79.31 79.272 79.186 79.334 79.806 79.355 80.249 81.499 79.485 79.863 79.6 79.451 78.863 78.748 78.567 77.985 77.212 76.641 76.578 76.266 75.999 75.718 75.215 75.435 78.825 77.98 76.231 76.07 76.309 76 74.787 73.957 73.647 73.34 73.174 73.045 73.036 72.964 72.915 72.894 72.863 72.835 72.775 72.682 72.584 72.444 72.357 75.975 78.982 75.045 78.378 79.497 79.503 75.888 72.829 71.599 71.483 71.423 71.324 71.265 71.275 71.191 71.111 71.023 70.93 70.873 70.867 70.724 70.617 70.504 70.404 70.321 70.24 70.141 70.06 70.037 69.98 69.951 69.922 69.869 69.806 69.804 69.738 69.699 69.65 69.63 69.644 69.625 69.55 69.533 69.512 69.513 69.453 69.446 69.396 69.421 69.341 69.362 69.294 69.238 69.209 69.206 69.185 69.17 69.158 69.114 69.073 69.078 69.064 69.056 69.101 69.052 69.067 69.11 69.134 69.143 69.178 69.246 69.252 69.234 69.244 69.247 69.264 69.261 69.258 69.241 69.23 69.245 69.276 69.296 69.257 69.263 69.243 69.216 69.227 69.226 69.267 69.253 69.261 69.233 69.25 69.231 69.245 69.239 69.204 69.193 69.187 69.226 69.288 69.313 69.257 69.296 69.298 69.314 69.284 69.302 69.361 69.391 69.405 69.412 69.417 69.385 69.42 69.412 69.467 69.45 69.46 69.446 69.437 69.448 69.426 69.388 69.41 69.46 69.438 69.426 69.457 69.517 69.924 70.164 70.514 70.659 70.698 70.766 70.762 70.807 70.864 70.832 70.812 70.833 70.829 70.876 70.912 70.932 70.924 70.959 74.726 75.513 76.906 79.504 79.15 74.931 73.369 71.055 71.172 71.146 71.223 71.649 71.977 72.094 71.863 71.39 71.123 71.035 71.012 71.035 71.01
-9999 -9999 -9999 -9999 -9999 -9999 -9999 -9999 -9999 -9999 -9999 -9999 -9999 -9999 -9999 -9999 -9999 -9999 -9999 -9999 -9999 -9999 -9999 -9999 -9999 -9999 -9999 -9999 -9999 -9999 -9999 -9999 -9999 -9999 -9999 -9999 -9999 -9999 -9999 -9999 -9999 -9999 -9999 -9999 -9999 -9999 -9999 -9999 -9999 -9999 -9999 -9999 -9999 -9999 -9999 -9999 -9999 -9999 -9999 -9999 -9999 -9999 -9999 -9999 -9999 -9999 -9999 -9999 -9999 -9999 -9999 -9999 -9999 -9999 -9999 -9999 -9999 -9999 -9999 -9999 -9999 -9999 -9999 -9999 -9999 -9999 -9999 -9999 -9999 -9999 -9999 -9999 -9999 -9999 -9999 -9999 -9999 -9999 -9999 -9999 -9999 -9999 -9999 -9999 -9999 -9999 -9999 -9999 -9999 -9999 -9999 -9999 -9999 -9999 -9999 -9999 -9999 -9999 -9999 -9999 -9999 -9999 -9999 -9999 -9999 -9999 -9999 -9999 -9999 -9999 -9999 -9999 -9999 -9999 -9999 -9999 -9999 -9999 85.636 85.668 86.099 85.215 85.103 85.045 85.021 84.93 84.774 84.781 84.776 84.754 84.546 84.558 84.287 86.416 89.435 90.522 90.783 86.223 84.339 85.134 85.12 85.052 85.07 84.789 84.85 84.936 85.017 85.01 85.091 85.12 85.259 85.298 85.211 85.05 84.977 85.062 84.924 93.863 94.505 93.989 92.904 89.635 85.756 84.723 84.593 84.499 84.493 84.532 85.004 84.578 85.348 85.465 85.287 85.439 87.993 85.499 87.179 89.245 92.792 93.625 93.72 94.368 94.501 95.266 95.3 94.961 94.598 94.743 94.224 92.63 91.704 88.756 85.22 83.545 87.111 90.178 83.227 82.971 80.842 82.723 84.261 80.131 80.031 80.027 79.958 79.986 79.973 79.953 79.956 79.876 79.863 79.887 80.198 80.17 81.578 82.322 81.829 81.66 80.493 80.482 80.884 81.529 80.669 80.179 79.511 79.418 79.684 79.356 79.399 79.349 79.261 79.229 79.174 79.127 79.066 79.052 79.024 79.026 78.986 79.114 79.707 79.975 79.76 79.479 78.683 78.092 77.675 77.228 76.725 76.698 76.315 75.786 75.316 77.857 81.233 76.484 76.289 76.3 76.373 75.304 77.687 73.862 73.579 73.397 73.258 73.072 73.018 72.929 72.913 72.935 72.894 72.899 72.853 72.684 72.537 76.323 78.763 81.281 78.348 80.3 79.512 79.575 76.4 71.8 71.654 71.527 71.475 71.42 71.401 71.345 71.298 71.193 71.103 70.98 70.921 70.831 70.729 70.626 70.565 70.485 70.383 70.249 70.154 70.095 70.037 69.967 69.933 69.892 69.85 69.83 69.787 69.715 69.697 69.641 69.615 69.616 69.549 69.524 69.511 69.505 69.483 69.414 69.359 69.366 69.386 69.32 69.319 69.253 69.219 69.168 69.157 69.153 69.128 69.121 69.101 69.023 69.035 68.997 68.997 69.042 68.984 69.024 69.045 69.112 69.117 69.161 69.138 69.182 69.2 69.186 69.25 69.259 69.202 69.197 69.169 69.197 69.223 69.232 69.215 69.234 69.225 69.173 69.171 69.213 69.181 69.226 69.24 69.216 69.216 69.219 69.186 69.222 69.19 69.151 69.18 69.195 69.206 69.204 69.216 69.239 69.242 69.253 69.292 69.271 69.292 69.299 69.311 69.397 69.366 69.347 69.442 69.425 69.381 69.407 69.386 69.395 69.381 69.459 69.368 69.395 69.376 69.412 69.376 69.302 69.349 69.433 69.621 69.901 70.261 70.495 70.618 70.709 70.717 70.727 70.788 70.79 70.813 70.774 70.767 70.831 70.799 70.824 70.893 70.907 70.844 71.92 72.374 74.261 71.94 76.363 73.608 71.431 71.067 71.118 71.065 71.306 71.71 71.967 71.956 71.67 71.282 71.109 71.038 71.06 70.925 70.974
-9999 -9999 -9999 -9999 -9999 -9999 -9999 -9999 -9999 -9999 -9999 -9999 -9999 -9999 -9999 -9999 -9999 -9999 -9999 -9999 -9999 -9999 -9999 -9999 -9999 -9999 -9999 -9999 -9999 -9999 -9999 -9999 -9999 -9999 -9999 -9999 -9999 -9999 -9999 -9999 -9999 -9999 -9999 -9999 -9999 -9999 -9999 -9999 -9999 -9999 -9999 -9999 -9999 -9999 -9999 -9999 -9999 -9999 -9999 -9999 -9999 -9999 -9999 -9999 -9999 -9999 -9999 -9999 -9999 -9999 -9999 -9999 -9999 -9999 -9999 -9999 -9999 -9999 -9999 -9999 -9999 -9999 -9999 -9999 -9999 -9999 -9999 -9999 -9999 -9999 -9999 -9999 -9999 -9999 -9999 -9999 -9999 -9999 -9999 -9999 -9999 -9999 -9999 -9999 -9999 -9999 -9999 -9999 -9999 -9999 -9999 -9999 -9999 -9999 -9999 -9999 -9999 -9999 -9999 -9999 -9999 -9999 -9999 -9999 -9999 -9999 -9999 -9999 -9999 -9999 -9999 -9999 -9999 -9999 -9999 -9999 -9999 -9999 -9999 85.911 86.043 85.615 85.198 85.118 85.097 84.993 84.889 85.025 85.097 84.844 84.755 84.563 84.817 86.318 87.306 89.138 87.432 86.336 85.084 85.487 86.38 85.362 85.362 85.154 84.971 84.996 85.043 85.113 85.146 85.22 85.231 85.4 85.277 85.221 85.223 85.415 87.995 96.105 95.912 95.416 95.126 94.513 93.124 91.757 87.719 85.409 84.692 84.763 85.082 84.733 84.694 84.717 84.76 85.428 85.933 86.048 87.623 87.956 85.198 86.972 92.475 94.395 94.364 95.864 94.42 94.868 95.441 95.476 95.346 94.7 94.529 93.882 91.969 85.744 91.084 85.396 83.507 88.34 91.904 91.677 92.031 89.294 86.331 80.317 79.982 79.966 79.945 79.946 79.923 79.902 79.882 79.82 79.815 79.779 79.789 80.042 80.806 81.241 81.06 80.801 80.304 80.994 81.324 80.825 80.061 81.016 88.61 88.221 79.657 79.225 79.264 79.222 79.179 79.13 79.087 79.014 78.999 78.891 78.887 78.92 78.87 79.023 79.036 79.781 79.482 81.126 78.721 78.327 77.788 77.357 77.07 76.201 75.629 75.77 81.306 77.349 76.536 76.419 79.576 81.683 82.436 80.623 74.011 73.444 73.4 73.324 73.253 73.175 73.075 73.142 73.072 73.045 72.852 72.786 72.792 77.256 79.484 82.483 83.45 82.442 78.63 78.004 73.742 71.853 71.686 71.649 71.612 71.567 71.449 71.426 71.374 71.336 71.19 71.142 71.094 70.936 70.767 70.652 70.591 70.521 70.406 70.359 70.224 70.169 70.124 70.01 69.954 69.868 69.843 69.82 69.802 69.74 69.673 69.637 69.633 69.65 69.578 69.531 69.516 69.516 69.465 69.427 69.395 69.357 69.303 69.283 69.258 69.212 69.188 69.143 69.156 69.128 69.077 69.093 69.073 69.024 68.983 68.975 68.96 68.982 68.92 68.969 68.951 69.024 69.077 69.142 69.097 69.115 69.161 69.162 69.149 69.144 69.13 69.139 69.164 69.167 69.173 69.178 69.193 69.167 69.163 69.149 69.169 69.166 69.158 69.192 69.185 69.185 69.157 69.193 69.177 69.175 69.13 69.084 69.064 69.113 69.157 69.15 69.168 69.228 69.27 69.251 69.227 69.185 69.234 69.228 69.271 69.373 69.35 69.329 69.411 69.322 69.339 69.351 69.329 69.401 69.387 69.369 69.39 69.343 69.356 69.335 69.379 69.334 69.374 69.437 69.656 69.998 70.336 70.418 70.562 70.658 70.695 70.733 70.732 70.715 70.649 70.647 70.696 70.769 70.822 70.824 70.859 70.874 70.887 71.007 71.065 71.16 71.004 70.886 70.902 70.961 71.045 70.997 71.035 71.298 71.735 71.969 71.894 71.507 71.174 71.07 70.974 70.997 71.003 70.98
-9999 -9999 -9999 -9999 -9999 -9999 -9999 -9999 -9999 -9999 -9999 -9999 -9999 -9999 -9999 -9999 -9999 -9999 -9999 -9999 -9999 -9999 -9999 -9999 -9999 -9999 -9999 -9999 -9999 -9999 -9999 -9999 -9999 -9999 -9999 -9999 -9999 -9999 -9999 -9999 -9999 -9999 -9999 -9999 -9999 -9999 -9999 -9999 -9999 -9999 -9999 -9999 -9999 -9999 -9999 -9999 -9999 -9999 -9999 -9999 -9999 -9999 -9999 -9999 -9999 -9999 -9999 -9999 -9999 -9999 -9999 -9999 -9999 -9999 -9999 -9999 -9999 -9999 -9999 -9999 -9999 -9999 -9999 -9999 -9999 -9999 -9999 -9999 -9999 -9999 -9999 -9999 -9999 -9999 -9999 -9999 -9999 -9999 -9999 -9999 -9999 -9999 -9999 -9999 -9999 -9999 -9999 -9999 -9999 -9999 -9999 -9999 -9999 -9999 -9999 -9999 -9999 -9999 -9999 -9999 -9999 -9999 -9999 -9999 -9999 -9999 -9999 -9999 -9999 -9999 -9999 -9999 -9999 -9999 -9999 -9999 -9999 -9999 -9999 -9999 86.002 85.754 85.438 85.191 85.123 85.044 84.963 84.954 85.153 84.93 84.816 84.646 84.692 86.504 86.409 86.805 86.273 85.57 85.281 86.101 85.765 86.315 86.025 86.009 85.168 85.062 85.082 85.221 85.298 85.308 85.341 85.365 85.496 85.438 85.593 85.586 92.667 95.401 95.764 96.198 96.163 95.572 95.815 95.304 94.974 91.019 87.577 88.353 85.198 85.28 84.954 84.894 84.872 84.89 85.19 85.383 86.243 86.675 87.179 87.524 86.67 86.077 90.942 92.449 93.18 93.528 94.38 94.755 95.273 95.79 95.519 94.851 93.21 85.074 87.985 87.511 89.64 87.842 92.061 92.188 93.311 93.094 90.842 82.684 80.615 80.044 80.022 79.906 79.907 79.893 79.846 79.854 79.833 79.804 79.798 79.704 79.697 79.717 79.982 79.96 80.115 80.17 80.178 80.191 80.276 89.192 96.37 94.793 92.413 83.584 79.217 79.142 79.136 79.106 79.075 79.072 78.994 78.947 78.925 78.833 78.776 78.796 78.773 78.723 78.786 83.489 87.315 84.288 80.014 78.067 79.802 78.849 76.408 81.767 80.876 80.539 76.767 80.12 85.179 87.331 84.599 83.734 77.038 73.743 73.567 73.422 73.484 73.483 73.456 73.32 73.242 73.101 72.975 72.907 74.367 77.272 79.168 81.988 83.415 82.793 79.624 72.99 71.946 71.852 71.793 71.708 71.674 71.612 71.577 71.529 71.469 71.374 71.234 71.152 71.132 70.983 70.828 70.689 70.604 70.515 70.425 70.381 70.309 70.283 70.209 70.112 70.017 69.917 69.832 69.82 69.806 69.746 69.675 69.647 69.627 69.66 69.588 69.569 69.498 69.508 69.461 69.434 69.371 69.332 69.299 69.301 69.269 69.2 69.168 69.145 69.134 69.103 69.031 69.037 69.03 68.992 68.947 68.947 68.923 68.921 68.892 68.92 68.976 69.044 69.041 69.099 69.112 69.151 69.106 69.115 69.145 69.121 69.096 69.088 69.117 69.138 69.164 69.165 69.139 69.142 69.104 69.116 69.091 69.112 69.106 69.099 69.119 69.119 69.134 69.122 69.132 69.131 69.081 69.035 69.034 69.053 69.106 69.124 69.167 69.201 69.174 69.211 69.182 69.251 69.217 69.232 69.274 69.3 69.283 69.331 69.346 69.343 69.363 69.346 69.327 69.33 69.355 69.296 69.328 69.301 69.315 69.336 69.315 69.317 69.348 69.391 69.708 69.998 70.325 70.449 70.597 70.599 70.676 70.706 70.67 70.656 70.654 70.667 70.7 70.713 70.778 70.807 70.816 70.846 73.458 76.932 77.516 74.759 72.487 70.794 70.819 70.856 70.995 70.942 71.023 71.496 71.775 71.838 71.758 71.418 71.169 71.039 71.043 70.994 70.97 70.947
-9999 -9999 -9999 -9999 -9999 -9999 -9999 -9999 -9999 -9999 -9999 -9999 -9999 -9999 -9999 -9999 -9999 -9999 -9999 -9999 -9999 -9999 -9999 -9999 -9999 -9999 -9999 -9999 -9999 -9999 -9999 -9999 -9999 -9999 -9999 -9999 -9999 -9999 -9999 -9999 -9999 -9999 -9999 -9999 -9999 -9999 -9999 -9999 -9999 -9999 -9999 -9999 -9999 -9999 -9999 -9999 -9999 -9999 -9999 -9999 -9999 -9999 -9999 -9999 -9999 -9999 -9999 -9999 -9999 -9999 -9999 -9999 -9999 -9999 -9999 -9999 -9999 -9999 -9999 -9999 -9999 -9999 -9999 -9999 -9999 -9999 -9999 -9999 -9999 -9999 -9999 -9999 -9999 -9999 -9999 -9999 -9999 -9999 -9999 -9999 -9999 -9999 -9999 -9999 -9999 -9999 -9999 -9999 -9999 -9999 -9999 -9999 -9999 -9999 -9999 -9999 -9999 -9999 -9999 -9999 -9999 -9999 -9999 -9999 -9999 -9999 -9999 -9999 -9999 -9999 -9999 -9999 -9999 -9999 -9999 -9999 -9999 -9999 -9999 -9999 -9999 85.655 85.627 85.333 85.166 85.049 85.023 84.923 85.075 85.116 84.853 85.293 86.756 86.786 86.77 85.507 85.119 85.272 85.691 86.414 91.426 88.083 86.036 86.037 85.893 85.531 85.134 85.292 85.376 85.488 85.498 85.546 85.595 85.648 85.849 86.978 93.842 95.019 94.723 95.12 95.677 96.299 96.466 96.163 96.119 96.074 95.21 93.493 91.817 90.354 85.659 85.119 85.196 85.587 85.071 85.061 85.028 85.032 85.117 86.736 85.974 85.711 86.192 86.149 88.916 92.116 93.39 93.505 94.264 95.404 94.949 95.322 86.283 84.902 84.836 85.049 88.137 86.307 88.991 91.376 93.063 92.985 89.009 83.795 82.327 81.475 80.322 80.005 79.969 79.849 79.809 79.847 79.81 79.799 79.784 79.79 79.741 79.676 79.591 79.602 79.574 79.633 79.961 80.036 80.075 82.103 93.884 89.772 93.108 81.685 79.772 79.522 79.206 79.081 79.034 78.993 78.971 78.971 78.883 78.857 78.808 78.74 78.681 78.649 78.837 85.504 88.3 86.098 84.134 82.368 83.269 85.119 86.213 83.929 83.123 80.237 78.035 83.798 86.442 87.898 84.497 82.06 84.348 74.136 73.718 73.592 73.661 73.665 73.551 73.436 73.368 73.21 73.042 73 76.182 78.231 79.063 80.825 81.565 80.93 75.765 72.106 72.044 71.939 71.869 71.822 71.762 71.694 71.612 71.63 71.541 71.407 71.261 71.154 71.091 70.985 70.876 70.773 70.674 70.566 70.506 70.431 70.329 70.296 70.209 70.142 70.082 70.059 69.981 69.885 69.819 69.769 69.732 69.679 69.616 69.625 69.579 69.573 69.529 69.539 69.48 69.37 69.343 69.348 69.283 69.294 69.257 69.205 69.161 69.122 69.086 69.054 69.025 69.023 68.988 68.974 68.945 68.905 68.93 68.897 68.856 68.885 68.926 68.949 69.043 69.034 69.046 69.051 69.087 69.114 69.095 69.05 69.043 69.016 69.042 69.09 69.099 69.126 69.103 69.11 69.103 69.074 69.066 69.06 69.06 69.05 69.064 69.074 69.112 69.086 69.101 69.098 69.044 69.004 69.002 68.998 69.019 69.052 69.127 69.185 69.197 69.187 69.175 69.135 69.146 69.14 69.172 69.199 69.262 69.288 69.293 69.234 69.288 69.224 69.256 69.295 69.271 69.289 69.296 69.262 69.254 69.213 69.215 69.256 69.299 69.477 69.843 70.117 70.321 70.393 70.46 70.527 70.632 70.696 70.647 70.611 70.592 70.564 70.629 70.674 70.757 70.821 70.937 74.597 77.591 79.631 80.417 79.782 77.596 70.84 70.755 70.884 70.897 70.836 71.174 71.572 71.667 71.639 71.583 71.285 71.02 71.04 70.979 70.996 70.982 70.965
-9999 -9999 -9999 -9999 -9999 -9999 -9999 -9999 -9999 -9999 -9999 -9999 -9999 -9999 -9999 -9999 -9999 -9999 -9999 -9999 -9999 -9999 -9999 -9999 -9999 -9999 -9999 -9999 -9999 -9999 -9999 -9999 -9999 -9999 -9999 -9999 -9999 -9999 -9999 -9999 -9999 -9999 -9999 -9999 -9999 -9999 -9999 -9999 -9999 -9999 -9999 -9999 -9999 -9999 -9999 -9999 -9999 -9999 -9999 -9999 -9999 -9999 -9999 -9999 -9999 -9999 -9999 -9999 -9999 -9999 -9999 -9999 -9999 -9999 -9999 -9999 -9999 -9999 -9999 -9999 -9999 -9999 -9999 -9999 -9999 -9999 -9999 -9999 -9999 -9999 -9999 -9999 -9999 -9999 -9999 -9999 -9999 -9999 -9999 -9999 -9999 -9999 -9999 -9999 -9999 -9999 -9999 -9999 -9999 -9999 -9999 -9999 -9999 -9999 -9999 -9999 -9999 -9999 -9999 -9999 -9999 -9999 -9999 -9999 -9999 -9999 -9999 -9999 -9999 -9999 -9999 -9999 -9999 -9999 -9999 -9999 -9999 -9999 -9999 -9999 -9999 -9999 85.681 85.54 85.21 85.085 85.078 85.024 85.157 85.085 85.024 86.822 86.98 86.838 86.757 85.899 85.459 86.685 88.433 92.28 93.247 91.534 87.944 86.257 86.751 86.12 85.386 85.324 85.435 85.548 85.601 85.714 85.675 85.749 85.908 86.205 87.647 91.843 93.607 95.536 95.176 95.225 95.842 96.05 96.304 96.48 96.829 96.403 95.924 95.569 94.937 91.951 85.878 85.988 85.795 85.559 85.282 85.186 85.15 85.32 85.386 85.501 85.393 85.649 85.486 86.474 86.873 89.59 91.166 94.49 94.593 89.871 85.561 85.676 85.633 85.389 85.72 84.754 84.324 84.397 89.938 89.758 90.829 83.589 83.357 82.982 82.382 82.549 80.631 80.553 79.947 79.863 79.809 79.774 79.737 79.747 79.709 79.682 79.664 79.588 79.565 79.487 79.511 79.532 79.844 79.884 90.321 91.754 81.118 79.972 80.736 79.872 79.777 80.412 80.596 79.001 78.913 78.928 78.923 78.883 78.836 78.783 78.703 78.664 78.612 81.761 82.032 81.146 79.54 83.343 87.75 87.926 88.904 89.106 87.276 83.865 77.38 82.648 88.057 88.031 87.446 87.173 79.934 75.383 73.972 73.857 73.812 73.769 73.662 73.561 73.439 73.234 73.204 73.134 76.252 78.262 78.834 78.108 75.79 74.261 72.342 72.223 72.137 72.065 72.006 71.874 71.8 71.762 71.698 71.709 71.614 71.431 71.282 71.188 71.16 71.024 70.922 70.79 70.73 70.633 70.573 70.493 70.382 70.273 70.187 70.166 70.129 70.076 70.012 69.937 69.901 69.823 69.735 69.72 69.661 69.642 69.588 69.571 69.54 69.541 69.478 69.407 69.373 69.338 69.285 69.261 69.234 69.163 69.149 69.114 69.093 69.046 68.988 69.01 68.981 68.924 68.904 68.884 68.927 68.909 68.829 68.868 68.905 68.982 69.023 69.03 69.012 69.033 69.039 69.043 69.026 68.942 68.98 69.015 69.026 69.062 69.06 69.066 69.029 69.02 69.034 69.037 69.013 69.003 69.012 69.012 68.997 69.035 69.047 69.049 69.038 68.999 68.98 68.979 68.962 68.946 68.984 69.006 69.09 69.111 69.145 69.132 69.107 69.133 69.146 69.146 69.177 69.176 69.205 69.169 69.194 69.194 69.19 69.22 69.229 69.216 69.221 69.176 69.178 69.185 69.282 69.248 69.251 69.26 69.277 69.52 69.816 70.13 70.292 70.439 70.515 70.547 70.551 70.551 70.521 70.501 70.549 70.563 70.642 70.732 70.769 70.747 70.704 75.183 78.087 80.228 81.056 78.487 74.829 71.85 70.662 70.755 70.778 70.782 71.141 71.389 71.344 71.267 71.243 71.021 70.914 70.932 70.988 70.973 70.931 70.903
-9999 -9999 -9999 -9999 -9999 -9999 -9999 -9999 -9999 -9999 -9999 -9999 -9999 -9999 -9999 -9999 -9999 -9999 -9999 -9999 -9999 -9999 -9999 -9999 -9999 -9999 -9999 -9999 -9999 -9999 -9999 -9999 -9999 -9999 -9999 -9999 -9999 -9999 -9999 -9999 -9999 -9999 -9999 -9999 -9999 -9999 -9999 -9999 -9999 -9999 -9999 -9999 -9999 -9999 -9999 -9999 -9999 -9999 -9999 -9999 -9999 -9999 -9999 -9999 -9999 -9999 -9999 -9999 -9999 -9999 -9999 -9999 -9999 -9999 -9999 -9999 -9999 -9999 -9999 -9999 -9999 -9999 -9999 -9999 -9999 -9999 -9999 -9999 -9999 -9999 -9999 -9999 -9999 -9999 -9999 -9999 -9999 -9999 -9999 -9999 -9999 -9999 -9999 -9999 -9999 -9999 -9999 -9999 -9999 -9999 -9999 -9999 -9999 -9999 -9999 -9999 -9999 -9999 -9999 -9999 -9999 -9999 -9999 -9999 -9999 -9999 -9999 -9999 -9999 -9999 -9999 -9999 -9999 -9999 -9999 -9999 -9999 -9999 -9999 -9999 -9999 -9999 -9999 -9999 85.311 85.256 85.349 85.94 85.562 85.387 85.065 86.135 87.036 87.058 86.444 86.11 86.91 86.225 91.709 93.395 93.915 93.339 92.341 86.701 86.357 86.269 85.739 85.484 85.476 85.563 85.668 85.816 85.818 85.907 85.957 86.442 87.08 88.267 88.919 89.179 92.127 95.66 95.566 95.953 96.13 96.112 96.838 97.085 97.23 96.682 96.257 96.955 96.05 93.583 88.472 92.207 85.942 85.542 85.448 85.304 85.316 85.311 85.326 85.338 85.447 86.252 85.968 86.494 85.945 87.388 91.711 87.018 86.31 86.562 85.993 85.78 85.653 85.387 84.941 85.448 84.148 84.718 84.33 84.205 84.13 83.97 83.567 84.196 83.82 83.599 81.655 80.549 79.881 79.841 79.775 79.723 79.661 79.664 79.594 79.621 79.606 79.581 79.511 79.446 79.43 79.417 80.562 79.907 81.037 81.319 81.388 80.64 79.916 80.748 81.426 80.246 79.434 79.079 78.834 78.82 78.805 78.731 78.741 78.712 78.623 78.57 78.5 78.421 78.377 80.989 86.606 88.343 88.96 88.954 88.071 79.318 77.502 78.236 88.427 87.75 86.241 81.555 79.339 79.98 74.495 74.157 73.984 73.852 73.75 75.759 77.399 77.92 75.672 73.319 73.24 75.714 76.332 76.726 72.725 72.604 72.509 72.422 72.321 72.192 72.076 72.02 71.956 71.881 71.787 71.763 71.634 71.51 71.396 71.258 71.155 71.049 70.988 70.862 70.777 70.734 70.634 70.532 70.448 70.361 70.274 70.199 70.129 70.111 70.068 69.968 69.92 69.882 69.795 69.761 69.711 69.638 69.643 69.598 69.535 69.519 69.438 69.414 69.371 69.319 69.297 69.275 69.222 69.178 69.135 69.097 69.063 68.997 68.972 68.983 68.925 68.897 68.88 68.883 68.881 68.841 68.814 68.851 68.898 68.94 68.973 68.976 68.963 68.972 68.96 68.998 68.943 68.936 68.939 68.98 68.969 68.992 68.996 68.995 69 69.006 68.983 68.982 68.94 68.958 69.003 68.984 68.982 69.006 68.992 68.995 68.983 68.977 68.956 68.935 68.93 68.935 68.96 69.005 69.044 69.056 69.056 69.086 69.073 69.053 69.07 69.087 69.077 69.108 69.128 69.145 69.133 69.182 69.132 69.161 69.134 69.147 69.135 69.175 69.196 69.185 69.193 69.187 69.133 69.16 69.292 69.527 69.972 70.154 70.3 70.372 70.411 70.417 70.44 70.423 70.517 71.162 71.097 70.627 70.588 70.637 70.644 70.603 70.614 73.415 77.81 79.701 80.733 79.929 77.885 70.721 70.707 70.794 70.711 70.701 70.791 71.03 71.067 70.98 71.025 70.957 70.935 70.858 70.867 70.886 70.892 70.939
-9999 -9999 -9999 -9999 -9999 -9999 -9999 -9999 -9999 -9999 -9999 -9999 -9999 -9999 -9999 -9999 -9999 -9999 -9999 -9999 -9999 -9999 -9999 -9999 -9999 -9999 -9999 -9999 -9999 -9999 -9999 -9999 -9999 -9999 -9999 -9999 -9999 -9999 -9999 -9999 -9999 -9999 -9999 -9999 -9999 -9999 -9999 -9999 -9999 -9999 -9999 -9999 -9999 -9999 -9999 -9999 -9999 -9999 -9999 -9999 -9999 -9999 -9999 -9999 -9999 -9999 -9999 -9999 -9999 -9999 -9999 -9999 -9999 -9999 -9999 -9999 -9999 -9999 -9999 -9999 -9999 -9999 -9999 -9999 -9999 -9999 -9999 -9999 -9999 -9999 -9999 -9999 -9999 -9999 -9999 -9999 -9999 -9999 -9999 -9999 -9999 -9999 -9999 -9999 -9999 -9999 -9999 -9999 -9999 -9999 -9999 -9999 -9999 -9999 -9999 -9999 -9999 -9999 -9999 -9999 -9999 -9999 -9999 -9999 -9999 -9999 -9999 -9999 -9999 -9999 -9999 -9999 -9999 -9999 -9999 -9999 -9999 -9999 -9999 -9999 -9999 -9999 -9999 -9999 -9999 85.925 86.439 85.845 86.007 85.559 85.212 85.193 86.219 87.408 85.941 86.806 86.939 90.015 92.928 93.845 94.624 94.314 93.454 92.347 87.76 86.269 86.77 86.534 85.686 85.624 85.75 85.9 85.888 86.035 86.104 86.285 86.634 86.56 86.839 87.217 87.778 89.35 91.729 93.972 95.741 97.016 96.857 96.385 96.506 97.02 97.164 97.743 97.48 97.47 97.624 94.839 89.552 90.297 87.538 85.537 85.463 85.663 85.463 85.486 85.455 85.5 85.647 87.255 86.329 86.285 86.159 86.284 86.124 86.202 86.326 86.166 86.074 85.844 85.604 85.488 84.234 86.587 86.065 85.038 84.3 84.417 87.278 85.317 84.618 83.894 83.634 83.513 81.615 81.718 79.868 79.815 79.706 79.68 79.589 79.608 79.566 79.555 79.546 79.471 79.405 79.409 79.298 79.269 80.524 80.774 81.255 81.367 80.049 79.821 79.984 80.088 81.046 79.614 79.466 79.212 78.844 78.675 78.656 78.611 78.618 78.605 78.53 78.447 78.427 78.467 84.458 87.088 88.223 88.658 83.044 85.653 77.763 77.573 85.581 86.658 86.193 83.769 81.165 82.087 76.354 74.838 74.268 74.041 74.107 78.426 80.269 78.281 77.594 74.345 73.344 73.235 73.124 72.941 72.835 72.746 72.605 72.502 72.45 72.293 72.226 72.139 72.021 71.98 71.917 71.899 71.692 71.563 71.367 71.289 71.204 71.12 71.033 70.892 70.848 70.776 70.716 70.636 70.47 70.365 70.305 70.237 70.185 70.081 70.027 70.009 69.936 69.892 69.849 69.768 69.676 69.655 69.648 69.628 69.558 69.534 69.487 69.45 69.364 69.332 69.307 69.245 69.209 69.174 69.135 69.076 69.047 68.997 68.975 68.947 68.904 68.893 68.844 68.828 68.828 68.784 68.767 68.822 68.848 68.868 68.922 68.965 68.908 68.926 68.936 68.907 68.889 68.852 68.89 68.953 68.953 68.948 68.974 68.969 68.924 68.908 68.933 68.936 68.929 68.922 68.914 68.931 68.936 68.978 68.954 68.972 68.952 68.911 68.9 68.899 68.891 68.943 68.916 68.966 68.987 69.007 69.024 68.999 68.971 69.011 68.995 69.065 69.076 69.069 69.099 69.039 69.09 69.067 69.073 69.056 69.108 69.127 69.098 69.087 69.098 69.089 69.106 69.096 69.142 69.21 69.349 69.746 70.062 70.209 70.213 70.279 70.258 70.386 70.346 70.347 70.777 76.869 76.417 75.359 72.927 74.652 74.569 72.095 70.525 70.531 73.839 77.986 78.859 76.839 72.016 70.585 70.667 70.647 70.6 70.626 70.745 70.786 70.798 70.828 70.882 70.886 70.853 70.92 70.9 70.882 70.863 70.928
-9999 -9999 -9999 -9999 -9999 -9999 -9999 -9999 -9999 -9999 -9999 -9999 -9999 -9999 -9999 -9999 -9999 -9999 -9999 -9999 -9999 -9999 -9999 -9999 -9999 -9999 -9999 -9999 -9999 -9999 -9999 -9999 -9999 -9999 -9999 -9999 -9999 -9999 -9999 -9999 -9999 -9999 -9999 -9999 -9999 -9999 -9999 -9999 -9999 -9999 -9999 -9999 -9999 -9999 -9999 -9999 -9999 -9999 -9999 -9999 -9999 -9999 -9999 -9999 -9999 -9999 -9999 -9999 -9999 -9999 -9999 -9999 -9999 -9999 -9999 -9999 -9999 -9999 -9999 -9999 -9999 -9999 -9999 -9999 -9999 -9999 -9999 -9999 -9999 -9999 -9999 -9999 -9999 -9999 -9999 -9999 -9999 -9999 -9999 -9999 -9999 -9999 -9999 -9999 -9999 -9999 -9999 -9999 -9999 -9999 -9999 -9999 -9999 -9999 -9999 -9999 -9999 -9999 -9999 -9999 -9999 -9999 -9999 -9999 -9999 -9999 -9999 -9999 -9999 -9999 -9999 -9999 -9999 -9999 -9999 -9999 -9999 -9999 -9999 -9999 -9999 -9999 -9999 -9999 -9999 -9999 86.111 85.958 85.839 87.488 85.919 85.553 85.386 85.951 87.379 87.596 91.419 92.79 93.29 93.131 94.202 94.78 94.428 93.539 91.423 87.155 86.895 86.919 87.289 85.755 85.784 85.862 86.034 86.181 86.226 86.314 86.543 86.421 86.52 86.741 87.277 87.669 87.748 87.83 89.252 91.951 95.153 95.187 96.702 96.541 97.086 97.871 98.069 98.024 97.803 98.3 97.99 97.311 95.722 94.076 86.912 86.1 85.802 85.822 85.798 85.788 85.62 85.645 85.656 85.72 85.975 86.251 86.541 86.285 86.279 86.448 86.45 85.973 85.916 85.712 85.228 86.952 86.849 90.568 91.598 86.998 87.124 87.217 83.901 84.502 83.7 83.687 83.635 82.811 81.719 81.889 80.388 80.257 79.684 79.606 79.507 79.506 79.478 79.48 79.456 79.423 79.395 79.328 79.309 79.247 79.541 80.989 80.2 79.663 80.951 80.204 79.681 79.697 79.625 79.578 79.426 79.108 78.801 78.655 78.557 78.513 78.461 78.51 78.418 78.361 78.294 82.979 85.928 85.157 83.091 77.966 77.779 77.727 80.677 80.155 80.37 81.112 80.039 79.245 76.355 75.834 75.021 74.728 74.635 77.772 80.358 77.229 79.044 73.682 73.302 73.322 73.103 73.025 72.96 72.839 72.742 72.659 72.537 72.418 72.31 72.208 72.211 72.127 72.062 71.927 71.772 71.557 71.437 71.35 71.276 71.196 71.096 70.982 70.94 70.827 70.76 70.67 70.577 70.433 70.385 70.319 70.204 70.133 70.112 70.076 69.967 69.876 69.87 69.771 69.76 69.714 69.678 69.614 69.586 69.559 69.512 69.455 69.386 69.345 69.287 69.264 69.19 69.163 69.128 69.077 69.016 68.988 68.949 68.94 68.894 68.834 68.833 68.789 68.778 68.716 68.734 68.77 68.823 68.872 68.917 68.91 68.918 68.888 68.876 68.847 68.81 68.842 68.836 68.878 68.885 68.882 68.905 68.922 68.929 68.926 68.914 68.913 68.913 68.906 68.883 68.881 68.884 68.919 68.895 68.912 68.878 68.896 68.868 68.879 68.876 68.879 68.923 68.935 68.945 68.931 68.95 68.917 68.936 68.963 69.002 69.016 68.952 68.996 69.036 69 69.055 69.031 69.068 69.067 69.037 69.008 69.051 69.016 69.037 69.096 69.098 69.083 69.108 69.247 69.365 69.823 70.078 70.166 70.17 70.222 70.246 70.257 70.277 70.237 71.18 77.369 78.136 76.133 75.991 78.835 77.95 76.67 75.843 70.676 70.673 71.848 71.78 70.5 70.517 70.542 70.604 70.637 70.541 70.569 70.65 70.725 70.742 70.77 70.865 70.872 70.89 70.875 70.915 70.838 70.864 70.925
-9999 -9999 -9999 -9999 -9999 -9999 -9999 -9999 -9999 -9999 -9999 -9999 -9999 -9999 -9999 -9999 -9999 -9999 -9999 -9999 -9999 -9999 -9999 -9999 -9999 -9999 -9999 -9999 -9999 -9999 -9999 -9999 -9999 -9999 -9999 -9999 -9999 -9999 -9999 -9999 -9999 -9999 -9999 -9999 -9999 -9999 -9999 -9999 -9999 -9999 -9999 -9999 -9999 -9999 -9999 -9999 -9999 -9999 -9999 -9999 -9999 -9999 -9999 -9999 -9999 -9999 -9999 -9999 -9999 -9999 -9999 -9999 -9999 -9999 -9999 -9999 -9999 -9999 -9999 -9999 -9999 -9999 -9999 -9999 -9999 -9999 -9999 -9999 -9999 -9999 -9999 -9999 -9999 -9999 -9999 -9999 -9999 -9999 -9999 -9999 -9999 -9999 -9999 -9999 -9999 -9999 -9999 -9999 -9999 -9999 -9999 -9999 -9999 -9999 -9999 -9999 -9999 -9999 -9999 -9999 -9999 -9999 -9999 -9999 -9999 -9999 -9999 -9999 -9999 -9999 -9999 -9999 -9999 -9999 -9999 -9999 -9999 -9999 -9999 -9999 -9999 -9999 -9999 -9999 -9999 -9999 -9999 86.695 87.338 88.215 88.176 87.284 86.693 89.182 89.316 87.848 88.723 92.317 92.343 92.053 92.831 93.909 94.355 93.625 92.801 86.67 86.615 87.77 87.506 85.924 85.879 85.912 86.031 86.161 86.267 86.38 86.464 86.566 86.634 86.722 86.861 87.099 87.536 88.398 89.04 88.599 89.488 91.256 95.156 94.852 96.831 97.746 98.052 97.852 97.912 98.474 98.668 98.168 97.754 97.441 96.972 94.379 88.732 93.625 86.2 87.318 85.884 85.795 85.723 85.748 85.796 86.174 86.743 86.139 86.211 86.318 86.417 87.228 86.471 85.463 87.231 87.702 88.674 95.768 95.386 94.748 92.44 90.461 86.567 85.231 83.793 84.021 83.945 83.627 83.668 84.227 83.785 82.557 80.361 81.94 79.709 79.552 79.511 79.42 79.38 79.373 79.35 79.333 79.354 79.255 79.193 79.137 79.039 79.195 79.824 79.827 79.608 79.613 79.654 79.617 79.517 79.469 79.362 79.19 79.026 78.752 78.504 78.397 78.383 78.34 78.322 78.249 78.201 77.973 78.015 77.977 77.944 77.843 77.652 79.051 83.165 82.446 81.31 78.959 76.858 76.203 75.737 75.654 75.741 76.177 78.953 77.16 74.523 73.746 76.389 78.875 77.557 74.346 73.116 72.996 72.891 72.785 72.661 72.524 72.447 72.369 72.304 72.26 72.19 72.041 71.868 71.671 71.462 71.379 71.305 71.212 71.17 71.084 70.987 70.918 70.868 70.812 70.663 70.547 70.438 70.362 70.271 70.221 70.176 70.099 70.001 69.921 69.869 69.788 69.701 69.694 69.654 69.637 69.577 69.553 69.535 69.461 69.43 69.381 69.313 69.233 69.186 69.172 69.138 69.072 69.028 69 68.954 68.916 68.841 68.849 68.826 68.773 68.75 68.72 68.698 68.737 68.806 68.855 68.856 68.859 68.854 68.87 68.825 68.803 68.759 68.792 68.833 68.818 68.854 68.842 68.849 68.844 68.873 68.885 68.861 68.861 68.879 68.857 68.826 68.864 68.854 68.836 68.844 68.857 68.844 68.839 68.826 68.823 68.822 68.861 68.907 68.889 68.864 68.873 68.855 68.835 68.906 68.893 68.919 68.965 68.962 68.968 68.979 69.002 68.97 68.991 68.954 68.982 68.952 69.082 69.042 68.978 69.002 68.997 68.971 69.05 69.035 69.164 69.517 69.899 70.039 70.094 70.101 70.092 70.1 70.147 70.183 73.057 75.275 77.55 77.635 76.4 79.262 76.38 79.911 75.189 73.155 70.568 70.542 70.624 70.468 70.436 70.444 70.434 70.537 70.538 70.491 70.66 76.189 76.63 70.854 70.763 70.78 70.84 70.814 70.834 70.9 70.908 70.894 70.904
-9999 -9999 -9999 -9999 -9999 -9999 -9999 -9999 -9999 -9999 -9999 -9999 -9999 -9999 -9999 -9999 -9999 -9999 -9999 -9999 -9999 -9999 -9999 -9999 -9999 -9999 -9999 -9999 -9999 -9999 -9999 -9999 -9999 -9999 -9999 -9999 -9999 -9999 -9999 -9999 -9999 -9999 -9999 -9999 -9999 -9999 -9999 -9999 -9999 -9999 -9999 -9999 -9999 -9999 -9999 -9999 -9999 -9999 -9999 -9999 -9999 -9999 -9999 -9999 -9999 -9999 -9999 -9999 -9999 -9999 -9999 -9999 -9999 -9999 -9999 -9999 -9999 -9999 -9999 -9999 -9999 -9999 -9999 -9999 -9999 -9999 -9999 -9999 -9999 -9999 -9999 -9999 -9999 -9999 -9999 -9999 -9999 -9999 -9999 -9999 -9999 -9999 -9999 -9999 -9999 -9999 -9999 -9999 -9999 -9999 -9999 -9999 -9999 -9999 -9999 -9999 -9999 -9999 -9999 -9999 -9999 -9999 -9999 -9999 -9999 -9999 -9999 -9999 -9999 -9999 -9999 -9999 -9999 -9999 -9999 -9999 -9999 -9999 -9999 -9999 -9999 -9999 -9999 -9999 -9999 -9999 -9999 -9999 87.803 88.044 88.091 86.881 86.556 89.123 89.116 86.735 86.528 88.043 90.581 90.092 92.216 93.192 93.727 92.363 87.732 86.644 87.301 86.8 86.159 86.084 86.142 86.06 86.117 86.206 86.315 86.436 86.547 86.707 86.762 86.847 86.921 87.085 88.01 89.073 87.736 87.957 88.083 89.041 88.542 90.561 92.391 96.129 97.362 97.817 98.248 98.052 98.071 98.539 98.738 98.415 98.432 98.053 97.403 95.259 92.015 92.77 86.587 86.11 85.961 85.94 85.905 85.95 86.296 86.195 87.13 86.849 86.297 87.858 86.403 87.272 87.735 87.806 91.898 97.125 96.57 96.216 95.748 95.872 92.82 91.255 90.953 86.033 83.97 83.626 84.798 85.656 85.078 83.881 84.154 82.214 82.093 81.344 79.855 79.565 79.468 79.365 79.315 79.318 79.23 79.22 79.211 79.189 79.105 79.034 78.947 78.923 78.976 79.301 79.506 79.502 79.532 79.458 79.45 79.416 79.326 79.162 79.008 78.76 78.494 78.354 78.241 78.244 78.19 78.094 78.02 78.006 77.93 77.924 77.805 77.78 77.56 77.626 77.685 77.704 77.534 77.086 76.743 76.6 76.36 78.662 77.675 79.676 81.634 79.47 79.118 81.659 82.191 83.356 75.356 73.155 72.984 72.867 72.788 72.72 72.475 72.456 72.458 72.396 72.28 72.137 71.946 71.71 71.532 71.471 71.375 71.239 71.258 71.181 71.065 71 70.93 70.862 70.752 70.607 70.51 70.409 70.329 70.284 70.198 70.094 70.01 69.96 69.886 69.823 69.69 69.708 69.687 69.634 69.59 69.576 69.515 69.442 69.419 69.373 69.329 69.288 69.197 69.193 69.117 69.07 69.009 68.982 68.968 68.907 68.853 68.844 68.806 68.792 68.771 68.701 68.696 68.726 68.796 68.8 68.818 68.851 68.822 68.793 68.771 68.733 68.785 68.785 68.793 68.796 68.786 68.808 68.79 68.802 68.815 68.801 68.814 68.82 68.816 68.802 68.78 68.79 68.79 68.811 68.842 68.822 68.803 68.793 68.778 68.791 68.788 68.827 68.878 68.876 68.816 68.816 68.808 68.823 68.793 68.841 68.864 68.942 68.921 68.951 68.9 68.92 68.879 68.925 68.95 68.959 68.95 68.965 68.896 68.932 68.933 68.978 71.075 69.286 69.13 69.268 69.7 69.893 69.959 69.95 69.995 70.063 70.059 70.082 70.143 70.188 74.733 75.83 74.903 72.967 77.724 76.036 74.945 72.23 71.87 70.492 70.537 70.548 70.443 70.327 70.345 70.354 70.392 74.886 70.645 74.088 82.14 74.82 70.661 70.752 70.801 70.853 70.872 70.86 70.856 70.853 70.87 70.828
