ncols 434
nrows 31
xllcorner    426096
yllcorner    434398
cellsize     2
NODATA_value -9999
87.49 78.27 74.758 74.527 74.316 74.185 74.082 73.953 73.869 73.633 73.491 73.488 73.552 73.577 73.57 73.7 73.803 73.777 73.859 73.918 73.909 74.03 74.161 74.22 74.244 74.278 74.452 74.589 75.906 80.988 80.555 78.261 80.03 89.347 96.286 90.252 95.49 93.818 97.583 98.932 99.895 100.021 99.623 99.167 87.59 77.159 76.118 76.34 76.459 76.529 76.612 76.572 76.531 76.647 76.65 76.721 76.774 76.751 76.825 76.896 76.862 76.899 76.816 76.911 76.912 76.743 76.78 76.789 76.719 76.577 76.34 76.132 76.052 82.392 90.544 92.817 93.294 93.032 89.895 83.523 83.078 78.922 84.346 85.831 82.305 85.75 82.507 77.625 75.21 80.99 84.308 84.235 79.868 82.526 80.977 74.265 73.106 72.975 72.995 72.918 72.77 72.616 72.607 72.385 73.743 75.175 74.563 74.859 73.794 75.629 75.592 74.015 73.785 76.206 77.59 77.505 81.688 81.999 83.284 86.15 86.231 82.32 81.987 78.933 83.48 84.163 84.041 81.94 79.511 73.54 69.158 69.341 69.42 70.749 69.951 70.549 70.721 71.143 73.479 75.849 76.018 77.855 80.589 80.315 74.209 77.166 77.454 80.285 80.508 78.597 78.535 82.583 84.215 85.52 74.562 85.387 85.384 86.413 87.01 84.725 84.355 83.718 78.553 73.499 65.496 60.816 66.715 62.587 62.688 73.072 62.926 65.95 66.738 71.103 66.057 68.8 70.439 62.05 67.94 69.472 68.602 72.431 63.021 70.408 68.991 57.798 67.319 69.859 68.577 64.518 61.254 62.356 62.828 56.065 59.017 61.252 60.219 53.727 52.016 51.063 50.873 51.429 52.863 57.118 54.459 52.392 54.388 53.664 46.632 42.854 42.674 42.466 37.078 36.874 36.928 37.07 36.805 36.791 36.886 39.05 39.461 39.067 44.111 42.773 40.812 39.136 38.343 38.118 37.951 37.747 37.635 37.633 37.553 37.616 37.613 37.697 37.928 37.514 37.531 37.43 37.471 37.458 37.466 37.426 37.373 37.373 37.394 37.385 37.362 37.425 37.422 37.454 37.409 37.28 37.237 37.119 37.161 38.532 38.265 38.67 38.385 37.187 37.069 37.081 37.052 37.054 37.092 37.281 36.967 36.994 36.979 37.034 40.241 40.943 40.747 39.642 37.075 37.016 36.924 36.815 36.883 36.815 36.765 36.799 36.72 36.845 36.783 36.691 36.639 36.614 36.605 36.6 36.655 36.581 36.636 36.618 36.62 36.484 36.502 36.449 36.429 36.372 36.417 36.805 36.463 36.465 36.378 36.425 36.371 36.347 36.538 36.773 36.658 36.723 36.618 36.578 36.509 36.498 36.465 36.428 36.51 36.622 37.252 40.645 43.185 45.162 44.221 41.09 39.22 39.328 40.55 39.476 39.573 41.92 41.161 42.016 42.519 42.732 42.73 42.733 43.635 48.301 48.917 48.869 46.492 43.028 43.773 47.461 47.432 40.872 39.952 39.785 39.634 39.276 39.097 39.089 39.015 38.972 39.714 41.17 41.424 39.34 39.142 39.257 39.205 39.99 36.334 34.457 34.154 34.149 34.705 34.303 34.48 35.117 34.812 34.516 34.771 34.631 34.811 34.746 35.383 35.455 35.837 36.251 36.17 35.74 35.407 34.486 33.654 33.401 33.329 33.328 33.469 33.795 34.631 35.615 35.702 35.375 35.936 35.68 33.487 39.43 38.834 35.076 35.468 35.23 35.11 35.132 35.088 35.002 35.128 34.92 34.895 35.035 35.649 35.585 37.562 38.64 36.13 34.923 36.538 35.254 35.121 35.252 38.422 36.122 38.911 36.573 37.179 36.197 35.852 40.052 39.631 37.435
83.959 80.711 75.847 74.84 74.665 74.525 74.332 74.218 74.094 74.018 73.886 73.879 73.967 74.005 74.048 74.077 74.128 74.118 74.135 74.237 74.374 74.415 74.49 74.63 74.608 74.742 74.798 76.565 80.233 83.587 82.953 79.879 80.543 92.167 96.264 94.928 95.518 95.635 98.51 99.198 100.093 100.031 100.836 98.951 85.294 80.179 76.624 76.942 77.017 77.142 77.075 77.024 76.996 77.095 77.199 77.144 77.147 77.336 77.242 77.43 77.315 77.369 77.245 77.286 77.38 77.36 77.343 77.284 77.204 77.158 77.002 76.732 76.98 89.002 93.195 95.109 94.65 93.991 92.907 90.002 85.271 77.617 76.826 87.714 87.982 85.316 84.513 79.876 76.264 81.014 83.976 82.899 83.616 84.931 82.511 76.149 73.777 73.69 73.609 73.58 74.718 73.224 73.253 72.962 73.058 75.233 74.688 73.839 73.59 74.523 75.109 74.779 75.36 78.887 79.359 83.127 84.033 84.433 82.432 82.675 82.389 82.197 79.059 83.251 83.314 83.463 84.89 84.238 82.781 80.346 70.031 70.036 71.287 71.34 70.583 71.334 71.993 71.99 73.618 74.347 74.575 79.19 79.404 81.866 75.423 81.574 79.23 79.6 80.111 79.779 83.667 85.961 87.437 87.801 85.515 83.798 82.075 79.466 86.471 87.471 86.844 82.926 73.973 68.434 63.13 63.659 71.967 66.766 71.073 73.614 64.31 67.763 65.004 64.378 69.102 66.026 67.854 65.164 58.091 63.654 68.757 73.764 72.796 71.077 69.163 66.349 62.328 70.476 69.383 57.295 63.274 63.714 64.44 65.685 60.115 63.02 64.515 62.828 51.758 50.424 43.943 54.26 55.417 46.999 52.109 53.81 53.095 53.428 51.391 41.568 43.061 45.537 37.638 40.783 38.297 36.918 36.957 37.032 36.77 36.969 37.43 41.587 43.187 41.672 48.64 47.733 40.118 38.533 38.707 37.968 37.821 37.628 37.62 37.619 37.578 37.548 37.567 37.695 37.537 37.534 37.516 37.407 37.394 37.378 37.357 37.367 37.402 37.377 37.409 37.467 37.382 37.419 37.363 37.265 37.328 38.492 37.283 40.729 39.007 38.761 37.339 38.225 37.187 37.137 37.022 38.644 37.249 36.967 36.933 36.933 37.066 40.234 40.686 40.752 41.027 40.81 40.692 37.425 37.554 36.848 36.927 36.794 36.705 36.784 36.715 36.706 36.728 36.787 36.641 36.639 36.652 36.979 36.578 36.606 36.565 36.6 36.556 36.523 36.5 36.472 36.49 36.393 36.41 36.407 36.391 36.592 36.419 36.353 36.399 36.393 36.355 36.409 36.733 36.71 36.626 37.019 36.56 36.477 36.404 36.337 36.41 36.381 38.496 40.857 44.699 40.591 37.393 37.526 39.126 51.416 40.21 40.436 41.199 39.893 40.481 41.946 42.882 42.753 42.744 43.032 42.813 44.396 44.453 44.604 44.162 43.348 43.44 46.269 45.136 41.193 40.005 40.022 40.155 39.718 39.389 39.279 38.976 39.028 39.084 39.097 40.418 40.73 39.552 39.288 39.202 39.268 35.867 35.143 34.615 34.856 35.44 35.807 35.764 35.52 35.532 34.803 34.707 34.405 34.303 34.568 35.271 35.22 35.913 36.078 35.786 36.09 35.774 34.867 33.703 33.46 33.274 33.378 33.328 33.613 34.64 35.592 35.566 35.465 38.076 37.193 33.936 35.902 37.263 34.925 35.125 35.017 35.111 35.099 35.046 34.948 35.039 35.222 34.906 34.866 35.043 35.05 34.968 34.928 34.942 36.201 34.888 34.926 35.042 35.258 39.016 36.749 38.938 36.736 36.403 36.062 36.177 40.121 39.647 36.801
86.816 82.66 75.294 75.033 74.891 74.741 74.574 74.5 74.353 74.255 74.217 74.202 74.298 74.355 74.364 74.451 74.503 74.552 74.64 74.724 74.767 74.78 74.818 74.906 75.009 75.104 75.173 78.294 85.352 84.999 83.74 82.371 84.384 86.878 91.389 88.628 87.957 94.869 96.545 97.834 99.692 100.046 100.056 98.996 94.592 78.592 77.195 77.231 77.554 77.589 77.543 77.583 77.573 77.618 77.546 77.668 77.587 77.767 77.874 77.844 77.785 77.766 77.875 77.862 77.886 77.766 77.808 77.738 77.9 77.739 77.641 77.411 78.571 89.809 93.762 95.416 95.091 94.383 93.148 90.822 82.728 84.008 85.483 85.782 86.503 80.89 84.634 78.816 79.681 81.205 83.04 80.867 79.876 84.511 81.577 77.56 74.303 74.102 74.189 74.163 74.161 73.891 73.798 73.685 73.4 74.239 74.905 74.454 77.785 79.917 79.635 77.918 77.023 82.456 83.873 84.289 85.303 85.484 82.808 82.498 82.356 81.241 82.068 83.689 80.079 85.576 83.842 84.564 83.155 81.141 76.212 77.297 71.329 71.133 71.636 71.923 72.892 72.721 74.353 75.382 75.513 75.938 79.627 80.048 78.522 81.109 81.738 80.969 81.077 82.818 85.73 86.522 88.935 89.053 89.056 88.232 86.203 87.783 88.147 87.603 84.855 82.16 77.917 74.205 72.193 76.155 76.629 79.269 74.724 69.923 67.028 71.781 72.768 70.189 67.984 71.393 62.766 68.024 63.981 70.078 72.336 72.418 69.449 72.247 68.23 58.56 67.079 68.244 59.589 63.282 52.672 66.295 65.924 57.242 64.988 65.007 66.293 65.601 56.715 46.986 51.452 53.64 57.696 55.269 56.948 55.478 53.831 47.323 51.129 45.076 54.772 53.807 43.055 49.578 42.204 42.701 37.034 36.961 36.903 36.927 36.927 40.899 43.569 47.612 49.317 46.021 41.931 46.689 42.23 38.621 37.872 37.778 37.684 37.594 37.593 37.601 37.606 37.543 37.668 37.505 37.528 37.492 37.465 37.348 37.375 37.347 37.404 37.366 37.434 37.424 37.435 37.36 37.265 37.253 37.199 38.673 37.206 37.151 37.866 37.365 37.111 37.058 37.11 36.985 37.097 38.839 37.112 36.97 36.965 36.963 38.914 40.911 40.977 40.771 40.681 40.801 40.967 40.712 40.021 36.935 36.755 36.724 36.796 36.784 36.766 36.739 36.677 36.695 36.705 36.652 36.655 36.683 36.539 36.542 36.567 36.523 36.521 36.532 36.452 36.481 36.418 36.444 36.382 36.382 36.356 36.378 36.364 36.325 36.414 36.312 36.351 36.349 36.405 36.738 37.127 37.275 36.634 36.505 36.451 36.389 36.387 36.323 36.507 36.368 36.445 37.09 36.54 36.739 42.806 39.662 36.993 41.105 43.966 43.849 41.815 43.556 45.497 42.979 47.235 45.138 43.835 42.976 42.824 42.924 43.242 43.254 43.132 43.957 46.342 43.333 41.619 40.785 40.609 40.096 39.889 39.414 40.43 39.163 39.173 39.072 39.045 41.33 39.812 39.85 39.683 39.299 39.207 37.984 38.801 36.396 37.076 37.196 37.419 37.186 36.555 35.606 35.51 36.02 35.483 35.023 36.265 36.929 36.788 35.599 35.337 36.039 35.767 35.052 33.996 33.518 33.299 33.336 33.522 34.161 34.409 35.022 35.82 34.728 37.819 38.117 33.928 36.811 36.175 39.63 39.76 37.305 35.617 34.921 34.896 34.877 34.863 35.057 34.82 34.765 34.814 37.945 35.775 39.786 39.767 34.991 34.85 34.923 34.954 37.043 36.45 38.707 39.622 35.603 36.001 36.021 36.162 38.192 38.742 37.964
88.259 78.015 79.316 75.269 75.163 75.006 74.87 74.749 74.786 74.641 74.696 74.694 74.686 74.779 74.862 74.922 75.02 74.988 75.03 75.082 75.094 75.137 75.265 75.309 75.354 75.368 75.475 84.645 89.094 86.4 83.454 82.573 85.173 84.17 83.804 84.622 90.368 93.141 95.732 97.472 98.353 98.641 97.664 97.491 82.794 79.387 77.501 77.703 77.915 77.966 77.984 77.942 78.034 78.033 78.288 78.143 78.256 78.222 78.32 78.253 78.287 78.444 78.286 78.274 78.381 78.365 78.307 78.36 78.349 78.241 78.175 77.953 78.68 83.594 94.342 94.715 91.657 89.628 90.994 90.517 86.447 87.666 85.556 85.567 82.191 86.964 83.669 82.482 80.495 81.51 80.142 84.294 85.424 82.593 79.989 75.508 74.845 74.639 74.66 74.74 74.466 74.506 74.351 74.212 73.954 74.228 75.836 75.964 76.241 83.095 85.571 82.931 83.421 83.58 84.519 84.672 84.809 82.661 84.888 84.214 79.332 83.402 83.545 82.468 82.207 84.812 82.909 83.305 82.498 83.38 81.713 74.217 73.793 72.079 72.248 72.975 73.676 73.359 73.608 74.617 76.031 75.953 76.481 78.631 81.366 81.573 80.236 80.186 81.353 84.085 85.703 88.093 89.345 89.862 90.018 89.227 88.185 87.996 88.773 88.214 87.09 79.335 75.546 75.661 81.6 83.281 83.234 80.136 79.938 72.938 72.587 71.643 65.66 71.726 79.348 79.871 80.043 78.157 74.283 76.998 68.801 69.313 72.298 71.297 60.106 64.088 64.756 66.11 57.895 70.438 69.775 69.656 67.782 68.168 69.178 65.669 64.98 61.245 51.594 56.297 50.141 51.156 60.242 57.132 56.874 51.543 51.349 52.771 50.53 52.988 55.969 56.249 53.494 54.56 54.871 53.305 46.579 41.286 38.314 36.859 36.871 36.831 38.654 40.787 48.153 46.693 45.175 41.918 46.868 39.554 38.126 37.897 37.788 37.74 37.563 37.523 37.576 37.506 37.475 37.497 38.615 37.527 37.393 37.407 37.356 37.3 37.359 37.387 37.388 37.388 37.434 37.22 37.188 37.212 37.186 37.16 37.115 37.119 37.132 37.262 37.818 37.139 37.1 36.996 37.09 36.991 36.967 37.027 36.975 38.928 40.338 40.736 40.763 41 40.761 40.724 40.828 41.08 40.817 40.671 36.797 36.746 36.768 36.727 36.686 36.683 36.707 36.641 36.655 36.688 36.561 36.703 36.653 36.557 36.482 36.53 36.504 36.511 36.43 36.461 36.448 36.386 36.362 36.352 36.303 36.361 36.278 36.306 37.269 36.429 36.318 36.32 36.295 36.282 36.543 36.72 36.872 36.522 36.407 36.35 36.407 36.364 36.44 36.376 36.411 36.392 36.83 40.043 51.993 40.111 36.9 41.401 42.959 42.572 41.303 41.758 44.407 48.426 50.246 48.786 45.749 43.017 43.385 43.087 42.893 43.005 43.046 44.795 48.671 46.84 43.555 41.675 41.061 40.524 40.182 39.921 40.286 39.813 39.143 39.272 39.098 39.12 39.716 40.491 41.986 39.449 39.268 39.307 39.191 39.164 38.804 38.67 38.617 38.396 37.876 37.241 37.72 38.848 39.948 36.687 38.869 39.261 38.329 38.484 37.177 36.155 34.964 35.078 34.574 33.588 33.302 33.639 34.346 35.55 35.616 35.278 35.168 34.699 36.469 38.195 35.089 37.788 40.116 40.786 40.434 41.632 37.5 34.595 34.596 34.559 34.647 34.77 34.858 34.748 34.69 34.771 34.862 37.053 35.443 34.838 34.888 34.971 34.929 35.086 35.2 35.333 35.839 35.579 37.189 36.169 35.837 36.787 38.003 35.819
80.283 78.305 75.889 75.534 75.355 75.24 75.194 75.086 75.088 75.067 75.01 75.101 75.095 75.152 75.201 75.224 75.305 75.364 75.392 75.434 75.481 75.513 75.553 75.613 75.675 76.223 85.45 89.609 90.767 88.601 87.849 91.976 90.106 91.563 90.935 83.833 83.41 89.04 95.844 97.056 96.909 94.667 84.881 86.816 82.247 80.268 88.024 78.7 78.239 78.444 78.553 78.576 78.638 78.526 78.653 78.722 78.714 78.751 78.858 78.76 78.812 78.894 78.794 78.737 78.916 78.779 78.888 78.935 79.006 78.927 78.844 78.614 78.377 84.457 91.303 92.645 94.818 90.844 90.502 88.319 86.459 87.663 87.207 87.456 85.325 88.176 86.024 80.938 80.234 83.892 85.191 86.42 87.879 85.361 79.74 75.981 75.601 75.271 75.349 75.2 75.159 74.964 74.906 74.787 74.647 74.512 74.738 75.865 74.742 81.724 82.961 85.947 85.336 85.416 83.225 81.15 83.212 84.634 85.698 85.294 79.108 85.563 84.059 84.997 85.779 84.528 85.604 84.905 83.721 82.917 83.088 77.179 73.549 72.565 73.053 73.277 74.009 74.195 74.233 74.755 75.184 76.236 76.923 78.498 79.935 83.735 80.825 83.387 84.051 84.699 86.311 87.921 88.919 89.545 89.833 88.517 87.018 87.783 88.975 87.927 85.706 77.066 72.228 85.576 83.443 84.337 85.327 85.41 83.059 72.445 66.091 66.333 66.377 78.923 81.526 77.268 82.524 74.566 78.352 79.037 77.259 67.681 66.279 63.377 62.855 62.757 68.23 61.217 74.325 76.811 76.122 73.213 72.05 59.636 68.839 64.664 61.567 57.388 59.093 45.574 56.545 57.097 63.58 62.721 61.087 53.05 56.086 46.622 53.512 54.559 55.598 55.88 54.513 55.666 56.056 53.262 54.674 46.968 37.082 36.833 36.853 36.866 36.917 41.86 41.393 48.432 48.011 44.891 50.407 41.036 38.58 38.105 37.924 37.78 37.743 37.626 37.512 37.486 37.534 37.481 37.453 37.955 37.427 37.399 37.32 37.371 37.338 37.444 37.396 37.397 37.286 37.218 37.217 37.211 37.215 37.161 37.166 37.122 37.066 37.108 37.069 37.067 36.984 37.062 37.269 37.048 36.995 36.98 36.988 39.035 41.033 40.784 40.777 40.794 40.826 40.958 40.708 40.743 40.625 37.24 36.765 36.763 36.745 36.716 36.688 36.736 36.64 36.627 36.637 38.183 36.635 36.624 36.607 36.592 36.548 36.456 36.509 36.51 36.468 36.484 36.454 36.347 36.359 36.398 36.278 36.329 36.277 36.296 36.275 36.666 36.631 36.282 36.294 36.272 36.246 36.232 36.509 36.648 36.453 36.365 36.387 36.391 36.337 36.446 36.367 36.3 36.403 40.337 38.782 41.36 37.496 39.428 45.22 46.613 42.872 41.708 45.212 47.991 49.254 48.355 46.445 46.001 45.396 45.577 43.476 42.999 42.966 42.985 45.653 45.983 44.934 42.825 41.913 41.167 40.882 39.76 40.734 42.063 40.461 39.857 40.109 39.323 36.855 38.864 42.212 40.858 39.343 39.34 39.266 39.252 39.246 39.154 39.388 39.245 39.182 38.359 40.223 41.979 42.097 38.741 40.815 43.406 42.922 42.209 41.095 40.76 35.022 35.292 34.369 33.591 33.267 33.65 34.978 35.418 34.927 35.095 34.858 34.519 34.903 37.892 36.824 33.829 39.723 40.1 42.139 40.506 35.697 34.287 34.387 34.517 34.561 34.636 34.704 34.748 34.622 34.647 34.724 34.738 35.111 34.812 34.854 35.381 34.939 35.068 37.142 36.011 35.756 36.297 35.848 36.056 36.506 35.786 36.321 35.623
80.347 80.516 78.111 75.707 75.618 75.477 75.442 75.356 75.311 75.325 75.425 75.345 75.454 75.422 75.492 75.579 75.598 75.656 75.725 75.684 75.806 75.868 75.881 75.954 76.073 82.322 89.233 93.939 91.478 97.589 98.869 93.938 94.715 94.59 88.811 91.401 83.218 91.805 96.226 97.578 97.896 93.3 80.837 89.922 89.96 92.029 86.954 84.267 79.028 78.812 78.933 79.083 79.071 79.189 79.147 79.172 79.384 79.505 79.249 79.286 79.273 79.415 79.388 79.33 79.324 79.45 79.447 79.552 79.526 79.553 79.523 79.381 79.251 79.003 80.937 89.494 88.405 89.223 90.172 82.801 83.987 86.28 86.611 87.683 88.336 86.457 81.545 84.586 84.273 86.578 88.523 88.759 88.277 83.426 81.602 79.924 77.376 75.809 75.836 75.78 75.78 75.628 75.484 75.29 75.213 75.106 74.99 76.777 75.889 75.817 81.476 83.783 85.385 86.118 85.981 86.193 84.657 85.48 86.469 84.753 86.486 79.844 79.172 85.361 85.156 83.096 86.294 86.558 83.97 82.814 83.203 82.13 75.462 73.245 73.547 73.792 74.14 74.777 75.281 75.709 76.11 75.887 75.732 78.35 83.724 80.743 83.632 85.323 83.866 84.822 86.248 87.539 87.325 88.022 88.752 86.735 80.8 83.988 87.622 87.271 84.575 77.809 83.815 84.205 79.063 87.748 87.48 86.358 85.625 82.673 75.753 74.398 77.291 81.097 83.424 83.707 83.589 82.93 78.423 80.206 78.673 64.68 62.102 62.153 60.169 61.548 69.461 73.793 78.061 79.538 78.462 76.354 72.044 67.123 69.621 68.975 65.367 65.688 64.315 66.092 62.199 62.779 63.691 64.421 58.596 53.068 48.614 53.48 54.649 55.57 55.421 54.353 52.019 55.831 56.501 47.11 54.945 39.12 43.315 37.051 36.872 36.843 36.874 36.929 38.092 44.433 43.99 48.105 48.346 47.463 45.683 39 39.387 37.904 37.838 37.699 37.615 37.443 37.504 37.454 37.492 37.428 37.679 38.213 37.507 37.456 37.421 37.435 37.386 37.319 37.189 37.163 37.209 37.208 37.131 37.108 37.145 37.092 37.151 37.101 37.023 37.036 37.036 37.79 37.026 37.019 36.998 37.089 39.726 40.727 40.737 40.765 40.889 40.744 40.749 40.843 40.989 40.663 38.55 36.806 36.751 36.742 36.711 36.746 36.711 36.696 36.697 36.66 37.975 36.647 36.58 36.62 36.548 36.457 36.507 36.485 36.487 36.425 36.418 36.424 36.435 36.333 36.404 36.338 36.326 36.261 36.297 36.293 36.284 36.235 36.268 36.304 36.278 36.203 36.242 36.211 36.226 36.225 36.435 36.429 36.341 36.363 36.347 36.353 36.233 36.368 36.401 38.599 36.601 38.066 36.896 43.225 46.744 48.498 47.195 45.793 42.842 42.654 48.267 49.322 47.903 49.539 49.667 47.187 46.595 43.945 43.025 45.194 48.533 44.95 44.5 43.048 42.883 42.607 42.662 43.448 44.395 44.233 44.025 41.877 37.646 36.21 34.278 34.34 36.957 41.111 41.802 40.921 39.68 39.336 39.315 39.224 39.099 39.158 39.522 39.315 39.359 41.052 42.17 38.755 39.438 43.674 42.109 43.109 40.885 37.46 34.963 35.202 34.767 33.7 33.392 33.379 34.525 35.571 35.65 34.853 34.778 34.785 34.496 34.508 36.396 35.623 37.522 40.829 40.948 39.833 35.722 34.741 34.675 34.647 34.669 34.653 34.708 34.707 34.741 34.74 34.733 34.792 34.779 34.741 34.756 34.763 34.905 34.923 35.032 35.24 35.283 35.429 36.503 36.009 35.738 35.908 35.664 35.551
84.275 87.776 80.238 76.183 75.794 75.724 75.713 75.696 75.675 75.638 75.692 75.682 75.692 75.829 75.83 75.964 75.968 75.943 75.997 76.078 76.154 76.213 76.172 76.338 76.379 82.717 92.591 97.153 98.44 99.925 99.797 100.22 97.109 97.887 95.954 86.129 94.414 92.253 95.111 97.737 96.975 88.643 92.599 97.239 98.933 99.074 99.704 91.069 81.683 79.106 79.288 79.616 79.657 79.599 79.63 80.578 83.737 86.544 82.409 79.97 79.667 79.799 79.83 79.861 79.847 79.902 79.908 79.887 80.05 80.151 80.105 79.91 79.885 79.73 79.735 81.876 82.485 86.918 83.014 82.474 84.697 85.363 85.376 85.037 87.409 85.75 82.819 81.741 85.127 86.844 88.432 86.675 85.502 79.947 80.046 84.519 80.997 76.567 76.391 76.39 76.487 76.143 76.024 75.967 75.77 75.729 75.598 75.866 75.39 78.547 83.83 86.896 86.765 86.315 82.464 81.588 87.07 85.276 80.596 87.465 85.688 84.604 83.885 75.691 83.915 85.138 86.037 86.718 83.336 80.872 78.154 76.856 77.683 73.844 74.016 74.244 74.448 74.76 75.06 75.479 75.704 75.835 75.904 76.466 80.735 82.631 83.593 84.056 80.33 85.38 84.899 85.22 85.707 84.11 82.392 79.379 76.937 74.421 80.574 84.226 82.98 76.022 85.656 87.706 87.78 88.255 88.042 86.736 86.219 83.208 79.349 69.664 63.875 81.267 83.382 84.332 83.632 78.126 81.789 82.521 79.51 70.934 65.718 68.939 68.286 69.883 70.019 73.032 74.303 76.722 78.953 78.027 71.325 53.491 64.337 73.12 74.614 74.547 71.661 68.395 65.132 62.757 65.94 61.016 63.749 58.586 50.071 61.386 61.789 56.435 53.646 54.062 47.095 55.449 56.941 47.428 52.651 44.67 44.881 38.938 36.82 40.129 38.271 37.021 36.871 37.71 41.068 47.091 45.727 45.745 43.895 40.49 38.907 38.309 38.012 37.851 37.78 37.746 37.488 37.429 37.458 37.381 37.446 37.342 38.472 37.466 37.382 37.405 37.4 37.255 37.189 37.201 37.183 37.119 37.14 37.104 37.091 37.043 37.06 36.999 37.015 37.059 38.182 37.081 36.985 36.994 36.97 37.012 40.676 41.057 40.8 40.726 40.747 41 40.817 40.699 40.742 38.639 36.811 36.767 36.729 36.693 36.655 36.659 36.652 36.765 36.69 36.719 37.11 36.605 36.577 36.595 36.627 36.518 36.486 36.468 36.455 36.464 36.409 36.455 36.388 36.427 36.415 36.387 36.357 36.296 36.309 36.282 36.293 36.229 36.271 36.27 36.272 36.251 36.222 36.208 36.207 36.219 36.163 36.244 36.4 36.256 36.28 36.313 36.188 36.306 36.36 36.411 38.108 37.353 36.702 42.32 46.83 48.13 48.239 48.879 47.163 45.041 47.962 48.512 48.253 49.318 49.596 47.619 48.682 44.464 47.393 49.001 50.49 50.601 48.465 43.202 43.127 44.295 47.061 47.984 45.256 47.911 43.653 36.638 35.009 34.358 34.333 38.579 39.558 39.011 39.523 40.043 41.517 39.866 39.699 39.23 39.246 39.103 39.148 39.333 39.268 39.337 39.158 39.059 38.867 39.111 38.878 39.571 38.468 37.668 35.962 35.651 34.645 34.649 33.476 33.587 40.086 41.093 40.774 39.039 36.643 35.085 34.588 34.62 34.572 35.941 36.658 34.444 34.462 35.567 34.565 34.893 34.947 34.954 34.945 34.82 34.658 34.649 34.709 34.769 34.748 34.828 34.785 34.77 34.837 38.993 34.996 34.892 35.021 35.091 35.206 35.259 35.423 35.534 35.859 35.646 35.615 35.543
86.986 82.726 82.54 78.053 76.084 76.015 75.98 75.984 76.008 76.003 76.027 76.08 75.994 76.167 76.162 76.179 76.274 76.454 76.551 76.57 76.446 76.519 76.6 76.781 76.88 84.926 89.917 97.344 98.847 99.799 100.943 100.618 99.806 97.281 89.593 97.793 99.254 98.117 95.753 92.038 87.796 84.853 91.957 98.105 100.211 100.177 100.99 100.346 89.42 79.886 79.626 79.903 80.116 80.105 80.916 94.052 94.277 91.909 91.183 83.656 80.226 80.278 80.348 80.299 80.362 80.465 80.31 80.469 80.545 80.619 80.617 80.612 80.582 80.424 80.329 80.291 80.276 80.654 80.16 82.307 83.967 84.677 85.051 84.473 84.983 82.19 85.794 89.494 87.787 84.982 84.523 79.996 79.909 85.042 86.601 86.892 86.456 79.949 77.204 76.896 77.007 76.808 76.6 76.691 76.533 76.412 76.258 76.46 77.289 82.491 86.845 87.033 85.942 87.611 87.504 86.228 87.99 87.736 85.757 88.353 78.858 86.457 86.857 86.735 85.3 83.469 79.222 84.746 81.268 80.974 78.664 78.908 75.451 74.28 74.554 75.191 75.334 75.264 75.679 75.948 76.168 76.391 76.384 76.752 77.457 77.193 80.812 83.139 85.194 85.036 84.647 84.974 84.302 83.516 75.99 80.652 70.112 73.2 74.537 71.546 72.999 75.65 82.956 87.051 87.037 87.068 88.337 75.888 86.064 68.684 78.282 76.213 77.14 79.59 81.183 83.282 78.831 83.196 83.958 82.042 76.587 71.599 65.363 75.123 75.5 71.361 71.384 74.461 78.717 76.393 78.807 77.034 71.12 54.272 67.872 75.721 75.588 75.473 74.7 72.351 66.7 66.917 61.632 55.205 65.069 67.649 62.689 61.065 58.455 54.049 46.431 54.099 53.783 55.818 55.348 53.783 43.093 50.382 49.542 44.189 42.37 45.153 43.897 37.941 36.882 38.719 38.546 39.087 45.085 41.404 43.971 46.979 39.433 38.765 38.326 38.003 37.781 37.68 37.644 37.484 37.427 37.384 37.422 37.385 37.381 37.859 37.445 37.396 37.281 37.207 37.18 37.166 37.126 37.167 37.076 37.115 37.049 37.008 37.036 37.012 37.07 37.064 37.034 36.967 36.981 37.005 37.044 40.333 40.738 40.74 40.87 40.839 40.758 40.692 40.851 40.925 40.652 37.177 36.773 36.755 36.699 36.707 36.754 36.72 36.71 36.706 36.748 37.023 36.563 36.587 36.532 36.531 36.506 36.508 36.47 36.436 36.403 36.412 36.438 36.404 36.34 36.362 36.408 36.386 36.371 36.33 36.323 36.315 36.304 36.403 36.238 36.346 36.989 36.205 37.259 36.246 36.19 36.187 36.157 36.096 36.193 36.563 36.292 36.339 36.331 36.23 36.324 36.258 36.394 36.39 36.65 42.809 41.762 46.786 47.656 47.156 49.034 48.17 48.416 47.984 47.598 47.526 45.766 44.743 45.469 47.563 49.863 49.808 50.978 50.854 48.668 43.817 43.245 44.149 46.414 46.939 47.259 40.648 35.896 34.43 34.388 34.336 39.488 45.427 45.129 40.49 39.227 38.979 40.275 41.051 39.357 39.379 39.244 39.253 39.31 39.09 39.296 39.431 39.197 39.509 39.112 39.06 38.776 38.73 38.534 37.896 38.263 38.768 38.478 38.053 33.829 37.705 43.177 44.128 46.17 46.992 45.487 38.023 36.211 34.769 38.091 38.005 34.041 34.038 34.118 34.512 34.839 34.986 35.013 35.04 35.009 35.028 34.992 34.78 34.795 34.738 34.754 34.789 34.817 34.836 34.823 35.749 34.868 34.896 35.01 35.821 35.483 36.274 37.166 38.261 35.687 35.592 35.686 35.552
92.657 91.364 87.836 80.704 76.427 76.256 76.269 76.312 76.334 76.318 76.275 76.365 76.355 76.433 76.549 76.552 76.912 77.095 77.041 77.147 76.921 76.956 76.966 77.132 77.238 78.327 90.208 96.884 99.3 99.292 100.539 99.589 87.958 98.997 99.351 99.601 99.51 97.825 90.344 87.921 86.709 85.396 90.987 98.252 100.411 100.129 100.369 100.468 92.358 81.989 80.046 80.32 80.465 80.825 91.847 94.561 98.271 97.86 92.71 82.8 80.616 80.718 80.781 80.805 80.803 80.926 80.866 80.913 80.886 81.027 81.079 81.081 80.909 80.947 80.914 80.834 80.836 80.75 80.575 80.451 81.337 84.048 85.882 87.014 84.922 85.189 89.454 85.692 84.986 84.526 86.332 84.96 87.401 88.603 89.036 88.043 86.509 84.092 78.306 77.555 77.535 77.454 77.249 77.084 77.019 77.017 76.918 76.883 77.717 81.109 85.427 83.236 86.851 87.201 88.395 86.967 86.869 89.209 85.714 86.823 85.169 85.521 87.405 86.792 84.654 79.22 85.674 85.47 85.542 86.135 86.521 83.223 78.648 82.878 83.19 80.052 82.168 78.217 76.09 76.379 76.583 76.8 76.916 77.219 77.364 77.55 77.662 84.228 81.557 85.166 85.889 84.517 85.167 83.551 81.161 80.223 75.121 70.867 71.893 71.315 74.573 76.243 81.269 85.134 85.632 85.501 85.187 84.367 73.954 80.417 83.062 83.545 82.069 80.518 79.663 68.829 67.014 76.314 74.516 83.33 80.532 73.927 71.385 76.313 72.898 72.19 73.89 72.047 73.165 78.776 77.86 71.853 68.264 69.846 75.024 77.918 77.02 75.516 75.413 74.271 57.472 67.831 63.603 64.094 68.251 69.797 69.747 66.94 61.927 53.559 42.829 53.99 51.978 51.98 46.929 55.333 56.449 54.654 54.047 50.256 47.961 48.909 50.801 43.225 46.221 42.138 37.049 37.574 37.293 38.056 42.974 43.207 42.778 42.033 38.81 38.457 37.978 37.794 37.651 37.48 37.38 37.413 37.361 37.383 37.382 37.3 37.392 38.442 37.314 37.141 37.198 37.121 37.111 37.146 37.134 37.048 37.05 37.023 37.101 37.189 38.149 37.668 37.026 36.957 36.982 37.034 38.953 40.749 41.086 40.854 40.742 40.753 41.019 40.824 40.697 40.758 37.868 36.761 36.77 36.676 36.757 36.673 36.732 36.695 36.685 36.644 36.614 36.596 36.613 36.563 36.52 36.531 36.496 36.494 36.531 36.475 36.414 36.372 36.335 36.472 36.42 36.308 36.365 36.293 36.291 36.33 36.254 36.267 36.311 36.294 36.279 36.275 36.138 36.237 36.203 37.656 36.172 36.15 36.135 36.14 36.108 36.113 36.256 36.389 36.324 36.372 36.269 36.23 36.32 36.341 38.323 43.019 43.525 45.621 47.437 47.733 46.598 46.88 45.716 49.005 49.299 45.809 46.853 44.545 45.066 48.153 49.993 49.385 50.595 49.257 49.705 44.22 43.085 43.101 43.318 43.97 37.811 34.967 34.402 34.409 34.613 42.411 46.234 47.425 46.326 45.958 44.293 39.168 38.982 39.145 41.774 40.467 39.606 39.345 39.28 39.292 39.081 39.123 39.174 39.558 39.396 39.407 39.215 39.09 38.819 38.663 40.452 42.099 44.245 44.023 38.144 41.275 42.912 45.282 48.431 48.588 47.948 46.421 37.755 38.651 39.788 40.844 37.581 35.016 34.543 34.745 34.919 34.943 34.962 34.981 34.965 34.985 35 35.021 35.031 34.885 34.828 34.794 34.786 34.789 34.774 34.793 34.818 34.857 35.032 35.139 35.352 35.575 37.256 37.309 36.422 38.154 36.602 35.549
92.269 91.808 87.986 81.901 76.829 76.565 76.574 76.601 76.61 76.679 76.676 76.698 76.781 77.029 76.874 76.971 77.252 77.198 77.197 77.314 77.643 77.494 77.528 77.59 77.958 88.628 90.665 94.706 99.029 100.185 99.749 99.713 101.045 101.911 101.467 102.095 101.717 99.005 89.288 86.607 86.402 84.649 91.292 97.809 99.521 99.543 100.312 100.074 90.522 84.331 80.438 80.661 80.805 89.059 98.65 100.651 100.449 99.561 99.006 92.507 83.474 81.166 81.217 81.316 81.22 81.305 81.312 81.225 81.26 81.38 81.436 81.342 81.245 81.22 81.198 81.132 81.157 81.113 81.093 80.89 80.947 83.318 85.736 83.755 86.024 88.946 90.619 91.956 92.079 89.193 90.391 89.911 84.192 88.794 89.914 88.769 89.26 87.413 81.007 78.114 78.117 78.139 77.947 77.83 77.535 77.625 77.341 77.368 77.261 77.866 81.133 84.365 85.487 85.583 88.066 81.982 88.566 88.702 86.785 86.76 86.588 85.426 87.704 86.453 80.1 85.64 87.239 87.924 81.738 81.5 88.396 89.026 88.249 89.296 93.001 90.159 87.242 76.891 76.734 76.918 77.185 77.287 77.467 77.672 77.89 78.06 78.158 81.429 84.485 85.891 86.002 79.507 85.043 84.283 85.775 85.29 81.594 77.249 70.596 76.258 78.13 79.039 79.497 81.093 82.162 83.61 81.035 73.762 68.821 80.444 86.079 86.15 85.055 69.699 71.602 73.708 78.442 70.845 77.046 79.54 75.382 63.306 61.835 72.237 64.627 69.178 57.96 60.62 60.834 59.882 73.172 68.969 68.996 72.004 77.46 78.252 77.907 76.695 75.851 75.276 71.072 55.627 69.858 67.797 69.256 69.831 62.204 64.743 56.453 55.088 54.593 51.961 46.304 52.189 54.093 55.771 56.723 57.506 56.923 54.687 50.183 47.972 52.686 53.984 49.695 42.837 37.74 36.945 36.858 37.62 40.221 39.693 45.031 39.941 41.974 39.757 38.561 38.173 37.663 37.441 37.413 37.413 37.408 37.378 37.302 37.349 37.304 37.308 37.26 37.959 37.184 37.25 37.166 37.134 37.19 37.031 37.048 37.25 37.605 37.127 36.99 37.037 37.001 37.044 37.031 37.068 40.345 40.682 40.769 40.87 40.74 40.747 40.762 40.939 40.752 38.597 36.746 36.791 36.695 36.737 36.695 36.713 36.677 36.651 36.672 36.691 36.613 36.544 36.594 36.547 36.546 36.471 36.482 36.472 36.41 36.425 36.424 36.326 36.398 36.395 36.479 36.375 36.34 36.289 36.313 36.3 36.289 36.291 36.306 36.329 36.327 36.301 36.198 36.187 36.21 36.193 36.116 36.138 36.18 36.125 36.056 36.067 36.02 36.166 36.55 36.475 36.311 36.254 36.252 36.153 36.21 43.224 43.453 44.788 41.01 41.541 48.93 45.072 44.49 50.674 49.216 49.205 48.478 46.426 47.972 48.123 49.561 48.443 49.58 49.291 47.946 44.103 43.166 43.191 43.301 43.467 37.958 36.232 34.434 34.664 40.836 45.611 47.458 48.121 46.845 46.62 45.738 43.508 40.177 38.987 39.667 40.059 41.526 40.482 39.301 39.301 39.262 39.173 39.185 39.469 39.444 39.581 39.542 39.312 39.131 38.897 40.336 43.917 47.31 47.247 39.634 39.663 43.936 45.855 48.246 48.627 48.238 44.954 42.372 39.945 40.025 40.053 37.994 34.888 34.46 34.753 34.961 34.956 34.935 34.952 35.014 35.016 34.988 35.084 35.03 34.989 34.995 34.848 34.742 34.717 34.756 34.799 34.772 34.807 35.042 35.893 36.392 37.232 39.802 35.991 35.958 38.12 36.762 35.603
91.963 91.248 84.064 78.814 77.034 76.909 76.882 76.906 76.965 76.936 77.045 77.182 77.392 77.405 77.442 77.563 77.699 77.488 77.593 77.752 77.983 78.047 78.094 78.069 86.503 92.378 93.639 96.564 99.29 98.455 101.051 100.634 101.909 101.948 102.889 102.459 101.811 95.087 88.693 85.331 87.276 86.53 87.286 94.249 97.148 98.12 99.997 100.473 96.968 82.844 80.856 80.926 81.367 94.779 100.656 101.661 102.433 101.53 101.487 100.088 89.107 81.567 81.688 81.59 81.65 81.655 81.636 81.627 81.601 81.732 81.788 81.655 81.51 81.527 81.357 81.403 81.307 81.297 81.181 81.182 81.181 82.757 84.206 84.756 84.741 87.151 90.647 88.743 89.803 90.513 89.763 90.914 89.88 89.523 89.95 90.937 87.889 88.266 85.171 79.542 78.743 78.612 78.615 78.573 78.492 78.241 78.152 78.157 78.125 78.267 78.695 82.608 84.954 87.291 87.708 87.43 89.22 87.456 83.14 87.339 87.213 87.089 87.515 85.224 86.607 87.996 86.236 87.667 88.8 89.018 88.551 82.195 91.536 93.121 93.285 91.862 81.7 83.367 79.744 77.45 77.719 77.858 78.039 78.315 78.531 78.53 78.644 80.338 85.19 86.124 85.746 85.855 86.124 85.353 84.877 85.66 83.578 79.79 75.249 77.995 80.143 79.748 77.441 71.828 74.463 78.156 71.039 70.739 77.469 84.279 85.984 86.092 85.931 74.032 78.626 81.676 68.573 70.905 70.134 80.271 76.634 69.498 70.422 68.529 63.078 57.415 58.74 55.65 55.396 61.167 59.335 58.381 67.898 77.547 77.547 78.627 78.42 77.315 76.443 74.552 63.452 72.144 66.593 65.228 70.537 67.959 68.961 68.324 62.868 60.595 58.555 46.508 48.695 51.875 57.718 57.439 56.914 57.25 53.396 55.272 53.736 51.471 55.187 53.608 52.009 49.303 40.578 37.786 36.852 36.875 37.037 37.466 38.755 44.581 45.062 44.292 39.302 39.232 37.567 37.479 37.524 37.574 37.479 37.502 37.327 37.328 37.336 37.246 37.27 37.259 38.46 37.175 37.132 37.072 37.137 37.026 37.05 37.466 37.041 37.086 37.035 37.028 37.033 37.319 37.537 40.277 40.727 40.729 40.767 40.733 40.756 40.864 40.783 40.734 40.683 36.844 36.786 36.749 36.72 36.715 36.662 36.645 36.634 36.673 36.692 37.019 36.628 36.647 36.574 36.571 36.527 36.539 36.507 36.447 36.416 36.43 36.419 36.407 36.346 36.303 36.377 36.454 36.28 36.28 36.286 36.245 36.302 36.328 36.311 36.283 36.268 36.319 36.664 36.201 36.138 38.476 36.33 36.159 36.106 36.099 36.055 36.068 36.06 35.997 36.133 36.361 36.391 36.29 36.122 36.172 41.578 44.012 42.641 43.758 39.792 37.167 38.554 45.281 41.258 46.093 41.715 48.045 47.602 46.845 46.784 49.755 48.472 48.744 49.666 48.634 47.685 44.883 43.666 43.368 43.517 43.443 43.371 41.845 38.154 42.256 45.56 47.72 48.168 45.492 46.577 46.679 48.272 47.318 41.759 39.523 39.201 38.966 41.27 41.17 42.254 39.456 39.217 39.385 39.243 39.214 39.239 39.468 39.486 39.451 39.243 39.07 38.972 42.319 45.459 40.467 43.895 45.057 44.496 45.785 46.715 48.124 47.819 46.835 40.864 46.057 46.267 43.933 36.008 34.354 34.417 34.514 34.798 34.895 34.924 34.89 34.92 34.97 34.979 35.013 35.031 35.08 34.98 34.997 34.95 34.774 34.749 34.86 34.76 34.854 35 35.3 35.736 36.925 36.446 36.084 36.221 36.169 37.521 38.915
88.724 87.865 81.58 77.501 77.367 77.247 77.153 77.22 77.284 77.303 77.417 77.727 77.492 77.538 77.787 78.046 78.171 78.447 78.495 78.591 78.486 78.476 78.56 87.395 91.988 94.758 94.578 96.802 99.887 89.557 101.404 102.404 102.438 102.999 103.467 103.422 101.879 99.277 97.68 94.144 92.804 85.976 88.112 89.852 89.846 98.167 99.605 90.106 83.233 81.482 81.496 81.357 81.491 94.238 101.78 102.023 102.851 102.579 102.193 97.11 86.823 82.033 82.07 82.011 81.991 82.066 81.967 81.951 81.953 82.022 82.054 81.972 81.947 81.748 81.656 81.521 81.49 81.37 81.37 81.281 81.292 81.182 81.584 81.974 81.223 84.621 88.014 88.498 90.649 90.465 89.825 89.885 89.532 89.378 90.48 89.8 89.308 88.189 86.488 80.211 79.371 79.373 79.413 79.304 79.147 78.984 78.914 78.806 78.687 78.459 79.931 82.587 85.816 89.702 89.58 87.418 88.365 87.372 87.772 86.5 87.039 87.933 88.272 83.407 88.179 90.684 90.474 92.497 92.689 90.573 87.811 87.352 92.588 93.149 93.447 93.661 93.091 87.334 79.116 78.013 78.304 78.403 78.483 78.869 78.958 79.043 79.061 80.188 84.286 85.161 85.507 86.28 86.794 85.831 86.14 85.883 83.918 81.035 77.211 78.924 79.702 74.988 79.054 75.388 78.845 79.456 73.64 76.1 74.073 75.43 84.105 81.462 78.082 69.293 74.872 70.635 71.562 76.959 82.392 80.151 79.206 78.574 77.908 77.467 73.422 60.117 66.867 59.247 71.684 60.203 62.288 64.808 75.847 78.618 78.322 78.67 77.943 77.791 74.561 61.31 68.961 55.001 55.007 65.127 65.159 67.107 63.49 64.227 59.275 54.654 58.242 56.759 55.652 55.476 56.755 49.536 57.357 56.468 44.517 55.917 48.594 51.938 47.438 51.132 52.022 47.18 42.242 38.993 36.857 36.852 36.839 36.983 41.411 40.554 44.913 41.939 40.294 39.035 37.592 37.542 37.775 37.929 37.616 37.598 37.477 37.298 37.241 37.28 37.264 37.249 37.213 37.468 37.309 38.089 38.068 37.234 37.491 37.328 37.11 37.574 37.07 37.022 36.973 36.979 39.002 40.753 40.847 40.785 40.766 40.817 40.743 40.702 40.759 40.624 37.87 36.725 36.763 36.782 36.738 36.713 36.735 36.67 36.713 36.685 36.585 36.611 36.583 36.612 36.523 36.531 36.461 36.469 36.465 36.443 36.415 36.444 36.405 36.389 36.325 36.366 36.433 36.335 36.26 36.306 36.273 36.215 36.248 36.241 37.826 36.334 37.065 36.216 36.583 36.144 36.173 36.198 37.24 36.084 36.095 36.079 36.07 36.001 36.031 36.014 35.998 36.002 36.141 36.659 36.409 36.205 36.94 39.344 39.336 40.813 42.014 39.14 44.728 44.822 42.539 39.81 41.602 42.859 46.997 47.702 48.219 44.16 43.128 48.193 47.898 47.404 41.688 42.562 43.879 45.151 45.026 43.54 43.498 43.45 43.379 43.611 43.479 47.045 47.621 48.04 47.329 49.299 48.912 47.335 45.807 41.65 43.491 40.756 38.92 39.616 41.45 40.445 39.613 39.28 39.234 39.277 39.146 39.179 39.347 39.404 39.376 39.349 39.289 38.81 43.401 44.323 47.969 49.427 45.689 46.01 44.616 45.846 39.243 49.359 46.134 49.264 48.469 49.722 45.731 43.134 38.987 41.395 34.541 34.667 34.783 34.834 34.901 34.907 34.99 35.039 34.986 34.989 34.956 34.982 35.029 34.955 34.778 34.89 34.744 34.798 34.978 35.287 36.919 36.545 37.469 36.287 36.436 36.538 36.276 39.57
79.707 79.213 78.41 77.709 77.72 77.576 77.447 77.452 77.679 78.041 78.157 78.298 77.889 77.934 78.466 78.695 78.764 79.032 79.182 79.192 79.021 79.137 79.373 90.704 93.316 94.51 95.899 98.106 101.464 102.309 101.633 102.56 102.449 102.42 103.45 103.205 101.581 100.556 97.825 101.545 99.466 87.436 89.929 89.196 88.496 86.242 86.657 81.916 81.862 81.943 81.803 81.666 81.818 95.825 102.08 102.508 102.81 102.807 98.376 99.822 97.582 82.891 82.362 82.341 82.267 82.304 82.277 82.226 82.217 82.245 82.26 82.181 82.122 81.928 81.863 81.789 81.756 81.661 81.606 81.518 81.483 81.415 81.344 81.275 81.138 80.97 82.011 90.875 91.794 85.471 93.354 91.39 90.331 89.457 89.502 88.134 88.036 85.821 84.044 80.663 79.847 80.097 79.904 79.791 79.624 79.617 79.462 79.407 79.265 79.068 79.188 83.804 87.96 90.594 89.629 90.144 87.689 88.059 83.002 83.807 86.914 87.076 86.345 86.294 89.428 90.074 90.518 91.663 91.903 89.886 80.434 87.175 89.841 92.327 93.105 93.765 93.682 91.165 80.402 78.533 78.608 78.818 79.12 79.276 79.417 79.511 79.461 79.436 82.941 82.627 83.706 85.327 80.475 87.29 86.485 85.534 82.879 82.387 77.561 76.31 79.351 78.631 77.371 75.635 82.886 85.13 86.651 87.867 88.525 86.669 85.654 81.886 75.212 80.236 81.195 77.634 70.769 82.764 80.327 84.869 83.685 83.466 83.112 80.378 72.951 71.417 69.677 70.214 77.716 72.509 82.905 81.943 77.982 78.083 77.315 77.103 77.383 77.193 75.077 72.732 64.771 63.84 62.857 52.008 61.917 60.63 67.137 66.882 54.651 50.154 50.34 58.277 60.554 60.45 59.49 58.929 57.356 43.964 54.158 46.512 54.22 50.5 50.777 53.314 52.526 50.063 43.616 41.579 37.031 36.954 36.821 38.359 39.911 37.444 38.662 46.79 45.394 42.133 38.019 38 38.531 38.395 37.852 37.682 37.601 37.47 37.409 37.212 37.228 37.261 37.16 37.191 37.524 37.131 37.136 37.283 37.151 37.138 37.082 37.025 37.274 36.942 37.052 38.981 40.639 40.711 40.765 40.854 40.754 40.738 40.747 40.738 40.722 38.036 36.764 36.743 36.733 36.992 36.761 36.698 36.672 36.664 36.674 36.661 36.656 36.546 36.582 36.587 36.55 36.506 36.482 36.481 36.494 36.404 36.391 36.38 36.408 36.412 36.283 36.336 36.621 36.483 36.294 36.29 36.272 36.243 36.223 36.235 36.314 37.794 38.294 38.274 36.195 36.993 36.079 36.123 36.643 36.115 36.07 36.032 36.145 36.245 36.045 36.009 35.994 35.93 35.975 35.999 36.364 36.442 36.211 36.713 36.06 37.404 42.939 43.684 42.411 43.608 44.169 36.76 37.336 41.118 47.251 48.412 46.858 48.343 47.189 48.16 45.533 39.884 41.686 41.729 35.417 37.129 39.672 43.683 45.353 44.677 45.591 46.87 43.844 44.36 44.974 47.9 47.376 48.362 48.299 47.067 43.628 41.473 45.358 46.655 42.701 39.841 39.747 40.454 40.984 39.964 39.269 39.247 39.263 39.152 39.199 39.327 39.349 39.419 39.596 39.402 41.46 46.996 49.481 50.235 50.331 45.262 38.238 42.713 49.048 50.572 50.502 49.791 49.528 44.139 50.031 51.207 47.59 43.585 37.244 35.43 34.5 34.595 34.704 34.806 34.924 34.937 34.948 34.971 34.934 34.942 34.928 34.923 34.855 34.717 34.648 34.685 36.271 35.947 35.596 37.279 36.716 40.005 38.868 38.143 37.814 39.923
79.963 78.145 78.153 77.912 77.904 77.883 77.794 77.824 78.112 78.457 78.715 78.788 78.985 79.219 79.404 79.257 79.332 79.594 79.568 79.689 79.624 79.535 79.429 84.567 89.643 92.673 93.212 98.966 101.6 102.36 93.475 101.928 101.554 103.189 102.83 103.401 102.818 103.186 102.764 102.527 102.595 94.684 93.73 89.143 89.24 88.118 86.905 82.371 82.349 82.304 82.214 82.016 82.634 93.993 91.38 100.443 102.004 102.705 102.312 100.517 88.855 82.828 82.66 82.609 82.558 82.57 82.587 82.52 82.469 82.516 82.491 82.341 82.32 82.217 82.148 82.133 82.033 81.931 81.862 81.813 81.711 81.607 81.553 81.514 81.397 81.569 91.746 93.528 93.121 94.074 91.742 93.732 88.024 83.956 87.256 87.495 85.095 83.568 80.875 80.367 80.206 80.224 80.373 80.495 80.54 80.61 80.383 80.062 79.996 79.953 80.025 93.093 93.409 95.121 91.775 85.373 85.019 82.75 83.397 84.359 84.904 85.466 84.743 81.375 82.673 86.154 87.263 89.381 89.001 85.692 87.34 86.963 86.924 91.582 92.915 93.53 93.81 91.869 79.833 78.756 78.991 79.182 79.355 79.583 79.706 79.769 79.831 79.783 79.829 79.931 82.813 84.256 86.291 86.932 87.923 80.035 79.006 82.466 75.85 79.453 80.5 84.104 82.674 84.839 85.392 88.448 90.333 90.61 89.726 82.644 85.818 84.261 81.077 79.072 79.491 73.199 76.765 81.115 84.944 85.585 80.923 80.215 84.677 83.897 70.655 63.573 72.086 67.63 79.033 81.899 84.045 82.712 72.935 80.039 79.181 78.125 77.077 73.451 68.029 67.553 67.095 65.75 55.458 47.999 48.152 68.036 67.123 71.184 70.7 55.15 53.595 52.702 60.651 61.031 60.602 59.611 56.863 49.976 51.262 46.159 53.395 45.953 53.328 53.62 53.09 53.4 45.465 39.574 37.036 36.87 36.88 36.948 36.938 37.01 39.711 39.754 41.87 40.632 42.3 38.994 38.922 38.723 38.327 37.999 37.782 37.57 37.585 37.469 37.288 37.223 37.207 37.238 37.169 37.136 37.091 37.14 37.122 37.09 37.053 37.054 37.002 36.995 37.669 39.952 40.817 40.667 40.758 40.78 41.023 40.997 40.769 40.693 38.618 37.183 36.73 36.743 36.73 36.751 36.663 36.678 36.699 36.669 36.688 37.188 36.607 36.568 36.55 36.535 36.537 36.447 36.51 36.482 36.522 36.385 36.437 36.386 36.479 36.367 36.365 36.268 36.288 36.302 36.326 36.276 36.235 36.209 36.2 36.213 38.826 38.063 37.296 38.661 36.261 36.149 36.123 36.108 36.09 36.118 36.083 36.05 36.043 36.155 37.257 36.12 36.024 35.963 35.918 35.932 35.866 36.161 36.501 36.404 36.124 36.086 36.129 41.736 43.454 40.794 39.109 35.973 36.516 36.818 37.524 44.597 48.846 49.128 41.223 38.334 38.012 35.525 34.78 35.132 34.631 34.61 34.767 35.204 44.776 48.381 48.87 49.629 49.692 47.801 43.638 44.765 45.866 45.639 46.01 45.828 43.773 42.572 45.982 46.122 41.894 40.593 42.284 39.503 39.797 41.012 39.496 40.014 39.316 39.261 39.244 39.171 39.334 39.332 39.473 39.638 43.148 47.448 49.884 50.882 50.754 46.653 38.632 48.08 51.139 52.353 51.518 52.782 45.265 50.895 52.408 52.642 51.596 41.301 45.484 39.446 38.212 34.502 34.439 34.536 34.951 34.815 34.876 34.947 34.942 35.003 34.923 34.83 34.795 34.636 34.612 34.614 34.828 34.864 36.466 36.305 36.832 38.521 44.236 36.945 37.033 38.638
79.768 78.557 78.616 78.437 78.197 78.17 78.036 78.17 78.549 79.004 79.27 79.425 79.606 79.743 79.812 79.872 79.863 79.865 79.87 79.841 79.784 79.74 79.586 79.579 79.627 86.164 89.557 93.927 99.792 100.506 100.17 98.973 101.807 91.527 103.17 103.63 97.628 104.928 105.244 104.916 103.808 100.973 93.744 87.86 87.673 87.658 87.294 83.136 82.597 82.548 82.601 82.409 82.446 82.648 94.945 100.565 101.276 102.254 101.777 91.641 82.95 82.979 82.955 82.944 82.837 82.832 82.805 82.748 82.711 82.734 82.641 82.572 82.494 82.347 82.423 82.314 82.304 82.201 82.111 81.995 81.97 81.961 81.935 81.756 81.569 81.831 92.766 94.159 94.464 95.066 96.298 96.614 94.332 84.501 81.993 81.205 81.238 80.711 80.559 80.807 80.443 80.547 81.174 81.422 81.413 81.578 81.489 81.352 81.12 81.128 91.742 96.307 93.882 96.331 95.501 92.78 87.625 85.525 85.365 83.219 84.04 84.914 86.327 82.748 79.996 82.513 82.942 83.97 85.97 83.253 85.371 84.612 82.039 89.651 92.451 93.631 92.583 82.579 78.665 78.753 79.074 79.427 79.637 79.804 79.921 79.934 79.94 79.986 80.026 80.017 80.542 82.905 83.624 87.227 85.051 81.651 82.568 80.433 76.659 80.238 80.424 83.546 80.033 81.456 86.983 88.45 89.989 90.516 87.503 86.767 84.798 87.833 86.191 76.101 84.902 81.629 85.625 84.149 85.592 85.813 84.518 82.406 85.226 84.041 79.512 62.579 61.202 79.936 83.255 83.061 84.326 83.672 77.89 76.529 76.197 74.999 69.559 58.828 52.092 65.353 67.395 70.507 69.106 63.772 57.434 63.036 69.096 72.243 70.24 66.148 52.394 58.352 63.663 56.172 68.386 65.465 45.271 54.071 56.088 48.512 40.721 44.242 52.558 54.776 54.963 53.588 49.361 41.764 37.924 36.923 36.987 36.881 36.866 36.807 36.911 37.957 37.927 43.846 45.199 41.788 40.013 38.983 38.698 38.398 38.02 37.79 37.593 37.547 37.437 37.302 37.24 37.195 37.131 37.166 37.101 37.131 37.061 37.083 36.991 37.028 37.018 38.029 39.77 40.616 40.849 40.995 40.75 40.689 40.72 40.723 40.849 40.719 37.17 36.796 36.732 36.713 36.787 36.775 36.723 36.672 36.629 36.666 38.294 36.618 36.576 36.557 36.541 36.527 36.464 36.506 36.464 36.56 36.434 36.415 36.358 36.399 36.37 36.377 36.384 36.274 36.314 36.254 36.275 36.23 36.247 36.282 36.218 36.315 37.081 36.24 37.561 39.152 36.687 36.123 36.124 36.133 36.08 36.04 36.067 36.044 35.986 36.01 36.003 36.317 36.315 35.959 35.917 35.949 35.897 35.859 35.948 36.316 36.512 36.25 36.255 45.585 47.228 45.327 38.948 43.289 37.451 38.226 40.753 39.134 46.417 36.473 36.437 38.424 35.875 34.787 34.684 34.655 34.592 35.084 35.361 36.135 47.908 46.332 49.967 50.824 50.939 46.242 44.187 43.36 43.192 43.632 43.964 43.462 43.45 43.449 43.559 45.281 41.588 41.09 41.336 40.645 39.311 39.141 41.515 40.073 39.387 39.402 39.316 39.295 39.137 39.344 39.398 39.565 39.738 45.129 49.154 49.724 49.702 47.415 40.117 49.5 52.769 52.308 52.44 53.232 51.974 48.182 52.945 52.702 48.511 43.751 46.624 48.456 47.073 43.139 44.848 42.649 36.164 39.344 34.868 34.781 34.883 34.97 34.895 34.822 34.64 34.551 34.565 34.51 34.649 34.749 34.822 35.112 36.421 35.53 36.668 37.36 37.094 39.434
88.396 90.292 86.006 79.464 78.477 78.46 78.461 79.051 79.157 79.377 79.567 79.863 79.913 79.935 79.946 80.005 79.957 79.929 79.917 79.868 79.861 79.914 79.808 79.849 79.979 80.13 87.078 94.192 99.274 98.382 95.685 102.145 102.108 100.382 104.166 105.412 105.668 106.164 106.039 105.578 101.703 96.223 88.448 88.008 83.973 83.334 83.916 83.028 82.982 82.718 82.673 82.68 82.779 82.885 82.967 95.784 91.508 89.727 88.269 83.236 83.192 83.202 83.156 83.163 83.098 83.025 83.093 82.955 82.925 82.929 82.898 82.759 82.666 82.613 82.612 82.54 82.466 82.38 82.344 82.3 82.192 82.153 82.06 82.01 82.054 92.817 94.292 95.217 95.908 96.392 97.921 97.187 92.292 86.253 81.416 81.089 80.987 80.916 80.715 80.746 80.57 80.798 81.428 81.719 81.741 81.71 81.666 81.673 81.593 81.998 91.851 97.324 97.989 98.955 97.507 91.729 87.056 85.614 86.034 84.737 81.052 83.648 83.507 81.946 79.996 80.006 79.969 80.212 82.704 83.757 80.808 79.482 79.419 85.972 85.678 84.518 83.76 78.733 78.758 78.986 79.21 79.573 79.807 79.883 79.994 80.088 80.046 80.052 80.055 80.04 80.205 83.035 86.621 87.592 87.006 84.454 82.247 77.889 75.657 78.886 80.17 76.631 79.194 80.874 79.295 81.319 73.775 89.096 89.711 89.754 90.105 88.978 85.33 87.106 82.555 84.831 85.135 82.519 84.359 84.236 84.881 85.192 85.216 83.882 72.2 65.8 67.536 77.93 79.888 83.78 80.897 74.11 80.823 81.549 81.898 79.901 75.004 62.859 56.342 66.672 68.633 70.591 72.888 72.441 71.028 68.268 72.975 72.172 70.333 64.705 52.56 49.046 62.638 68.696 69.262 68.978 69.777 56.704 48.697 45.872 45.778 53.813 55.563 55.78 54.322 54.104 45.542 42.883 38.564 36.859 36.988 36.916 36.976 36.938 36.895 36.879 42.081 45.801 45.871 42.941 41.805 40.553 38.949 38.777 38.202 38.074 37.77 37.529 37.526 37.564 37.364 37.16 37.179 37.158 37.083 37.104 37.132 37.048 37.019 37.01 37.093 37.232 36.928 37.642 40.651 40.777 40.767 40.762 40.692 40.679 40.727 37.865 36.745 36.732 36.695 36.7 36.677 36.693 36.775 36.893 36.714 37.75 36.591 36.625 36.536 36.494 36.514 36.484 36.536 36.542 36.503 36.456 36.379 36.376 36.348 36.382 36.309 36.383 36.379 36.308 36.24 36.32 36.234 36.256 36.251 36.249 36.195 36.25 36.361 37.675 37.124 36.538 36.141 36.13 36.141 36.052 36.049 36.048 35.997 38.224 36.01 37.618 36.04 35.989 36.701 36.57 35.887 35.882 35.877 35.871 35.859 35.841 36.406 36.589 36.548 43.996 47.794 45.093 39.592 40.539 37.232 39.548 43.102 36.758 36.268 36.272 35.796 35.934 34.751 34.78 34.719 34.657 35.133 35.465 36.325 40.357 47.844 49.345 50.304 50.494 45.719 46.969 49.361 44.207 43.26 43.321 43.398 43.374 43.502 43.458 43.606 46.295 44.219 42.856 41.836 42.163 42.24 40.26 39.605 40.73 40.221 39.901 39.677 39.325 39.334 39.277 39.282 39.469 39.602 43.048 46.602 47.862 47.359 46.243 48.791 50.076 50.603 52.776 53.177 44.907 52.362 51.636 52.717 52.166 51.415 45.135 48.926 46.539 48.15 49.034 50.414 49.958 49.817 42.769 39.303 36.078 34.59 34.815 34.763 34.696 34.53 34.492 34.446 34.435 34.54 34.598 34.746 34.844 35.316 35.167 35.358 35.511 38.169 38.864
93.77 92.707 86.557 83.368 87.738 89.954 86.866 88.409 82.737 79.629 79.907 79.967 79.983 79.984 79.963 80.018 79.998 79.958 79.923 79.89 79.885 79.971 79.987 80.12 80.32 80.511 80.932 93.376 98.463 100.016 101.81 103.43 96.359 102.18 104.596 105.202 106.161 105.996 102.335 106.318 104.362 92.775 92.046 86.795 86.42 87.464 84.68 83.318 83.192 83.131 82.993 82.985 83.244 83.115 83.287 83.653 83.679 83.337 83.43 83.435 83.437 83.401 83.389 83.361 83.292 83.21 83.26 83.157 83.108 83.094 83.125 82.982 82.861 82.797 82.769 82.679 82.669 82.587 82.505 82.521 82.414 82.428 82.344 82.173 89.555 93.171 93.901 96.414 97.293 97.458 98.255 98.448 98.096 88.14 85.425 81.334 81.225 81.086 81.022 80.934 80.895 80.948 81.612 81.75 81.786 81.742 81.702 81.696 82.119 91.08 96.268 99.748 100.375 100.251 99.376 96.357 91.412 84.645 83.61 81.439 80.549 80.365 80.282 80.182 80.145 80.1 80.04 79.964 80.474 79.86 79.816 79.656 79.607 79.545 79.405 79.464 79.301 79.191 79.059 79.106 79.273 79.561 79.88 79.984 80.128 80.147 80.079 80.109 80.122 80.095 80.085 83.435 86.041 86.975 80.849 80.654 78.286 76.954 76.945 78.561 80.368 82.157 79.078 75.963 75.527 77.274 86.506 87.686 90.459 87.718 90.047 91.45 80.865 88.528 85.362 84.223 75.538 79.617 82.231 82.853 80.005 83.774 83.999 83.846 80.835 74.223 77.288 67.002 81.096 84.121 83.839 83.952 83.577 82.225 82.54 80.481 71.124 68.473 60.747 69.101 70.504 72.276 69.561 73.181 72.624 70.242 70.349 72.865 72.678 66.066 46.994 46.096 61.264 71.43 63.339 71.933 69.053 65.287 53.991 54.536 43.671 52.314 54.105 55.546 54.552 45.876 43.449 45.517 45.989 40.059 45.972 37.129 36.909 37.501 36.916 36.84 38.481 37.98 38.793 46.004 47.627 46.519 44.102 39.666 38.551 38.254 37.967 37.798 37.556 37.447 37.532 37.27 37.159 37.11 37.119 37.08 37.11 37.047 37.073 37.011 36.973 37.167 36.933 36.895 37.516 39.92 40.689 40.879 41.024 40.687 38.58 36.727 36.744 36.696 36.696 36.712 36.722 36.672 36.709 36.743 36.673 37.156 36.612 36.574 36.598 36.456 36.518 36.521 36.503 36.493 36.497 36.439 36.406 36.402 36.396 36.423 36.384 36.322 36.369 36.308 36.338 36.318 36.245 36.22 36.179 36.208 36.146 36.211 38.167 37.289 36.609 36.152 36.097 36.08 36.031 36.014 35.968 35.975 38.258 35.989 36.063 36.077 35.992 35.896 35.966 37.89 36.362 35.884 35.92 35.876 35.82 35.838 35.762 35.77 36.719 36.517 43.904 42.41 45.856 43.717 38.783 40.379 38.83 37.007 36.247 35.742 34.983 34.869 34.753 34.798 34.69 35.082 35.662 36.214 40.058 48.644 48.646 49.047 49.926 50.077 50.699 46.652 47.798 44.309 43.569 43.714 43.287 43.299 43.306 43.372 46.887 47.642 48.287 45.252 43.04 44.09 41.62 41.184 41.69 39.595 39.788 40.693 41.394 39.555 39.251 39.298 39.403 39.296 39.47 39.678 40.433 42.933 43.617 47.751 49.114 49.151 50.428 51.866 50.35 51.144 51.654 49.995 52.335 39.697 42.603 50.092 41.393 46.606 48.896 50.984 52.276 52.422 51.515 50.21 46.246 43.012 34.659 34.39 34.445 34.482 34.403 34.355 34.356 34.391 34.429 34.518 34.636 34.684 34.891 34.966 35.064 35.234 35.314 37.615
95.783 96.13 93.841 93.354 94.815 94.191 85.026 85.048 90.352 80.257 79.977 80 80.006 80.026 80.06 80.061 80.035 79.979 80.01 79.998 79.99 80.053 80.091 80.224 80.595 80.878 81.11 95.989 97.67 99.145 100.923 102.894 100.919 103.073 105.284 106.028 106.084 106.475 106.427 106.064 102.027 88.378 88.273 87.22 87.178 86.144 86.39 84.273 83.74 83.442 83.389 83.675 84.184 84.547 84.311 84.658 84.525 83.822 83.669 83.685 83.73 83.706 83.603 83.587 83.496 83.443 83.447 83.401 83.286 83.282 83.299 83.185 83.093 83.031 82.927 82.822 82.847 82.749 82.735 82.725 82.71 82.601 82.503 82.412 84.213 91.187 93.985 96.458 97.375 97.664 99.502 99.443 90.393 86.596 82.656 81.522 81.464 81.359 81.256 81.202 81.158 81.13 81.598 81.836 81.794 81.787 81.787 81.712 81.636 91.35 97.734 99.039 100.689 100.177 96.081 96.311 90.213 83.78 80.8 80.628 80.585 80.472 80.356 80.256 80.218 80.115 80.009 80.041 79.979 79.95 79.861 79.817 79.868 79.827 80.379 80.762 79.81 79.761 79.454 79.446 79.572 79.758 80.093 80.337 80.095 80.18 80.197 80.168 80.154 80.154 80.168 82.734 86.69 86.941 84.673 78.913 80.035 78.204 79.351 78.061 77.969 78.385 77.307 76.474 77.139 75.175 84.905 90.633 91.32 91.474 90.839 90.134 88.233 85.69 88.612 84.267 77.926 78.434 83.767 83.027 74.399 85.251 87.485 81.381 87.751 87.061 82.315 81.26 79.473 72.02 82.762 84.103 83.784 79.784 82.396 75.798 79.855 73.612 73.47 71.637 75.289 76.362 76.891 75.536 73.72 69.15 64.607 73.099 63.404 66.798 52.648 52.167 64.263 70.134 73.779 73.741 72.489 66.115 54.698 57.241 52.907 50.788 53.71 54.848 53.143 45.347 44.446 48.895 49.297 49.841 49.166 45.789 48.308 40.519 38.053 36.96 36.84 36.928 40.13 46.979 49.716 49.084 48.47 42.097 39.179 38.604 38.247 38.058 37.766 37.607 37.478 37.485 37.287 37.148 37.079 37.062 37.081 37.039 37.08 36.908 36.991 37.247 36.857 36.924 36.817 36.865 37.532 40.613 40.754 40.675 36.836 36.751 36.744 36.745 36.739 36.771 36.748 36.629 36.633 36.603 36.955 36.552 36.582 36.621 36.543 36.539 36.531 36.496 36.51 36.419 36.493 36.394 36.418 36.402 36.34 36.376 36.368 36.307 36.319 37.027 37.08 36.236 36.287 36.249 36.258 36.17 36.166 36.164 36.159 36.432 36.092 36.068 36.069 36.079 36.063 36.063 35.971 36.025 36.876 36.155 36.955 36.089 35.966 35.943 35.964 35.918 35.931 35.824 36.073 35.922 35.852 35.831 35.766 35.777 35.656 36.211 36.448 41.237 43.768 44.359 39.526 43.035 38.846 35.823 35.496 35.228 34.979 34.909 34.851 34.945 35.032 41.187 36.598 36.876 42.707 49.359 49.102 50.219 51.846 51.466 52.561 50.255 47.655 44.764 44.42 44.224 43.507 43.378 43.314 43.302 46.273 48.044 48.591 47.12 43.565 43.459 43.811 44.876 41.895 40.518 39.521 39.257 42.171 42.459 39.901 39.296 39.247 39.317 39.277 39.407 39.538 39.729 42.997 45.849 44.371 47.486 49.459 50.021 49.592 48.579 50.318 51.495 44.027 46.081 42.96 42.096 47.585 47.909 49.228 50.219 52.528 52.679 52.969 52.045 49.728 49.049 36.213 44.665 34.576 34.282 34.476 34.264 34.291 34.334 34.342 34.424 34.488 34.586 34.681 34.793 34.917 34.987 35.147 35.547
97.47 95.975 95.603 96.213 98.426 97.032 95.382 93.895 89.634 81.54 80.068 80.071 80.146 80.126 80.127 80.133 80.077 80.05 80.06 80.042 80.037 80.07 80.263 80.523 80.964 81.165 81.296 85.007 96.212 93.841 100.407 102.27 101.618 104.243 105.19 105.252 105.53 105.888 105.615 102.786 90.512 90.473 88.958 88.079 87.902 88.214 87.121 84.365 83.812 83.733 83.818 84.07 85.027 85.166 85.199 85.188 85.131 84.471 83.96 83.871 83.901 83.867 83.82 83.795 83.738 83.653 83.582 83.585 83.543 83.513 83.51 83.44 83.363 83.258 83.121 83.026 83.002 83.037 82.931 82.92 82.823 82.787 82.758 82.67 82.543 86.449 89.738 96.557 97.436 97.873 98.921 89.283 96.502 91.47 82.054 81.726 81.636 81.542 81.492 81.444 81.449 81.401 81.697 81.85 81.795 81.814 81.805 81.785 81.708 90.94 97.204 99.072 100.139 100.353 99.926 95.56 93.589 85.216 81.383 80.619 80.527 80.422 80.331 80.278 80.248 80.22 80.113 80.696 80.174 80.692 80.16 79.931 79.841 79.797 79.757 79.799 80.116 80.744 80.174 80.032 80.014 86.59 88.115 88.353 82.219 80.245 80.193 80.21 80.191 80.192 81.727 84.618 86.233 86.751 83.518 80.112 82.56 84.873 82.95 79.734 78.348 80.656 79.381 77.668 77.755 78.431 86.687 89.915 90.72 91.149 90.097 89.174 77.77 86.076 90.182 80.262 87.427 72.361 81.251 75.999 82.382 87.91 76.679 88.874 88.532 83.731 86.328 79.456 67.399 75.708 82.629 82.737 82.995 79.409 79.512 80.119 82.837 81.484 67.412 75.997 76.072 76.09 77.461 76.01 72.005 68.685 72.515 73.457 73.48 71.681 60.723 51.157 64.96 72.548 73.682 73.564 73.442 72.902 68.8 60.168 59.978 51.256 51.25 51.883 46.134 51.326 46.271 49.325 53.926 54.538 51.219 51.829 47.865 49.877 45.271 36.979 36.864 36.841 36.928 45.148 47.622 41.427 49.496 47.565 41.401 38.921 38.601 38.49 38.058 37.873 37.766 37.604 37.318 37.37 37.13 37.088 37.044 37.039 37.001 36.981 36.971 36.855 36.928 36.903 36.906 36.853 36.839 36.707 39.9 37.905 36.753 36.757 36.718 36.742 36.709 36.739 36.723 36.676 36.6 36.727 36.953 36.608 36.745 36.534 36.508 36.779 36.765 36.519 36.431 36.337 36.444 36.444 36.421 36.415 36.4 36.412 36.275 36.293 42.145 37.441 37.368 38.388 36.313 36.22 36.183 36.147 36.17 36.209 36.843 36.15 36.12 36.078 36.043 36.07 36.035 36.016 35.955 37.461 36.291 36.047 41.891 37.198 35.959 35.906 35.894 35.88 35.844 35.796 35.791 35.827 35.865 35.844 35.781 35.778 35.708 35.709 35.967 36.638 39.5 43.761 41.181 43.622 40.579 35.604 35.154 35.07 43.136 35.133 44.761 39.862 39.117 42.329 37.067 37.225 47.35 50.677 48.665 49.464 51.478 51.901 50.9 50.432 49.791 48.24 46.546 44.845 43.533 43.718 43.415 43.308 43.996 47.484 47.49 45.309 43.536 43.763 44.267 45.18 41.745 40.292 41.105 40.48 39.172 41.054 40.309 39.704 39.687 39.271 39.395 39.403 39.949 40.852 41.124 43.316 44.055 46.438 45.821 44.29 44.863 44.297 47.241 48.957 45.979 44.741 50.23 41.994 48.705 47.682 49.695 46.109 51.862 52.067 50.12 51.948 50.486 50.659 50.155 45.608 46.029 37.279 41.821 34.597 34.279 34.246 34.306 34.373 34.397 34.499 34.571 34.692 34.763 34.885 34.983 35.112
97.203 97.404 93.962 97.866 97.953 99.271 98.661 97.682 87.323 81.713 80.132 80.135 80.208 80.253 80.214 80.201 80.161 80.13 80.151 80.122 80.09 80.194 80.403 80.705 81.14 81.484 81.616 82.194 95.925 99.847 101.733 105.474 103.022 105.537 104.926 104.377 104.145 103.967 98.458 91.936 96.35 93.622 89.653 87.439 86.483 86.407 85.084 84.321 84.053 83.886 83.967 84.554 85.129 85.233 85.261 85.258 85.187 84.631 84.084 84.026 84.027 84.04 84.053 83.954 83.885 83.759 83.749 83.804 83.696 83.676 83.694 83.671 83.549 83.529 83.371 83.295 83.218 83.149 83.107 83.114 83.103 82.999 82.902 82.864 82.668 88.873 90.495 94.89 96.632 97.283 95.49 99.947 91.213 85.718 84.017 81.856 81.869 81.825 81.797 81.656 81.695 81.523 81.689 81.875 81.865 81.832 81.807 81.688 81.543 81.619 85.453 95.781 97.884 99.385 98.671 95.853 91.613 81.636 80.795 80.634 80.574 80.575 80.462 80.368 80.36 80.317 80.337 80.983 81.411 81.891 83.624 81.121 80.112 80.134 79.939 79.87 79.85 79.837 80.115 85.201 92.676 91.211 94.041 91.77 88.603 80.629 80.303 80.28 80.251 80.199 80.67 88.682 89.137 87.818 86.59 85.293 84.17 87.987 86.611 79.866 78.553 81.883 82.193 79.949 80.065 88.067 88.786 85.446 86.157 86.701 85.376 80.923 78.511 86.422 89.81 88.669 86.82 82.052 74.571 72.199 79.052 86.051 84.947 88.517 84.463 77.175 87.765 83.155 63.936 73.219 79.703 83.355 82.911 82.135 80.594 78.314 82.66 83.262 81.135 80.426 73.991 76.687 76.577 74.371 62.273 70.219 67.403 73.875 67.026 66.4 57.062 52.002 60.024 70.466 72.17 71.86 72.887 66.853 56.971 59.774 56.243 52.155 52.002 52.402 46.893 52.774 48.457 57.648 57.655 58.924 48.587 50.702 50.695 51.346 48.913 38.611 36.888 36.955 36.827 43.097 47.192 47.796 48.212 48.153 47.97 39.944 38.872 42.385 38.601 38.22 37.924 37.781 37.529 37.437 37.358 37.282 37.124 37.084 36.973 36.953 36.936 36.925 36.877 36.797 37.173 38.046 36.833 36.817 36.808 36.799 36.795 36.699 36.761 36.738 36.779 36.651 36.74 36.688 36.624 36.637 36.607 36.611 36.509 36.555 36.525 36.514 36.51 36.453 36.453 36.458 36.418 36.421 36.387 36.35 36.393 36.384 36.288 36.383 37.026 37.426 38.605 36.71 36.222 36.211 38.121 36.277 36.814 36.122 36.101 36.056 36.13 36.048 36.063 36.035 36.023 36.048 36.169 37.192 36.04 36.455 38.349 35.977 35.99 35.945 35.887 35.848 35.84 35.846 35.803 35.798 35.777 36.858 35.845 35.81 35.763 35.69 35.606 35.821 36.208 37.431 37.993 39.721 36.137 35.277 35.135 35.033 34.955 36.463 37.196 43.609 38.679 40.396 37.947 37.063 37.286 45.26 45.385 47.575 51.608 49.829 51.663 51.106 50.081 49.198 48.632 45.928 44.712 43.984 43.592 43.526 43.402 43.291 44.377 43.771 43.523 43.592 43.567 44.333 45.948 42.34 42.583 43.569 39.304 38.616 39.468 40.655 41.486 39.37 39.245 39.252 39.285 39.33 39.462 39.821 39.911 40.641 41.062 40.32 39.648 39.688 43.607 39.794 46.698 48.312 47.561 48.546 48.156 49.043 49.604 50.629 52.116 52.357 53.04 44.606 47.434 52.188 50.475 49.712 45.887 50.151 46.032 40.092 40.27 34.318 34.29 34.337 34.327 34.422 34.513 34.623 34.764 34.896 34.958 35.069
96.051 91.273 95.999 97.893 98.409 97.804 99.345 95.698 83.405 81.43 80.215 80.229 80.248 80.311 80.272 80.213 80.252 80.19 80.232 80.24 80.169 80.268 80.633 81.007 81.422 81.733 81.915 82.122 98.046 102.677 103.024 105.172 106.097 106.315 104.554 102.632 92.814 102.319 94.164 99.024 99.03 95.281 91.055 90.227 85.32 84.55 84.534 84.412 84.287 84.128 84.22 84.583 85.122 85.288 85.277 85.29 85.281 84.845 84.323 84.287 84.216 84.161 84.163 84.182 84.133 83.96 83.946 83.946 83.815 83.84 83.875 83.889 83.704 83.716 83.656 83.534 83.419 83.337 83.299 83.249 83.195 83.178 83.177 83.123 82.82 87.401 88.722 93.401 96.527 96.193 97.736 98.573 96.764 86.227 82.281 82.229 82.182 82.087 81.914 81.9 81.904 81.835 81.82 81.892 81.835 81.786 81.738 81.67 81.704 81.617 84.136 92.803 97.819 97.424 96.501 87.219 81.33 81.473 80.96 80.871 80.984 80.739 80.828 80.816 80.366 80.418 80.368 80.814 81.33 85.603 86.49 83.728 80.519 80.335 80.314 80.21 80.101 79.987 79.946 87.154 94.099 94.265 95.8 94.921 90.982 83.815 80.327 80.328 80.311 80.287 80.148 88.002 86.082 88.466 86.366 83.745 86.976 87.488 85.869 81.759 80.231 81.863 82.026 81.16 83.772 87.635 83.965 81.615 82.946 81.259 85.623 82.098 82.463 84.626 80.801 82.005 75.241 84.245 83.124 79.184 84.909 87.427 87.352 88.018 76.537 87.312 86.52 79.04 77.89 80.931 84.195 83.516 83.842 70.364 62.487 71.189 77.316 74.856 74.086 71.094 75.852 62.833 72.393 73.135 67.655 67.432 73.113 61.711 70.425 58.598 64.924 61.532 67.934 64.723 69.759 70.204 71.449 68.668 58.788 58.975 52.741 52.093 52.164 54.002 57.039 55.474 56.764 58.274 60.328 54.958 56.489 52.465 54.811 54.122 49.693 43.005 36.987 36.928 36.878 36.865 43.152 47.015 46.09 46.917 50.384 41.064 41.961 44.371 40.84 38.666 38.213 37.968 37.737 37.571 37.402 38.404 39.3 37.686 37.018 37.543 37.303 36.927 36.855 36.853 36.812 36.737 37.696 36.754 36.737 36.733 36.764 36.742 36.756 36.655 36.715 36.703 36.706 36.59 37.045 36.742 36.622 36.486 36.531 36.491 36.596 38.701 36.862 36.512 36.459 36.405 36.407 36.427 36.333 36.349 36.366 36.335 36.247 36.272 36.252 36.261 36.731 38.57 36.195 37.107 39.017 36.298 36.113 36.239 38.154 36.118 36.382 36.059 36.029 36.099 36.006 36.062 36.142 36.67 37.643 38.707 36.487 35.97 35.886 35.847 35.858 35.861 35.851 35.815 35.769 35.742 35.745 35.728 36.425 36.118 35.752 35.711 35.612 35.634 35.536 35.588 35.536 35.398 35.345 35.298 35.138 35.122 37.805 37.766 37.98 38.418 40.846 37.588 36.615 36.755 36.552 36.701 36.859 45.651 50.644 52.072 51.321 50.921 50.207 49.769 49.194 48.451 47.748 44.236 43.974 43.673 43.496 43.463 43.387 43.491 43.556 43.484 43.459 43.335 44.907 43.393 41.809 46.11 40.35 38.641 38.738 39.011 40.429 41.953 39.508 39.307 39.319 39.362 39.261 39.463 39.807 39.726 39.831 39.831 39.956 40.233 40.324 39.708 40.663 40.36 43.281 41.065 46.2 47.862 48.225 49.329 51.418 51.75 49.907 52.833 48.88 52.389 52.092 50.127 50.495 52.4 49.676 44.308 45.089 36.827 38.957 38.063 34.476 34.351 34.499 34.608 34.761 34.859 34.992 35.049
91.846 86.249 94.129 97.585 97.779 94.732 97.569 91.072 82.485 80.373 80.338 80.331 80.307 80.343 80.338 80.335 80.318 80.293 80.27 80.263 80.278 80.449 80.96 81.336 81.805 81.956 82.121 82.46 93.307 102.183 99.711 103.125 105.343 101.963 95.382 93.851 96.494 91.181 98.099 99.411 100.095 98.79 95.325 90.502 86.815 84.582 87.727 89.225 85.254 84.52 84.397 84.708 85.004 85.306 85.358 85.317 85.324 85.104 84.576 84.447 84.414 84.417 84.321 84.306 84.279 84.196 84.185 84.162 84.061 84.051 84.06 83.995 83.925 83.914 83.884 83.712 83.606 83.473 83.441 83.408 83.463 83.388 83.352 83.299 83.112 82.953 82.89 85.081 94.878 96.767 96.759 96.461 94.607 83.568 82.435 82.362 82.334 82.249 82.263 82.161 82.099 82.087 81.99 81.948 81.944 81.957 82.132 82.161 82.294 86.31 94.68 97.176 98.028 96.425 93.94 91.629 83.258 85.766 84.135 82.978 81.55 81.811 81.736 81.408 80.9 80.926 80.522 81.279 81.31 85.518 86.434 82.249 80.895 82.762 80.763 80.673 80.675 80.612 80.529 86.014 94.318 95.158 95.431 94.85 93.424 89.075 80.754 80.394 80.327 80.304 80.373 87.651 88.332 89.645 88.175 87.837 87.701 88.71 87.931 86.899 83.801 79.928 79.483 81.259 82.545 83.225 84.024 82.706 81.606 77.802 82.239 80.347 80.091 77.293 85.205 79.726 87.146 84.619 87.554 87.649 83.023 85.158 84.234 86.05 74.064 84.395 77.752 84.068 80.12 77.36 86.196 86.329 80.081 66.453 61.428 79.056 68.687 79.13 76.994 78.114 62.549 71.101 69.895 78.255 70.958 69.808 71.767 73.208 71.66 71.736 71.281 59.978 59.963 66.636 66.867 68.729 65.989 60.943 58.423 57.268 52.051 52.369 53.15 50.913 52.423 52.605 51.858 51.074 58.756 57.307 53.727 55.281 56.283 56.113 55.016 45.186 37.684 37.695 36.963 36.913 36.84 37.41 41.426 41.519 50.143 44.138 43.99 45.558 41.077 38.956 38.828 38.376 37.927 37.659 37.632 38.346 39.642 38.981 40.489 40.933 37.33 36.922 36.919 36.893 36.821 36.773 36.765 36.903 36.858 36.763 36.717 36.709 36.805 36.689 36.709 36.634 36.611 36.595 36.88 36.619 36.598 36.521 36.463 36.478 36.508 36.457 37.285 37.327 36.433 36.335 36.354 36.388 36.378 36.28 36.327 36.325 36.295 36.261 36.257 36.266 36.288 36.222 36.39 38.415 40.129 37.428 36.18 36.785 36.113 36.865 36.111 36.082 36.044 36.026 36.027 36.001 35.986 38.601 39.02 36.71 35.894 35.865 35.858 35.813 35.815 35.895 35.713 35.807 35.797 35.753 35.744 35.711 35.67 35.687 35.735 35.717 35.713 35.59 35.576 35.561 35.561 35.483 35.47 35.326 35.303 35.173 35.797 39.466 38.57 37.181 37.869 36.285 36.199 36.2 36.299 45.132 36.579 40.643 50.649 51.567 51.355 50.431 50.872 50.55 45.124 49.88 49.921 45.558 43.967 43.798 43.785 43.606 43.533 43.5 43.355 43.386 43.477 43.61 46.949 46.158 46.718 49.119 46.449 44.677 39.372 39.827 39.469 41.932 40.426 39.388 39.306 39.297 39.343 39.247 39.365 39.639 39.639 39.695 39.606 40.103 39.771 39.682 41.072 39.729 39.021 39.008 43.193 45.678 46.644 47.731 50.634 51.955 52.955 52.856 46.973 52.664 53.14 50.439 50.145 51.475 42.157 49.277 49.832 47.181 46.154 46.726 42.981 37.214 34.566 34.568 34.803 34.899 35.074 34.982
81.357 88.774 92.4 95.146 95.628 94.877 91.719 89.23 85.02 80.604 80.565 80.513 80.441 80.403 80.395 80.353 80.341 80.38 80.354 80.387 80.346 80.626 81.337 81.768 82.125 82.335 82.502 82.713 85.831 97.582 101.092 103.123 102.947 98.214 96.1 83.928 84.005 91.715 96.118 96.526 99.17 95.742 90.17 87.937 85.453 87.724 88.643 91.546 89.031 85.056 84.748 84.899 84.995 85.264 85.364 85.347 85.35 85.311 84.849 84.715 84.565 84.605 84.52 84.473 84.464 84.451 84.371 84.309 84.279 84.25 84.245 84.223 84.146 84.076 84.014 83.915 83.809 83.754 83.684 83.65 83.652 83.615 83.55 83.477 83.401 83.246 83.089 83.125 87.38 95.611 95.425 95.438 94.777 82.845 82.619 82.61 82.556 82.453 82.395 82.51 82.389 87.068 82.318 82.121 82.179 82.242 82.501 82.608 82.496 89.626 95.74 98.125 97.746 95.081 98.668 98.813 96.707 98.209 89.941 87.376 81.698 81.957 81.793 82.895 81.607 82.386 82.626 83.364 83.4 84.833 84.71 87.536 90.744 85.581 82.756 81.238 81.136 81.077 81.062 81.135 86.54 92.671 93.617 92.524 93.462 84.28 81.487 80.335 80.385 80.275 80.212 84.877 87.21 82.757 81.514 79.564 87.592 89.484 88.892 87.462 87.07 80.707 79.001 78.927 81.371 80.736 80.022 81.215 80.735 81.138 81.246 77.822 77.125 80.153 88.037 87.833 89.697 91.192 89.451 86.561 80.236 73.575 88.719 81.52 75.498 86.768 85.396 81.625 85.349 85.755 86.733 86.265 73.868 70.531 68.931 81.77 73.611 80.153 80.438 69.405 77.865 78.024 76.508 73.501 72.684 67.485 62.391 61.563 60.682 71.747 60.437 66.644 52.958 55.379 68.469 68.777 66.948 58.939 56.296 56.366 50.037 53.456 53.298 51.206 46.432 48.166 50.822 54.245 52.753 48.642 55.419 59.155 57.732 54.315 48.402 42.527 40.572 36.886 36.906 36.961 36.926 36.854 41.821 43.296 45.003 45.687 47.764 50.011 47.958 39.544 38.953 38.888 38.431 37.927 37.791 37.714 37.54 39.455 40.707 39.426 37.443 36.888 39.189 37.111 36.862 36.843 36.786 36.769 37.063 36.958 36.743 36.758 36.661 36.693 36.657 36.637 36.649 36.638 36.625 36.604 36.548 36.512 36.501 36.526 36.499 36.544 36.431 36.772 36.361 36.339 36.331 36.332 36.333 36.303 36.276 36.305 36.273 36.232 36.207 36.214 36.263 36.311 37.358 42.074 36.352 36.539 36.134 36.1 36.198 38.13 36.857 36.045 36.039 36.03 36.072 35.961 36.016 35.996 37.086 35.895 35.883 35.788 35.82 35.783 35.874 36.652 37.644 38.15 35.81 35.824 35.706 35.686 35.661 35.676 35.655 36.851 36.125 35.664 35.569 35.548 35.55 35.528 35.504 35.384 35.387 35.332 36.166 36.911 40.926 43.775 36.203 36.025 37.68 36.824 37.477 36.296 36.139 38.306 42.364 43.989 41.273 47.573 48.73 47.762 52.753 49.527 50.326 49.625 48.033 47.126 46.214 44.606 43.664 43.548 43.585 43.53 43.542 44.019 49.336 48.228 46.506 49.451 48.793 46.303 45.889 40.582 38.783 38.822 39.248 39.223 39.283 39.299 39.251 39.359 39.15 39.258 39.535 39.681 39.818 40.018 39.797 40.402 39.674 39.248 39.28 39.502 39.88 40.622 42.03 46.501 49.022 51.025 51.438 52.308 44.477 52.411 53.637 53.911 53.763 44.177 50.949 40.998 44.509 46.382 49.389 47.288 49.521 46.396 37.878 35.795 34.934 34.913 35.043 35.046
81.117 81.05 86.781 92.037 93.915 92.325 82.633 87.718 82.704 80.821 80.878 80.816 80.619 80.477 80.504 80.434 80.48 80.47 80.393 80.412 80.635 81.29 81.997 82.337 82.552 82.666 82.766 82.978 83.257 86.429 90.733 100.488 100.14 97.65 91.783 86.636 84.195 86.315 93.918 93.553 95.153 90.861 88.765 84.962 88.021 91.156 91.263 90.342 96.696 94.273 90.545 89.676 85.072 85.223 85.354 85.38 85.389 85.371 85.117 84.827 84.76 84.737 84.655 84.642 84.732 84.677 84.493 84.485 84.43 84.396 84.366 84.416 84.339 84.265 84.156 84.124 83.984 83.892 83.848 83.817 83.792 83.772 83.721 83.639 83.528 83.449 83.39 83.231 86.321 90.682 91.123 93.342 87.72 84.154 82.777 82.716 82.664 82.835 89.427 92.667 87.654 86.77 82.591 82.412 82.435 82.463 82.541 82.556 82.734 84.787 84.863 95.746 93.98 96.151 99.436 99.135 96.319 99.726 100.036 88.258 82.176 82.461 85.074 85.034 83.397 84.242 84.071 83.487 83.665 83.054 83.919 87.54 90.747 91.778 83.881 88.996 83.299 82.464 82.724 82.646 81.674 91.18 91.082 91.11 91.002 89.682 80.789 80.345 80.397 80.824 80.139 80.03 80.046 79.873 79.686 79.546 79.514 86.117 86.279 83.111 86.099 79.828 78.757 78.605 80.735 78.671 78.539 78.948 77.675 80.506 77.771 77.22 76.957 83.933 88.904 88.805 91.076 91.365 87.652 86.395 83.856 85.696 87.244 81.824 83.151 85.547 87.97 81.262 82.518 85.285 86.873 82.152 84.483 69.504 66.15 67.422 83.634 85.913 84.697 78.115 81.359 76.92 80.492 81.303 67.26 63.058 71.014 71.54 73.181 71.3 68.111 62.13 54.884 59.96 67.158 67.497 61.819 47.298 46.615 49.398 47.619 47.163 57.924 51.4 51.606 58.627 56.56 58.272 51.261 57.407 54.178 58.46 58.01 53.805 52.04 44.211 39.841 41.18 38.666 37.126 36.955 36.791 36.909 36.793 36.937 43.569 49.037 48.715 40.081 39.872 41.015 40.205 39.005 38.474 38.106 37.738 37.637 37.516 39.885 41.05 37.862 36.905 42.063 37.34 36.873 36.861 36.803 36.725 36.792 36.714 36.78 37.054 36.615 36.62 36.639 36.604 36.615 36.598 36.581 36.517 36.491 36.492 36.429 36.52 37.459 37.014 36.453 36.436 36.391 36.363 36.319 36.322 36.309 36.303 36.349 36.306 36.251 36.292 36.254 36.275 36.25 37.318 37.382 38.627 36.242 36.1 36.116 36.086 39.112 36.197 36.514 36.128 38.756 36.061 36.348 35.929 36.057 35.926 35.903 35.914 35.85 35.906 35.839 35.814 35.836 35.855 35.738 41.609 35.905 35.745 35.727 35.69 35.645 35.637 35.584 35.658 35.621 36.024 35.673 35.569 35.553 35.568 35.482 35.482 35.338 35.354 36.163 39.398 36.543 37.006 36.008 36.131 36.164 41.171 36.126 36.096 36.06 38.935 41.025 40.129 40.571 40.775 43.607 46.121 51.373 49.101 51.654 49.649 48.98 48.212 47.843 46.461 44.251 43.689 43.785 43.737 43.574 43.687 48.406 49.752 48.129 48.09 48.317 42.397 42.477 41.455 43.219 41.993 38.906 39.155 39.296 39.29 39.303 39.281 39.329 39.349 39.252 39.569 39.928 39.93 39.418 39.589 39.317 39.306 39.255 39.326 39.778 39.08 39.896 41.619 44.973 49.865 51.276 51.796 50.341 51.232 53.357 53.66 51.354 54.338 49.772 43.923 44.099 47.371 50.363 40.187 48.565 49.74 47.94 46.397 37.048 34.868 35.049 35.092
81.496 81.366 82.697 80.997 80.846 80.799 80.808 81.888 80.991 80.982 81.069 81.205 81.227 81.024 80.903 80.926 80.722 80.86 80.855 81.024 81.573 82.133 82.479 82.689 82.828 82.96 83.116 83.258 83.432 83.646 84.848 97.897 100.188 103.385 104.467 97.093 85.068 84.708 86.272 89.069 87.682 86.177 86.075 87.72 90.929 88.656 92.436 94.99 95.279 92.322 94.915 92.385 86.563 85.237 85.323 85.388 85.359 85.415 85.327 85.081 84.965 84.962 84.858 84.723 84.678 84.924 84.711 84.571 84.44 84.446 84.579 84.493 84.28 84.326 84.262 84.166 84.117 84.028 84.023 84.011 83.938 83.92 83.892 83.82 83.769 83.602 83.58 83.418 83.497 88.245 88.1 88.37 92.944 89.878 83.05 82.897 82.96 83.09 91.486 96.081 95.916 92.672 91.346 85.103 85.26 82.627 82.613 82.63 82.552 82.47 82.449 84.845 82.489 89.256 94.751 95.553 99.815 100.172 100.616 93.479 83.866 84.008 85.569 85.718 84.886 83.814 83.377 83.302 82.353 82.601 84.483 83.08 90.239 90.485 91.536 91.395 85.362 83.142 83.073 83.118 82.338 80.991 81.775 82.214 84.361 81.496 80.377 80.304 80.171 80.082 80.002 80.022 79.765 79.754 79.689 79.617 79.518 79.413 79.407 79.289 79.139 78.994 78.805 78.505 78.268 78.067 77.835 77.6 77.533 77.318 77.19 77.068 77.183 80.036 79.923 87.897 90.011 90.96 90.059 86.741 83.941 87.246 89.325 88.346 80.043 88.275 86.734 81.457 85.344 85.885 83.439 86.236 74.487 71.707 82.6 83.426 81.141 85.154 84.388 85.25 82.867 81.937 79.126 81.359 78.071 75.818 72.082 64.784 61.512 69.133 71.959 69.38 55.171 54.145 59.163 55.878 49.339 47.043 45.723 48.199 50.233 56.197 54.652 60.73 63.572 65.075 63.944 61.468 58.083 58.221 58.105 60.102 58.978 56.971 50.475 46.112 49.318 53.75 50.651 38.709 36.954 37.017 36.957 36.832 37 38.778 37.262 43.13 38.109 40.218 45.846 46.897 40.942 38.909 38.529 38.347 37.852 37.651 37.406 39.389 37.655 40.211 42.71 38.815 37.228 36.794 36.826 36.819 36.773 36.692 36.681 37.315 36.651 36.662 36.646 36.873 36.559 36.574 36.799 36.475 36.524 36.525 36.562 36.963 37.161 36.797 36.469 36.384 36.342 36.341 36.365 36.297 36.251 36.358 37.372 37.036 36.354 36.279 36.257 36.281 36.299 36.858 36.909 39.078 36.983 36.166 36.128 36.87 39.325 39.582 36.222 36.463 36.85 36.073 35.951 35.959 36.356 35.93 35.834 35.793 35.895 35.808 35.798 35.77 35.745 35.838 37.914 36.225 40.126 36.194 36.241 35.691 35.667 35.597 35.625 35.617 35.593 35.582 35.644 36.035 35.524 35.567 35.495 35.448 35.474 35.38 35.812 36.551 37.012 37.671 36.152 35.996 36.572 42.806 36.118 36.852 37.99 38.521 41.192 38.969 35.886 36.021 45.943 47.5 44.27 47.957 47.637 47.462 48.723 47.708 48.321 47.447 46.324 43.573 43.708 43.955 43.814 43.679 44.447 45.099 45.218 48.699 48.86 41.323 47.072 45.617 44.894 44.41 39.844 38.665 39.036 39.264 39.29 39.3 39.248 39.387 39.242 39.299 39.807 39.572 39.316 39.459 39.324 42.183 40.28 39.28 39.211 39.192 39.263 39.032 39.884 47.943 49.402 47.973 44.175 50.086 51.602 53.177 53.103 53.317 49.415 43.518 43.829 50.527 48.803 51.621 46.381 50.153 49.88 48.482 46.512 40.275 36.341 35.109
81.576 81.634 81.454 81.336 81.253 81.104 81.073 81.126 81.193 81.308 81.457 81.537 81.663 81.661 81.757 81.711 81.847 81.855 81.716 81.888 82.253 82.683 82.906 83.003 83.145 83.208 83.337 83.514 83.729 83.905 87.717 99.207 101.456 103.465 104.072 91.947 84.735 85.193 85.209 87.258 88.275 87.748 93.1 93.028 90.28 92.203 91.481 89.605 94.533 94.717 94.436 92.689 89.333 85.567 85.37 85.403 85.406 85.439 85.435 85.257 85.07 85.058 85.02 84.782 84.761 85.207 84.825 84.622 84.564 84.619 84.787 84.759 84.336 84.486 84.411 84.322 84.23 84.149 84.163 84.135 84.102 84.058 84.055 83.988 83.904 83.79 83.687 83.644 83.673 88.102 95.476 95.843 91.173 88.387 83.268 83.203 83.078 84.334 94.853 95.132 97.697 99.128 97.149 93.932 84.086 82.924 82.9 82.822 82.764 82.84 82.851 82.846 82.769 90.025 97.166 98.377 100.774 101.305 101.473 90.978 92.322 84.178 84.88 84.403 83.374 82.319 81.862 81.416 81.817 82.127 84.641 84.57 83.337 85.722 84.595 83.939 83.213 83.191 83.175 83.037 81.867 81.137 80.884 80.668 80.556 80.556 80.49 80.455 80.321 80.221 80.118 79.994 79.911 79.752 79.651 79.565 79.54 79.466 79.405 79.306 84.918 80.703 78.873 78.727 78.436 78.224 77.917 77.815 77.597 77.446 77.28 77.187 77.027 77.076 84.698 80.782 86.011 88.566 88.182 84.816 83.305 85.629 88.467 88.342 82.487 88.739 86.554 84.301 87.684 86.769 87.006 84.973 86.292 85.516 87.433 76.011 82.113 82.924 83.509 85.693 83.124 79.417 73.081 79.699 78.317 76.775 81.696 75.499 76.045 74.513 72.732 70.74 56.186 50.439 52.18 52.66 49.959 49.63 50.113 52.861 54.53 60.209 67.819 68.44 68.786 67.057 65.296 63.594 63.19 58.01 56.497 53.614 54.467 53.932 53.996 53.713 54.116 54.74 50.169 50.268 43.389 41.154 40.012 36.994 36.883 36.963 36.891 41.916 39.4 47.633 45.936 47.915 45.772 39.165 38.898 38.588 38.157 37.878 37.506 37.48 37.286 40.699 38.305 38.034 37.34 36.862 36.782 36.727 36.768 36.737 36.696 36.627 36.703 36.842 37.921 36.621 36.544 36.564 36.578 36.52 36.521 36.52 38.722 36.794 36.442 36.431 36.457 36.426 36.368 36.362 36.367 36.37 36.313 36.273 36.306 36.958 37.101 36.315 36.232 36.149 36.239 36.9 38.288 37.641 36.106 36.142 38.372 38.497 36.134 37.417 37.113 36.046 36.15 36.465 36.107 36.02 36.694 36.408 36.559 35.931 35.858 35.813 35.766 35.757 35.753 35.803 37.534 36.475 37.413 35.784 35.71 35.696 35.656 35.622 35.645 35.6 35.579 35.577 35.576 35.964 36.229 35.606 35.459 35.518 35.421 35.401 35.456 35.909 36.303 46.002 37.589 36.424 39.304 36.088 36.102 36.17 37.561 38.373 37.71 38.155 36.097 36.585 35.647 36.599 45.656 47.783 44.3 47.243 50.07 47.317 44.633 47.16 46.595 45.043 43.713 46.707 45.169 47.014 44.162 43.413 43.687 44.16 44.546 46.708 46.597 41.311 47.58 46.838 41.791 39.652 38.674 38.714 39.163 39.225 39.305 39.284 39.23 39.375 39.314 39.614 39.315 39.279 39.313 39.223 39.283 39.31 39.244 39.203 39.265 39.184 39.075 39.045 41.987 39.909 39.783 47.248 48.744 49.472 52.407 52.495 49.651 47.228 40.629 47.797 51.652 46.383 49.979 49.396 49.884 42.992 50.088 48.481 43.905 35.371
81.621 81.798 81.726 81.565 81.492 81.277 81.297 84.143 81.693 81.828 81.708 81.858 81.986 82.093 82.203 82.241 82.368 82.421 82.487 82.617 82.79 82.929 83.108 83.241 83.411 83.997 99.734 84.483 84.002 84.092 84.713 89.759 98.686 95.014 100.132 92.529 93.199 88.939 93.404 89.54 90.518 93.013 93.614 91.956 92.509 93.653 89.408 87.445 92.968 94.604 92.742 93.531 89.026 86.902 85.497 85.48 85.419 85.423 85.417 85.348 85.264 85.247 85.022 84.829 85.043 85.364 85.08 84.869 84.77 84.824 84.98 84.881 84.492 84.556 84.698 84.43 84.333 84.343 84.296 84.33 84.25 84.232 84.17 84.157 84.077 83.946 84.105 86.006 88.769 93.106 96.382 97.246 92.164 89.283 83.4 83.34 83.228 83.042 88.391 96.24 99.242 99.29 99.989 94.688 88.397 83.839 83.272 83.268 83.207 83.152 83.127 83.077 83.064 85.665 92.31 99.055 97.45 100.297 98.677 96.782 84.658 83.662 83.829 84.395 84.35 84.269 81.963 81.473 81.214 81.17 82.296 82.605 80.727 83.314 83.313 83.241 83.212 83.271 83.261 83.105 82.07 81.115 80.885 80.658 80.644 80.584 80.525 80.4 80.292 80.204 80.084 80.037 79.922 79.805 79.657 81.537 87.433 84.877 85.159 87.474 83.728 85.927 87.117 83.023 78.551 78.332 78.114 77.872 77.641 77.44 77.342 77.169 77.026 76.994 76.966 76.896 77.806 84.415 83.524 83.226 82.761 84.51 86.868 84.923 78.688 77.328 82.958 84.377 88.329 88.603 87.701 86.103 87.048 87.922 87.615 89.054 87.582 78.484 85.398 81.14 73.001 82.441 73.241 79.378 81.207 82.488 81.803 79.893 78.651 78.181 77.851 75.777 68.86 54.621 52.975 53.235 52.401 51.828 52.084 62.971 70.815 69.123 68.141 68.716 69.305 67.041 66.298 64.497 63.035 58.581 56.087 51.341 51.621 48.48 54.161 54.79 54.693 54.749 50.838 52.297 52.481 43.301 44.751 37.409 36.831 42.483 36.984 36.854 42.935 45.973 45.881 47.29 43.598 40.143 39.218 38.936 38.697 38.134 37.909 37.553 37.398 37.353 37.429 37.483 37.194 37.127 36.889 36.79 36.693 36.728 36.647 36.696 36.604 36.605 36.62 36.573 36.574 36.548 36.529 36.546 36.509 36.538 36.492 36.51 36.443 36.443 36.378 36.355 36.35 36.312 36.365 36.32 36.325 36.325 36.267 36.269 36.858 36.571 36.183 36.148 36.192 36.159 36.194 37.106 36.888 36.084 37.866 36.045 36.733 36.062 36.015 38.252 40.56 36.854 36.759 35.97 35.903 38.202 35.898 36.381 36.566 35.773 35.764 35.747 35.846 35.843 35.836 35.993 37.774 35.723 35.691 35.784 35.644 35.642 35.636 35.635 35.585 37.034 35.59 35.553 35.931 35.606 35.555 35.48 35.406 35.387 35.399 35.358 35.693 36.118 36.537 36.674 36.71 36.541 36.043 36.317 37.699 36.506 36.653 36.076 36.966 38.895 36.854 38.172 37.852 46.146 47.558 45.141 47.789 46.472 45.499 42.766 46.965 47.86 48.115 49.87 51.184 50.253 44.28 43.446 43.289 43.265 45.668 46.348 46.932 47.689 45.108 40.611 46.525 45.963 40.299 41.562 38.789 39.172 39.27 39.321 39.28 39.24 39.355 39.623 39.484 39.651 39.237 39.224 39.276 39.224 39.272 39.299 39.199 39.219 39.168 39.162 39.142 39.119 39.118 39.025 41.682 43.419 43.742 42.211 44.169 47.113 45.849 50.952 50.394 48.965 49.83 50.999 51.787 51.031 48.613 49.883 50.029 42.682
81.779 81.907 82 81.841 81.709 81.634 81.809 88.494 84.782 87.611 84.328 82.147 82.254 82.336 82.404 82.555 82.682 82.81 82.837 83.066 83.173 83.213 83.372 83.577 83.599 83.85 95.18 89.748 84.167 84.391 84.567 90.285 94.931 100.298 100.452 102.921 97.28 101.743 101.651 93.607 93.584 87.713 90.476 94.216 88.928 95.873 95.515 90.845 90.736 91.944 88.656 90.351 90.501 85.758 85.69 85.553 85.439 85.46 85.464 85.433 85.431 85.436 85.058 84.989 85.447 85.947 85.339 85.144 85.071 85.08 85.381 85.484 84.673 84.614 84.759 84.572 84.483 84.484 84.441 84.432 84.406 84.396 84.326 84.24 84.185 84.237 91.543 96.312 95.939 92.741 94.395 95.736 88.787 84.121 83.548 83.776 85.723 85.87 92.684 94.519 98.862 99.184 99.225 94.788 93.106 89.624 89.354 84.597 83.402 83.331 83.324 83.344 83.272 83.517 95.971 97.483 99.888 99.32 96.316 87.216 85.51 83.12 83.208 83.718 83.523 80.986 82.183 83.108 83.875 83.754 83.599 84.033 83.136 84.711 83.707 83.282 83.245 83.325 83.259 83.14 82.189 81.138 80.932 80.77 80.641 80.54 80.487 80.416 80.295 80.219 80.125 80.009 79.911 79.79 79.62 85.192 89.911 89.503 90.21 93.6 93.502 93.271 94.129 84.898 78.728 78.348 78.106 77.899 77.707 77.524 77.316 77.132 77.038 76.978 77.004 76.908 76.782 77.308 76.595 76.703 81.352 83.407 84.13 85.558 84.789 80.216 84.522 83.962 87.102 87.974 86.829 85.723 86.281 87.77 88.086 88.457 83.099 73.264 86.039 86.655 80.693 78.19 81.769 80.497 81.805 78.862 81.868 81.735 79.875 79.716 79.496 77.287 69.25 71.151 68.358 59.687 62.695 53.211 61.856 69.971 64.748 71.048 69.032 68.641 69.353 69.518 68.321 64.574 52.36 59.579 51.444 59.245 54.925 50.632 53.759 55.301 54.9 53.601 54.615 55.617 54.694 51.336 46.975 42.414 45.709 41.835 36.849 37.185 38.17 39.871 47.296 43.119 43.3 40.974 39.383 39.073 38.867 38.704 38.295 37.814 37.671 37.401 37.392 37.377 37.249 37.216 37.126 36.808 36.708 36.711 36.699 36.652 36.642 36.612 36.595 36.594 36.755 36.981 36.549 36.566 36.478 36.414 36.417 36.451 36.439 36.443 36.385 36.357 36.31 36.333 36.479 36.949 36.264 36.377 36.375 36.303 36.233 36.182 36.165 36.141 36.15 36.112 36.118 38.102 36.207 36.189 37.454 38.122 39.339 36.754 35.983 41.884 37.309 37.465 38.597 36.888 35.962 35.944 35.91 35.958 35.789 35.793 35.764 35.767 35.85 37.906 36.457 36.662 35.716 35.758 35.718 36.008 35.636 35.635 36.235 35.642 35.581 35.551 35.542 35.555 35.504 35.516 35.817 35.509 35.443 35.437 35.396 35.351 35.357 35.507 36.377 36.806 37.199 36.177 35.825 35.653 35.584 35.622 35.746 36.024 38.982 38.999 40.51 42.008 37.856 45.275 43.091 43.238 43.946 42.688 42.248 42.457 45.832 49.154 51.217 46.171 51.535 51.448 47.299 46.032 45.271 44.124 44.524 47.757 48.291 47.642 45.662 42.857 48.249 43.396 46.408 46.15 39.045 38.725 39.084 39.232 39.302 39.234 39.217 39.331 39.32 40.346 39.256 39.26 39.318 39.189 39.28 39.289 39.201 39.225 39.527 40.302 39.222 39.176 39.184 39.195 39.235 39.282 40.438 39.554 41.488 45.074 46.86 50.913 51.393 48.784 52.119 50.683 48.864 51.685 51.13 48.983 50.113 44.268
81.955 82.078 82.175 82.081 81.927 82.102 85.148 97.627 100.444 97.142 92.949 86.406 84.019 84.5 82.956 82.79 83.018 83.076 83.177 83.308 83.432 83.536 83.714 84.02 83.893 84.12 84.214 84.361 84.469 84.616 84.762 85.762 99.405 103.937 104.844 104.713 104.669 103.043 102.08 100.579 97.269 88.248 90.507 90.464 91.68 94.218 95.695 95.962 93.19 94.074 91.555 87.24 86.738 85.872 85.813 85.706 85.537 85.434 85.528 85.563 85.567 85.582 85.674 85.809 86.212 86.097 85.715 85.576 85.423 85.369 85.63 85.816 85.136 85.218 85.09 84.774 84.669 84.609 84.636 84.604 84.526 84.498 84.44 84.391 84.275 84.459 94.785 96.794 96.661 90.097 84.567 87.956 84.143 83.655 90.364 95.234 85.391 95.586 97.317 94.991 95.705 99.005 98.788 97.575 96.229 90.827 89.514 83.604 83.467 83.476 83.404 83.333 83.289 83.242 84.475 93.285 89.324 90.106 95.085 91.861 84.668 83.246 83.26 83.521 84.073 83.953 83.87 83.828 83.834 83.815 83.825 83.871 83.812 84.421 83.725 83.411 83.234 83.273 83.243 83.193 82.301 81.263 80.958 80.778 80.653 80.63 80.513 80.36 80.272 80.201 80.086 80.033 79.926 79.842 80.268 88.636 90.238 91.836 95.196 96.408 95.656 96.453 87.402 92.728 80.608 78.445 78.271 78.022 77.703 77.448 77.269 77.155 77.036 77.025 76.941 76.876 76.801 76.662 76.608 76.457 76.327 77.216 82.241 77.801 77.171 86.97 88.241 87.682 86.11 86.482 85.765 80.825 78.521 85.084 86.322 76.739 85.224 83.878 82.274 82.313 82.744 79.228 71.201 79.642 76.439 78.224 79.212 73.755 77.233 74.28 79.951 78.046 73.954 71.641 72.558 65.858 63.108 73.359 72.985 73.039 74.501 72.35 70.463 70.569 70.247 68.733 65.56 51.005 55.404 59.979 58.709 59.271 58.215 50.164 55.225 52.785 53.56 49.854 54.865 54.723 54.747 50.106 49.527 48.637 52.157 48.995 41.851 38.244 36.813 37.899 37.768 37.448 38.735 42.052 41.018 39.361 38.954 38.845 38.729 38.356 37.942 37.602 37.576 37.488 37.398 37.214 37.139 37.04 37.794 36.735 36.665 36.626 36.672 36.586 36.629 36.585 36.543 37.03 36.542 36.553 36.534 36.454 36.422 36.346 36.429 36.408 36.414 36.342 36.285 36.769 37.153 37.028 36.486 36.261 36.268 36.292 36.184 36.189 36.155 36.164 36.109 36.189 36.145 36.132 36.094 36.065 36.051 36.047 36.77 36.035 39.194 36.142 38.34 36.896 39.31 35.968 36.447 36.554 35.861 36.189 35.846 35.85 36.536 35.814 35.753 36.185 37.026 35.702 35.689 35.639 35.656 35.647 35.656 35.623 35.673 35.594 35.529 35.6 36.086 36.406 36.423 35.48 35.437 35.509 35.46 35.487 35.343 35.33 35.348 35.348 35.633 35.915 36.197 35.864 35.64 35.637 35.447 35.574 35.732 36.522 46.804 40.889 39.522 40.406 38.389 39.215 37.299 36.705 36.282 38.172 39.144 38.024 44.714 49.196 50.861 51.623 51.711 45.872 47.389 49.487 48.499 45.823 42.788 45.608 47.791 45.134 44.885 43.477 46.365 47.094 43.024 45.786 45.693 43.639 38.859 39.041 39.285 39.225 39.279 39.302 39.26 39.24 39.265 39.577 41.542 39.227 39.258 39.206 39.234 39.401 40.668 39.637 39.205 39.285 39.208 39.219 39.216 39.271 39.507 39.635 39.513 41.24 43.277 48.322 48.877 49.407 51.185 51.454 50.908 47.249 50.974 47.197 50.28 46.925
82.178 82.137 82.317 82.291 82.341 87.033 92.439 98.671 100.09 99.949 97.745 85.806 90.516 92.338 89.548 83.157 83.671 83.685 83.555 83.636 83.664 83.759 84.39 92.199 87.221 84.393 84.609 84.64 84.799 84.956 85.097 85.382 99.64 104.426 105.71 102.356 104.601 102.009 101.186 99.741 95.458 87.539 88.634 91.204 93.261 93.31 95.728 93.686 93.116 93.957 94.761 91.382 88.418 86.102 85.943 85.915 85.75 85.76 85.738 85.734 85.695 85.675 85.866 86.062 86.133 86.086 85.789 85.698 85.648 85.67 85.8 85.974 85.883 85.644 85.203 84.878 84.792 84.726 84.775 84.805 85.503 84.894 84.573 84.531 84.417 84.361 86.103 93.21 89.204 86.463 84.137 92.412 89.659 90.488 90.998 95.981 97.39 97.377 97.479 96.544 94.372 94.751 94.469 94.131 91.755 89.149 84.453 83.523 83.501 83.44 83.421 83.435 83.358 83.321 83.293 83.233 83.228 83.537 83.168 83.197 83.266 83.254 83.331 83.986 83.879 83.87 83.849 83.799 83.841 83.864 83.858 83.947 83.97 84.046 83.721 83.386 83.342 83.242 83.24 83.219 82.928 81.271 80.99 80.805 80.692 80.606 80.515 80.373 80.264 80.188 80.098 80.001 79.899 79.773 79.844 90.605 94.486 94.965 96.711 97.953 96.946 97.7 96.168 90.766 82.991 78.444 78.252 77.993 77.657 77.467 77.314 77.187 77.093 77 76.924 76.812 76.75 76.682 76.562 76.477 76.334 76.154 76.306 85.741 81.466 86.577 86.764 85.701 84.483 80.258 83.01 76.612 81.68 82.823 82.75 82.631 78.503 72.137 83.401 84.309 68.772 69.21 67.32 74.315 72.234 66.069 68.044 65.95 77.388 74.752 80.04 71.692 75.823 75.579 76.109 77.638 77.325 74.908 75.033 75.847 61.607 59.935 67.843 69.999 70.122 65.642 67.969 64.652 63.576 57.988 62.822 61.783 62.92 61.873 56.926 51.989 53.47 54.087 45.782 54.853 53.67 54.106 53.388 54.563 53.615 53.542 50.288 38.5 36.894 36.902 36.884 37.248 37.401 39.582 41.789 40.228 39.082 38.997 38.858 38.766 38.524 38.154 37.866 37.635 37.463 37.23 37.276 37.149 38.039 37.018 36.822 36.739 36.622 36.615 36.607 36.567 36.565 36.486 36.867 37.021 36.508 36.401 36.41 36.386 36.38 36.336 36.396 36.307 36.341 37.077 36.946 36.609 37.445 36.573 36.257 36.216 36.204 36.206 36.247 36.762 36.108 36.124 36.081 36.787 36.105 36.738 36.083 36.034 36.022 35.978 35.992 39.648 36.791 36.177 35.891 35.95 37.729 35.859 35.999 37.8 35.898 37.884 36.356 35.767 35.742 35.746 36.576 35.734 35.66 35.661 35.664 35.673 35.657 35.636 35.619 41.533 36.12 35.552 35.584 35.57 35.501 35.456 35.433 35.429 35.406 35.401 35.428 35.337 35.312 35.308 35.283 35.393 35.623 35.914 36.156 35.735 35.558 35.664 35.613 35.632 37.137 44.235 38.528 38.441 35.877 37.116 36.007 36.826 36.553 36.287 36.172 36.509 38.967 47.429 48.256 50.465 51.528 49.41 48.074 49.513 48.76 46.382 43.346 43.037 43.261 44.974 45.767 46.693 47.14 42.784 46.776 47.948 47.685 46.39 40.238 40.022 38.909 39.091 39.213 39.275 39.309 39.291 39.304 39.206 39.257 39.32 39.292 39.246 39.272 41.253 42.41 41.67 39.3 39.288 39.23 39.231 39.188 39.256 39.188 39.355 39.396 39.526 40.888 41.26 46.166 48.54 49.794 50.941 48.627 50.546 50.448 49.6 50.836 48.657
82.277 82.322 82.474 82.609 82.602 89.274 98.332 98.442 100.142 100.594 96.104 90.158 90.866 96.861 100.772 97.941 94.74 91.276 83.922 83.893 83.981 84.501 85.836 96.158 87.215 84.755 84.939 84.949 85.064 85.248 85.389 85.525 98.107 103.096 104.031 104.66 99.481 100.027 99.508 97.595 100.714 100.739 100.458 95.606 92.174 91.249 88.124 90.969 93.772 95.153 92.64 93.652 87.996 86.132 86.102 86.046 85.966 85.958 85.927 85.822 85.858 85.857 85.928 85.98 85.901 85.881 85.791 85.741 85.676 85.697 85.733 85.806 85.841 85.627 85.189 85.029 84.889 84.893 84.981 91.511 93.187 92.8 91.209 88.447 84.684 84.481 84.405 86.207 86.242 84.333 85.557 87.507 94.444 86.272 91.107 92.674 93.014 92.686 96.255 94.883 88.403 84.957 85.733 83.726 84.477 85.746 83.552 83.531 83.412 83.44 83.369 83.88 85.29 83.542 83.378 83.361 83.347 83.331 83.308 83.206 83.273 83.288 83.347 83.433 83.873 83.833 83.84 83.863 83.838 86.963 88.014 87.962 88.646 83.936 83.693 83.337 83.272 83.305 83.26 83.202 82.979 81.453 80.988 80.787 80.653 80.609 80.532 80.406 80.293 80.202 80.077 80.02 79.937 79.847 79.601 91.327 96.244 96.839 98.035 99.176 99.227 99.08 90.449 84.059 81.1 78.389 78.211 78.011 77.712 77.463 77.296 77.19 77.119 76.997 76.884 76.842 76.753 76.646 76.561 76.434 76.299 76.137 80.796 84.351 81.955 81.422 86.622 85.547 83.345 85.127 84.576 81.803 82.633 81.132 80.589 79.889 79.871 76.801 78.944 77.179 70.914 71.394 78.91 69.789 72.883 72.016 73.085 78.42 82.999 81.952 78.504 76.986 75.673 76.889 71.262 69.808 70.98 76.206 72.602 75.057 74.803 73.347 67.905 71.254 70.945 70.328 66.94 67.928 65.648 55.714 61.925 53.84 65.001 52.326 56.144 53.999 53.544 60.111 59.503 53.589 55.62 54.597 54.56 54.859 55.952 54.932 49.789 41.168 37.025 36.891 36.905 36.934 37.104 39.824 41.008 40.413 40.471 39.116 39.415 39 38.776 38.535 38.211 37.88 37.581 37.458 37.213 37.109 37.092 38.721 37.081 36.895 36.645 36.62 36.589 36.598 36.517 36.541 36.507 36.46 37.898 36.488 36.416 36.384 36.343 36.416 36.319 36.316 36.742 37.059 36.698 36.245 36.317 38.004 38.294 36.19 36.165 36.11 36.166 36.115 36.14 36.087 36.375 36.08 36.058 36.036 36.038 35.989 35.993 36.882 36.573 36.314 39.124 35.895 35.87 36.038 37.445 35.921 37.462 35.826 35.887 36.496 35.823 35.713 35.768 35.789 35.702 35.641 35.668 35.664 35.638 35.653 35.629 35.605 35.557 37.443 36.632 36.446 38.649 35.541 35.484 35.487 35.449 35.452 35.39 35.346 35.371 35.424 35.326 35.321 35.309 35.287 35.258 36.014 35.932 36.146 37.034 36.02 35.471 37.754 36.255 37.423 38.51 38.655 38.173 36.849 36.037 35.943 35.903 36.058 36.002 35.516 35.64 37.583 45.897 46.892 48.649 47.976 47.586 47.934 47.441 44.838 43.88 42.357 42.309 42.173 42.055 45.089 46.971 47.245 45.731 43.888 46.675 43.556 48.946 45.598 38.97 38.879 39.072 39.212 39.256 39.222 39.217 39.318 39.175 39.448 41.605 39.285 39.197 39.214 41.059 42.267 41.617 39.342 39.578 40.341 39.32 39.288 39.172 39.224 39.267 39.453 39.488 39.489 40.817 45.55 47.005 47.999 47.135 47.324 48.052 49.446 48.873 49.279
