ncols 431
nrows 30
xllcorner    426042
yllcorner    438556
cellsize     2
NODATA_value -9999
140.484 140.562 -9999 -9999 142.861 142.854 142.963 143.426 143.787 143.853 143.73 -9999 -9999 -9999 -9999 -9999 -9999 -9999 -9999 -9999 -9999 -9999 -9999 -9999 -9999 -9999 -9999 -9999 -9999 139.146 139.111 139.026 138.935 138.794 138.827 138.745 138.762 138.805 138.715 138.659 138.73 138.746 138.8 138.817 138.633 138.729 138.823 138.805 138.748 138.639 138.691 138.713 138.642 138.574 138.56 138.394 138.071 137.656 137.801 139.121 141.389 140.291 139.147 138.328 138.568 138.447 138.219 138.383 138.084 138.122 138.658 138.243 138.323 -9999 -9999 137.904 137.994 138.072 137.958 138.124 138.189 138.915 142.23 144.976 144.227 141.213 138.82 138.35 138.394 138.662 138.28 138.252 138.438 138.222 137.847 138.707 139.208 138.069 137.922 137.898 137.907 138.705 139.416 139.955 143.004 143.215 139.701 140.022 140.523 139.402 139.191 139.235 139.27 139.02 139.025 139.58 139.904 143.185 141.653 139.599 138.871 138.907 140.917 141.618 139.111 139.297 138.346 138.32 138.197 138.219 138.188 138.214 138.383 138.589 138.657 138.457 138.166 138.32 -9999 138.895 138.499 137.867 137.594 137.408 137.945 138.947 139.141 138.4 137.531 137.392 137.121 137.093 137.103 137.018 137.052 137.157 137.379 137.346 137.304 137.406 138.446 140.935 140.158 138.365 137.971 138.448 139.603 139.888 138.185 138.667 138.306 138.885 139.217 141.128 142.965 142.841 142.496 139.567 138.501 138.426 138.548 138.597 138.756 139.378 140.541 140.854 140.681 140.674 142.054 143.673 145.236 145.42 144.407 142.592 140.494 138.994 139.243 138.876 138.978 -9999 -9999 139.257 139.298 139.758 140.813 141.082 144.012 144.809 145.363 143.845 141.671 139.612 139.785 141.873 140.944 139.84 140.169 140.03 140.384 140.106 139.686 139.568 141.184 144.213 145.715 144.31 142.701 141.9 141.235 140.742 140.69 140.717 140.885 141.041 141.219 141.267 141.347 141.467 141.854 142.25 141.505 141.572 141.65 141.804 142.277 142.724 142.279 143.196 143.424 142.86 142.674 143.141 144.804 147.855 150.078 151.336 150.968 149.128 146.13 143.219 142.329 142.22 142.19 142.196 142.213 142.261 142.282 142.388 142.467 142.515 142.555 142.599 142.636 142.759 142.81 142.734 142.696 142.832 142.92 144.145 145.033 144.654 143.267 143.1 143.859 144.533 143.812 143.236 143.667 146.105 145.389 143.544 143.166 143.183 144.097 143.475 142.307 142.01 141.986 141.977 141.953 141.946 141.896 141.922 141.901 141.849 141.848 141.794 141.831 142.132 142.35 141.734 141.685 141.51 141.104 140.912 140.916 140.835 140.736 140.739 -9999 -9999 -9999 -9999 -9999 -9999 -9999 -9999 -9999 -9999 -9999 -9999 -9999 -9999 -9999 -9999 -9999 -9999 -9999 -9999 -9999 -9999 -9999 -9999 -9999 -9999 -9999 -9999 -9999 -9999 -9999 -9999 -9999 -9999 -9999 -9999 -9999 -9999 -9999 -9999 -9999 -9999 -9999 -9999 -9999 -9999 -9999 -9999 -9999 -9999 -9999 -9999 -9999 -9999 -9999 -9999 -9999 -9999 -9999 -9999 -9999 -9999 -9999 -9999 -9999 -9999 -9999 -9999 -9999 -9999 -9999 -9999 -9999 -9999 -9999 -9999 -9999 -9999 -9999 -9999 -9999 -9999 -9999 -9999 -9999 -9999 -9999 -9999 -9999 -9999 -9999 -9999 -9999 -9999 -9999 -9999 -9999 -9999 -9999 -9999 -9999 -9999 -9999 -9999 -9999 -9999 -9999 -9999 -9999 -9999 -9999
141.826 141.91 142.411 143.021 143.107 142.989 142.85 143.322 143.595 143.647 -9999 -9999 -9999 -9999 -9999 -9999 -9999 -9999 -9999 -9999 -9999 -9999 -9999 -9999 -9999 -9999 -9999 -9999 -9999 -9999 -9999 138.981 138.876 138.831 138.74 138.734 138.713 138.598 138.579 138.647 138.652 138.687 138.731 138.828 138.748 138.69 138.801 138.823 138.715 138.572 138.539 138.366 138.368 138.45 138.425 138.12 137.856 138.02 139.767 142.156 143.485 142.146 139.841 138.136 138.612 138.431 138.159 138.094 138.091 138.831 141.832 138.423 138.612 -9999 137.733 137.789 137.492 137.532 137.606 137.885 138.18 138.565 139.864 142.48 140.496 138.58 138.285 138.425 140.289 140.438 140.288 141.792 141.55 138.824 137.75 137.399 137.425 137.59 137.694 137.574 137.535 137.783 138.367 142.558 147.78 141.324 140.004 138.799 138.754 138.778 138.8 138.933 139.012 139.38 139.233 138.819 139.037 140.546 140.274 139.066 138.482 138.623 141.725 143.147 143.121 142.827 139.303 138.511 138.268 138.343 138.223 138.138 138.213 138.783 138.831 138.522 138.027 137.826 137.991 137.975 138.148 137.96 137.739 137.655 138.07 138.264 137.376 137.565 137.351 137.001 136.904 136.972 137.034 136.989 136.993 137.119 137.333 137.374 137.276 138.034 141.108 141.923 141.741 140.165 137.747 138.111 138.379 138.114 137.715 137.585 137.613 138.325 138.564 140.12 141.58 142.111 140.539 139.515 138.829 138.424 138.435 138.419 138.602 139.245 140.379 140.618 140.401 139.409 140.631 142.681 144.897 145.748 145.372 144.333 141.179 139.606 139.597 139.107 -9999 -9999 -9999 139.231 138.951 138.959 140.034 140.341 143.018 145.35 145.887 145.143 143.844 141.207 139.923 140.769 140.187 139.362 139.495 139.611 139.921 139.627 139.413 139.467 140.167 141.391 143.863 142.45 140.483 140.426 140.403 140.681 140.686 140.662 140.942 141.148 141.251 141.097 141.133 141.271 141.971 142.625 141.654 141.718 141.764 141.717 141.872 142.039 141.93 141.879 142.179 142.389 142.739 143.082 144.028 146.737 148.899 150.068 149.413 149.123 145.548 142.747 142.262 142.159 142.172 142.184 142.224 142.324 142.334 142.425 142.392 142.415 142.39 142.399 142.524 142.605 142.69 142.62 142.61 143.015 143.544 144.74 146.026 146.083 143.947 143.195 143.983 146.009 143.206 143.531 145.343 148.035 147.78 144.206 142.967 144.277 146.31 145.027 142.586 142.158 142.055 142.104 141.981 141.872 141.857 141.917 142.099 142.318 142.347 142.257 141.837 141.827 141.734 141.471 140.974 140.802 140.799 140.734 140.639 140.626 140.67 140.668 -9999 -9999 -9999 -9999 -9999 -9999 -9999 -9999 -9999 -9999 -9999 -9999 -9999 -9999 -9999 -9999 -9999 -9999 -9999 -9999 -9999 -9999 -9999 -9999 -9999 -9999 -9999 -9999 -9999 -9999 -9999 -9999 -9999 -9999 -9999 -9999 -9999 -9999 -9999 -9999 -9999 -9999 -9999 -9999 -9999 -9999 -9999 -9999 -9999 -9999 -9999 -9999 -9999 -9999 -9999 -9999 -9999 -9999 -9999 -9999 -9999 -9999 -9999 -9999 -9999 -9999 -9999 -9999 -9999 -9999 -9999 -9999 -9999 -9999 -9999 -9999 -9999 -9999 -9999 -9999 -9999 -9999 -9999 -9999 -9999 -9999 -9999 -9999 -9999 -9999 -9999 -9999 -9999 -9999 -9999 -9999 -9999 -9999 -9999 -9999 -9999 -9999 -9999 -9999 -9999 -9999 -9999 -9999 -9999 -9999 -9999
142.09 142.32 143.038 143.398 143.15 143.201 143.109 143.209 143.368 143.389 -9999 -9999 -9999 -9999 -9999 -9999 -9999 -9999 -9999 -9999 -9999 -9999 -9999 -9999 -9999 -9999 -9999 -9999 -9999 -9999 -9999 -9999 -9999 -9999 138.728 138.708 138.642 138.561 138.57 138.611 138.57 138.659 138.581 138.633 138.756 138.71 138.552 138.623 138.739 138.506 137.968 137.96 138.135 138.143 138.013 138.058 137.916 138.485 141.489 143.096 143.583 143.477 142.667 139.411 138.629 138.168 138.121 138.469 139.131 138.725 139.483 139.889 139.1 139.126 138.505 137.958 137.509 137.433 137.884 138.273 138.199 138.096 138.241 139.648 138.629 138.705 138.916 138.427 141.579 145.68 146.355 150.769 149.644 143.527 138.779 137.422 137.381 137.404 137.449 137.34 137.432 138.271 140.571 142.169 146.566 142.803 139.075 138.527 138.604 138.608 138.615 138.723 138.798 139.277 139.023 138.689 138.857 139.043 139.285 138.712 138.354 139.389 142.771 145.339 145.12 144.453 143.053 141.542 139.32 138.261 138.096 137.87 137.833 138.229 138.828 138.418 137.919 137.67 137.752 137.915 138.056 138.26 138.356 138.771 139.504 139.304 138.096 137.735 137.093 136.776 136.683 136.709 136.851 136.779 136.911 136.964 137.193 137.445 137.41 137.743 141.075 143.278 143.501 142.887 140.02 137.657 137.388 137.276 137.206 137.338 137.59 137.96 137.779 138.18 138.926 139.538 139.389 138.954 139.043 138.449 138.382 138.322 138.28 138.344 139.825 140.698 139.097 138.672 139.199 142.396 144.266 145.393 145.731 143.692 139.544 139.268 139.021 138.991 138.78 138.609 138.558 138.76 138.769 138.955 139.814 140.092 143.22 144.987 146.122 145.75 143.536 141.549 141.253 139.987 139.206 139.018 139.205 139.457 139.497 139.193 139.225 139.367 139.521 139.617 140.453 140.424 140.173 140.02 140.142 140.597 140.756 141.043 141.17 141.037 141.001 141.018 140.929 141.013 141.334 141.607 142.328 142.62 141.813 141.553 141.594 141.689 141.684 141.658 141.697 142.264 143.659 143.462 144.445 146.198 147.659 147.488 147.87 144.397 144.294 142.661 142.128 142.105 142.191 142.196 142.338 142.42 142.434 142.37 142.325 142.307 142.305 142.311 142.4 142.449 142.447 142.536 142.566 -9999 -9999 145.376 146.771 147.185 144.361 143.485 143.746 144.575 143.911 144.591 146.923 148.195 148.792 144.998 143.216 143.046 148.61 146 144.089 142.779 142.159 141.994 141.941 141.851 141.781 142.015 142.484 143.821 143.513 143.197 141.728 141.402 141.179 141.118 140.929 140.869 140.755 140.589 140.472 140.581 140.606 140.589 -9999 -9999 -9999 -9999 -9999 -9999 -9999 -9999 -9999 -9999 -9999 -9999 -9999 -9999 -9999 -9999 -9999 -9999 -9999 -9999 -9999 -9999 -9999 -9999 -9999 -9999 -9999 -9999 -9999 -9999 -9999 -9999 -9999 -9999 -9999 -9999 -9999 -9999 -9999 -9999 -9999 -9999 -9999 -9999 -9999 -9999 -9999 -9999 -9999 -9999 -9999 -9999 -9999 -9999 -9999 -9999 -9999 -9999 -9999 -9999 -9999 -9999 -9999 -9999 -9999 -9999 -9999 -9999 -9999 -9999 -9999 -9999 -9999 -9999 -9999 -9999 -9999 -9999 -9999 -9999 -9999 -9999 -9999 -9999 -9999 -9999 -9999 -9999 -9999 -9999 -9999 -9999 -9999 -9999 -9999 -9999 -9999 -9999 -9999 -9999 -9999 -9999 -9999 -9999 -9999 -9999 -9999 -9999 -9999 -9999 -9999
142.593 142.598 142.907 143.059 142.886 142.891 142.687 142.592 142.647 142.594 -9999 -9999 -9999 -9999 -9999 -9999 -9999 -9999 -9999 -9999 -9999 -9999 -9999 -9999 -9999 -9999 -9999 -9999 -9999 -9999 -9999 -9999 -9999 -9999 -9999 -9999 138.621 138.586 138.581 138.622 138.661 138.553 138.148 138.384 138.584 138.268 138.033 138.275 138.354 137.876 137.602 137.746 137.776 137.776 137.81 138.034 138.138 137.784 139.621 141.641 143.137 144.287 143.857 142.703 141.444 138.959 138.583 139.115 142.67 139.216 139.144 140.068 140.001 139.259 138.535 138.186 138.014 137.287 137.623 138.453 138.008 137.054 136.513 137.964 139.11 139.842 139.949 138.467 141.171 145.664 149.029 148.618 149.987 146.725 143.982 139.788 138.048 137.343 137.45 137.4 137.608 138.075 141.11 144.584 142.158 139.158 138.203 138.229 138.288 138.351 138.42 138.502 138.503 138.7 138.896 138.851 139.506 140.315 139.421 138.778 138.592 140.159 143.164 144.199 145.358 145.273 145.182 144.19 143.031 139.612 138.499 137.799 137.599 138.322 138.085 138.124 138.12 137.751 137.638 137.908 138.112 138.389 138.324 138.898 141.956 141.6 139.905 138.794 137.496 136.672 136.432 136.594 136.665 136.775 136.942 136.905 137.049 137.134 137.126 138.434 142.024 144.085 144.428 143.066 141.247 137.915 137.121 137.221 137.291 138.093 139.131 139.575 138.205 137.748 137.98 138.176 138.314 138.078 138.096 138.223 138.205 138.159 138.093 139.067 141.355 142.666 139.906 138.303 138.733 140.433 141.989 143.845 144.499 143.114 139.337 138.911 138.882 138.864 138.75 138.473 138.409 138.547 138.671 138.657 138.709 139.195 139.982 143.906 145.563 145.759 143.783 141.856 140.776 139.417 139.072 138.889 138.921 139.134 139.048 139.041 139.17 139.26 139.454 139.711 140.502 140.452 140.555 140.183 140.281 140.546 140.833 142.008 141.89 140.808 140.781 140.992 140.934 141.137 141.653 141.993 142.236 141.605 141.396 141.406 141.441 141.506 141.563 141.549 141.574 141.78 142.26 142.671 143.387 145.844 145.827 145.12 143.17 143.589 143.019 142.018 142.198 142.007 142.106 142.217 142.285 142.8 142.61 142.291 142.236 142.264 142.257 142.3 142.364 142.374 142.303 142.389 142.463 -9999 -9999 -9999 145.496 145.254 143.696 143.059 143.467 144.015 143.145 143.126 148.226 147.365 146.28 144.544 142.952 143.887 145.234 144.415 144.551 143.624 142.286 141.886 141.821 141.834 141.855 142.366 143.791 145.493 143.83 143.036 141.63 140.971 140.841 140.936 140.915 140.803 140.746 140.644 140.527 140.493 140.444 140.472 140.507 -9999 -9999 -9999 -9999 -9999 -9999 -9999 -9999 -9999 -9999 -9999 -9999 -9999 -9999 -9999 -9999 -9999 -9999 -9999 -9999 -9999 -9999 -9999 -9999 -9999 -9999 -9999 -9999 -9999 -9999 -9999 -9999 -9999 -9999 -9999 -9999 -9999 -9999 -9999 -9999 -9999 -9999 -9999 -9999 -9999 -9999 -9999 -9999 -9999 -9999 -9999 -9999 -9999 -9999 -9999 -9999 -9999 -9999 -9999 -9999 -9999 -9999 -9999 -9999 -9999 -9999 -9999 -9999 -9999 -9999 -9999 -9999 -9999 -9999 -9999 -9999 -9999 -9999 -9999 -9999 -9999 -9999 -9999 -9999 -9999 -9999 -9999 -9999 -9999 -9999 -9999 -9999 -9999 -9999 -9999 -9999 -9999 -9999 -9999 -9999 -9999 -9999 -9999 -9999 -9999 -9999 -9999 -9999 -9999 -9999
143.005 142.635 142.679 142.465 142.084 142.17 140.721 141.04 141.631 -9999 -9999 -9999 -9999 -9999 -9999 -9999 -9999 -9999 -9999 -9999 -9999 -9999 -9999 -9999 -9999 -9999 -9999 -9999 -9999 -9999 -9999 -9999 -9999 -9999 -9999 -9999 -9999 -9999 -9999 138.617 138.592 138.43 138.209 138.3 138.199 137.606 137.657 137.728 137.57 137.518 137.565 137.559 137.569 137.617 137.71 137.916 138.276 137.915 137.877 138.172 140.551 143.346 144.2 144.179 143.977 142.248 140.022 138.563 140.397 139.238 137.943 139.552 139.619 138.01 138.074 137.749 137.561 137.017 137.162 138.297 137.241 136.755 136.522 136.869 138.235 139.965 139.91 140.494 141.123 141.294 144.947 145.347 147.297 149.197 146.345 139.876 137.797 137.313 137.583 137.585 137.574 138.525 139.583 140.23 139.037 138.227 138.146 138.068 138.072 138.233 138.322 138.354 138.262 138.359 138.504 139.527 140.593 140.512 139.96 138.68 138.259 138.412 140.702 142.398 143.633 144.269 145.035 145.217 142.762 140.138 138.418 138.384 140.012 140.213 138.477 138.364 138.939 138.11 137.841 137.764 138.305 137.836 137.77 138.21 142.949 141.861 140.031 139.224 138.185 136.84 136.486 136.521 136.615 136.693 136.797 136.81 136.992 136.892 136.866 138.36 143.091 144.388 144.34 143.203 139.835 137.299 137.377 137.944 137.566 138.572 139.946 138.905 137.846 137.854 137.471 137.768 138.029 138.019 138.077 138.13 137.9 137.866 138.426 141.602 142.391 142.437 141.092 138.6 138.366 139.042 139.912 139.942 140.919 139.531 139.232 138.817 139.207 139.163 139.003 138.423 138.393 -9999 138.626 138.574 138.524 138.864 140.684 143.901 145.542 145.469 143.983 142.037 141.123 140.234 139.255 138.986 138.812 138.957 139.103 139.036 139.297 139.697 139.66 141.043 142.628 144.031 142.234 140.414 140.452 140.946 140.934 142.906 143.085 141.446 140.598 140.807 141.103 141.478 142.004 141.404 141.585 141.351 141.236 141.309 141.324 141.403 141.473 141.495 141.52 141.558 141.808 142.113 142.497 142.425 143.745 143.476 143.301 142.801 142.409 143.459 144.434 143.828 142.344 142.131 142.081 142.239 142.221 142.146 142.229 142.242 142.239 142.264 142.325 142.373 142.347 142.32 -9999 142.298 142.697 -9999 -9999 -9999 143.461 143.379 143.937 145.317 144.565 143.634 145.006 145.758 143.957 143.909 143.809 142.584 142.558 142.452 144.4 143.326 141.998 141.676 141.752 141.887 142.064 142.331 142.282 144.226 143.248 141.614 141.037 140.885 140.868 140.856 140.8 140.749 140.737 140.651 140.578 140.557 140.474 140.456 -9999 -9999 -9999 -9999 -9999 -9999 -9999 -9999 -9999 -9999 -9999 -9999 -9999 -9999 -9999 -9999 -9999 -9999 -9999 -9999 -9999 -9999 -9999 -9999 -9999 -9999 -9999 -9999 -9999 -9999 -9999 -9999 -9999 -9999 -9999 -9999 -9999 -9999 -9999 -9999 -9999 -9999 -9999 -9999 -9999 -9999 -9999 -9999 -9999 -9999 -9999 -9999 -9999 -9999 -9999 -9999 -9999 -9999 -9999 -9999 -9999 -9999 -9999 -9999 -9999 -9999 -9999 -9999 -9999 -9999 -9999 -9999 -9999 -9999 -9999 -9999 -9999 -9999 -9999 -9999 -9999 -9999 -9999 -9999 -9999 -9999 -9999 -9999 -9999 -9999 -9999 -9999 -9999 -9999 -9999 -9999 -9999 -9999 -9999 -9999 -9999 -9999 -9999 -9999 -9999 -9999 -9999 -9999 -9999 -9999 -9999
142.535 141.689 142.01 140.866 139.639 139.809 139.128 139.041 140.153 -9999 -9999 -9999 -9999 -9999 -9999 -9999 -9999 -9999 -9999 -9999 -9999 -9999 -9999 -9999 -9999 -9999 -9999 -9999 -9999 -9999 -9999 -9999 -9999 -9999 -9999 -9999 -9999 -9999 -9999 -9999 -9999 -9999 138.264 138.192 137.984 137.608 137.513 137.469 137.42 137.444 137.479 137.502 137.541 137.525 137.567 137.671 137.871 137.707 137.419 137.48 138.562 140.368 143.088 144.16 143.739 142.744 140.698 139.713 138.559 137.812 137.423 137.594 137.303 136.71 137.312 -9999 137.057 136.763 137.319 139.365 140.744 139.468 139.028 137.432 137.032 137.624 137.737 138.836 145.296 142.543 140.532 140.413 144.601 143.476 139.623 138.323 137.589 138.094 138.37 137.915 137.639 138.146 138.156 138.887 138.614 138.05 138.059 138.007 137.955 138.023 138.182 138.355 138.286 138.126 137.984 138.785 140.311 140.242 139.162 138.217 138.277 138.277 138.436 139.016 141.03 143.009 143.359 143.492 142.865 139.402 138.395 139.536 142.413 142.978 141.293 141.399 142.293 141.567 139.916 138.638 137.781 137.45 137.49 137.893 139.279 140.052 139.735 139.229 137.892 136.901 136.505 136.529 136.506 136.467 136.473 136.775 136.921 136.779 136.802 139.027 142.487 144.349 144.005 142.082 138.2 136.767 137.01 136.971 137.035 137.15 137.897 138.494 139.612 138.821 137.676 137.312 137.8 138.005 137.878 137.79 137.564 137.548 137.805 139.509 141.793 140.858 139.434 138.1 138.068 138.485 138.767 138.983 139.124 139.639 139.085 138.825 139.504 139.753 139.065 138.168 138.172 138.181 138.38 138.45 138.599 139.054 139.756 143.102 144.487 144.649 143.852 142.149 141.322 141.234 140.475 139.405 139.069 139.367 139.917 139.597 139.305 139.639 139.699 141.245 145.136 144.348 141.531 140.16 140.068 140.088 140.573 141.428 142.836 141.661 140.613 140.911 141.259 141.434 140.946 140.98 141.111 141.403 141.217 141.182 141.198 141.26 141.397 141.356 141.406 141.513 141.722 141.886 142.196 142.57 142.286 142.627 144.429 144.578 144.885 147.838 148.986 147.569 144.516 142.469 142.018 142.019 142.1 142.124 142.168 142.196 142.167 142.236 142.271 142.283 -9999 142.17 142.21 142.282 142.318 142.455 -9999 142.495 143.267 143.648 144.057 146.024 145.702 143.633 144.206 145.74 143.484 142.682 142.304 142.239 142.3 142.398 142.771 142.484 141.837 141.707 141.753 141.887 142.067 142.163 141.862 142.025 141.262 141.113 141.001 140.908 140.877 140.886 140.802 140.73 140.683 140.638 140.596 140.563 140.471 140.419 140.398 -9999 -9999 -9999 -9999 -9999 -9999 -9999 -9999 -9999 -9999 -9999 -9999 -9999 -9999 -9999 -9999 -9999 -9999 -9999 -9999 -9999 -9999 -9999 -9999 -9999 -9999 -9999 -9999 -9999 -9999 -9999 -9999 -9999 -9999 -9999 -9999 -9999 -9999 -9999 -9999 -9999 -9999 -9999 -9999 -9999 -9999 -9999 -9999 -9999 -9999 -9999 -9999 -9999 -9999 -9999 -9999 -9999 -9999 -9999 -9999 -9999 -9999 -9999 -9999 -9999 -9999 -9999 -9999 -9999 -9999 -9999 -9999 -9999 -9999 -9999 -9999 -9999 -9999 -9999 -9999 -9999 -9999 -9999 -9999 -9999 -9999 -9999 -9999 -9999 -9999 -9999 -9999 -9999 -9999 -9999 -9999 -9999 -9999 -9999 -9999 -9999 -9999 -9999 -9999 -9999 -9999 -9999 -9999 -9999 -9999
141.255 139.602 141.105 139.454 138.613 138.585 138.369 138.552 -9999 -9999 -9999 -9999 -9999 -9999 -9999 -9999 -9999 -9999 -9999 -9999 -9999 -9999 -9999 -9999 -9999 -9999 -9999 -9999 -9999 -9999 -9999 -9999 -9999 -9999 -9999 -9999 -9999 -9999 -9999 -9999 -9999 -9999 -9999 -9999 -9999 137.545 137.498 137.432 137.417 137.396 137.4 137.443 137.438 137.466 137.452 137.511 137.534 137.426 137.543 137.566 137.678 138.162 140.445 142.612 143.329 141.983 139.975 139.142 142.727 139.486 137.481 137.293 136.687 136.632 -9999 137.188 137.045 136.619 136.634 137.75 141.358 142.743 141.951 139.292 137.373 136.898 136.983 137.881 141.496 143.982 144.496 140.673 140.032 138.312 137.848 137.71 138.089 138.896 139.192 138.181 138.644 138.868 137.566 138.006 137.827 137.395 137.683 137.847 137.514 137.681 137.988 138.184 138.34 137.846 137.801 137.947 138.959 139.255 138.859 138.202 138.167 138.022 137.936 138.289 139.433 140.442 141.052 141.98 140.53 138.883 138.096 138.875 142.396 143.19 143.625 144.256 144.036 143.295 142.429 141.281 137.966 137.586 138.258 139.382 138.831 140.187 140.016 138.786 137.163 136.631 136.447 136.35 136.373 136.398 136.457 136.557 136.611 136.514 136.711 138.104 141.627 141.289 142.832 141.68 137.699 136.945 136.814 136.839 136.569 136.592 136.847 136.987 138.09 138.836 138.734 138.205 137.687 137.729 137.854 137.827 137.432 137.269 137.247 137.438 138.56 138.557 137.82 137.803 137.912 138.718 138.683 138.963 139.624 139.805 140.083 139.06 139.607 140.538 139.67 138.397 137.98 138.117 -9999 138.339 138.395 138.935 139.368 140.647 141.631 141.732 141.279 139.952 140.587 140.532 140.682 138.901 139.362 139.953 140.37 139.9 140.281 139.626 139.479 140.504 144.416 143.426 140.103 139.713 139.78 139.994 140.158 140.355 140.545 140.829 141.078 141.008 141.042 140.766 140.758 140.818 140.912 141.665 141.568 141.232 141.065 141.162 141.278 141.292 141.351 141.493 141.898 142.566 143.234 143.302 142.928 142.13 144.3 146.714 148.786 149.941 149.811 149.142 147.521 144.141 142.062 142.153 142.285 142.358 -9999 142.173 142.168 142.189 142.196 -9999 142.091 142.1 142.137 142.248 142.335 142.297 142.268 142.281 142.428 143.032 143.659 143.626 143.276 143.406 146.432 146.994 144.112 142.01 141.94 142.019 142.159 142.164 142.26 142.445 142.521 142.749 142.059 141.952 141.865 141.558 141.139 141.046 140.955 140.979 140.933 140.916 140.853 140.845 140.768 140.663 140.618 140.678 140.615 140.497 140.395 140.332 140.362 -9999 -9999 -9999 -9999 -9999 -9999 -9999 -9999 -9999 -9999 -9999 -9999 -9999 -9999 -9999 -9999 -9999 -9999 -9999 -9999 -9999 -9999 -9999 -9999 -9999 -9999 -9999 -9999 -9999 -9999 -9999 -9999 -9999 -9999 -9999 -9999 -9999 -9999 -9999 -9999 -9999 -9999 -9999 -9999 -9999 -9999 -9999 -9999 -9999 -9999 -9999 -9999 -9999 -9999 -9999 -9999 -9999 -9999 -9999 -9999 -9999 -9999 -9999 -9999 -9999 -9999 -9999 -9999 -9999 -9999 -9999 -9999 -9999 -9999 -9999 -9999 -9999 -9999 -9999 -9999 -9999 -9999 -9999 -9999 -9999 -9999 -9999 -9999 -9999 -9999 -9999 -9999 -9999 -9999 -9999 -9999 -9999 -9999 -9999 -9999 -9999 -9999 -9999 -9999 -9999 -9999 -9999 -9999 -9999 -9999
139.188 138.554 138.796 138.389 138.174 138.265 138.233 138.283 -9999 -9999 -9999 -9999 -9999 -9999 -9999 -9999 -9999 -9999 -9999 -9999 -9999 -9999 -9999 -9999 -9999 -9999 -9999 -9999 -9999 -9999 -9999 -9999 -9999 -9999 -9999 -9999 -9999 -9999 -9999 -9999 -9999 -9999 -9999 -9999 -9999 -9999 -9999 -9999 137.404 137.394 137.391 137.395 137.368 137.469 137.427 137.474 137.508 137.875 138.518 137.719 137.968 138.265 138.049 139.649 140.804 139.21 137.799 138.72 140.895 142.665 143.016 137.827 136.83 136.548 136.876 137.425 137.323 136.701 136.839 138.181 141.951 143.262 142.131 138.766 136.867 136.772 136.876 136.903 137.804 141.316 145.162 142.867 139.917 139.083 138.033 137.795 138.387 138.679 138.729 138.017 138.582 139.045 137.923 137.582 137.41 137.277 137.171 137.168 137.09 137.244 137.669 137.932 138.583 138.483 137.865 137.744 138.173 138.885 138.711 137.965 137.88 137.883 137.895 138.036 138.348 138.366 139.081 138.822 138.554 138.051 137.792 137.765 138.738 140.412 143.203 143.979 143.554 143.524 143.526 141.625 138.75 138.111 138.726 141.203 141.242 141.143 138.648 138.515 137.568 136.369 136.273 136.088 136.139 136.25 136.262 136.258 136.251 136.221 136.248 136.846 137.305 137.693 140.572 141.296 137.887 137.134 137.763 137.519 136.769 136.473 136.444 136.559 136.912 138.41 139.684 138.866 137.219 138.199 140.573 139.621 137.558 137.097 137.231 137.361 137.549 137.614 137.478 137.463 137.462 138.145 138.787 140.068 141.765 142.032 142.107 141.938 140.928 140.29 139.179 138.386 138.137 -9999 -9999 -9999 138.015 138.002 138.119 138.791 139.184 138.801 139.57 139.573 139.008 139.029 138.662 139.081 139.93 140.03 139.428 138.894 139.093 139.264 139.415 140.476 142.729 142.755 139.901 139.354 139.424 139.586 139.716 139.864 140.211 140.234 140.443 140.596 140.597 140.645 140.636 140.71 140.768 141.127 141.559 141.559 141.449 141.235 141.038 141.16 141.274 141.622 142.416 143.607 144.427 143.955 143.725 143.02 145.054 147.395 148.875 150.318 150.571 149.87 148.721 146.308 143.093 142.837 143.179 142.73 142.339 142.141 142.119 142.128 142.076 142.058 142.047 142.06 142.068 142.167 142.293 142.275 142.256 142.203 142.196 142.59 142.984 142.362 142.388 142.92 144.161 146.466 143.832 142.208 141.905 141.926 141.982 142.098 142.343 143.168 144.332 144.63 143.15 141.92 141.44 141.131 140.948 140.928 140.912 140.876 140.881 140.796 140.786 140.696 140.6 140.672 140.637 140.593 140.535 140.462 140.414 140.346 140.332 -9999 -9999 -9999 -9999 -9999 -9999 -9999 -9999 -9999 -9999 -9999 -9999 -9999 -9999 -9999 -9999 -9999 -9999 -9999 -9999 -9999 -9999 -9999 -9999 -9999 -9999 -9999 -9999 -9999 -9999 -9999 -9999 -9999 -9999 -9999 -9999 -9999 -9999 -9999 -9999 -9999 -9999 -9999 -9999 -9999 -9999 -9999 -9999 -9999 -9999 -9999 -9999 -9999 -9999 -9999 -9999 -9999 -9999 -9999 -9999 -9999 -9999 -9999 -9999 -9999 -9999 -9999 -9999 -9999 -9999 -9999 -9999 -9999 -9999 -9999 -9999 -9999 -9999 -9999 -9999 -9999 -9999 -9999 -9999 -9999 -9999 -9999 -9999 -9999 -9999 -9999 -9999 -9999 -9999 -9999 -9999 -9999 -9999 -9999 -9999 -9999 -9999 -9999 -9999 -9999 -9999 -9999 -9999 -9999 -9999
138.268 138.2 138.211 138.15 138.147 138.161 138.225 138.186 -9999 -9999 -9999 -9999 -9999 -9999 -9999 -9999 -9999 -9999 -9999 -9999 -9999 -9999 -9999 -9999 -9999 -9999 -9999 -9999 -9999 -9999 -9999 -9999 -9999 -9999 -9999 -9999 -9999 -9999 -9999 -9999 -9999 -9999 -9999 -9999 -9999 -9999 -9999 -9999 -9999 -9999 137.387 137.39 137.397 137.382 137.307 137.39 138.696 140.654 140.625 138.843 138.915 139.22 138.262 137.481 136.649 136.653 137.097 136.88 136.274 139.263 141.651 139.856 137.113 136.386 137.094 137.602 137.911 137.105 137.141 138.642 141.558 142.667 140.924 137.503 136.857 136.593 136.658 136.868 137.135 138.352 139.264 147.788 147.099 142.234 138.024 137.486 138.167 138.109 137.791 137.815 138.083 137.612 137.297 137.418 137.25 136.836 136.65 136.802 136.772 137.034 137.218 137.19 137.815 138.114 138.032 137.681 137.589 137.746 137.605 137.387 137.491 137.66 137.748 137.917 137.986 138.04 138.267 138.48 138.459 138.39 138.077 137.42 137.394 137.813 140.257 141.047 141.382 142.054 142.988 140.709 139.077 139.171 140.04 140.356 139.024 137.358 136.967 137.423 137.685 136.416 135.946 135.771 135.827 135.839 135.957 136 136.043 135.89 135.458 135.778 136.024 136.658 137.134 137.188 136.765 137.386 138.709 138.094 137.281 136.437 136.332 136.39 136.621 137.441 138.677 138.349 137.501 139.998 143.312 139.487 137.876 137.316 137.618 137.254 137.138 137.217 137.164 137.091 137.208 137.379 138.351 140.4 142.37 143.523 143.351 142.725 142.11 139.603 138.617 137.946 137.722 -9999 137.554 137.639 137.717 137.966 138.232 139.878 142.018 141.155 142.115 140.25 138.696 138.276 138.28 138.726 139.319 139.552 139.059 138.583 138.583 139.069 140.567 140.146 140.034 141.756 139.834 139.173 139.19 139.326 139.546 139.889 140.294 140.544 140.373 140.363 140.53 140.528 140.541 140.59 140.664 140.875 141.418 142.06 141.963 141.46 140.93 141.084 141.296 142.365 144.11 144.154 144.211 143.288 142.213 142.027 143.755 145.917 147.169 149.162 150.697 150.473 148.012 145.669 143.789 143.408 143.623 142.564 142.132 142.102 142.086 142.086 142.039 142.027 142.038 142.077 142.03 142.041 142.143 142.241 142.211 142.151 142.148 142.347 142.261 142.392 142.651 142.997 143.088 143.87 142.39 142.43 141.839 141.842 141.849 142.04 142.375 144.072 144.657 144.539 142.874 141.677 141.34 141.024 140.899 140.831 140.929 140.834 140.828 140.694 140.632 140.633 140.59 140.636 140.598 140.497 140.545 140.445 140.359 140.283 140.306 -9999 -9999 -9999 -9999 -9999 -9999 -9999 -9999 -9999 -9999 -9999 -9999 -9999 -9999 -9999 -9999 -9999 -9999 -9999 -9999 -9999 -9999 -9999 -9999 -9999 -9999 -9999 -9999 -9999 -9999 -9999 -9999 -9999 -9999 -9999 -9999 -9999 -9999 -9999 -9999 -9999 -9999 -9999 -9999 -9999 -9999 -9999 -9999 -9999 -9999 -9999 -9999 -9999 -9999 -9999 -9999 -9999 -9999 -9999 -9999 -9999 -9999 -9999 -9999 -9999 -9999 -9999 -9999 -9999 -9999 -9999 -9999 -9999 -9999 -9999 -9999 -9999 -9999 -9999 -9999 -9999 -9999 -9999 -9999 -9999 -9999 -9999 -9999 -9999 -9999 -9999 -9999 -9999 -9999 -9999 -9999 -9999 -9999 -9999 -9999 -9999 -9999 -9999 -9999 -9999 -9999 -9999 -9999 -9999 -9999
138.092 138.15 138.187 138.201 138.073 137.962 138.036 138.099 -9999 -9999 -9999 -9999 -9999 -9999 -9999 -9999 -9999 -9999 -9999 -9999 -9999 -9999 -9999 -9999 -9999 -9999 -9999 -9999 -9999 -9999 -9999 -9999 -9999 -9999 -9999 -9999 -9999 -9999 -9999 -9999 -9999 -9999 -9999 -9999 -9999 -9999 -9999 -9999 -9999 -9999 -9999 -9999 137.373 137.335 137.586 138.344 141.511 141.392 140.896 139.686 139.447 139.085 138.066 137.207 137.242 137.347 138.619 137.758 136.858 137.135 137.217 136.905 137.077 136.671 -9999 137.204 137.049 136.78 136.488 138.67 141.401 143.024 142.688 140.4 137.312 136.526 136.506 136.729 136.766 136.703 138.891 144.644 142.315 138.976 137.403 137.282 137.483 137.577 137.337 137.404 137.268 136.72 136.528 136.724 136.61 136.474 136.507 136.514 136.614 136.881 137.226 136.929 136.759 136.822 137.266 137.215 137.074 137.074 137.134 137.143 137.378 137.587 137.616 137.721 137.824 137.831 137.963 138.499 139.558 139.426 139.024 137.438 137.38 138.467 139.951 139.021 138.128 139.246 139.891 138.261 138.431 138.756 138.71 137.305 136.909 136.536 136.534 136.544 136.319 135.913 135.669 135.562 135.61 135.673 135.863 135.877 135.91 135.76 135.657 135.565 136.596 138.102 136.662 136.168 135.882 136.329 136.482 137.972 137.778 136.782 136.28 136.48 136.723 136.678 137.346 137.437 136.896 138.573 140.247 139.898 138.394 137.427 137.568 137.213 137.429 137.201 137.076 137.055 137.135 137.336 137.754 139.682 142.503 143.801 144.062 143.281 141.566 138.713 137.918 137.667 137.647 137.593 137.564 137.553 137.522 137.84 138.432 139.665 143.415 143.577 143.362 141.811 139.111 138.105 138.059 138.154 138.347 138.662 138.399 138.371 138.375 138.523 139.254 138.972 139.246 139.576 139.106 139.123 139.14 139.433 139.627 139.915 140.531 140.789 140.379 140.3 140.355 140.466 140.428 140.406 140.525 140.642 141.101 141.377 141.618 141.7 140.985 141.029 141.477 142.753 142.334 142.67 142.496 141.709 141.372 141.629 142.047 143.315 143.869 147.699 149.39 147.932 144.916 142.893 142.391 142.536 142.348 141.969 141.798 142.075 142.024 142.002 142.023 142.011 142.003 142.007 141.91 141.893 142.008 142.073 142.072 142.063 -9999 -9999 -9999 142.622 142.546 142.605 144.472 143.487 142.668 141.918 141.79 141.861 141.894 141.82 141.971 142.264 143.763 143.509 142.209 141.535 141.308 140.968 140.741 140.725 140.798 140.874 140.829 140.661 140.588 140.611 140.57 140.568 140.582 140.445 140.465 140.411 140.352 140.285 140.327 -9999 -9999 -9999 -9999 -9999 -9999 -9999 -9999 -9999 -9999 -9999 -9999 -9999 -9999 -9999 -9999 -9999 -9999 -9999 -9999 -9999 -9999 -9999 -9999 -9999 -9999 -9999 -9999 -9999 -9999 -9999 -9999 -9999 -9999 -9999 -9999 -9999 -9999 -9999 -9999 -9999 -9999 -9999 -9999 -9999 -9999 -9999 -9999 -9999 -9999 -9999 -9999 -9999 -9999 -9999 -9999 -9999 -9999 -9999 -9999 -9999 -9999 -9999 -9999 -9999 -9999 -9999 -9999 -9999 -9999 -9999 -9999 -9999 -9999 -9999 -9999 -9999 -9999 -9999 -9999 -9999 -9999 -9999 -9999 -9999 -9999 -9999 -9999 -9999 -9999 -9999 -9999 -9999 -9999 -9999 -9999 -9999 -9999 -9999 -9999 -9999 -9999 -9999 -9999 -9999 -9999 -9999 -9999 -9999 -9999
137.992 137.995 138.034 138.08 137.943 137.856 137.876 -9999 -9999 -9999 -9999 -9999 -9999 -9999 -9999 -9999 -9999 -9999 -9999 -9999 -9999 -9999 -9999 -9999 -9999 -9999 -9999 -9999 -9999 -9999 -9999 -9999 -9999 -9999 -9999 -9999 -9999 -9999 -9999 -9999 -9999 -9999 -9999 -9999 -9999 -9999 -9999 -9999 -9999 -9999 -9999 -9999 -9999 -9999 138.39 139.104 139.102 140.904 141.842 139.188 139.324 137.885 137.123 137.066 137.402 139.127 140.694 140.548 139.756 138.568 136.224 136.199 136.206 136.256 -9999 136.697 136.393 136.189 136.374 138.06 141.756 143.163 141.81 138.53 136.619 136.525 136.537 136.634 137.038 138.572 141.032 142.969 138.038 137.153 136.893 136.837 136.946 137.395 137.333 137.091 136.889 136.636 136.274 136.182 136.16 136.222 136.166 136.081 136.332 136.36 136.625 136.27 136.271 136.486 136.642 136.418 136.566 136.87 136.926 137.072 137.348 137.931 137.89 137.626 137.711 137.803 137.938 138.121 138.555 139.142 139.044 137.643 137.408 139.407 141.27 140.233 138.706 137.944 138.102 138.39 138.341 138.267 136.683 136.322 136.25 136.255 136.287 136.379 136.061 135.772 135.536 135.444 135.509 135.725 135.849 135.862 135.899 135.917 136.353 138.153 140.191 140.74 139.77 136.241 135.997 135.887 136.123 136.695 137.042 136.365 136.04 136.434 136.921 136.338 136.758 137.118 136.846 136.927 138.023 140.048 138.716 137.828 137.696 137.198 137.74 137.252 136.981 136.88 137.047 137.226 137.469 138.57 141.944 144.538 144.804 143.471 141.481 138.288 137.652 137.524 137.563 137.649 137.585 137.564 137.505 137.828 138.938 142.572 144.087 144.6 143.973 142.534 139.816 138.238 137.867 137.942 138.567 138.581 138.312 138.165 138.186 138.361 138.573 138.849 139.652 139.712 139.07 139.164 139.695 140.259 140.466 140.727 141.866 141.561 140.68 140.4 140.714 140.942 140.479 140.23 140.306 140.502 140.747 140.87 140.825 141.174 141.068 140.923 141.167 141.323 141.412 141.229 141.263 141.305 141.35 141.374 141.41 141.815 143.467 146.689 145.828 143.624 142.346 142.466 142.445 142.457 141.785 141.747 141.779 141.927 141.83 141.826 141.919 141.929 141.884 141.862 141.849 141.87 141.879 141.885 141.88 141.845 -9999 -9999 -9999 143.242 143.134 143.408 144.829 143.665 142.052 141.726 141.782 141.882 142.103 142.053 142.259 144.083 145.027 142.535 142.764 141.908 141.203 140.9 140.722 140.625 140.783 140.844 140.865 140.684 140.598 140.537 140.53 140.517 140.527 140.42 140.367 140.35 140.483 140.383 140.284 -9999 -9999 -9999 -9999 -9999 -9999 -9999 -9999 -9999 -9999 -9999 -9999 -9999 -9999 -9999 -9999 -9999 -9999 -9999 -9999 -9999 -9999 -9999 -9999 -9999 -9999 -9999 -9999 -9999 -9999 -9999 -9999 -9999 -9999 -9999 -9999 -9999 -9999 -9999 -9999 -9999 -9999 -9999 -9999 -9999 -9999 -9999 -9999 -9999 -9999 -9999 -9999 -9999 -9999 -9999 -9999 -9999 -9999 -9999 -9999 -9999 -9999 -9999 -9999 -9999 -9999 -9999 -9999 -9999 -9999 -9999 -9999 -9999 -9999 -9999 -9999 -9999 -9999 -9999 -9999 -9999 -9999 -9999 -9999 -9999 -9999 -9999 -9999 -9999 -9999 -9999 -9999 -9999 -9999 -9999 -9999 -9999 -9999 -9999 -9999 -9999 -9999 -9999 -9999 -9999 -9999 -9999 -9999 -9999 -9999
137.971 137.854 137.773 137.761 137.513 137.577 137.577 -9999 -9999 -9999 -9999 -9999 -9999 -9999 -9999 -9999 -9999 -9999 -9999 -9999 -9999 -9999 -9999 -9999 -9999 -9999 -9999 -9999 -9999 -9999 -9999 -9999 -9999 -9999 -9999 -9999 -9999 -9999 -9999 -9999 -9999 -9999 -9999 -9999 -9999 -9999 -9999 -9999 -9999 -9999 -9999 -9999 -9999 -9999 -9999 139.789 140.226 139.686 143.224 142.813 139.174 137.151 136.845 136.626 136.129 138.401 141.039 141.886 141.673 139.397 136.721 136.115 135.889 135.868 -9999 136.254 136.282 136.289 136.395 136.692 139.337 141.208 141.076 139.206 137.112 136.381 136.427 136.476 138.62 141.663 140.778 150.055 142.777 137.888 136.535 136.527 136.679 137.005 136.948 137.1 136.626 136.207 136.019 135.985 135.99 135.887 135.61 135.801 135.787 135.671 135.682 135.635 135.867 135.907 135.843 136.005 136.227 136.423 136.591 136.879 137.178 137.787 137.887 137.379 137.64 137.616 137.531 137.356 137.372 137.961 138.184 137.378 137.217 137.989 141.425 139.72 138.092 137.766 138.753 138.023 137.936 138.879 136.861 136.235 135.827 135.755 136.271 137.062 136.043 135.471 135.409 135.244 135.309 135.566 135.699 135.784 135.943 136.524 138.99 141.219 142.354 142.027 140.711 138.06 136.423 135.911 135.847 136.011 136.033 135.951 135.879 135.943 135.955 135.898 135.969 136.463 137.362 139.388 137.566 136.993 137.126 137.483 137.169 136.774 136.849 136.724 136.592 136.734 136.838 136.746 137.188 138.947 143.098 144.823 145.269 143.32 139.771 137.546 137.306 137.383 137.56 137.761 137.557 137.43 137.458 137.831 139.132 143.748 144.858 145.354 143.789 142.338 140.176 138.928 138.287 138.172 140.256 142.125 139.356 138.615 138.76 139.12 138.595 139.29 141.756 140.74 139.198 139.306 141.794 146.042 141.664 140.992 142.67 141.518 140.47 140.966 141.834 141.685 140.668 140.328 140.325 140.506 140.603 140.677 141.109 141.89 141.448 141.001 140.88 140.907 140.851 140.903 141.138 141.2 141.264 141.312 141.278 141.785 142.812 143.722 142.254 141.988 142.597 143.378 143.342 143.402 142.474 141.85 141.921 142.386 141.897 141.71 141.735 141.722 141.726 141.742 141.792 141.818 141.717 141.645 141.719 141.673 141.679 141.689 -9999 -9999 143.772 144.313 145.155 144.154 142.476 141.869 141.776 141.777 141.968 142.292 143.94 145.676 147.549 144.868 142.808 142.069 141.351 141.033 140.883 140.813 140.833 140.851 140.728 140.676 140.588 140.524 140.541 140.505 140.409 140.375 140.326 140.328 140.266 140.145 140.121 -9999 -9999 -9999 -9999 -9999 -9999 -9999 -9999 -9999 -9999 -9999 -9999 -9999 -9999 -9999 -9999 -9999 -9999 -9999 -9999 -9999 -9999 -9999 -9999 -9999 -9999 -9999 -9999 -9999 -9999 -9999 -9999 -9999 -9999 -9999 -9999 -9999 -9999 -9999 -9999 -9999 -9999 -9999 -9999 -9999 -9999 -9999 -9999 -9999 -9999 -9999 -9999 -9999 -9999 -9999 -9999 -9999 -9999 -9999 -9999 -9999 -9999 -9999 -9999 -9999 -9999 -9999 -9999 -9999 -9999 -9999 -9999 -9999 -9999 -9999 -9999 -9999 -9999 -9999 -9999 -9999 -9999 -9999 -9999 -9999 -9999 -9999 -9999 -9999 -9999 -9999 -9999 -9999 -9999 -9999 -9999 -9999 -9999 -9999 -9999 -9999 -9999 -9999 -9999 -9999 -9999 -9999 -9999 -9999 -9999
137.712 137.441 137.29 137.193 136.932 137.088 137.27 -9999 -9999 -9999 -9999 -9999 -9999 -9999 -9999 -9999 -9999 -9999 -9999 -9999 -9999 -9999 -9999 -9999 -9999 -9999 -9999 -9999 -9999 -9999 -9999 -9999 -9999 -9999 -9999 -9999 -9999 -9999 -9999 -9999 -9999 -9999 -9999 -9999 -9999 -9999 -9999 -9999 -9999 -9999 -9999 -9999 -9999 -9999 -9999 -9999 140.133 139.849 141.433 142.702 140.463 138.177 136.661 136.568 136.449 138.29 141.668 142.729 141.73 138.111 136.093 136.331 136.058 135.782 135.749 -9999 136.377 136.607 136.664 136.302 137.128 138.622 140.323 139.698 137.229 136.285 136.36 136.46 139.059 144.699 149.181 147.649 144.059 138.647 137.293 136.116 136.162 136.748 137.555 136.583 135.928 135.91 135.962 136.076 136.642 135.948 135.354 135.495 135.511 135.162 135.36 135.532 135.445 135.265 135.454 135.791 135.853 135.997 136.337 136.648 137.146 137.622 137.852 137.462 137.257 136.982 136.941 137.007 136.967 136.918 136.986 137.055 137.107 137.654 138.837 137.805 137.593 138.043 137.135 137.01 137.675 140.711 139.785 137.817 135.811 135.733 135.937 136.393 135.689 135.401 135.255 135.183 135.238 135.483 135.524 135.822 136.106 137.166 138.828 141.613 142.597 142.722 141.345 138.955 136.539 136.046 135.678 135.637 135.69 135.788 135.688 135.617 135.713 135.744 135.812 136.229 138.533 141.096 142.206 137.615 136.827 137.005 136.787 136.583 136.557 136.458 136.619 137.474 137.516 137.155 137.62 139.814 143.282 144.682 143.943 141.72 139.074 137.213 137.093 137.152 137.501 138.172 137.673 137.146 137.301 138.061 141.62 143.721 144.908 145.244 143.272 140.921 139.313 138.127 138.618 138.891 140.759 142.107 140.308 138.888 141.812 140.466 139.404 139.207 140.087 139.227 138.825 139.098 140.131 142.406 140.289 139.749 139.905 140.155 140.118 140.468 141.285 142.068 141.365 140.443 140.27 140.403 140.594 141.063 141.682 141.531 141.286 141.057 140.833 140.772 140.781 140.853 141.008 140.972 141.066 141.101 141.2 141.519 142.329 142.44 142.128 142.864 144.553 145.911 144.312 147.208 144.456 142.689 141.766 143.022 142.568 141.658 141.556 141.615 141.64 141.689 141.738 141.74 141.624 141.562 141.52 141.632 141.693 141.688 141.719 -9999 -9999 143.933 143.786 143.265 142.176 141.726 141.9 141.76 141.808 141.922 141.888 144.166 145.803 144.62 141.763 142.216 142.04 141.307 141.022 140.88 140.831 140.793 140.728 140.633 140.592 140.61 140.533 140.426 140.357 140.252 140.299 140.226 140.141 140.032 140.033 -9999 -9999 -9999 -9999 -9999 -9999 -9999 -9999 -9999 -9999 -9999 -9999 -9999 -9999 -9999 -9999 -9999 -9999 -9999 -9999 -9999 -9999 -9999 -9999 -9999 -9999 -9999 -9999 -9999 -9999 -9999 -9999 -9999 -9999 -9999 -9999 -9999 -9999 -9999 -9999 -9999 -9999 -9999 -9999 -9999 -9999 -9999 -9999 -9999 -9999 -9999 -9999 -9999 -9999 -9999 -9999 -9999 -9999 -9999 -9999 -9999 -9999 -9999 -9999 -9999 -9999 -9999 -9999 -9999 -9999 -9999 -9999 -9999 -9999 -9999 -9999 -9999 -9999 -9999 -9999 -9999 -9999 -9999 -9999 -9999 -9999 -9999 -9999 -9999 -9999 -9999 -9999 -9999 -9999 -9999 -9999 -9999 -9999 -9999 -9999 -9999 -9999 -9999 -9999 -9999 -9999 -9999 -9999 -9999 -9999
137.088 136.878 136.849 136.804 136.741 136.841 -9999 -9999 -9999 -9999 -9999 -9999 -9999 -9999 -9999 -9999 -9999 -9999 -9999 -9999 -9999 -9999 -9999 -9999 -9999 -9999 -9999 -9999 -9999 -9999 -9999 -9999 -9999 -9999 -9999 -9999 -9999 -9999 -9999 -9999 -9999 -9999 -9999 -9999 -9999 -9999 -9999 -9999 -9999 -9999 -9999 -9999 -9999 -9999 -9999 -9999 139.957 139.551 138.857 141.365 141.305 138.002 136.535 136.502 136.467 137.44 140.894 142.487 141.296 138.304 136.14 135.662 135.543 135.66 135.623 -9999 136.094 136.252 136.364 136.152 136.719 136.684 137.259 136.602 136.311 136.211 136.207 137.02 137.772 140.258 143.318 145.006 145.574 146.602 137.845 135.559 135.87 136.121 136.079 135.664 135.507 135.718 135.718 135.823 136.004 136.229 137.725 138.211 135.965 136.295 137.43 137.546 135.312 135.22 135.325 135.415 135.495 135.73 135.937 136.392 137.096 137.386 137.801 136.98 136.591 136.6 136.668 136.713 136.504 136.393 136.692 136.813 136.889 137.124 138.035 137.774 137.315 136.64 136.303 136.711 140.47 141.702 140.711 139.361 136.448 136.217 136.498 136.473 135.527 135.332 135.129 135.062 135.192 135.381 136.032 136.515 135.919 136.624 137.917 141.389 142.81 143.142 141.377 139.006 137.613 136.932 135.716 135.657 136.162 135.997 135.688 135.586 135.62 135.725 135.843 135.961 137.887 140.757 140.128 136.856 136.395 136.478 136.316 136.329 136.432 136.481 136.593 137.593 138.631 138.304 138.178 138.926 142.011 143.555 143.409 139.347 137.872 136.805 136.796 136.914 137.275 137.735 137.179 137.038 137.173 137.848 141.288 143.648 144.289 144.109 143.274 140.604 138.968 137.761 137.801 137.895 138.627 141.189 139.651 138.187 139.486 138.857 138.996 139.347 140.209 138.687 138.56 138.593 139.072 139.129 139.303 139.424 139.501 139.511 139.713 139.938 140.023 140.697 141.416 140.507 140.262 140.288 140.629 141.098 141.042 140.704 140.794 140.821 140.787 140.696 140.707 140.807 140.907 140.912 140.959 141.019 141.19 -9999 142.736 142.855 143.134 145.23 147.584 149.248 148.113 147.646 146.894 144.409 141.876 141.864 141.706 141.39 141.456 141.602 141.53 141.537 -9999 141.542 141.533 141.507 141.423 141.624 141.692 141.738 141.724 -9999 -9999 143.327 143.014 142.263 142.599 142.577 142.494 141.932 141.682 141.827 142.037 143.656 146.474 143.314 142.473 141.707 141.655 141.249 141.146 140.919 140.811 140.764 140.737 140.652 140.607 140.545 140.497 140.444 140.156 140.185 140.192 140.246 140.193 140.063 139.988 -9999 -9999 -9999 -9999 -9999 -9999 -9999 -9999 -9999 -9999 -9999 -9999 -9999 -9999 -9999 -9999 -9999 -9999 -9999 -9999 -9999 -9999 -9999 -9999 -9999 -9999 -9999 -9999 -9999 -9999 -9999 -9999 -9999 -9999 -9999 -9999 -9999 -9999 -9999 -9999 -9999 -9999 -9999 -9999 -9999 -9999 -9999 -9999 -9999 -9999 -9999 -9999 -9999 -9999 -9999 -9999 -9999 -9999 -9999 -9999 -9999 -9999 -9999 -9999 -9999 -9999 -9999 -9999 -9999 -9999 -9999 -9999 -9999 -9999 -9999 -9999 -9999 -9999 -9999 -9999 -9999 -9999 -9999 -9999 -9999 -9999 -9999 -9999 -9999 -9999 -9999 -9999 -9999 -9999 -9999 -9999 -9999 -9999 -9999 -9999 -9999 -9999 -9999 -9999 -9999 -9999 -9999 -9999 -9999 -9999
136.764 136.656 136.699 136.685 136.677 136.702 -9999 -9999 -9999 -9999 -9999 -9999 -9999 -9999 -9999 -9999 -9999 -9999 -9999 -9999 -9999 -9999 -9999 -9999 -9999 -9999 -9999 -9999 -9999 -9999 -9999 -9999 -9999 -9999 -9999 -9999 -9999 -9999 -9999 -9999 -9999 -9999 -9999 -9999 -9999 -9999 -9999 -9999 -9999 -9999 -9999 -9999 -9999 -9999 -9999 -9999 -9999 138.769 138.114 137.848 138.141 137.519 136.782 136.312 136.68 137.917 140.651 142.654 142.237 139.976 136.224 135.355 135.303 135.487 135.447 -9999 135.615 135.474 135.496 135.446 136.683 136.649 135.301 134.739 135.555 135.586 135.47 135.482 135.77 135.91 137.618 139.225 144.748 140.354 136.063 135.504 135.508 135.424 135.409 135.265 135.066 135.214 135.467 135.474 135.5 137.086 140.229 140.901 140.21 140.282 141.261 140.702 137.823 135.933 135.327 135.286 135.366 135.476 135.613 135.966 137.144 137.172 136.598 136.462 136.279 136.33 136.357 136.495 136.36 136.287 136.393 136.421 136.616 137.482 137.524 137.305 137.188 136.277 136.254 137.326 140.999 142.555 140.918 137.365 139.369 137.896 138.146 136.285 135.774 135.211 134.981 134.953 135.102 135.523 136.95 137.657 136.329 135.897 139.022 141.749 142.896 142.413 140.578 138.76 137.213 136.23 135.484 135.579 136.637 136.265 135.628 135.559 135.644 135.755 136.11 135.947 136.822 139.291 140.198 136.578 135.759 135.867 135.795 135.889 136.247 136.551 136.787 137.497 138.401 138.691 137.697 137.869 138.621 140.579 142.035 140.36 137.395 136.852 136.688 136.651 137.01 137.226 137.065 137.023 137.044 137.708 139.527 139.889 141.963 142.112 142.642 139.791 137.842 137.593 137.601 137.75 137.74 138 137.79 137.746 138.011 137.98 138.018 138.207 138.398 138.363 138.226 138.311 138.492 138.683 138.985 139.282 139.232 139.323 139.564 139.837 139.901 140.075 140.651 140.462 140.685 140.354 140.179 140.535 140.585 140.353 140.418 140.537 140.709 140.626 140.611 140.687 140.814 140.822 140.846 141.238 141.973 142.703 142.951 143.236 144.365 146.952 147.837 148.721 149.145 149.287 148.162 146.098 142.298 141.588 141.408 141.343 141.362 141.41 141.256 141.356 141.5 141.458 141.503 141.509 141.479 141.535 141.649 141.727 141.689 -9999 -9999 -9999 142.668 142.567 143.132 144.44 145.203 142.204 141.626 141.612 141.556 142.249 143.793 144.069 144.232 142.841 141.687 141.322 141.049 140.871 140.798 140.78 140.711 140.64 140.674 140.481 140.462 140.377 140.219 140.187 140.156 140.19 140.009 139.837 139.8 -9999 -9999 -9999 -9999 -9999 -9999 -9999 -9999 -9999 -9999 -9999 -9999 -9999 -9999 -9999 -9999 -9999 -9999 -9999 -9999 -9999 -9999 -9999 -9999 -9999 -9999 -9999 -9999 -9999 -9999 -9999 -9999 -9999 -9999 -9999 -9999 -9999 -9999 -9999 -9999 -9999 -9999 -9999 -9999 -9999 -9999 -9999 -9999 -9999 -9999 -9999 -9999 -9999 -9999 -9999 -9999 -9999 -9999 -9999 -9999 -9999 -9999 -9999 -9999 -9999 -9999 -9999 -9999 -9999 -9999 -9999 -9999 -9999 -9999 -9999 -9999 -9999 -9999 -9999 -9999 -9999 -9999 -9999 -9999 -9999 -9999 -9999 -9999 -9999 -9999 -9999 -9999 -9999 -9999 -9999 -9999 -9999 -9999 -9999 -9999 -9999 -9999 -9999 -9999 -9999 -9999 -9999 -9999 -9999 -9999
136.658 136.613 136.613 136.608 136.622 136.652 -9999 -9999 -9999 -9999 -9999 -9999 -9999 -9999 -9999 -9999 -9999 -9999 -9999 -9999 -9999 -9999 -9999 -9999 -9999 -9999 -9999 -9999 -9999 -9999 -9999 -9999 -9999 -9999 -9999 -9999 -9999 -9999 -9999 -9999 -9999 -9999 -9999 -9999 -9999 -9999 -9999 -9999 -9999 -9999 -9999 -9999 -9999 -9999 -9999 -9999 -9999 137.511 136.889 136.319 136.798 137.151 136.351 136.106 136.555 138.591 141.115 142.125 141.853 138.628 135.59 135.418 135.322 135.266 135.305 -9999 135.252 135.118 135.18 135.819 138.182 138.683 135.489 134.858 134.881 134.984 135.059 135.259 135.309 135.256 135.983 140.791 143.178 137.172 135.909 135.405 135.263 135.119 135.012 134.796 134.43 134.321 135.02 135.084 135.258 136.579 139.953 140.534 141.102 142.004 142.373 141.425 140.354 137.893 135.376 135.293 135.348 135.381 135.435 135.715 136.383 136.242 135.82 136.084 136.134 136.254 136.395 136.364 136.261 136.1 136.068 136.17 136.356 136.93 136.798 136.797 136.289 136.015 136.084 137.069 141.52 142.437 140.221 138.074 141.094 141.528 140.262 137.11 135.343 134.926 134.556 134.545 134.782 135.24 137.319 137.622 136.67 135.815 137.472 141.287 141.822 141.261 139.321 138.295 136.188 135.556 135.222 135.206 135.415 135.937 135.576 135.445 135.54 135.637 136.592 135.961 136.442 138.172 138.452 136.222 135.577 135.61 135.603 135.62 135.857 136.177 136.63 137.709 137.802 137.761 136.52 137.081 137.695 137.66 138.281 138.098 136.987 136.786 136.708 136.712 -9999 -9999 136.982 137.003 137.064 137.254 137.835 138.544 138.915 138.745 139.677 138.101 138.388 138.095 137.955 137.515 137.432 137.496 137.467 137.552 137.707 137.751 137.86 137.981 138.063 138.039 138.125 138.197 138.383 138.575 138.774 139.217 139.061 139.344 139.493 139.846 140.035 140.091 140.103 140.036 140.842 140.217 140.227 140.7 140.611 140.211 140.51 140.713 140.496 140.462 140.502 140.599 140.736 140.83 140.93 141.561 142.602 143.039 143.334 142.518 142.473 145.241 146.661 147.834 149.202 149.842 149.137 147.197 143.32 141.97 141.363 141.333 -9999 141.432 141.428 141.539 141.569 141.45 141.479 141.504 141.387 141.415 141.555 141.544 141.57 141.583 -9999 141.613 142.391 143.025 143.859 145.063 147.081 143.051 141.584 141.357 141.441 141.714 142.083 142.491 145.944 142.801 143.194 142.945 141.533 140.793 140.796 140.74 140.632 140.523 140.537 140.481 140.374 140.264 140.19 140.243 140.182 139.971 139.766 139.75 139.727 -9999 -9999 -9999 -9999 -9999 -9999 -9999 -9999 -9999 -9999 -9999 -9999 -9999 -9999 -9999 -9999 -9999 -9999 -9999 -9999 -9999 -9999 -9999 -9999 -9999 -9999 -9999 -9999 -9999 -9999 -9999 -9999 -9999 -9999 -9999 -9999 -9999 -9999 -9999 -9999 -9999 -9999 -9999 -9999 -9999 -9999 -9999 -9999 -9999 -9999 -9999 -9999 -9999 -9999 -9999 -9999 -9999 -9999 -9999 -9999 -9999 -9999 -9999 -9999 -9999 -9999 -9999 -9999 -9999 -9999 -9999 -9999 -9999 -9999 -9999 -9999 -9999 -9999 -9999 -9999 -9999 -9999 -9999 -9999 -9999 -9999 -9999 -9999 -9999 -9999 -9999 -9999 -9999 -9999 -9999 -9999 -9999 -9999 -9999 -9999 -9999 -9999 -9999 -9999 -9999 -9999 -9999 -9999 -9999 -9999
136.618 136.632 136.632 136.622 136.622 136.63 -9999 -9999 -9999 -9999 -9999 -9999 -9999 -9999 -9999 -9999 -9999 -9999 -9999 -9999 -9999 -9999 -9999 -9999 -9999 -9999 -9999 -9999 -9999 -9999 -9999 -9999 -9999 -9999 -9999 -9999 -9999 -9999 -9999 -9999 -9999 -9999 -9999 -9999 -9999 -9999 -9999 -9999 -9999 -9999 -9999 -9999 -9999 -9999 -9999 -9999 -9999 -9999 136.267 136.182 136.113 136.06 136.058 135.985 135.669 136.639 139.878 141.27 141.488 139.64 136.684 135.529 135.447 135.121 134.951 -9999 135.179 135.237 135.183 135.154 137.756 140.163 138.853 135.767 135.318 134.906 134.966 134.973 135.283 135.259 137.401 146.403 148.386 142.33 135.816 135.255 135.198 134.876 134.541 134.444 134.859 135.146 135.167 134.494 134.933 135.378 136.347 137.205 140.078 140.431 138.994 139.85 140.739 139.072 136.018 135.449 135.305 135.315 135.31 135.462 136.212 136.684 135.633 135.66 135.87 136.094 137.284 136.793 136.095 135.958 136.086 136.116 135.964 136.109 136.07 135.944 135.878 135.636 136.265 139.358 141.378 142.111 139.451 136.605 138.825 140.828 138.626 135.493 135.098 134.545 134.291 134.29 134.456 135.107 136.435 136.041 135.592 135.59 135.852 138.234 138.293 139.586 137.311 137.737 136.11 135.648 135.174 135.027 135.18 135.124 135.154 135.11 135.197 135.429 135.698 135.893 136.318 137.409 138.171 136.642 135.456 135.545 135.623 135.743 135.796 136.003 136.359 136.772 136.643 137.303 136.581 138.176 140.171 139.026 137.249 137.704 136.756 136.527 136.473 -9999 -9999 136.444 136.671 136.723 137.211 137.683 137.026 138.269 138.72 137.526 137.671 137.399 139.252 138.953 139.052 138.151 137.663 137.457 137.606 137.531 137.62 137.705 137.797 138.025 137.967 137.97 138.07 138.242 138.493 138.552 138.683 138.775 139.265 139.626 139.568 139.708 139.862 139.782 139.628 139.774 139.836 139.972 139.979 140.837 141.097 140.797 141.188 141.586 140.527 140.387 140.503 140.759 140.926 140.913 141.501 141.568 142.353 142.769 142.087 141.212 141.575 142.275 143.247 145.571 148.689 149.613 149.621 148.932 146.206 -9999 141.519 141.21 141.133 141.524 141.901 141.991 141.549 141.445 141.357 141.288 141.25 141.34 141.394 141.472 141.523 141.491 141.365 141.341 141.442 142.411 143.705 144.498 144.391 142.957 141.911 141.649 141.454 141.416 141.372 141.527 143.874 143.83 145.116 145.667 143.791 140.86 140.885 140.754 140.619 140.533 140.426 140.348 140.319 140.23 140.116 140.027 139.956 139.921 139.787 139.719 139.687 139.665 -9999 -9999 -9999 -9999 -9999 -9999 -9999 -9999 -9999 -9999 -9999 -9999 -9999 -9999 -9999 -9999 -9999 -9999 -9999 -9999 -9999 -9999 -9999 -9999 -9999 -9999 -9999 -9999 -9999 -9999 -9999 -9999 -9999 -9999 -9999 -9999 -9999 -9999 -9999 -9999 -9999 -9999 -9999 -9999 -9999 -9999 -9999 -9999 -9999 -9999 -9999 -9999 -9999 -9999 -9999 -9999 -9999 -9999 -9999 -9999 -9999 -9999 -9999 -9999 -9999 -9999 -9999 -9999 -9999 -9999 -9999 -9999 -9999 -9999 -9999 -9999 -9999 -9999 -9999 -9999 -9999 -9999 -9999 -9999 -9999 -9999 -9999 -9999 -9999 -9999 -9999 -9999 -9999 -9999 -9999 -9999 -9999 -9999 -9999 -9999 -9999 -9999 -9999 -9999 -9999 -9999 -9999 -9999 -9999
136.551 136.611 136.626 136.674 136.619 -9999 -9999 -9999 -9999 -9999 -9999 -9999 -9999 -9999 -9999 -9999 -9999 -9999 -9999 -9999 -9999 -9999 -9999 -9999 -9999 -9999 -9999 -9999 -9999 -9999 -9999 -9999 -9999 -9999 -9999 -9999 -9999 -9999 -9999 -9999 -9999 -9999 -9999 -9999 -9999 -9999 -9999 -9999 -9999 -9999 -9999 -9999 -9999 -9999 -9999 -9999 -9999 -9999 136.113 136.118 136.101 136.024 136.786 136.768 135.756 136.184 138.41 140.13 140.828 138.657 135.781 135.305 135.098 134.65 134.589 -9999 135.158 135.5 135.492 135.083 137.213 140.785 141.142 140.019 136.394 134.989 134.976 134.989 134.98 135.131 137.303 149.467 147.672 139.951 137.341 135.408 134.938 134.576 134.313 135.106 137.099 138.809 137.613 135.082 134.582 134.787 135.007 135.175 136.544 136.594 135.508 136.269 137.289 136.395 135.444 135.276 135.227 134.93 135.039 135.166 135.812 136.352 135.412 135.42 135.67 136.135 137.248 137.028 136.04 136.023 136.819 137.214 136.036 135.909 135.83 135.856 135.652 135.685 136.284 139.669 141.704 142.167 141.3 138.395 136.695 138.319 138.414 135.469 134.725 134.247 134.155 134.269 134.358 134.813 135.327 135.327 135.593 135.777 136.398 136.282 135.669 136.231 136.226 135.911 136.227 136.63 136.002 135.402 135.385 135.08 135.053 135.048 135.139 135.453 136.586 137.831 137.227 137.229 137.007 136.146 135.536 135.557 135.689 135.705 135.693 135.799 135.899 136.047 136.179 136.065 137.912 141.25 142.461 141.997 141.547 138.002 136.32 136.227 136.233 -9999 -9999 136.256 136.388 136.485 136.978 137.111 138.463 140.695 141.159 140.508 138.757 137.653 138.408 138.456 137.971 137.908 137.672 137.452 137.838 138.32 137.841 137.933 138.068 139.073 138.565 137.969 138.131 138.441 138.966 138.684 139.091 139.258 139.298 139.389 139.46 139.435 139.622 139.974 139.735 139.703 139.779 139.806 140.05 140.233 140.766 140.856 141.176 141.252 140.832 140.536 140.637 140.928 141.616 140.974 140.724 140.92 141.089 141.011 141.006 140.91 140.849 141.316 141.944 144.917 148.08 149.503 149.509 149.099 146.975 -9999 -9999 141.299 141.065 141.336 142.408 142.926 141.767 141.337 141.199 141.167 141.183 141.204 141.279 141.375 141.516 141.459 141.278 141.202 141.224 141.672 -9999 143.955 143.795 144.479 142.972 141.522 141.428 141.384 141.223 141.285 142.095 143.025 146.678 147.125 144.141 141.449 141.169 141.203 140.699 140.445 140.294 140.245 140.251 140.12 139.878 139.799 139.858 139.789 139.668 139.635 139.654 139.638 -9999 -9999 -9999 -9999 -9999 -9999 -9999 -9999 -9999 -9999 -9999 -9999 -9999 -9999 -9999 -9999 -9999 -9999 -9999 -9999 -9999 -9999 -9999 -9999 -9999 -9999 -9999 -9999 -9999 -9999 -9999 -9999 -9999 -9999 -9999 -9999 -9999 -9999 -9999 -9999 -9999 -9999 -9999 -9999 -9999 -9999 -9999 -9999 -9999 -9999 -9999 -9999 -9999 -9999 -9999 -9999 -9999 -9999 -9999 -9999 -9999 -9999 -9999 -9999 -9999 -9999 -9999 -9999 -9999 -9999 -9999 -9999 -9999 -9999 -9999 -9999 -9999 -9999 -9999 -9999 -9999 -9999 -9999 -9999 -9999 -9999 -9999 -9999 -9999 -9999 -9999 -9999 -9999 -9999 -9999 -9999 -9999 -9999 -9999 -9999 -9999 -9999 -9999 -9999 -9999 -9999 -9999 -9999 -9999
136.578 136.547 136.513 136.493 136.563 -9999 -9999 -9999 -9999 -9999 -9999 -9999 -9999 -9999 -9999 -9999 -9999 -9999 -9999 -9999 -9999 -9999 -9999 -9999 -9999 -9999 -9999 -9999 -9999 -9999 -9999 -9999 -9999 -9999 -9999 -9999 -9999 -9999 -9999 -9999 -9999 -9999 -9999 -9999 -9999 -9999 -9999 -9999 -9999 -9999 -9999 -9999 -9999 -9999 -9999 -9999 -9999 -9999 136.274 136.339 136.463 136.798 137.197 137.129 135.975 135.939 137.211 138.02 137.012 135.672 135.24 134.94 134.482 134.34 134.383 -9999 135.145 135.339 135.3 135.124 136.285 140.891 141.391 139.8 136.113 135.033 134.863 134.75 134.75 134.905 139.16 147.366 148.304 148.125 137.612 135.672 134.646 134.563 134.927 137.944 140.24 140.848 138.307 135.274 134.344 134.601 134.555 134.795 134.99 135.146 134.92 134.823 134.934 135.079 135.492 135.502 135.422 134.523 134.401 134.668 134.879 135.037 135.115 135.247 135.705 136.702 137.551 138.046 137.077 136.378 137.582 138.703 136.571 135.918 136.057 136.235 136.153 135.815 136.98 140.297 141.314 141.352 139.849 136.914 135.576 135.707 136.056 135.251 134.283 134.158 134.222 134.152 134.214 134.644 135.509 135.523 135.403 135.567 136.922 136.683 136.166 135.402 134.527 135.218 136.479 136.789 136.324 135.715 135.702 135.231 135.507 135.045 135.025 135.695 136.655 137.541 138.725 137.195 135.927 135.507 135.335 135.417 135.522 135.587 135.557 135.626 135.974 136.16 136.269 136.523 137.335 141.474 143.607 142.906 141.699 138.72 136.305 136.155 136.065 136.001 136.044 136.15 136.229 136.456 136.901 139.044 141.33 142.973 142.929 141.556 137.877 137.452 137.838 136.946 137.184 137.047 136.817 136.964 137.195 137.715 137.628 138.462 138.682 140.374 138.675 138.021 138.164 138.802 139.47 139.026 139.554 139.236 139.074 138.994 139.096 139.197 139.477 140.521 140.274 140.133 139.867 139.894 140.053 139.885 140.154 140.558 141.117 141.577 141.301 140.834 141.168 141.248 141.18 140.653 140.528 140.48 140.68 140.646 140.61 140.736 141.035 141.047 141.721 145.19 148.005 148.845 148.532 146.471 144.671 144.968 143.477 142.241 140.957 141.109 141.872 142.553 141.706 141.182 141.083 141.098 141.087 141.04 141.124 141.251 141.32 141.252 141.134 141.114 141.157 141.4 -9999 143.125 142.489 143.776 142.541 141.534 141.383 141.291 141.156 141.112 141.312 142.465 145.831 144.168 142.188 141.348 141.421 141.115 140.561 140.364 140.249 140.221 140.145 139.967 139.917 139.861 139.774 139.648 139.461 139.669 139.584 139.628 -9999 -9999 -9999 -9999 -9999 -9999 -9999 -9999 -9999 -9999 -9999 -9999 -9999 -9999 -9999 -9999 -9999 -9999 -9999 -9999 -9999 -9999 -9999 -9999 -9999 -9999 -9999 -9999 -9999 -9999 -9999 -9999 -9999 -9999 -9999 -9999 -9999 -9999 -9999 -9999 -9999 -9999 -9999 -9999 -9999 -9999 -9999 -9999 -9999 -9999 -9999 -9999 -9999 -9999 -9999 -9999 -9999 -9999 -9999 -9999 -9999 -9999 -9999 -9999 -9999 -9999 -9999 -9999 -9999 -9999 -9999 -9999 -9999 -9999 -9999 -9999 -9999 -9999 -9999 -9999 -9999 -9999 -9999 -9999 -9999 -9999 -9999 -9999 -9999 -9999 -9999 -9999 -9999 -9999 -9999 -9999 -9999 -9999 -9999 -9999 -9999 -9999 -9999 -9999 -9999 -9999 -9999 -9999 -9999
136.523 136.486 136.475 136.5 136.524 -9999 -9999 -9999 -9999 -9999 -9999 -9999 -9999 -9999 -9999 -9999 -9999 -9999 -9999 -9999 -9999 -9999 -9999 -9999 -9999 -9999 -9999 -9999 -9999 -9999 -9999 -9999 -9999 -9999 -9999 -9999 -9999 -9999 -9999 -9999 -9999 -9999 -9999 -9999 -9999 -9999 -9999 -9999 -9999 -9999 -9999 -9999 -9999 -9999 -9999 -9999 -9999 -9999 -9999 136.992 137.43 137.65 137.27 136.467 135.655 135.445 135.601 136.168 135.755 135.233 134.786 134.35 134.14 134.234 134.273 -9999 -9999 134.97 134.822 134.899 135.182 139.49 141.433 140.386 136.873 135.335 134.695 134.607 134.628 134.644 137.902 146.619 148.916 143.423 136.626 134.745 134.537 134.609 136.39 139.745 140.866 140.208 136.673 134.296 134.228 134.224 134.345 134.557 134.735 134.566 134.444 134.506 134.707 135.01 134.778 136.138 136.692 136.012 134.486 134.053 134.22 134.922 134.908 134.88 135.262 136.624 137.357 137.885 137.73 136.446 137.013 137.426 136.234 135.784 136.315 137.21 136.784 136.186 136.421 138.49 138.947 137.457 136.175 135.594 135.121 135.015 134.639 134.445 134.227 134.074 133.962 133.889 133.981 134.234 134.98 134.93 134.822 136.125 138.624 138.443 137.621 136.055 134.636 134.653 135.398 136.594 136.695 136.233 136.204 135.596 136.019 134.919 134.882 135.193 135.439 135.916 137.253 136.785 135.633 135.201 135.249 135.267 135.297 135.38 135.421 135.434 136.214 136.177 136.969 136.651 137.072 141.796 143.167 143.151 140.513 136.767 135.934 135.925 135.921 135.89 135.915 135.954 136.039 136.472 137.554 140.983 142.626 143.564 143.036 141.674 137.915 136.872 136.681 136.684 136.639 136.587 136.591 136.851 137.252 137.334 137.964 139.383 138.631 138.84 138.634 137.952 138.023 138.311 138.377 138.648 138.804 138.914 138.828 138.896 138.949 139.071 139.304 139.644 140.236 140.421 140 139.926 139.762 139.676 139.895 140.112 140.805 142.861 142.165 140.894 140.777 140.505 140.263 140.295 140.366 140.534 140.537 140.514 140.472 140.64 140.774 140.961 141.075 144.717 146.864 147.77 147.317 144.645 143.426 146.48 146.172 143.503 141.161 141.022 141.503 142.635 141.788 141.302 141.071 141.021 141.056 141.089 141.066 141.041 141.041 141.108 141.13 141.144 141.137 141.151 -9999 142.811 142.633 141.974 141.963 141.292 141.207 141.215 141.133 141.022 141.14 141.506 141.874 141.577 141.164 143.082 143.877 142.078 140.456 140.335 140.249 140.158 140.063 140.05 139.942 139.844 139.711 139.684 139.615 139.561 139.616 139.625 -9999 -9999 -9999 -9999 -9999 -9999 -9999 -9999 -9999 -9999 -9999 -9999 -9999 -9999 -9999 -9999 -9999 -9999 -9999 -9999 -9999 -9999 -9999 -9999 -9999 -9999 -9999 -9999 -9999 -9999 -9999 -9999 -9999 -9999 -9999 -9999 -9999 -9999 -9999 -9999 -9999 -9999 -9999 -9999 -9999 -9999 -9999 -9999 -9999 -9999 -9999 -9999 -9999 -9999 -9999 -9999 -9999 -9999 -9999 -9999 -9999 -9999 -9999 -9999 -9999 -9999 -9999 -9999 -9999 -9999 -9999 -9999 -9999 -9999 -9999 -9999 -9999 -9999 -9999 -9999 -9999 -9999 -9999 -9999 -9999 -9999 -9999 -9999 -9999 -9999 -9999 -9999 -9999 -9999 -9999 -9999 -9999 -9999 -9999 -9999 -9999 -9999 -9999 -9999 -9999 -9999 -9999 -9999 -9999
136.496 136.449 136.458 136.474 -9999 -9999 -9999 -9999 -9999 -9999 -9999 -9999 -9999 -9999 -9999 -9999 -9999 -9999 -9999 -9999 -9999 -9999 -9999 -9999 -9999 -9999 -9999 -9999 -9999 -9999 -9999 -9999 -9999 -9999 -9999 -9999 -9999 -9999 -9999 -9999 -9999 -9999 -9999 -9999 -9999 -9999 -9999 -9999 -9999 -9999 -9999 -9999 -9999 -9999 -9999 -9999 -9999 -9999 -9999 136.887 137.061 137.042 136.262 135.92 135.643 134.991 134.312 135.623 136.133 135.112 134.221 134.143 134.149 134.202 134.22 -9999 134.717 134.733 134.82 135.017 136.769 140.068 141.888 140.445 137.095 135.161 134.602 134.515 134.398 134.411 135.294 140.592 140.937 136.323 134.548 134.325 134.332 134.508 135.972 139.856 140.5 139.253 136.714 134.687 134.125 134.063 134.159 134.327 134.4 134.255 134.053 134.346 134.577 134.641 134.197 136.311 139.149 137.798 134.716 134.062 134.079 134.556 134.54 134.54 134.804 135.691 136.571 137.325 137.366 136.835 135.925 135.239 135.006 134.873 135.661 135.702 135.963 135.42 135.939 136.156 135.91 135.789 135.933 135.427 134.973 134.687 134.379 134.214 134.099 133.896 133.822 133.604 133.828 134.234 134.583 134.644 135.048 135.698 139.096 140.278 140.054 136.116 134.779 134.341 134.727 136.179 136.602 135.608 134.91 134.885 135.812 135.069 135.084 135.48 135.071 135.596 136.554 136.182 135.212 135.271 135.225 135.144 135.183 135.264 135.33 135.335 135.509 135.46 135.916 136.428 138.675 141.927 143.41 142.687 140.425 136.485 135.842 135.763 135.73 135.743 135.823 135.844 135.974 136.286 137.193 140.084 142.666 143.675 143.12 141.347 137.763 136.958 136.521 136.502 136.494 136.472 136.591 137.087 137.087 137.055 137.207 137.9 137.352 137.857 138.684 138.049 137.747 137.808 138.031 138.204 138.525 138.461 138.673 138.913 138.983 139.096 139.19 139.137 139.638 140.496 141.128 140.378 139.723 139.574 139.636 139.764 140.066 141.639 142.202 141.304 140.473 140.123 140.085 140.203 140.505 140.723 140.749 140.567 140.426 140.39 140.518 140.616 141.51 143.029 144.964 -9999 145.437 146.665 147.347 148.461 147.668 146.015 142.338 141.152 141.124 141.69 141.853 141.524 141.174 141 141.019 141.055 141.011 140.965 140.963 141.061 141.117 141.27 141.102 141.057 141.218 -9999 142.544 142.164 142.473 141.797 141.316 141.185 141.222 141.181 141.095 141.092 141.119 141.316 143.065 146.687 147.72 144.744 141.466 140.414 140.274 140.119 140.06 140.016 139.905 139.771 139.813 139.724 139.627 139.584 139.6 139.6 139.567 -9999 -9999 -9999 -9999 -9999 -9999 -9999 -9999 -9999 -9999 -9999 -9999 -9999 -9999 -9999 -9999 -9999 -9999 -9999 -9999 -9999 -9999 -9999 -9999 -9999 -9999 -9999 -9999 -9999 -9999 -9999 -9999 -9999 -9999 -9999 -9999 -9999 -9999 -9999 -9999 -9999 -9999 -9999 -9999 -9999 -9999 -9999 -9999 -9999 -9999 -9999 -9999 -9999 -9999 -9999 -9999 -9999 -9999 -9999 -9999 -9999 -9999 -9999 -9999 -9999 -9999 -9999 -9999 -9999 -9999 -9999 -9999 -9999 -9999 -9999 -9999 -9999 -9999 -9999 -9999 -9999 -9999 -9999 -9999 -9999 -9999 -9999 -9999 -9999 -9999 -9999 -9999 -9999 -9999 -9999 -9999 -9999 -9999 -9999 -9999 -9999 -9999 -9999 -9999 -9999 -9999 -9999 -9999
136.474 136.433 136.417 136.435 -9999 -9999 -9999 -9999 -9999 -9999 -9999 -9999 -9999 -9999 -9999 -9999 -9999 -9999 -9999 -9999 -9999 -9999 -9999 -9999 -9999 -9999 -9999 -9999 -9999 -9999 -9999 -9999 -9999 -9999 -9999 -9999 -9999 -9999 -9999 -9999 -9999 -9999 -9999 -9999 -9999 -9999 -9999 -9999 -9999 -9999 -9999 -9999 -9999 -9999 -9999 -9999 -9999 -9999 -9999 135.984 135.884 135.382 135.271 135.431 134.8 134.105 134.522 137.053 138.537 136.611 134.752 134.053 134.139 134.25 134.135 -9999 -9999 134.494 134.721 135.319 138.283 140.508 140.82 137.726 135.209 134.614 134.546 134.446 134.207 134.246 134.17 134.247 135.066 134.364 134.2 134.181 134.239 134.73 137.506 140.468 140.525 139.558 137.15 134.907 134.101 134.14 134.064 134.169 134.199 134.03 134.02 134.018 134.114 134.621 134.111 136.166 139.892 139.896 136.005 134.473 134.221 134.349 134.443 134.627 135.079 135.263 135.251 136.225 136.587 135.805 134.98 134.58 134.756 134.862 134.61 134.417 134.334 134.015 134.74 134.96 135.288 134.367 134.292 133.981 134.641 134.294 134.113 133.777 133.499 133.614 133.65 133.695 133.902 134.274 134.774 134.662 136.261 138.92 140.411 141.261 140.318 137.464 135.297 134.314 134.595 135.218 134.604 134.445 134.429 134.77 135.215 135.032 135.952 137.742 136.153 135.32 135.883 136.19 135.227 135.188 135.137 135.066 135.081 135.166 135.278 135.224 135.373 135.518 136.095 136.488 140.127 142.007 142.942 142.412 140.338 136.506 135.812 135.626 135.657 135.641 135.614 135.734 135.874 136.184 136.913 140.04 142.929 143.426 142.886 141.146 138.318 137.898 136.992 136.57 136.328 136.324 136.567 137.109 136.858 137.183 137.231 136.95 137.075 137.289 137.765 137.721 137.674 137.647 137.788 138.165 138.562 138.502 138.662 138.769 138.969 138.998 139.096 139.188 139.669 140.432 141.579 140.067 139.683 139.559 139.578 139.639 139.936 140.785 141.626 141.054 140.356 140.028 140.196 140.414 140.646 141.999 141.229 140.531 140.404 140.404 140.434 140.982 141.994 142.913 142.608 143.643 144.972 147.372 149.016 149.579 148.341 147.269 144.429 141.678 141.145 141.173 141.193 141.381 141.222 141.064 140.973 141.014 141 140.969 140.988 141.039 141.053 141.077 141.076 141.04 -9999 -9999 -9999 142.184 142.227 142.146 141.6 141.319 141.22 141.355 141.126 141.056 140.999 141.154 143.129 146.888 149.369 145.024 142.448 140.772 140.365 140.113 140.041 139.966 139.869 139.798 139.762 139.679 139.624 139.558 139.581 139.565 -9999 -9999 -9999 -9999 -9999 -9999 -9999 -9999 -9999 -9999 -9999 -9999 -9999 -9999 -9999 -9999 -9999 -9999 -9999 -9999 -9999 -9999 -9999 -9999 -9999 -9999 -9999 -9999 -9999 -9999 -9999 -9999 -9999 -9999 -9999 -9999 -9999 -9999 -9999 -9999 -9999 -9999 -9999 -9999 -9999 -9999 -9999 -9999 -9999 -9999 -9999 -9999 -9999 -9999 -9999 -9999 -9999 -9999 -9999 -9999 -9999 -9999 -9999 -9999 -9999 -9999 -9999 -9999 -9999 -9999 -9999 -9999 -9999 -9999 -9999 -9999 -9999 -9999 -9999 -9999 -9999 -9999 -9999 -9999 -9999 -9999 -9999 -9999 -9999 -9999 -9999 -9999 -9999 -9999 -9999 -9999 -9999 -9999 -9999 -9999 -9999 -9999 -9999 -9999 -9999 -9999 -9999 -9999 -9999
136.424 136.416 136.402 136.401 -9999 -9999 -9999 -9999 -9999 -9999 -9999 -9999 -9999 -9999 -9999 -9999 -9999 -9999 -9999 -9999 -9999 -9999 -9999 -9999 -9999 -9999 -9999 -9999 -9999 -9999 -9999 -9999 -9999 -9999 -9999 -9999 -9999 -9999 -9999 -9999 -9999 -9999 -9999 -9999 -9999 -9999 -9999 -9999 -9999 -9999 -9999 -9999 -9999 -9999 -9999 -9999 -9999 -9999 -9999 -9999 135.291 135.283 135.545 135.148 134.415 134.139 136.367 139.638 140.071 138.096 134.814 134.04 134.062 134.089 134.024 -9999 134.138 134.1 134.227 134.519 136.491 138.447 138.501 137.966 135.152 134.581 134.476 134.492 134.295 134.131 133.982 133.97 133.987 134.06 134.009 134.097 134.428 136.715 139.502 141.183 140.336 138.313 135.368 134.25 134.174 134.035 133.941 -9999 134.052 134.006 133.959 133.921 133.921 134.141 134.59 136.599 140.377 140.467 137.735 134.747 134.698 134.587 134.619 135.482 136.178 136.141 135.522 135.244 135.643 135.475 135.171 134.796 135.287 135.573 134.512 134.36 134.045 133.901 134.778 137.277 136.184 135.158 133.756 133.728 133.851 134.018 133.756 133.509 133.355 133.43 133.465 133.53 133.932 134.087 134.501 134.386 135.619 138.776 140.987 141.224 140.245 137.919 135.296 134.63 134.441 134.249 134.203 134.171 134.297 134.424 135.152 136.466 138.481 137.751 135.676 135.52 135.614 135.432 135.236 135.122 135.468 135.37 135.62 135.469 135.828 135.913 135.812 136.585 137.5 137.024 138.479 140.942 141.124 141.372 139.72 136.788 135.796 135.487 135.496 135.433 135.505 135.547 135.582 136.361 138.02 140.869 142.328 142.621 142.514 139.285 136.696 136.744 136.87 136.3 136.078 136.118 136.395 137.088 136.709 137.476 137.235 136.983 137.109 137.748 137.938 138.762 137.909 137.552 137.658 137.918 138.334 138.407 138.434 138.553 138.703 138.777 138.912 139.126 139.387 139.786 139.888 139.679 139.354 139.402 139.47 139.572 139.741 140.245 141.009 140.384 140.097 140.01 140.224 140.493 140.926 141.281 140.624 140.221 140.325 140.514 140.899 142.042 143.482 143.072 141.955 141.793 142.876 145.976 148.198 149.487 148.856 147.988 146.749 144.112 141.27 140.809 140.825 140.94 140.928 140.865 140.922 141 140.975 140.919 140.992 141.038 140.991 140.963 140.972 140.96 -9999 -9999 -9999 142.167 142.21 142.613 142.829 143.662 143.468 141.763 140.99 140.853 140.569 140.857 140.905 143.501 143.827 142.078 141.955 140.961 140.299 140.065 140.007 139.985 139.848 139.72 139.641 139.598 139.639 139.528 139.441 139.433 -9999 -9999 -9999 -9999 -9999 -9999 -9999 -9999 -9999 -9999 -9999 -9999 -9999 -9999 -9999 -9999 -9999 -9999 -9999 -9999 -9999 -9999 -9999 -9999 -9999 -9999 -9999 -9999 -9999 -9999 -9999 -9999 -9999 -9999 -9999 -9999 -9999 -9999 -9999 -9999 -9999 -9999 -9999 -9999 -9999 -9999 -9999 -9999 -9999 -9999 -9999 -9999 -9999 -9999 -9999 -9999 -9999 -9999 -9999 -9999 -9999 -9999 -9999 -9999 -9999 -9999 -9999 -9999 -9999 -9999 -9999 -9999 -9999 -9999 -9999 -9999 -9999 -9999 -9999 -9999 -9999 -9999 -9999 -9999 -9999 -9999 -9999 -9999 -9999 -9999 -9999 -9999 -9999 -9999 -9999 -9999 -9999 -9999 -9999 -9999 -9999 -9999 -9999 -9999 -9999 -9999 -9999 -9999 -9999
136.328 136.368 136.35 -9999 -9999 -9999 -9999 -9999 -9999 -9999 -9999 -9999 -9999 -9999 -9999 -9999 -9999 -9999 -9999 -9999 -9999 -9999 -9999 -9999 -9999 -9999 -9999 -9999 -9999 -9999 -9999 -9999 -9999 -9999 -9999 -9999 -9999 -9999 -9999 -9999 -9999 -9999 -9999 -9999 -9999 -9999 -9999 -9999 -9999 -9999 -9999 -9999 -9999 -9999 -9999 -9999 -9999 -9999 -9999 -9999 135.286 135.467 135.816 136.224 134.845 134.631 138.122 140.237 140.217 137.658 134.22 134.122 133.995 133.879 133.889 133.84 133.935 133.82 133.756 134.349 134.84 135.137 136.253 136.942 136.013 134.958 134.402 134.393 134.234 134.134 134.064 134.103 134.225 134.171 133.923 134.113 135.211 138.224 139.957 140.093 138.153 135.055 134.157 134.034 133.959 133.573 133.592 133.587 -9999 -9999 133.851 134.021 134.243 135.266 135.064 135.442 139.07 140.298 137.949 134.919 135.88 134.963 134.398 135.368 136.078 136.717 134.869 134.281 135.138 136.332 136.206 134.955 135.052 135.744 135.026 134.393 133.94 133.796 135.567 138.547 139.515 138.462 134.929 133.896 133.825 133.964 133.733 133.595 133.384 133.416 133.538 133.752 133.986 134.156 134.198 134.129 134.736 137.854 140.759 141.294 140.337 137.935 135.671 134.787 134.922 134.216 134.077 134.032 134.185 134.52 135.444 136.601 137.957 138.024 136.295 136.288 135.621 135.972 135.332 134.813 135.855 136.01 137.008 137.159 136.738 136.441 135.593 135.643 137.251 136.58 136.085 136.359 137.295 137.491 136.472 136.008 135.769 135.46 135.431 135.357 135.24 135.286 136.514 136.445 136.458 136.853 139.157 139.691 140.785 138.577 136.935 137.245 137.509 136.256 135.943 136.464 136.467 136.056 136.08 136.343 136.686 136.77 137.418 138.279 139.339 140.069 138.846 137.581 137.533 137.963 138.104 138.171 138.32 138.439 138.478 138.6 138.775 139.006 139.803 139.535 139.163 139.125 139.186 139.241 139.337 139.36 139.559 139.8 140.124 140.456 140.468 139.927 140.053 140.229 140.002 140.103 140.022 140.097 140.284 140.673 141.208 142.958 143.213 142.69 141.14 141.016 141.388 143.285 146.509 149.182 149.377 148.997 147.581 145.013 141.36 140.861 140.775 140.651 140.585 140.75 140.955 141.146 140.933 140.833 140.91 140.884 140.804 140.799 140.899 140.882 140.809 140.733 -9999 -9999 142.911 142.979 143.054 145.824 146.673 143.284 141.285 140.75 140.611 140.598 140.735 140.809 140.741 140.544 140.833 140.585 140.197 140.041 139.972 139.909 139.796 139.669 139.611 139.551 139.464 139.401 139.36 139.363 139.384 -9999 -9999 -9999 -9999 -9999 -9999 -9999 -9999 -9999 -9999 -9999 -9999 -9999 -9999 -9999 -9999 -9999 -9999 -9999 -9999 -9999 -9999 -9999 -9999 -9999 -9999 -9999 -9999 -9999 -9999 -9999 -9999 -9999 -9999 -9999 -9999 -9999 -9999 -9999 -9999 -9999 -9999 -9999 -9999 -9999 -9999 -9999 -9999 -9999 -9999 -9999 -9999 -9999 -9999 -9999 -9999 -9999 -9999 -9999 -9999 -9999 -9999 -9999 -9999 -9999 -9999 -9999 -9999 -9999 -9999 -9999 -9999 -9999 -9999 -9999 -9999 -9999 -9999 -9999 -9999 -9999 -9999 -9999 -9999 -9999 -9999 -9999 -9999 -9999 -9999 -9999 -9999 -9999 -9999 -9999 -9999 -9999 -9999 -9999 -9999 -9999 -9999 -9999 -9999 -9999 -9999 -9999 -9999
136.068 135.962 136.029 -9999 -9999 -9999 -9999 -9999 -9999 -9999 -9999 -9999 -9999 -9999 -9999 -9999 -9999 -9999 -9999 -9999 -9999 -9999 -9999 -9999 -9999 -9999 -9999 -9999 -9999 -9999 -9999 -9999 -9999 -9999 -9999 -9999 -9999 -9999 -9999 -9999 -9999 -9999 -9999 -9999 -9999 -9999 -9999 -9999 -9999 -9999 -9999 -9999 -9999 -9999 -9999 -9999 -9999 -9999 -9999 -9999 135.436 135.435 135.144 135.416 134.54 134.102 137.058 140.261 141.021 139.737 136.869 134.469 133.954 133.854 133.82 -9999 -9999 134.024 134.119 134.278 134.297 134.309 134.798 135.36 135.57 135.474 134.791 134.887 134.219 134.258 134.435 134.608 134.608 134.219 134.453 134.774 135.509 136.828 137.978 138.141 136.19 135.068 134.097 133.902 133.736 133.518 133.416 133.218 -9999 133.43 133.602 133.916 134.415 134.234 134.657 136.015 139.55 140.698 139.863 137.03 134.478 134 133.817 133.972 134.554 134.353 133.979 134.339 135.179 137.708 138.57 136.822 135.197 135.721 134.775 134.713 134.206 134.567 137.395 139.86 140.657 139.307 136.469 134.132 133.821 134.598 134.133 133.659 133.476 -9999 133.66 134.238 134.674 134.6 134.141 133.975 134.981 138.196 140.621 140.708 140.087 137.168 134.727 134.292 134.179 134.098 133.935 133.919 133.962 134.63 134.851 136.407 137.509 138.093 137.21 138.464 135.705 135.486 135.125 134.623 134.755 134.955 135.308 136.046 135.714 135.043 135.588 136.443 136.276 135.976 135.542 135.718 135.234 136.015 135.839 135.293 135.261 135.298 -9999 135.123 135.1 135.234 135.965 135.823 135.705 136.056 136.909 137.361 137.424 136.596 137.275 138.119 137.795 136.852 136.812 138.413 138.601 137.147 136.121 136.271 136.333 136.57 136.808 138.247 141.41 140.405 138.978 137.484 137.613 137.987 138.144 137.966 138.283 138.362 138.396 138.474 138.595 138.823 139.686 139.316 138.87 139.026 139.11 139.184 139.22 139.303 139.422 139.542 139.703 140.174 141.22 140.544 140.378 140.218 139.859 139.86 139.944 140.089 140.373 140.592 141.105 142.363 142.513 142.09 140.755 140.562 140.74 141.361 145.939 148.657 149.415 149.194 148.016 146.332 142.419 140.883 140.66 140.574 140.59 140.741 141.282 141.653 140.937 140.689 140.677 140.601 140.692 140.691 140.74 140.751 140.74 140.7 -9999 -9999 -9999 143.077 143.251 145.011 145.425 144.16 141.463 141.111 140.65 140.787 140.538 140.749 141.038 141.719 141.325 140.82 140.136 139.999 139.837 139.794 139.769 139.658 139.524 139.441 139.371 139.386 139.378 139.356 -9999 -9999 -9999 -9999 -9999 -9999 -9999 -9999 -9999 -9999 -9999 -9999 -9999 -9999 -9999 -9999 -9999 -9999 -9999 -9999 -9999 -9999 -9999 -9999 -9999 -9999 -9999 -9999 -9999 -9999 -9999 -9999 -9999 -9999 -9999 -9999 -9999 -9999 -9999 -9999 -9999 -9999 -9999 -9999 -9999 -9999 -9999 -9999 -9999 -9999 -9999 -9999 -9999 -9999 -9999 -9999 -9999 -9999 -9999 -9999 -9999 -9999 -9999 -9999 -9999 -9999 -9999 -9999 -9999 -9999 -9999 -9999 -9999 -9999 -9999 -9999 -9999 -9999 -9999 -9999 -9999 -9999 -9999 -9999 -9999 -9999 -9999 -9999 -9999 -9999 -9999 -9999 -9999 -9999 -9999 -9999 -9999 -9999 -9999 -9999 -9999 -9999 -9999 -9999 -9999 -9999 -9999 -9999 -9999
135.318 135.531 135.702 -9999 -9999 -9999 -9999 -9999 -9999 -9999 -9999 -9999 -9999 -9999 -9999 -9999 -9999 -9999 -9999 -9999 -9999 -9999 -9999 -9999 -9999 -9999 -9999 -9999 -9999 -9999 -9999 -9999 -9999 -9999 -9999 -9999 -9999 -9999 -9999 -9999 -9999 -9999 -9999 -9999 -9999 -9999 -9999 -9999 -9999 -9999 -9999 -9999 -9999 -9999 -9999 -9999 -9999 -9999 -9999 -9999 -9999 134.642 134.474 134.272 134.372 134.306 137.904 140.418 141.243 139.021 135.785 134.327 134.241 133.81 133.626 133.623 133.904 134 133.887 134.879 134.668 135.288 134.755 134.844 134.67 135.094 136.635 135.638 135.038 134.4 134.727 134.862 134.614 135.058 135.746 134.897 135.449 134.874 134.928 134.569 133.894 133.644 133.896 133.813 133.61 133.34 133.009 132.998 133.081 133.216 133.323 133.426 133.873 133.989 134.466 136.399 139.495 140.735 139.469 136.567 133.926 133.741 133.743 133.681 133.653 133.726 133.977 134.827 136.937 139.304 139.186 138.77 137.652 137.521 135.978 136.408 134.427 134.987 138.258 139.82 140.036 136.992 134.091 133.799 133.883 134.264 133.794 133.355 133.188 133.003 133.308 134.08 135.649 136.26 134.137 134.534 134.863 137.899 138.801 139.181 138.413 136.258 134.804 134.481 134.212 133.94 133.902 133.941 133.804 133.863 133.889 134.309 135.654 136.946 138.372 140.758 136.911 136.246 135.158 134.387 134.442 134.525 134.59 134.744 134.618 134.722 134.953 135.226 135.235 135.509 138.952 138.549 137.734 136.762 135.495 135.025 134.937 134.869 -9999 134.715 134.748 134.73 135.12 135.206 135.801 136.262 137.931 136.453 137.216 136.227 136.833 137.812 137.876 136.968 137.313 139.005 140.272 139.651 137.953 137.205 138.373 136.881 136.791 138.069 140.453 140.036 138.098 138.047 137.742 138.655 139.039 138.771 138.54 138.252 138.391 138.468 138.474 138.622 139.771 138.97 138.839 138.878 139.03 139.124 139.144 139.284 139.457 139.516 139.615 139.945 141.239 141.7 141.456 140.058 139.884 139.984 140.001 140.28 140.615 140.95 140.486 141.256 141.786 140.732 140.878 140.823 140.718 141.166 143.776 146.174 148.045 149.125 148.425 146.158 142.248 141.093 140.433 140.469 140.394 140.583 140.833 140.945 140.868 140.602 140.528 140.582 140.614 140.598 140.622 140.662 140.708 140.627 140.479 -9999 -9999 142.381 142.186 142.237 142.794 145.373 143.134 141.426 141.918 141.24 141.233 142.172 145.15 146.337 144.122 142.149 140.175 139.852 139.704 139.772 139.727 139.488 139.347 139.433 139.403 139.343 139.293 139.275 -9999 -9999 -9999 -9999 -9999 -9999 -9999 -9999 -9999 -9999 -9999 -9999 -9999 -9999 -9999 -9999 -9999 -9999 -9999 -9999 -9999 -9999 -9999 -9999 -9999 -9999 -9999 -9999 -9999 -9999 -9999 -9999 -9999 -9999 -9999 -9999 -9999 -9999 -9999 -9999 -9999 -9999 -9999 -9999 -9999 -9999 -9999 -9999 -9999 -9999 -9999 -9999 -9999 -9999 -9999 -9999 -9999 -9999 -9999 -9999 -9999 -9999 -9999 -9999 -9999 -9999 -9999 -9999 -9999 -9999 -9999 -9999 -9999 -9999 -9999 -9999 -9999 -9999 -9999 -9999 -9999 -9999 -9999 -9999 -9999 -9999 -9999 -9999 -9999 -9999 -9999 -9999 -9999 -9999 -9999 -9999 -9999 -9999 -9999 -9999 -9999 -9999 -9999 -9999 -9999 -9999 -9999 -9999 -9999
134.921 135.094 -9999 -9999 -9999 -9999 -9999 -9999 -9999 -9999 -9999 -9999 -9999 -9999 -9999 -9999 -9999 -9999 -9999 -9999 -9999 -9999 -9999 -9999 -9999 -9999 -9999 -9999 -9999 -9999 -9999 -9999 -9999 -9999 -9999 -9999 -9999 -9999 -9999 -9999 -9999 -9999 -9999 -9999 -9999 -9999 -9999 -9999 -9999 -9999 -9999 -9999 -9999 -9999 -9999 -9999 -9999 -9999 -9999 -9999 134.402 134.306 134.217 134.258 134.212 133.997 136.771 139.839 140.442 138.279 135.231 134.182 133.659 133.403 133.32 133.428 -9999 133.901 134 134.513 135.364 137.776 138.829 135.766 134.158 134.827 138.326 142.222 136.051 134.094 134.275 134.252 134.025 134.161 135.15 134.26 133.811 134.424 134.353 133.714 132.79 132.818 133.681 133.508 133.243 133.266 132.922 132.903 133.015 133.147 133.213 133.321 133.587 133.697 133.893 135.945 137.699 139.111 136.613 134.987 134.036 134.001 133.906 133.682 133.444 133.555 133.745 134.93 136.749 138.348 138.224 138.266 138.67 136.802 135.189 134.362 133.88 133.855 136.555 139.755 139.796 137.551 134.27 133.665 133.69 133.769 133.258 133.144 132.99 132.912 132.982 133.032 134.239 135.172 134.436 134.739 135.491 136.142 134.901 135.977 137.168 134.647 134.806 135.5 134.538 134.031 133.908 133.808 133.649 133.583 133.747 134.039 134.378 134.938 136.013 140.53 139.674 139.853 135.237 134.486 134.478 134.389 134.493 134.691 134.796 134.755 134.671 134.743 134.852 135.842 139.477 141.619 140.771 138.35 135.31 134.89 134.796 134.641 134.49 134.492 134.456 134.669 135.195 135.248 137.223 140.049 140.403 140.026 139.467 135.893 136.246 137.1 136.748 136.393 136.141 139.189 138.614 139.525 138.838 139.614 140.623 137.324 136.68 137.614 140.499 141.205 141.864 139.546 138.767 139.822 139.355 140.669 139.232 138.23 138.281 138.393 138.423 138.453 138.752 138.804 138.71 138.756 138.824 138.957 139.064 139.275 139.489 139.615 139.635 140.018 141.595 142.058 141.999 140.936 140.583 140.426 140.356 140.243 140.302 140.212 140.164 140.321 140.373 140.645 140.702 141.031 140.916 140.93 142.465 144.441 147.267 148.591 146.466 142.908 141.123 140.464 140.507 140.29 140.181 140.464 140.637 140.704 140.63 140.643 140.577 140.545 140.506 140.474 140.508 140.586 140.555 140.407 140.242 140.275 -9999 140.981 141.134 140.769 141.671 142.426 141.541 141.2 144.543 143.609 142.009 143.159 144.999 147.421 148.74 142.992 140.478 139.965 139.698 139.736 139.665 139.41 139.271 139.361 139.336 139.208 139.212 139.229 139.211 -9999 -9999 -9999 -9999 -9999 -9999 -9999 -9999 -9999 -9999 -9999 -9999 -9999 -9999 -9999 -9999 -9999 -9999 -9999 -9999 -9999 -9999 -9999 -9999 -9999 -9999 -9999 -9999 -9999 -9999 -9999 -9999 -9999 -9999 -9999 -9999 -9999 -9999 -9999 -9999 -9999 -9999 -9999 -9999 -9999 -9999 -9999 -9999 -9999 -9999 -9999 -9999 -9999 -9999 -9999 -9999 -9999 -9999 -9999 -9999 -9999 -9999 -9999 -9999 -9999 -9999 -9999 -9999 -9999 -9999 -9999 -9999 -9999 -9999 -9999 -9999 -9999 -9999 -9999 -9999 -9999 -9999 -9999 -9999 -9999 -9999 -9999 -9999 -9999 -9999 -9999 -9999 -9999 -9999 -9999 -9999 -9999 -9999 -9999 -9999 -9999 -9999 -9999 -9999 -9999 -9999 -9999 -9999
134.701 134.767 -9999 -9999 -9999 -9999 -9999 -9999 -9999 -9999 -9999 -9999 -9999 -9999 -9999 -9999 -9999 -9999 -9999 -9999 -9999 -9999 -9999 -9999 -9999 -9999 -9999 -9999 -9999 -9999 -9999 -9999 -9999 -9999 -9999 -9999 -9999 -9999 -9999 -9999 -9999 -9999 -9999 -9999 -9999 -9999 -9999 -9999 -9999 -9999 -9999 -9999 -9999 -9999 -9999 -9999 -9999 -9999 -9999 -9999 -9999 134.151 134.136 134.092 134.047 133.993 136.125 139.913 140.539 139.944 136.403 133.97 133.221 133.151 133.196 133.155 -9999 133.688 133.594 133.397 134.468 137.443 138.102 134.698 133.733 134.079 135.285 134.977 134.354 134.002 133.614 133.164 133.295 133.436 133 132.526 133.054 134.852 136.198 134.688 132.682 132.713 133.001 132.932 132.96 133.343 133.095 132.843 132.907 133.013 132.958 133.044 133.422 133.478 133.529 134.3 135.351 135.573 133.892 133.922 134.51 134.579 134.123 133.74 133.303 133.249 133.391 133.913 135.958 136.415 136.599 135.452 135.359 135.427 134.039 133.666 133.545 134.405 137.52 140.003 140.259 136.214 134.205 133.494 133.524 134.026 133.256 132.997 132.838 132.873 132.937 132.927 133.093 133.402 133.598 133.542 134.624 133.717 133.746 134.193 134.644 134.157 134.247 135.142 135.512 134.651 133.91 133.76 133.65 133.536 133.79 134.181 134.935 134.857 135.023 138.953 140.44 136.513 134.637 134.281 134.098 134.162 134.337 135.207 135.465 135.355 134.878 134.92 134.931 137.837 140.784 141.858 141.237 139.696 135.717 134.977 134.496 134.504 134.444 134.43 134.502 134.628 135.549 135.311 137.776 140.787 141.437 141.26 139.775 136.432 135.602 136.005 135.662 135.083 135.187 135.56 135.701 135.823 137.615 138.258 137.641 136.506 136.34 136.786 138.886 140.824 140.407 138.397 138.363 138.83 139.516 140.254 138.667 138.54 138.335 138.443 138.37 138.383 138.494 138.502 138.512 138.617 138.712 138.793 138.96 139.141 139.398 139.574 139.728 139.783 141.35 141.955 142.199 142.059 141.656 141.4 140.378 139.871 139.793 139.906 140.055 140.437 140.407 141.1 141.581 141.128 140.475 140.482 141.452 143.641 145.237 144.226 142.475 140.923 141.746 142.254 141.914 140.512 140.082 140.442 140.657 140.567 140.552 140.594 140.575 140.488 140.483 140.334 140.341 140.377 140.364 140.294 140.138 140.207 140.268 -9999 140.779 140.92 140.861 140.813 140.406 141.408 143.758 142.759 141.332 144.108 144.891 144.688 142.946 140.702 140.451 140.164 139.865 139.778 139.696 139.479 139.34 139.355 139.262 139.187 139.187 139.196 -9999 -9999 -9999 -9999 -9999 -9999 -9999 -9999 -9999 -9999 -9999 -9999 -9999 -9999 -9999 -9999 -9999 -9999 -9999 -9999 -9999 -9999 -9999 -9999 -9999 -9999 -9999 -9999 -9999 -9999 -9999 -9999 -9999 -9999 -9999 -9999 -9999 -9999 -9999 -9999 -9999 -9999 -9999 -9999 -9999 -9999 -9999 -9999 -9999 -9999 -9999 -9999 -9999 -9999 -9999 -9999 -9999 -9999 -9999 -9999 -9999 -9999 -9999 -9999 -9999 -9999 -9999 -9999 -9999 -9999 -9999 -9999 -9999 -9999 -9999 -9999 -9999 -9999 -9999 -9999 -9999 -9999 -9999 -9999 -9999 -9999 -9999 -9999 -9999 -9999 -9999 -9999 -9999 -9999 -9999 -9999 -9999 -9999 -9999 -9999 -9999 -9999 -9999 -9999 -9999 -9999 -9999 -9999 -9999
134.59 134.57 -9999 -9999 -9999 -9999 -9999 -9999 -9999 -9999 -9999 -9999 -9999 -9999 -9999 -9999 -9999 -9999 -9999 -9999 -9999 -9999 -9999 -9999 -9999 -9999 -9999 -9999 -9999 -9999 -9999 -9999 -9999 -9999 -9999 -9999 -9999 -9999 -9999 -9999 -9999 -9999 -9999 -9999 -9999 -9999 -9999 -9999 -9999 -9999 -9999 -9999 -9999 -9999 -9999 -9999 -9999 -9999 -9999 -9999 -9999 134.082 134.06 134.02 134.053 135.171 138.426 139.882 140.294 137.458 134.528 133.842 133.304 133 132.978 -9999 -9999 -9999 133.227 133.234 133.614 134.197 134.433 133.657 134.987 134.768 133.96 133.965 134.889 135.692 133.766 133.352 132.984 132.813 132.621 132.694 134.442 137.362 137.962 136.959 133.008 132.524 132.673 132.697 132.629 132.881 132.817 132.72 132.749 132.778 132.781 132.768 133.433 133.048 132.489 132.417 132.77 133.169 132.99 133.938 134.763 134.328 134.303 133.656 133.188 133.18 133.374 133.972 134.931 134.887 134.823 134.512 135.101 136.927 134.936 133.637 133.794 135.293 138.964 139.589 138.895 135.502 133.52 133.392 133.367 133.471 132.859 132.747 132.7 132.724 132.771 132.778 132.821 132.895 133.051 133.398 133.909 135.244 133.949 135.198 133.889 133.395 133.593 134.698 134.993 134.858 134.219 133.95 133.983 133.925 133.694 134.011 135.795 135.437 135.834 137.016 136.708 135.237 134.156 134.167 133.996 134.008 134.27 135.068 135.612 134.749 134.66 134.767 135.23 138.58 141.174 141.854 141.008 139.383 136.306 135.701 134.605 134.485 -9999 134.445 134.467 134.566 135.003 135.732 139.243 141.315 141.754 141.308 138.519 135.219 135.075 135.042 135.631 135.328 134.795 134.894 134.864 135.586 137.312 137.063 136.437 136.784 136.757 136.598 138.065 137.653 138.031 137.695 137.414 137.859 141.347 140.404 138.74 138.667 138.689 138.935 138.442 138.442 138.522 138.403 138.442 138.56 138.632 138.728 138.927 139.149 139.294 139.51 139.746 139.735 140.524 141.302 142.112 141.912 141.639 140.707 139.881 139.666 139.87 140.583 140.904 141.002 142.231 141.858 141.135 140.261 140.077 140.381 140.81 141.731 141.729 141.194 141.357 144.473 145.843 146.259 145.346 142.452 140.54 140.532 140.68 140.639 140.525 140.426 140.421 140.429 140.426 140.349 140.274 140.3 140.446 140.416 140.303 140.195 140.195 -9999 -9999 140.931 140.957 140.985 140.685 141.142 141.509 141.335 141.456 142.922 141.991 140.515 140.34 140.154 140.12 140.008 139.904 139.779 139.705 139.573 139.388 139.371 139.29 139.199 139.183 139.155 139.161 -9999 -9999 -9999 -9999 -9999 -9999 -9999 -9999 -9999 -9999 -9999 -9999 -9999 -9999 -9999 -9999 -9999 -9999 -9999 -9999 -9999 -9999 -9999 -9999 -9999 -9999 -9999 -9999 -9999 -9999 -9999 -9999 -9999 -9999 -9999 -9999 -9999 -9999 -9999 -9999 -9999 -9999 -9999 -9999 -9999 -9999 -9999 -9999 -9999 -9999 -9999 -9999 -9999 -9999 -9999 -9999 -9999 -9999 -9999 -9999 -9999 -9999 -9999 -9999 -9999 -9999 -9999 -9999 -9999 -9999 -9999 -9999 -9999 -9999 -9999 -9999 -9999 -9999 -9999 -9999 -9999 -9999 -9999 -9999 -9999 -9999 -9999 -9999 -9999 -9999 -9999 -9999 -9999 -9999 -9999 -9999 -9999 -9999 -9999 -9999 -9999 -9999 -9999 -9999 -9999 -9999 -9999 -9999
134.509 134.725 -9999 -9999 -9999 -9999 -9999 -9999 -9999 -9999 -9999 -9999 -9999 -9999 -9999 -9999 -9999 -9999 -9999 -9999 -9999 -9999 -9999 -9999 -9999 -9999 -9999 -9999 -9999 -9999 -9999 -9999 -9999 -9999 -9999 -9999 -9999 -9999 -9999 -9999 -9999 -9999 -9999 -9999 -9999 -9999 -9999 -9999 -9999 -9999 -9999 -9999 -9999 -9999 -9999 -9999 -9999 -9999 -9999 -9999 -9999 134.377 134.34 134.509 134.87 135.888 138.634 137.958 136.764 135.583 133.933 133.488 133.124 132.815 132.799 132.799 -9999 132.939 132.971 133.041 133.104 133.277 134.071 136.068 137.051 137.665 135.316 135.014 136.204 137.317 135.107 133.422 132.806 132.732 132.608 133.47 136.528 138.422 138.539 136.916 133.41 132.451 132.77 133.267 132.78 132.696 132.676 132.605 132.603 132.744 132.826 132.732 132.734 132.393 132.164 132.7 133.119 132.707 132.272 133.474 135.111 134.891 135.403 134.149 133.026 133.135 133.395 134.179 134.953 134.371 133.494 133.295 133.804 134.211 134.68 133.789 133.708 134.358 136.4 137.1 135.567 133.874 133.414 133.229 132.943 132.671 132.62 132.53 132.412 132.412 132.518 132.69 132.829 132.998 133.083 133.276 135.165 138.212 138.242 138.177 134.855 133.394 133.217 133.959 134.341 133.696 133.95 133.783 134.5 133.95 133.49 134.123 135.228 135.07 135.978 137.495 137.8 135.686 133.922 133.999 133.937 133.985 134.243 134.833 134.406 134.557 134.321 134.561 136.908 139.966 141.202 141.49 140.757 136.909 135.586 135.243 134.413 134.374 -9999 134.218 134.279 134.35 134.654 135.314 139.43 141.675 141.835 140.906 139.118 135.458 134.754 135.13 137.845 136.566 135.144 134.899 135.158 135.416 136.965 136.251 136.565 139.008 138.154 138.013 137.83 137.339 137.016 137.135 137.402 137.374 138.208 138.291 138.113 138.263 138.495 138.59 138.368 138.414 138.498 138.448 138.493 138.58 138.641 138.746 138.923 139.098 139.178 139.256 139.451 139.603 139.784 140.247 141.63 141.574 141.306 139.829 139.656 140.428 142.014 142.625 142.829 141.866 141.551 140.613 140.047 139.853 140.358 141.446 142.245 141.018 140.867 141.335 145.349 148.229 148.542 147.605 146.622 144.635 141.72 140.575 140.576 141.299 141.159 140.393 140.319 140.336 140.355 140.21 140.321 140.372 140.422 140.466 140.456 140.177 140.167 -9999 -9999 141.039 141.193 141.3 141.344 141.541 141.661 141.318 140.94 140.795 140.243 140.192 140.898 141.17 140.261 139.99 140.132 140.722 140.215 139.694 139.484 139.357 139.174 139.096 139.211 139.126 139.122 -9999 -9999 -9999 -9999 -9999 -9999 -9999 -9999 -9999 -9999 -9999 -9999 -9999 -9999 -9999 -9999 -9999 -9999 -9999 -9999 -9999 -9999 -9999 -9999 -9999 -9999 -9999 -9999 -9999 -9999 -9999 -9999 -9999 -9999 -9999 -9999 -9999 -9999 -9999 -9999 -9999 -9999 -9999 -9999 -9999 -9999 -9999 -9999 -9999 -9999 -9999 -9999 -9999 -9999 -9999 -9999 -9999 -9999 -9999 -9999 -9999 -9999 -9999 -9999 -9999 -9999 -9999 -9999 -9999 -9999 -9999 -9999 -9999 -9999 -9999 -9999 -9999 -9999 -9999 -9999 -9999 -9999 -9999 -9999 -9999 -9999 -9999 -9999 -9999 -9999 -9999 -9999 -9999 -9999 -9999 -9999 -9999 -9999 -9999 -9999 -9999 -9999 -9999 -9999 -9999 -9999 -9999 -9999
