ncols 434
nrows 32
xllcorner    427108
yllcorner    435764
cellsize     2
NODATA_value -9999
93.075 94.881 95.797 86.501 96.04 94.462 96.52 96.445 89.251 78.355 78.22 78.627 78.701 84.045 88.375 88.383 88.232 86.909 85.725 79.055 80.073 79.208 78.53 78.508 78.838 78.746 84.388 87.315 88.076 87.8 86.641 83.689 79.216 80.609 79.239 79.702 79.041 78.944 79.937 79.559 79.195 79.295 84.877 86.975 88.172 88.342 87.263 86.104 80.257 80.667 81.018 79.056 79.43 80.705 80.932 79.984 79.464 84.226 86.294 85.749 83.116 79.429 79.83 79.542 79.537 79.569 79.562 79.414 79.987 79.715 80.102 84.396 86.484 85.855 84.519 80.333 79.897 79.715 79.422 80.997 83.034 82.058 79.692 79.707 80.045 80.704 85.016 87.029 86.292 84.766 80.043 79.913 80.023 79.701 79.735 79.663 79.708 80.516 83.138 81.556 80.792 79.83 79.744 79.698 79.698 80.248 80.62 79.739 79.408 79.351 79.483 79.514 79.727 79.832 79.43 79.144 78.732 78.671 78.919 78.756 78.745 78.722 78.637 78.708 78.959 79.09 78.87 78.584 78.577 79.04 78.736 79.094 80.31 80.367 79.255 78.21 78.937 81.611 83.179 80.664 78.757 78.239 78.144 -9999 78.784 -9999 86.38 86.68 85.116 81.171 77.276 77.581 77.951 79.173 77.986 77.832 77.349 77.136 77.471 77.901 77.785 77.517 77.43 78.145 77.473 77.697 77.828 77.892 77.634 -9999 -9999 -9999 -9999 -9999 -9999 -9999 -9999 78.353 78.059 77.514 76.677 76.303 76.283 76.443 76.7 77.255 76.388 78.049 81.843 83.347 83.531 82.02 78.363 76.501 76.713 77.967 77.925 77.388 76.931 77.149 77.56 79.539 80.774 80.778 80.608 80.295 79.909 79.39 79.047 78.72 78.693 78.255 77.921 77.854 77.879 76.746 76.654 76.415 76.309 76.039 75.744 75.638 75.784 75.891 75.631 75.584 75.532 75.599 75.593 75.57 75.525 75.613 75.669 75.505 75.524 75.534 75.595 75.541 75.585 75.555 75.494 75.575 75.446 75.535 75.523 75.427 75.411 75.414 75.427 75.502 75.461 75.417 75.463 75.482 75.48 75.48 75.532 75.554 75.512 75.438 75.452 75.421 75.392 75.455 75.411 75.347 75.448 75.436 75.358 75.399 75.456 75.419 75.354 75.329 75.374 75.426 75.362 75.375 75.328 75.298 75.248 75.301 75.552 77.98 80.431 80.855 81.566 81.62 81.448 80.457 76.609 75.704 75.311 75.413 75.466 75.652 76.009 78.404 78.972 79.133 79.003 78.727 78.036 77.385 76.823 76.136 75.626 75.484 75.324 75.512 76.051 75.821 75.404 75.516 75.717 75.746 76.095 76.67 77.351 77.057 77.123 77.817 77.529 77.213 77.386 79.445 83.614 85.304 86.424 86.349 85.565 83.442 83.071 81.289 78.681 80.728 80.012 -9999 78.006 77.892 78.389 77.905 77.616 -9999 -9999 -9999 -9999 -9999 -9999 -9999 78.006 77.251 77.736 77.783 78.541 79.174 78.861 78.062 78.208 78.354 78.014 79.652 85.235 88.776 88.273 89.249 89.183 86.987 82.211 78.133 77.501 77.566 77.432 77.544 78.248 78.587 78.95 79.536 79.675 80.465 79.3 78.19 78.709 78.783 -9999 -9999 87.44 89.12 88.544 86.815 83.936 80.35 78.889 78.659 -9999 -9999 80.351 80.773 79.609 78.691 78.57 78.519 78.558 78.844 81.075 83.899 84.966 85.441 82.848 78.678 77.606 77.324 77.466 81.817 89.577 92.667 91.49 89.373 -9999 81.242 78.975 79.765 80.035 78.688 78.465 79.308 -9999 -9999 85.835 84.721 81.247 79.084 79.463 82.549
88.783 92.768 94.844 93.173 95.829 96.283 95.63 95.164 82.465 78.288 78.128 78.969 78.577 80.8 87.132 87.875 88.53 87.461 85.208 79.041 80.232 79.46 78.82 78.511 78.841 78.882 79.916 86.425 87.897 88.075 87.523 84.827 79.766 80.309 78.911 79.295 79.079 78.848 78.892 78.916 79.093 79.172 81.155 86.748 87.988 88.305 87.519 85.96 80.86 81.531 80.894 79.081 79.043 79.768 79.222 79.34 79.56 81.076 85.716 86.021 84.784 79.751 79.68 80.187 80.043 79.454 79.505 79.427 79.498 79.754 79.487 83.216 85.868 86.284 85.123 80.814 79.391 79.503 79.195 79.336 80.956 81.31 80.587 79.907 80.924 80.74 84.163 86.008 86.332 85.38 80.757 79.74 79.782 79.568 79.65 79.625 79.672 80.778 80.652 84.268 83.211 83.522 79.942 79.602 79.537 80.407 79.874 79.428 79.36 79.344 79.214 79.225 79.182 79.116 79.079 79.552 79.098 78.873 78.611 78.718 78.789 78.79 78.948 78.874 79.331 79.264 78.999 78.605 78.371 78.492 78.417 78.709 79.782 79.591 78.753 78.267 79.491 83.841 86.399 84.727 82.485 80.81 -9999 -9999 -9999 -9999 87.149 87.192 87.234 84.301 79.675 77.917 78.201 78.821 77.892 77.615 77.132 77.025 77.441 77.078 78.082 77.937 78.832 78.617 78.05 -9999 77.458 -9999 -9999 -9999 -9999 -9999 -9999 -9999 79.094 79.175 78.988 78.447 78.621 78.219 77.192 76.32 76.475 -9999 76.613 76.515 76.647 77.868 81.007 82.611 82.058 81.786 80.418 77.122 76.298 76.7 77.188 76.995 76.788 77.135 78.555 80.95 81.073 80.854 80.608 80.298 80.05 79.403 78.894 78.655 78.586 78.421 77.919 77.868 77.491 76.909 76.379 76.205 76.026 75.794 75.645 75.533 75.603 75.68 75.588 75.581 75.62 75.522 75.5 75.451 75.456 75.468 75.497 75.524 75.519 75.548 75.559 75.568 75.537 75.547 75.445 75.383 75.472 75.414 75.468 75.344 75.417 75.4 75.383 75.395 75.44 75.55 75.458 75.378 75.391 75.391 75.471 75.49 75.448 75.365 75.392 75.383 75.393 75.404 75.374 75.276 75.329 75.341 75.315 75.322 75.365 75.386 75.279 75.272 75.311 75.34 75.3 75.275 75.258 75.252 75.261 75.3 75.382 76.317 79.38 81.433 81.814 81.908 81.717 81.512 80.019 78.485 76.003 75.415 75.451 75.538 75.785 77.181 78.455 78.775 78.617 78.46 78.106 77.992 77.382 76.484 75.676 75.266 75.285 75.4 75.71 75.639 75.428 75.501 75.544 75.545 75.703 75.785 76.507 76.861 76.877 76.898 77.049 77.284 78.229 80.664 83.643 84.054 85.254 86.083 83.866 81.326 81.875 82.849 82.563 85.444 84.422 83.523 80.103 78.15 77.9 77.71 77.43 77.89 78.773 79.137 -9999 -9999 -9999 -9999 77.744 77.824 78.006 78.16 79.165 79.121 78.451 77.497 77.929 78.023 77.312 77.591 79.824 83.042 85.944 89.219 88.738 87.697 84.192 79.414 78.022 78.113 77.409 77.618 77.737 78.632 79.268 78.911 78.915 80.98 80.249 79.045 79.063 78.664 -9999 -9999 -9999 87.392 87.044 86.077 82.627 78.955 78.59 78.898 79.056 79.138 79.542 79.073 78.969 78.7 78.58 78.496 78.467 78.874 -9999 -9999 84.368 84.275 81.825 78.214 77.811 77.403 77.275 81.986 89.955 90.91 90.267 -9999 82.414 81.663 82.176 83.62 83.894 80.615 78.713 78.191 78.719 80.417 82.019 81.804 79.549 78.71 80.635 83.962
88.058 90.133 88.855 92.286 94.029 95.99 93.742 86.931 83.142 78.128 78.12 79.226 78.524 79.391 85.646 87.5 88.547 88.078 86.627 80.659 78.868 78.718 79.521 78.444 79.054 78.855 79.925 86.418 88.394 88.286 87.32 85.118 81.128 79.111 78.929 78.67 78.871 78.824 79.674 79.13 78.927 79.129 81.041 86.407 88.068 88.481 87.998 86.62 82.056 79.687 79.533 79.041 79.017 79.522 79.191 79.18 79.184 80.619 85.408 85.942 85.09 80.919 80.518 82.752 83.327 79.718 79.437 79.364 79.408 79.487 79.594 82.879 85.528 86.232 85.26 82.368 79.293 79.247 79.223 80.804 80.04 80.964 79.726 79.875 80.068 79.72 82.013 85.694 86.495 85.571 82.114 79.896 80.331 81.184 79.676 79.641 79.588 79.565 79.547 85.099 86.369 83.264 79.548 79.481 79.989 79.634 79.549 79.255 79.217 79.232 79.193 79.12 79.096 80.729 80.387 80.103 79.233 78.806 78.685 78.754 78.924 78.921 78.878 78.874 78.959 79.187 79.139 78.801 78.833 79.264 78.66 78.792 79.892 80.236 79.199 79.026 80.623 84.267 86.256 86.37 86.427 85.688 -9999 -9999 -9999 84.975 86.266 87.024 86.858 85.337 82.063 77.761 77.284 77.53 77.292 77.148 76.903 76.887 77.196 78.019 79.084 79.415 79.017 -9999 -9999 77.144 76.645 76.625 -9999 -9999 -9999 -9999 -9999 78.731 79.135 79.294 78.991 77.747 77.76 78.205 78.165 76.773 76.901 -9999 76.444 76.381 76.366 76.54 77.633 79.653 79.122 80.072 79.524 76.843 76.046 76.445 76.98 76.863 76.991 77.122 77.535 78.74 80.952 81.002 80.538 80.18 79.716 79.166 79.011 78.783 78.687 78.105 77.966 77.799 77.361 77.048 76.444 76.051 75.957 75.834 75.646 75.599 75.659 75.579 75.53 75.58 75.57 75.42 75.363 75.432 75.436 75.383 75.41 75.457 75.408 75.401 75.482 75.483 75.43 75.446 75.4 75.339 75.397 75.423 75.503 75.428 75.301 75.379 75.446 75.413 75.395 75.441 75.392 75.336 75.311 75.312 75.39 75.437 75.445 75.38 75.332 75.296 75.348 75.341 75.287 75.178 75.256 75.304 75.292 75.243 75.25 75.243 75.18 75.189 75.199 75.199 75.202 75.232 75.252 75.257 75.267 75.288 75.277 75.462 77.815 80.92 81.602 81.72 81.644 81.644 81.375 80.188 76.15 75.332 75.328 75.33 75.523 76.039 77.006 78.054 76.345 76.477 76.761 76.983 77.581 76.53 76.143 75.56 75.417 75.413 75.445 75.439 75.458 75.507 75.52 75.546 75.644 75.511 75.988 76.548 76.562 76.69 77.073 78.627 79.853 80.757 83.033 83.673 83.855 84.476 82.543 78.66 79.542 82.074 85.543 85.573 86.142 85.182 81.233 77.997 77.338 77.098 77.048 77.786 79.357 80.126 78.977 77.913 77.404 77.455 -9999 -9999 -9999 78.488 78.751 78.69 78.398 78.119 78.381 78.41 77.53 77.139 77.119 78.212 81.587 85.438 86.796 89.26 84.681 78.735 78.296 77.529 77.536 77.842 78.524 79.499 79.184 78.845 78.783 79.315 79.479 78.943 78.225 78.212 78.884 80.446 84.221 86.51 87.014 88.719 80.636 80.16 79.04 79.133 79.303 79.355 79.377 79.2 79.019 78.642 78.593 78.526 78.502 78.662 -9999 -9999 82.879 82.459 81.379 79.769 78.142 77.23 76.577 77.978 84.493 85.695 86.055 -9999 82.006 81.636 83.083 85.075 85.157 80.566 78.443 77.925 78.259 79.188 81.466 82.358 79.692 78.837 79.908 82.486
77.448 77.87 91.192 92.864 88.842 88.471 84.45 83.782 82.464 79.463 78.214 78.222 78.508 78.634 84.991 87.259 88.309 87.95 87.29 85.362 79.037 78.681 78.375 78.478 79.596 79.804 78.248 84.994 87.218 88.241 87.765 87.54 84.448 79.046 78.949 78.75 79.228 78.777 78.847 78.872 78.916 79.697 85.452 86.177 87.931 88.319 88.042 87.015 83.523 79.231 79.476 79.24 79.039 79.255 79.29 79.086 79.138 79.508 83.849 81.295 81.898 80.359 82.049 84.954 84.575 79.954 79.386 79.361 79.306 82.319 81.322 80.217 84.989 86.546 85.798 83.914 79.195 79.185 83.608 85.945 82.518 81.664 80.025 79.462 79.524 79.709 81.584 84.824 86.198 85.721 83.763 79.662 79.793 81.273 79.565 79.585 79.593 79.509 79.733 82.875 80.247 80.314 79.588 80.035 79.743 79.248 79.263 79.259 79.21 79.177 79.282 79.575 79.324 80.093 80.649 80.682 80.216 80.305 79.321 79.315 79.398 79.26 78.892 78.798 78.99 79.232 78.961 78.847 78.918 79.369 80.247 82.235 84.034 83.366 -9999 -9999 -9999 -9999 86.996 87.412 87.265 87.074 86.364 84.816 83.285 84.149 84.909 85.353 85.189 84.259 80.348 77.15 77.036 77.334 77.27 77.021 76.759 76.634 76.774 77.552 78.67 79.148 78.986 -9999 77.884 76.895 75.99 76.085 76.529 -9999 -9999 -9999 78.034 78.13 78.723 79.351 79.522 76.767 76.25 77.637 79.006 78.07 77.188 76.737 76.361 76.242 76.22 76.549 77.886 78.608 78.638 79.81 79.859 77.401 76.18 76.757 77.355 77.076 77.108 77.234 77.247 78.377 80.568 80.801 80.242 79.889 79.601 79.343 79.088 78.823 78.65 78.245 77.865 77.574 77.442 77.04 76.594 76.189 76.008 75.898 75.71 75.609 76.008 75.626 75.456 75.463 75.413 75.302 75.324 75.427 75.5 75.397 75.383 75.379 75.379 75.401 75.448 75.279 75.329 75.362 75.423 75.402 75.393 75.339 75.329 75.353 75.307 75.368 75.385 75.37 75.319 75.342 75.3 75.24 75.194 75.258 75.317 75.319 75.296 75.303 75.292 75.308 75.275 75.27 75.244 75.216 75.35 75.313 75.243 75.236 75.221 75.22 75.173 75.162 75.16 75.2 75.202 75.23 75.271 75.251 75.223 75.23 75.195 75.619 77.444 80.274 81.329 81.649 81.667 81.698 81.148 78.769 75.922 75.628 75.519 75.444 75.441 75.392 75.509 75.922 75.768 75.671 75.647 75.75 76.098 77.137 77.883 77.002 75.776 75.464 75.386 75.432 75.483 75.504 75.456 75.409 75.474 75.527 75.866 76.226 76.298 76.461 78.143 79.958 79.852 80.151 82.16 82.797 81.758 79.15 80.928 78.993 78.078 78.716 84.708 86.066 86.8 86.337 82.559 77.94 77.199 76.823 77.042 77.508 79.219 80.418 78.726 77.543 77.019 77.111 77.203 -9999 -9999 -9999 -9999 78.205 78.225 78.66 78.283 77.84 77.372 77.148 77.054 77.199 78.706 82.092 83.291 84.554 79.798 78.487 78.562 77.647 77.732 77.83 78.089 79.176 78.988 79.3 79.173 78.763 78.958 78.624 78.175 78.299 78.849 79.593 83.314 85.999 86.773 86.445 82.389 80.517 79.453 79.261 79.31 79.461 79.484 79.435 79.208 78.522 78.514 78.514 78.504 -9999 -9999 82.78 83.139 83.246 81.23 80.443 78.046 77.206 76.72 77.042 78.439 79.077 83.869 81.552 81.006 81.424 83.008 84.71 82.332 78.853 78.213 77.959 77.973 78.148 79.871 80.693 78.991 78.425 78.753 80.905
77.132 78.634 83.049 88.951 94.33 89.42 88.449 83.943 79.793 78.42 78.82 78.276 78.551 78.638 83.478 88.031 88.035 88.397 87.851 85.75 78.949 78.808 78.629 78.645 78.316 78.584 78.516 83.578 87.114 88.626 87.793 87.063 86 79.461 80.41 80.175 79.43 78.691 78.743 78.688 78.804 79.703 81.509 82.891 86.881 87.709 83.082 84.907 80.522 79.914 80.488 79.865 79.537 78.989 79.722 80.655 79.426 80.006 80.527 79.102 79.4 83.532 80.749 83.697 82.478 79.289 79.335 79.301 79.382 80.925 79.369 79.965 84.392 86.045 86.151 84.892 80.371 79.32 86.034 88.235 87.544 84.765 81.376 79.43 79.501 79.581 79.61 83.716 85.204 84.113 82.643 80.215 82.884 83.357 79.723 79.499 79.493 79.495 79.39 79.32 79.364 79.341 79.307 79.3 79.266 79.168 79.19 79.205 79.169 79.103 79.473 79.555 79.359 79.562 81.354 84.694 85.252 83.073 81.12 79.33 79.522 79.186 78.687 78.629 78.602 78.551 78.542 78.585 79.705 81.301 83.515 84.787 85.58 84.553 -9999 -9999 -9999 -9999 87.262 87.932 87.504 87.112 86.001 85.114 81.393 82.153 81.982 80.825 79.805 79.353 76.632 76.901 77.034 77.361 77.159 76.832 76.75 76.474 76.365 76.807 77.897 -9999 -9999 -9999 -9999 76.801 76.164 76.317 76.663 76.928 77.354 77.749 77.877 77.817 78.211 78.787 77.828 75.668 75.779 76.456 77 77.252 76.473 76.576 76.31 76.23 76.196 76.268 78.131 78.908 80.711 81.795 79.694 77.67 76.013 76.254 77.294 76.861 76.95 77.136 77.23 78.905 80.634 80.63 80.222 79.92 79.614 79.418 79.183 78.87 78.586 78.036 77.819 77.888 77.366 77.028 76.535 76.206 75.915 75.806 75.643 75.51 75.625 75.448 75.352 75.325 75.328 75.236 75.308 75.346 75.431 75.383 75.393 75.365 75.308 75.3 75.392 75.319 75.26 75.319 75.333 75.319 75.252 75.239 75.283 75.374 75.317 75.355 75.331 75.277 75.283 75.324 75.251 75.154 75.08 75.208 75.224 75.235 75.246 75.242 75.229 75.207 75.177 75.185 75.203 75.303 75.278 75.209 75.166 75.203 75.199 75.179 75.129 75.177 75.141 75.145 75.159 75.125 75.183 75.167 75.17 75.194 75.207 75.237 76.034 79.596 81.372 81.759 81.827 82.102 81.163 78.828 77.189 77.136 75.817 75.587 75.381 75.36 75.385 75.592 75.58 75.54 75.446 75.708 76.616 77.825 78.314 78.317 76.191 75.576 75.418 75.328 75.42 75.499 75.452 75.315 75.447 75.48 75.618 75.912 75.991 76.137 77.179 77.058 78.042 79.552 81.344 82.095 79.538 77.389 77.822 77.525 77.83 81.513 85.365 86.769 87.016 86.732 84.562 81.053 78.501 77.347 77.1 77.173 77.856 77.965 78.277 77.865 77.168 76.871 77.135 77.509 -9999 -9999 -9999 77.685 77.676 77.358 77.415 77.13 77.061 77.039 77.089 77.173 77.716 77.682 78.779 79.349 78.615 78.565 -9999 -9999 78.805 78.644 78.941 80.153 80.076 79.705 79.282 78.648 79.421 78.889 78.395 78.533 79.135 81.917 85.795 87.733 87.449 85.73 -9999 80.842 79.795 79.26 -9999 79.461 79.491 79.756 79.988 78.615 78.548 78.567 -9999 -9999 -9999 82.023 81.751 81.625 79.986 78.241 77.42 77.188 76.861 77.506 78.16 78.558 86.056 80.035 79.194 80.555 82.157 82.319 81.861 78.694 78.206 78.03 77.979 78.026 78.409 78.66 78.344 78.27 78.338 79.243
77.087 77.151 84.002 92.024 93.224 93.827 94.251 90.796 80.225 77.996 78.036 78.151 78.405 78.416 79.685 85.571 87.577 88.353 87.685 86.406 80.873 78.735 79.16 79.013 78.245 78.61 78.636 81.021 86.482 87.568 88.056 87.992 86.636 80.913 84.598 82.387 78.58 78.684 78.743 79.389 78.789 78.883 79.042 79.092 79.965 79.985 79.286 80.294 79.48 80.863 80.777 80.786 79.757 78.86 79.476 80.236 80.165 80.114 82.317 83.327 85.163 84.934 81.264 79.531 79.567 79.572 79.543 79.286 79.177 79.405 79.357 79.313 82.798 85.779 85.881 84.564 80.616 80.431 86.008 88.228 87.179 85.463 81.481 79.601 79.492 79.574 79.647 81.598 83.222 82.993 82.699 80.111 81.453 82.388 80.507 79.437 79.471 79.42 79.43 79.403 79.366 79.33 79.268 79.235 79.185 79.116 79.151 79.203 79.178 79.203 79.293 80.417 82.25 79.561 79.445 82.797 84.528 83.333 81.526 79.647 79.435 79.529 79.243 78.757 78.526 78.421 78.282 78.544 80.934 83.198 84.173 84.373 81.495 81.625 83.607 85.843 -9999 -9999 84.797 86.536 86.643 86.549 85.081 82.413 77.979 77.929 78.018 77.898 77.747 77.319 76.817 77 77.297 77.496 77.632 77.233 76.885 76.534 76.409 76.75 -9999 -9999 -9999 -9999 -9999 -9999 76.816 76.84 76.783 76.56 76.609 78.459 78.329 77.717 78.254 77.675 77.582 76.079 76.714 77.868 76.223 76.289 76.242 76.386 76.467 76.421 76.266 76.03 76.768 80.68 82.794 82.646 81.348 77.358 76.221 76.388 77.409 77.252 76.982 77.084 77.214 77.946 80.407 80.446 80.262 79.988 79.788 79.38 79.004 78.855 78.36 78.001 77.787 77.543 77.187 76.885 76.694 76.463 75.942 75.787 75.684 75.556 75.48 75.335 75.293 75.25 75.249 75.253 75.278 75.303 75.367 75.359 75.37 75.268 75.269 75.282 75.276 75.231 75.36 75.283 75.235 75.214 75.223 75.199 75.182 75.203 75.186 75.241 75.301 75.225 75.26 75.253 75.248 75.144 75.092 75.136 75.166 75.198 75.184 75.136 75.097 75.087 75.12 75.14 75.163 75.176 75.09 75.088 75.055 75.062 75.089 75.064 75.133 75.229 75.116 75.093 75.044 75.073 75.091 75.088 75.123 75.173 75.206 75.181 75.243 78.206 81.156 81.955 82.475 82.838 81.872 79.343 78.127 77.201 75.801 75.411 75.38 75.401 75.473 75.52 75.567 75.612 75.584 75.949 77.031 77.88 78.083 78.058 77.594 76.338 75.559 75.421 75.486 75.502 75.479 75.483 75.547 75.422 75.384 75.653 75.778 76.014 76.174 76.429 76.864 79.164 79.668 79.328 77.665 76.818 77.029 77.395 79.086 83.722 86.519 87.25 87.216 86.847 85.933 83.619 81.372 78.098 77.211 77.217 77.71 77.792 78.027 77.765 77.356 76.748 77.464 77.853 77.755 -9999 -9999 -9999 77.29 77.023 76.891 76.763 76.877 76.919 77.188 77.212 77.231 77.361 77.402 77.239 78.129 78.557 -9999 -9999 -9999 80.55 82.458 83.446 81.673 80.121 79.293 79.374 79.521 79.192 78.237 78.52 80.396 86.219 89.237 88.108 87.724 -9999 -9999 -9999 80.851 -9999 -9999 -9999 79.613 79.242 78.955 78.778 78.645 -9999 -9999 82.857 83.376 82.885 80.697 78.985 77.892 77.4 77.188 78.312 79.675 78.677 77.924 79.438 80.461 78.428 78.71 79.204 79.597 80.024 85.723 81.43 79.686 78.212 78.015 78.03 78.24 78.181 78.207 78.376 78.793 78.589
76.998 77.021 86.908 91.767 93.175 94.314 93.627 89.533 82.664 79.633 77.941 78.728 78.278 78.357 79.24 85.9 87.497 88.425 88.918 86.76 81.241 78.645 78.547 78.207 78.201 79.572 78.583 78.907 85.239 87.518 88.429 88.135 86.461 81.231 80.001 79.272 81.757 79.441 78.691 78.812 78.89 78.736 79.22 79.255 82.533 85.06 84.979 84.041 79.583 80.795 80.76 79.911 78.851 78.761 79.369 80.591 81.131 80.446 80.657 84.215 86.197 85.158 83.637 79.318 79.32 79.474 79.431 79.216 79.205 79.161 80.274 79.492 82.257 84.688 86.193 85.243 83.767 79.504 84.315 85.931 85.442 82.776 81.377 80.134 79.355 79.506 79.721 79.809 82.228 81.918 79.646 79.56 79.546 79.369 79.357 79.367 79.394 79.389 79.375 79.318 79.3 79.258 79.205 79.1 79.067 79.097 79.422 79.637 79.694 80.045 83.39 84.637 84.375 80.344 79.243 81.852 86.056 83.583 82.323 80.383 80.563 81.067 80.984 79.49 78.711 78.546 78.335 79.355 81.694 83.134 82.63 80.939 78.105 80.073 85.195 86.631 85.684 82.638 80.91 83.318 84.951 83.632 80.387 78.872 77.417 77.218 77.18 77.447 77.848 77.828 77.176 77.175 77.508 77.753 77.708 77.526 -9999 -9999 76.518 -9999 -9999 -9999 -9999 -9999 -9999 -9999 77.882 77.552 76.963 76.376 77.32 79.548 79.506 77.324 76.499 76.278 78.056 79.155 81.047 80.826 78.511 76.325 76.334 76.304 76.622 76.793 76.259 76.106 77.927 82.002 83.094 82.78 80.834 77.243 76.668 76.547 77.605 77.556 77.23 77.22 77.298 78.181 80.097 80.479 80.27 80.058 79.83 79.435 78.967 78.691 78.367 78.132 77.809 77.503 77.114 76.804 76.552 76.39 76.01 75.774 75.63 75.518 75.363 75.257 75.249 75.249 75.26 75.255 75.28 75.286 75.304 75.348 75.3 75.174 75.194 75.196 75.183 75.161 75.254 75.251 75.217 75.196 75.202 75.096 75.151 75.138 75.136 75.232 75.227 75.057 75.099 75.125 75.121 75.093 75.11 75.149 75.219 75.187 75.144 75.06 74.984 75.05 75.101 75.102 75.162 75.154 75.034 75.015 75.001 74.959 74.97 74.979 74.977 75.052 75.038 75.028 75.02 75.032 75.025 75.01 75.121 75.122 75.124 75.104 75.374 78.025 80.964 81.863 82.153 82.199 81.438 79.209 78.414 77.343 75.523 75.394 75.379 75.468 75.518 75.465 75.458 75.436 75.516 75.855 77.183 77.376 77.941 78.303 77.753 76.748 75.99 75.5 75.556 75.559 75.48 75.421 75.425 75.465 75.455 75.621 76.046 76.494 76.324 76.563 77.551 77.553 78.647 77.483 76.742 76.77 76.847 76.851 79.33 83.781 86.15 86.415 86.932 86.555 86.437 84.094 81.925 77.984 78.256 77.765 77.381 77.493 77.3 77.421 77.663 77.909 79.444 77.769 77.441 77.844 -9999 -9999 -9999 76.996 76.84 76.676 76.775 77.01 77.276 77.133 77.101 77.035 77.03 76.992 76.995 77.474 -9999 -9999 -9999 82.15 84.257 85.007 82.386 80.127 79.27 79.334 79.373 79.306 78.286 78.109 80.222 87.111 90.157 86.631 84.802 -9999 -9999 82.364 -9999 -9999 80.574 79.782 79.67 79.353 78.917 78.915 -9999 -9999 -9999 83.029 84.986 85.474 81.605 78.703 77.338 77.38 78.692 82.565 83.869 81.456 78.538 78.351 79.542 84.35 81.33 81.572 80.811 81.18 84.54 83.481 82.286 79.46 78.611 78.641 78.37 78.324 78.294 78.983 80.231 79.694
76.951 76.956 80.182 89.008 91.312 92.226 91.97 91.306 83.652 78.486 77.776 78.344 78.621 78.407 79.194 84.195 86.806 87.707 87.875 86.914 85.485 78.866 78.589 79.191 78.288 78.556 78.998 79.882 83.721 86.7 87.746 87.649 86.956 82.719 78.996 81.41 83.657 79.914 78.622 78.683 79.271 78.688 78.936 78.937 83.034 84.833 85.271 84.06 80.026 79.385 79.008 78.998 78.898 78.747 79.867 84.455 81.702 80.171 79.522 83.823 86.018 85.656 84.342 79.367 81.215 80.437 79.445 79.193 79.19 79.072 79.733 79.665 79.189 84.215 85.645 85.415 84.341 79.202 80.098 79.243 80.435 79.374 80.315 79.344 79.293 79.345 79.467 79.516 79.378 79.349 79.26 79.257 79.25 79.321 79.36 79.322 79.333 79.329 79.305 79.242 79.222 79.164 79.1 79.075 79.16 82.84 85.999 83.758 79.512 79.501 83.237 84.902 84.576 82.539 79.4 80.035 85.172 83.837 83.317 83.495 83.773 83.078 81.867 80.258 78.86 78.51 78.165 78.556 80.62 81.159 79.768 78.807 78.298 81.088 86.235 86.987 86.182 81.208 78.036 78.317 79.724 78.677 78.942 79.32 77.771 77.275 77.215 77.006 77.304 77.534 77.4 -9999 77.446 77.653 77.631 -9999 -9999 -9999 -9999 -9999 -9999 -9999 -9999 -9999 -9999 78.41 78.273 78.227 77.912 77.346 77.528 79.623 79.865 77.523 75.594 75.736 78.377 82.177 82.437 81.508 78.613 76.503 76.187 76.237 76.67 77.268 76.703 76.555 78.084 81.386 81.749 82.189 81.382 80.181 77.13 76.33 76.858 77.229 77.217 77.277 77.321 78.239 80.512 80.64 80.337 80.048 79.802 79.314 78.901 78.685 78.632 78.256 77.653 77.636 77.12 76.78 76.555 76.342 75.93 75.711 75.446 75.36 75.362 75.334 75.262 75.279 75.225 75.252 75.296 75.211 75.231 75.252 75.158 75.158 75.164 75.224 75.183 75.143 75.19 75.273 75.247 75.136 75.161 75.14 75.179 75.197 75.202 75.265 75.178 75.089 75.128 75.138 75.147 75.171 75.136 75.074 75.132 75.126 75.075 75.042 74.992 74.989 75.03 75.161 75.149 75.068 74.981 75.016 75.005 74.985 74.952 74.959 74.987 74.97 74.975 75.003 75.017 75.017 74.994 74.97 75.052 75.055 74.973 75.021 75.087 76.855 80.381 81.497 81.837 81.812 81.415 79.439 78.526 76.778 75.326 75.19 75.335 75.454 75.396 75.416 75.451 75.49 75.448 75.512 75.751 75.814 76.707 78.529 78.412 77.629 77.162 75.643 76.006 75.819 75.462 75.348 75.408 75.408 75.383 75.545 75.909 76.308 76.375 77.048 76.555 75.978 76.393 76.288 76.246 76.567 76.593 76.452 78.156 79.926 83.073 83.341 -9999 83.996 84.91 83.881 79.21 81.132 81.45 -9999 78.66 77.466 77.077 77.474 77.755 77.79 78.574 77.994 77.784 78.007 -9999 -9999 -9999 -9999 76.869 76.747 76.839 76.999 77.072 77.027 76.968 76.975 76.95 76.908 77.024 77.853 79.528 80.619 81.039 -9999 82.625 82.517 -9999 79.073 78.31 78.478 78.302 77.892 78.006 78.204 78.689 83.1 84.154 81.675 80.116 80.154 82.002 83.798 83.482 81.42 80.296 80.269 79.867 79.556 79.348 -9999 -9999 -9999 -9999 82.532 83.746 83.86 80.522 77.872 77.165 77.552 79.58 83.181 84.931 83.752 79.296 77.744 78.044 81.308 81.992 82.866 82.582 -9999 83.794 85.268 85.711 81.222 79.181 79.646 80.474 79.06 78.469 78.839 81.075 80.859
76.816 76.754 77.654 85.849 89.342 89.964 90.285 89.835 88.758 85.137 78.777 77.698 78.076 78.155 78.343 82.067 86.994 87.682 88.001 87.048 85.824 79.456 78.504 79.089 78.393 78.21 78.619 78.392 80.758 86.356 87.651 87.469 87.838 84.466 78.884 78.652 78.919 78.677 78.617 78.613 79.493 78.631 78.768 78.68 79.157 84.556 85.421 84.607 82.523 79.062 78.942 79.213 80.344 78.757 79.848 83.527 80.867 79.246 79.224 80.984 85.674 86.411 84.494 80.431 80.811 79.761 79.126 79.194 79.162 79.085 79.185 79.388 79.112 83.194 85.262 85.342 84.696 80.023 79.062 79.13 79.168 79.461 80.469 79.486 79.221 79.231 79.185 79.209 79.218 79.231 79.266 79.274 79.316 79.304 79.339 79.254 79.293 79.262 79.231 79.207 79.056 79.106 79.211 79.202 80.317 85.332 86.035 85.416 81.562 79.386 82.6 84.708 84.404 83.474 81.269 83.845 85.373 85.563 85.275 86.611 87.601 85.74 83.548 81.188 79.283 78.293 77.8 77.882 78.658 79.347 78.511 78.127 78.335 80.425 84.116 82.889 81.985 79.207 77.476 78.165 78.885 77.946 79.985 82.008 81.564 79.042 77.803 77.331 77.287 77.395 -9999 -9999 -9999 -9999 -9999 -9999 -9999 -9999 -9999 -9999 76.844 76.847 77.04 77.596 78.15 78.388 78.331 78.576 78.875 78.94 77.2 77.439 77.584 76.329 75.809 76.089 80.242 82.551 82.547 81.58 79.698 77.391 76.195 76.188 76.521 76.628 76.392 76.118 77.893 79.804 78.864 79.898 79.831 77.913 76.978 76.977 76.733 77.232 77.485 77.281 77.367 78.631 81.448 80.612 80.329 80.212 79.741 79.235 78.838 78.611 78.391 78.026 77.632 77.413 77.22 76.951 76.582 76.228 75.896 75.64 75.297 75.229 75.288 75.247 75.203 75.228 75.211 75.14 75.175 75.19 75.18 75.208 75.188 75.131 75.152 75.185 75.136 75.169 75.239 75.313 75.294 75.218 75.22 75.195 75.173 75.134 75.136 75.154 75.142 75.1 75.188 75.12 75.029 75.123 75.185 75.144 75.079 75.006 74.984 74.983 75.02 74.988 74.974 75.077 75.061 74.982 74.934 74.951 74.982 75.053 75.013 74.988 74.958 74.904 74.944 75.012 75.024 75.012 74.967 74.971 75.048 75.001 74.863 74.964 74.958 75.488 77.87 80.468 81.483 81.775 81.229 80.348 79.117 76.812 75.346 75.144 75.251 75.342 75.422 75.427 75.437 75.419 75.351 75.352 75.349 75.335 75.6 77.658 78.743 78.542 78.344 77.321 77.321 76.939 75.606 75.362 75.443 75.525 75.506 75.565 75.596 75.795 75.759 75.904 75.727 75.876 75.961 76.013 76.046 76.176 76.246 76.129 76.075 76.053 76.828 77.327 79.627 81.152 83.706 84.725 84.644 85.022 85.295 84.324 -9999 79.194 77.829 -9999 77.665 77.788 77.936 78.057 78.338 78.167 77.764 -9999 -9999 -9999 -9999 -9999 -9999 -9999 76.955 76.928 76.737 76.814 76.867 77.004 77.462 79.249 80.639 81.198 80.787 -9999 -9999 -9999 78.626 77.994 78.022 77.94 77.86 77.95 78.044 77.98 78.386 78.849 78.421 78.409 78.471 79.034 81.472 86.726 85.032 80.917 79.264 80.395 79.797 79.065 79.376 80.446 -9999 -9999 -9999 -9999 80.781 80.149 78.731 77.928 77.629 77.444 77.056 82.549 83.772 82.875 79.3 76.337 76.955 78.437 80.905 82.036 82.284 -9999 83.617 84.001 83.49 80.88 79.369 79.244 79.868 78.996 78.393 78.859 79.844 80.122
76.661 76.662 76.765 82.764 85.993 87.433 89.225 92.194 92.611 87.863 87.344 82.871 78.696 78.323 78.218 80.325 86.248 87.563 88.31 87.39 86.297 80.342 78.356 78.142 78.078 78.164 80.071 79.155 80.072 86.139 87.455 87.77 87.265 86.188 79.167 78.685 78.715 78.458 78.718 78.536 78.656 78.497 78.595 78.633 79.311 83.668 85.394 85.288 83.904 79.668 79.34 79.194 79.124 78.722 78.909 80.847 80.537 80.152 80.225 80.592 85.318 86.783 85.024 80.035 79.153 79.163 79.124 79.127 79.099 79.089 79.084 79.084 79.101 82.055 84.746 83.955 83.79 80.727 79.036 79.144 79.16 79.173 79.226 79.374 79.146 79.042 79.1 79.157 79.159 79.24 79.282 79.287 79.276 79.233 79.221 79.222 79.215 79.228 79.221 79.176 79.064 79.28 79.373 79.219 81.814 83.576 86.019 85.552 84.501 79.549 79.598 83.684 84.624 85.269 85.564 87.142 87.483 87.229 86.953 87.596 87.651 86.159 85.883 86.574 80.704 78.016 77.834 77.769 -9999 78.238 78.112 78.056 77.92 77.483 78.299 78.043 77.574 79.244 78.122 78.148 78.912 78.034 81.375 82.925 82.967 81.537 79.28 78.174 77.482 77.082 76.831 76.718 76.611 76.755 -9999 -9999 -9999 -9999 -9999 -9999 76.694 76.645 76.581 77.65 78.21 78.297 78.425 78.513 78.955 78.952 77.831 76.796 76.924 77.302 75.968 75.835 78.034 80.965 81.788 81.307 80.059 77.245 75.913 76.385 76.49 76.345 76.196 75.944 76.308 76.897 76.645 77.193 78.387 76.866 76.434 76.388 76.487 76.793 76.923 76.962 77.275 78.19 80.834 80.381 80.028 79.795 79.344 79.055 78.919 78.734 78.515 78.176 77.715 77.525 77.391 76.93 76.359 76.271 75.979 75.525 75.331 75.239 75.247 75.264 75.143 75.186 75.123 75.127 75.121 75.152 75.226 75.193 75.256 75.187 75.164 75.183 75.216 75.219 75.234 75.194 75.152 75.188 75.179 75.184 75.162 75.112 75.095 75.143 75.137 75.082 75.036 75.013 75.064 75.055 75.121 75.129 74.984 74.978 74.971 75.036 75.07 75.015 74.991 75.042 74.993 74.924 74.975 74.956 75 75.034 75.035 74.967 74.906 74.899 74.943 75.035 74.999 75.013 74.974 74.954 74.95 74.953 74.905 74.912 74.887 74.938 75.084 78.302 81.293 81.537 81.538 81.495 79.959 76.993 75.174 75.128 75.256 75.343 75.44 75.436 75.401 75.358 75.303 75.32 75.276 75.228 75.397 75.924 77.425 78.724 78.794 78.61 78.192 78.442 76.691 75.408 75.625 75.842 75.83 76.047 75.851 75.585 75.587 75.705 75.698 75.758 75.84 75.877 75.8 75.876 76.004 75.989 75.834 75.565 75.512 75.512 77.04 78.515 81.198 85.224 86.657 86.679 86.811 86.647 -9999 -9999 -9999 -9999 -9999 78.042 77.657 77.472 78.289 78.084 77.707 77.639 77.539 -9999 -9999 -9999 -9999 -9999 76.863 76.713 76.445 76.635 76.796 77.05 77.697 80.659 80.937 80.729 79.626 79.024 -9999 78.148 77.752 77.597 77.699 77.76 77.774 77.902 -9999 78 78.069 78.083 78.047 78.099 78.665 78.723 80.167 84.095 82.815 79.633 78.485 78.729 78.727 78.804 79.781 82.148 84.207 -9999 -9999 78.922 78.384 78.275 78.098 78.078 78.724 77.617 77.484 80.106 81.684 81.209 79.876 77.004 76.508 76.653 80.391 82.013 -9999 -9999 -9999 81.131 79.995 80.102 77.758 78.264 77.899 78.158 79.273 79.227 -9999 -9999
76.465 76.532 76.685 77.37 83.303 89.096 93.686 93.48 93.497 90.614 88.015 86.605 82.856 78.359 78.162 78.778 84.77 87.569 88.076 88.24 86.515 84.46 78.405 78.358 78.648 78.346 78.602 78.485 78.428 83.237 86.861 87.78 87.13 85.937 81.699 78.858 78.586 78.41 78.42 78.471 78.481 79.387 78.756 79.631 79.743 82.849 85.264 85.446 84.269 79.243 78.743 78.772 78.722 78.624 78.657 79.04 79.614 79.063 78.853 80.215 83.409 86.073 85.669 84.11 79.299 79.15 79.095 79.042 79.096 79.068 78.96 79.083 79.065 79.319 82.081 82.902 82.198 80.724 79.018 79.554 79.121 79.076 79.079 79.045 79.05 79.138 79.153 79.166 79.165 79.202 79.21 79.812 79.431 79.206 79.17 79.166 79.133 79.196 79.104 79.115 79 79.206 79.772 79.219 79.515 80.593 85.356 85.967 85.412 83.424 80.625 85.067 86.024 86.568 87.608 88.078 87.946 87.839 88.949 88.807 88.061 85.245 84.659 83.902 79.309 78.123 78.031 77.845 77.769 -9999 78.197 78.327 78.224 77.43 77.359 77.404 77.857 78.766 78.295 77.869 78.322 78.79 80.759 82.227 82.595 81.994 81.118 -9999 -9999 76.841 76.639 76.462 76.315 76.777 -9999 77.133 -9999 -9999 76.888 76.749 76.631 76.707 77.101 77.999 78.229 78.407 77.797 77.206 78.123 78.298 77.066 76.402 76.604 76.357 75.759 75.609 75.951 76.643 78.034 79.522 77.846 75.909 75.998 76.411 76.275 76.082 76.171 76.176 76.014 76.224 79.02 81.537 81.832 79.727 76.533 76.291 76.289 76.246 76.253 76.856 77.464 79.678 80.834 80.411 80.034 79.773 79.337 79.03 78.819 78.639 78.422 78.036 77.791 77.557 77.272 76.831 76.456 76.213 75.916 75.438 75.29 75.232 75.187 75.164 75.122 75.072 75.012 75.098 75.112 75.127 75.111 75.113 75.183 75.071 75.131 75.205 75.253 75.23 75.228 75.153 75.127 75.115 75.138 75.037 75.07 75.119 75.084 75.107 75.069 75.089 75.033 75.07 75.136 75.06 75.043 75.017 74.926 74.902 74.951 75.038 75.047 75.015 74.949 74.995 74.966 74.954 75.017 75.018 74.997 74.976 74.94 74.902 74.886 74.875 74.904 74.914 74.861 74.968 74.964 74.909 74.878 74.869 74.844 74.825 74.822 74.834 74.96 77.725 80.892 81.522 81.63 81.466 80.044 77.148 75.455 75.12 75.273 75.3 75.359 75.421 75.379 75.237 75.208 75.305 75.279 75.234 75.329 75.439 75.837 77.885 78.554 77.722 77.349 78.508 77.879 76.246 76.398 75.932 75.679 77.1 76.345 75.615 75.493 76.04 75.744 75.658 75.662 75.725 75.569 75.921 76.101 76.173 75.925 75.463 75.771 76.121 76.918 78.42 79.832 85.029 86.652 86.824 86.774 86.847 86.038 -9999 -9999 78.072 78.302 -9999 77.837 76.966 77.288 77.569 77.628 77.557 77.449 77.433 -9999 -9999 -9999 -9999 -9999 76.633 76.579 76.603 76.833 77.632 79.854 81.091 80.876 79.931 78.613 78.234 78.071 78.018 77.77 77.668 77.648 77.719 -9999 -9999 -9999 -9999 78.071 78.253 78.106 78.335 78.967 78.583 79.451 80.485 80.001 78.892 78.711 78.538 78.475 79.054 81.391 85.744 86.295 -9999 80.781 78.286 77.297 77.315 77.666 77.676 78.404 76.965 77.372 79.155 81.24 80.204 79.209 76.711 75.895 77.095 81.118 85.052 84.996 85.662 82.907 79.793 77.686 77.839 77.506 77.494 77.189 77.476 78.281 78.776 -9999 -9999
76.33 76.419 76.467 76.855 87.392 88.723 94.194 94.168 93.661 92.286 90.056 88.073 81.865 78.998 78.143 78.345 84.117 88.252 87.523 87.701 86.869 85.924 78.651 78.958 79.464 78.266 77.993 78.338 78.446 84.248 87.269 88.167 87.552 87.428 83.516 78.628 78.72 78.609 79.416 78.449 78.46 78.676 78.446 79.476 79.022 82.056 84.755 85.49 84.639 79.709 83.46 81.504 79.145 80.564 78.744 78.523 79.727 78.766 78.817 78.985 82.868 85.809 85.936 84.877 79.482 79.124 79.015 78.975 78.993 79.022 78.893 78.991 79.051 79.02 81.026 81.83 79.614 79.193 78.994 79.023 79.05 79.025 79.034 79.031 79.107 79.118 79.15 79.099 79.139 79.562 79.277 79.813 79.26 79.692 79.664 79.411 79.111 79.026 79.08 79.053 79.005 79.012 80.036 79.279 79.612 82.3 85.784 86.303 86.383 87.773 88.787 87.989 87.858 88.242 88.489 88.48 88.006 88.474 88.829 88.365 82.047 81.625 80.734 79.612 78.237 78.069 77.976 77.77 77.725 -9999 -9999 78.668 78.785 77.878 77.246 77.753 79.248 79.608 79.605 78.646 78.191 78.684 79.007 81.223 81.634 82.012 -9999 -9999 -9999 76.865 76.59 76.52 76.477 77.027 77.293 77.095 76.942 76.996 77.127 76.575 76.548 76.664 77.734 78.355 78.438 77.909 76.84 76.399 76.819 76.8 76.361 76.277 76.307 76.01 75.585 75.844 76.663 75.676 76.727 78.171 75.887 75.946 76.312 76.583 76.184 75.928 76.196 76.438 75.971 78.131 82.256 83.118 82.462 80.884 77.621 76.243 76.311 76.199 76.515 78.208 78.012 79.586 80.695 80.336 79.987 79.645 79.331 78.965 78.764 78.573 78.238 77.967 77.774 77.482 77.061 76.53 76.425 76.094 76.042 75.571 75.267 75.237 75.298 75.159 75.096 75.001 74.997 75.044 75.081 75.089 75.11 75.148 75.189 75.107 75.057 75.192 75.199 75.195 75.212 75.182 75.188 75.113 75.083 75.063 75.052 75.007 75.041 75.041 75.008 75.045 75.009 75.075 75.122 75.064 75.005 75.031 74.975 74.932 74.946 74.956 75.04 75.019 75.041 75.105 75.013 74.973 75.023 75.016 75 74.942 74.897 74.912 74.87 74.817 74.885 74.825 74.847 74.931 74.9 74.89 74.879 74.799 74.756 74.747 74.739 74.768 74.828 77.148 80.503 81.405 81.221 80.474 80.495 76.732 75.548 75.242 75.293 75.21 75.299 75.364 75.366 75.199 75.134 75.2 75.244 75.25 75.262 75.25 75.371 76.138 76.164 75.898 76.269 76.951 78.13 77.897 77.343 75.651 76.009 76.825 76.03 75.564 75.307 75.523 75.598 75.547 75.51 75.511 75.54 75.805 76.124 76.266 76.016 76.437 77.286 76.676 76.979 77.598 78.1 83.91 86.253 86.777 87.029 87.107 -9999 -9999 77.737 77.728 77.963 79.184 78.847 77.789 77.073 77.055 77.26 77.383 77.27 77.498 77.409 -9999 -9999 -9999 -9999 -9999 76.633 76.603 77.277 79.047 82.038 82.891 80.891 79.07 77.917 77.611 78.147 78.426 77.825 77.748 77.722 -9999 -9999 -9999 -9999 -9999 77.97 78.122 77.952 78.085 79.25 79.652 79.895 79.928 78.281 79.039 79.367 79.12 78.864 80.154 84.371 88.261 87.432 -9999 -9999 77.988 77.427 77.246 77.359 77.922 78.964 77.576 77.307 77.211 78.523 78.007 77.469 76.671 76.428 78.484 84.311 88.143 86.195 85.822 83.489 79.364 77.545 77.316 77.507 77.554 77.273 77.405 -9999 -9999 -9999 -9999
76.192 76.237 76.353 76.526 85.312 93.626 94.177 94.04 93.5 91.238 91.101 91.58 78.796 77.604 78.901 78.549 81.879 86.489 87.543 87.936 87.389 86.11 80.692 79.257 78.692 78.221 78.062 79.249 78.968 80.668 87.19 87.638 87.689 87.437 85.321 78.514 78.74 78.395 78.481 78.725 78.374 78.481 78.562 78.524 78.609 78.741 84.284 85.443 84.668 83.105 83.463 83.454 80.04 79.805 78.606 78.538 79.701 80.078 79.273 79.033 81.417 85.296 86.135 84.989 82.056 80.709 79.747 78.931 78.987 79.003 78.937 78.942 78.947 78.98 79.056 79.013 78.97 78.92 79.255 79.17 78.972 79.01 79.014 79.041 79.063 79.026 79.069 79.35 79.107 79.998 79.266 79.171 81.969 82.59 79.551 79.412 79.146 78.987 79.025 78.943 78.954 78.887 79.46 79.414 79.459 85.317 87.624 87.303 87.612 88.194 89.017 88.797 89.034 89.049 88.013 87.856 87.927 85.964 84.417 88.612 81.336 78.59 78.902 78.577 78.042 77.965 77.919 77.743 77.599 77.669 78.336 78.756 79.596 79.57 78.476 78.489 79.203 79.349 79.282 -9999 78.191 78.756 79.165 80.856 81.538 -9999 -9999 -9999 -9999 76.698 76.531 76.625 -9999 77.54 77.665 76.758 76.812 77.101 77.483 76.636 76.46 76.718 77.798 78.381 77.708 76.603 76.267 76.125 76.15 76.16 76.15 76.336 76.645 76.782 75.868 75.9 77.601 77.59 80.132 81.066 79.241 77.542 76.603 76.337 76.252 76.116 76.172 76.257 76.212 78.117 81.99 83.694 82.966 81.325 77.657 76.448 76.265 76.288 77.511 80.349 78.939 79.205 80.524 80.381 80.161 79.778 79.291 78.887 78.777 78.423 78.372 77.888 77.737 77.304 76.933 76.653 76.604 76.096 75.902 75.598 75.204 75.231 75.231 75.084 75.07 75.003 75.004 75.002 75.018 75.054 75.111 75.147 75.107 75.039 75.046 74.998 75.103 75.253 75.259 75.19 75.214 75.188 75.081 75.065 75.093 75.006 74.98 75.012 75.029 75.019 74.983 75.022 75.073 75.037 74.975 74.957 74.932 74.906 75.017 75.065 75.094 75.047 75.081 75.1 75.045 75.071 75.002 74.988 74.965 74.975 74.986 74.972 74.891 74.818 74.826 74.753 74.805 74.857 74.835 74.838 74.819 74.728 74.693 74.746 74.763 74.708 74.784 76.285 79.682 80.46 80.142 77.01 76.858 76.227 75.404 75.204 75.186 75.198 75.274 75.346 75.306 75.084 75.094 75.192 75.219 75.203 75.171 75.166 75.186 75.119 75.032 74.806 75.248 75.781 77.114 78.117 77.366 75.987 76.264 77.362 76.402 75.473 75.547 75.447 75.551 75.557 75.535 75.555 75.569 75.727 75.86 75.906 75.88 75.999 76.421 76.597 76.723 77.068 77.955 82.378 86.032 86.494 87.324 86.742 83.567 78.002 77.402 77.37 78.345 82.065 80.401 78.104 76.75 76.916 77.085 77.137 77.308 77.723 77.3 77.013 76.738 76.59 76.507 -9999 76.818 77.31 78.538 80.668 81.717 81.841 80.267 77.999 77.544 77.55 77.773 78.03 77.981 77.953 -9999 79.386 -9999 82.158 82.059 80.029 78.731 78.069 78.27 78.837 79.612 80.888 79.727 78.514 78.546 79.524 80.142 79.666 78.741 80.363 84.834 86.971 85.468 -9999 78.521 78.274 77.632 77.257 77.23 77.298 77.411 76.828 76.344 76.329 76.333 75.803 75.981 -9999 77.442 -9999 83.406 85.703 86.339 87.828 85.135 79.67 77.345 77.2 77.388 77.683 77.251 77.112 77.186 -9999 -9999 -9999
76.044 76.136 76.282 76.552 88.42 92.998 94.019 93.069 92.322 91.362 90.411 90.573 85.441 77.408 77.798 78.261 81.313 85.923 87.73 88.108 87.646 86.403 79.488 78.274 78.124 78.889 77.928 77.966 78.174 77.622 84.753 87.183 87.719 86.912 86.028 79.788 78.548 78.676 78.418 79.087 78.321 78.538 79.52 78.373 78.539 79.106 82.469 85.432 85.369 84.09 81.318 81.746 81.394 81.195 79.129 78.509 78.91 78.899 79.331 79.198 80.734 84.068 86.137 84.719 83.53 79.678 79.887 78.915 78.95 78.964 78.866 78.781 78.979 78.908 78.889 78.737 78.823 78.856 78.878 78.945 78.949 78.986 78.959 79.304 78.981 78.95 79.134 79.817 79.148 79.235 81.569 80.975 81.74 82.921 80.698 79.61 79.319 78.936 78.939 78.97 78.924 78.798 78.873 79.504 79.765 86.365 87.978 88.27 88.799 88.561 88.554 88.702 88.153 88.668 88.023 86.776 83.789 81.78 82.553 79.72 78.168 78.053 78.053 78.179 77.958 77.788 77.878 77.675 77.401 77.543 78.013 77.531 78.55 79.396 79.151 -9999 -9999 -9999 -9999 -9999 -9999 -9999 -9999 -9999 -9999 -9999 -9999 -9999 -9999 -9999 76.472 -9999 76.871 77.601 78.577 78.36 76.741 77.297 78.323 77.46 76.341 76.465 77.069 77.444 76.53 76.116 76.087 76.062 76.084 76.152 76.195 76.296 76.433 76.38 75.711 75.655 76.306 80.472 82.543 82.14 80.483 78.733 76.844 75.804 76.011 75.91 76.009 75.956 75.89 77.063 79.858 82.02 82.267 81.796 78.805 76.129 76.137 75.655 76.148 79.622 77.951 78.223 79.982 80.395 80.192 79.841 79.578 79.002 78.641 78.489 78.279 78.1 77.552 77.308 77.171 76.762 76.519 76.169 75.863 75.561 75.346 75.239 75.179 75.034 75.014 75.005 74.946 74.978 74.95 75.031 75.064 75.102 75.137 75.077 75.069 75.076 75.14 75.206 75.271 75.402 75.294 75.111 75.207 75.384 75.187 75.079 75.015 75.008 75.055 74.995 74.949 75.029 75.079 75.08 75.036 74.98 75.008 74.919 74.971 75.092 75.018 75.029 75.078 75.122 75.002 75.026 75.029 74.984 74.997 75.067 75.03 75.001 74.894 74.809 74.801 74.81 74.853 74.811 74.788 74.762 74.79 74.682 74.741 74.836 74.76 74.717 74.733 75.267 77.574 78.361 78.245 77.203 76.255 75.613 75.029 75.063 75.067 75.152 75.221 75.306 75.287 75.239 75.175 75.18 75.184 75.072 75.239 75.182 75.081 74.903 74.821 74.744 74.833 75.288 75.778 77.167 77.884 76.77 76.493 77.101 76.558 76.064 76.203 75.85 75.674 75.588 75.533 75.655 75.859 76.22 75.868 75.583 75.602 75.746 75.979 76.246 76.48 76.731 77.838 79.746 81.848 85.027 85.154 84.134 80.45 77.26 77.082 77.158 79.239 84.476 81.312 78.576 77.146 77.026 77.181 77.059 77.091 76.959 76.967 76.754 76.621 76.603 76.472 76.436 -9999 -9999 79.959 80.797 81.237 80.637 79.905 78.413 77.506 77.472 77.911 77.947 78.361 78.134 77.854 78.777 80.299 83.619 84.503 80.326 78.02 78.138 78.24 -9999 79.777 80.497 79.475 78.421 78.028 79.558 79.723 78.801 77.686 78.092 80.504 81.745 81.735 79.316 78.97 79.495 78.361 77.293 76.995 76.486 76.369 76.26 76.137 75.949 75.541 75.566 75.712 75.714 -9999 -9999 -9999 -9999 85.022 85.437 82.138 78.441 77.015 76.92 77.118 77.292 76.942 76.719 77.017 -9999 -9999 77.762
75.893 76.032 76.12 76.465 90.029 92.122 92.956 92.678 91.881 90.562 88.869 85.482 79.599 77.345 78.537 78.915 78.492 81.88 86.446 87.514 87.53 86.421 82.303 78.24 78.301 77.958 77.888 77.865 79.274 78.193 85.223 87.387 87.814 87.529 87.314 83.192 78.468 78.36 78.245 78.607 78.292 78.344 78.631 78.277 78.494 78.632 79.643 85.198 85.494 84.001 79.592 79.451 80.178 79.488 78.812 78.436 78.465 79.053 79.078 79.986 79.362 82.634 85.645 85.311 83.947 78.972 79.148 78.915 78.864 78.913 78.891 78.825 78.748 78.818 78.768 78.787 78.864 78.887 78.915 78.871 78.895 78.868 79.017 80.002 79.071 79.282 79.288 80.463 81.188 80.891 80.582 80.538 80.029 82.989 81.477 79.286 79.184 78.853 78.871 78.891 78.862 78.784 78.781 79.408 79.496 85.522 88.784 88.859 88.925 88.454 87.479 87.143 87.614 88.56 86.455 79.32 79.824 79.766 78.207 78.515 78.211 78.164 78.152 78.33 78.1 77.966 77.752 77.569 77.448 77.517 77.919 77.733 78.259 78.887 -9999 -9999 -9999 -9999 -9999 -9999 -9999 -9999 -9999 -9999 -9999 -9999 -9999 77.102 76.739 76.545 76.461 76.469 76.56 76.837 77.337 77.786 77.395 78.571 78.335 76.796 76.09 76.291 76.414 76.438 76.154 76.136 76.112 76.244 76.214 76.128 76.143 76.117 76.096 75.864 75.83 75.588 75.96 78.813 82.226 82.425 81.286 79.197 76.677 75.744 75.744 75.734 75.818 75.868 75.851 76.159 77.169 79.001 81.146 79.606 78.004 76.171 75.778 75.381 75.793 78.291 78.526 77.477 78.406 80.125 80.241 79.84 79.585 78.995 78.856 78.529 78.122 77.987 77.737 77.418 77.148 76.8 76.49 76.14 75.893 75.653 75.291 75.14 75.034 74.973 74.985 74.943 74.947 74.898 74.914 74.955 74.998 75.077 75.048 75.027 75.087 75.056 75.14 75.198 75.187 75.244 75.119 75.086 75.175 75.268 75.16 75.055 75.086 75.11 75.169 75.012 75.027 75.101 75.126 75.17 75.15 75.133 75.122 75.117 75.042 75.054 75.036 74.989 75.054 75.178 75.096 75.065 75.148 75.023 74.987 75.046 75.002 74.907 74.831 74.742 74.816 74.85 74.806 74.802 74.768 74.725 74.777 74.752 74.75 74.768 74.74 74.691 74.689 74.812 75.287 76.095 76.395 76.232 75.229 74.971 75.025 75.264 75.171 75.234 75.242 75.341 75.342 75.405 75.237 75.185 75.124 75.141 75.099 74.966 74.933 74.881 74.676 74.658 74.807 74.966 75.062 76.082 77.481 77.019 77.606 77.671 77.164 76.847 77.756 77.503 76.441 75.818 75.546 76.066 77.767 78.827 76.057 75.551 75.541 75.578 75.734 75.856 76.025 76.612 77.283 77.84 77.41 79.064 79.907 79.665 77.946 77.005 76.904 77.429 78.476 80.599 -9999 -9999 77.657 77.073 77.133 77.074 77.614 77.232 76.905 76.577 76.56 76.486 76.33 76.544 -9999 -9999 -9999 -9999 -9999 80.048 79.093 78.152 77.335 77.193 77.683 77.454 77.811 77.609 77.733 78.028 79.27 83.888 85.678 78.842 78.291 78.946 -9999 -9999 -9999 79.578 78.996 78.787 78.733 78.991 78.373 77.57 77.449 77.341 77.532 77.684 78.04 78.073 78.104 79.915 78.278 77.636 77.117 76.218 75.828 76.1 75.966 75.777 75.503 75.48 76.11 76.476 77.295 -9999 -9999 -9999 -9999 80.228 77.968 76.96 77.469 77.29 77.479 77.953 77.208 77.147 76.943 -9999 76.887 77.218
75.762 75.932 76.018 76.275 79.739 88.955 91.964 93.53 91.572 88.593 81.114 78.898 77.845 77.244 77.445 77.931 78.046 82.211 86.523 87.342 87.774 86.808 85.413 78.39 78.061 78.622 77.837 77.853 78.425 78.004 82.294 86.85 87.788 87.393 85.913 85.288 78.589 79.814 78.666 79.41 78.404 78.216 78.198 78.264 78.398 78.309 79.968 84.947 85.13 84.337 80.318 78.455 78.481 78.918 79.534 78.406 78.455 79.506 78.789 78.829 79.043 82.335 85.42 85.513 84.137 79.155 78.964 79.106 78.78 78.831 78.846 78.806 78.809 78.771 78.821 78.802 78.828 78.858 78.79 78.804 78.776 78.816 78.934 79.39 79.13 81.104 81.309 79.767 80.95 81.722 79.952 80.399 81.759 84.625 83.787 83.49 79.39 79.031 79.911 78.902 78.846 78.739 78.651 79.559 80.149 80.904 85.925 87.766 88.732 88.368 85.706 84.884 83.461 80.84 79.325 78.645 79.389 79.19 78.122 78.561 78.43 78.08 77.969 77.89 77.892 77.805 77.662 77.591 77.513 77.448 77.412 78.273 -9999 -9999 -9999 -9999 -9999 -9999 -9999 -9999 -9999 -9999 -9999 79.255 79.393 79.242 -9999 77.142 76.788 76.612 76.446 76.417 76.304 76.356 76.377 77.75 78.921 78.539 77.353 76.443 76.307 76.366 76.334 76.546 77.361 76.636 76.272 77.353 77.696 76.126 76.024 75.967 75.958 76.115 75.675 75.33 75.71 79.322 81.306 81.871 80.924 77.969 75.951 75.706 75.668 75.647 75.646 75.683 75.681 75.854 75.771 76.552 77.117 76.057 76.092 75.57 75.453 75.266 75.442 77.592 79.699 78.491 79.315 80.139 79.888 79.693 79.286 79.194 78.881 78.509 78.151 77.942 77.581 77.357 77.102 76.712 76.507 76.149 75.797 75.365 75.187 75.09 74.984 74.98 74.978 74.977 74.952 74.999 74.923 74.898 74.927 74.987 75.032 74.948 75.037 75.098 75.136 75.131 75.099 75.05 75.025 75.082 75.092 75.06 75.084 75.089 75.026 75.091 75.116 75.056 75.119 75.105 75.129 75.24 75.228 75.229 75.132 75.123 75.199 75.116 75.052 74.94 75.132 75.056 75.023 75.028 75.07 75.012 74.965 75.043 74.905 74.828 74.836 74.784 74.816 74.809 74.75 74.785 74.784 74.724 74.781 74.751 74.71 74.686 74.697 74.657 74.628 74.71 74.802 74.853 74.827 74.898 74.753 74.833 75.226 75.752 76.094 76.006 75.663 75.385 75.35 75.536 75.408 75.201 75.118 75.13 74.91 74.792 74.784 74.623 74.601 74.654 74.786 74.817 74.882 74.967 75.237 75.871 76.77 77.84 77.816 78.287 82.405 81.717 79.327 76.774 76.027 76.21 77.256 77.882 76.117 75.582 75.572 75.534 75.47 75.558 75.705 76.111 76.75 77.348 76.734 76.623 76.933 77.332 77.026 76.92 76.902 77.188 -9999 -9999 -9999 -9999 -9999 -9999 77.132 77.265 77.973 76.974 76.732 76.538 76.599 76.514 76.387 76.589 77.308 78.343 -9999 -9999 -9999 -9999 78.139 77.237 76.756 77.278 77.794 78.171 78.314 77.988 77.829 77.677 78.615 80.605 80.8 79.141 79.074 -9999 -9999 -9999 -9999 78.445 78.162 78.455 79.226 78.057 77.503 77.396 77.393 77.385 77.366 77.356 77.336 77.362 77.384 77.553 77.692 77.473 77.476 76.529 75.948 75.951 -9999 -9999 75.637 76.069 76.285 75.948 78.408 81.305 -9999 80.997 79.248 78.129 76.957 76.224 76.926 77.883 78.001 79.332 78.703 -9999 -9999 76.434 76.528 76.375
75.675 75.815 75.865 75.976 78.153 85.762 92.728 92.662 93.494 91.134 89.365 85.265 77.273 77.26 77.48 77.887 77.947 79.461 84.494 86.893 87.691 86.945 86.166 78.806 78.207 77.859 78.494 77.782 78.949 78.245 79.669 85.764 87.009 87.388 87.14 85.669 79.115 81.348 80.769 78.958 78.753 78.175 82.752 78.546 78.288 78.318 79.509 83.915 85.17 84.914 81.032 78.459 78.415 79.015 81.432 78.455 78.316 78.822 78.7 78.588 78.639 79.961 84.909 85.382 84.562 79.526 78.907 78.889 78.76 78.756 78.815 78.765 78.771 78.731 78.724 78.741 78.745 78.728 78.764 78.761 78.849 78.895 79.143 79.556 79.344 80.807 81.407 79.74 79.331 79.603 79.288 79.799 83.419 86.2 86.195 85.763 79.809 79.045 78.999 78.809 78.784 78.691 78.572 79.207 80.111 78.803 83.837 87.154 87.181 82.217 81.063 80.243 78.827 78.414 78.38 78.39 78.376 78.962 79.103 79.276 78.28 78.01 77.917 77.856 77.721 77.678 77.58 77.621 77.539 77.463 77.422 77.371 78.614 78.676 -9999 -9999 -9999 -9999 -9999 -9999 -9999 -9999 78.86 79.123 79.621 79.673 78.216 77.013 76.767 76.631 76.437 76.419 76.269 76.89 76.69 77.899 78.938 78.994 78.171 76.966 77.168 76.881 77.268 79.404 80.549 77.035 77.609 79.288 80.044 77.026 76.036 75.947 75.882 75.709 75.306 75.249 75.418 77.646 80.56 80.716 79.448 76.183 75.874 75.657 75.619 75.602 75.679 75.631 75.491 75.423 76.494 79.625 79.769 78.316 77.516 75.857 75.271 75.333 75.411 75.907 78.716 78.096 79.042 79.841 79.823 79.674 79.449 79.047 78.755 78.59 78.289 77.856 77.447 77.338 76.887 76.471 76.295 75.909 75.693 75.206 75.058 75.021 75.028 74.95 74.984 74.995 74.984 74.999 74.955 74.944 74.896 74.856 74.964 74.993 75.031 75.062 75.135 75.095 75.039 75.095 75.147 75.137 75.161 75.141 75.052 75 74.98 75.036 75.047 74.996 75.078 75.132 75.147 75.112 75.197 75.14 75.078 75.059 75.118 75.045 74.929 74.918 74.988 74.997 74.952 74.947 74.937 74.903 74.868 74.904 74.857 74.819 74.853 74.808 74.799 74.799 74.771 74.747 74.723 74.728 74.751 74.714 74.674 74.685 74.633 74.656 74.668 74.669 74.668 74.645 74.537 74.603 74.698 74.936 75.279 76.622 76.707 76.408 76.002 75.531 75.313 75.376 75.287 75.085 74.944 74.915 74.757 74.744 74.863 74.685 74.611 74.774 74.894 74.808 74.89 74.863 74.916 75.68 76.348 77.584 78.151 79.447 85.518 84.753 82.255 81.725 77.1 76.377 76.406 76.32 75.796 75.676 75.664 75.596 75.488 75.403 75.538 75.749 75.842 76.221 76.156 76.137 76.869 77.267 77.332 76.976 76.919 76.916 -9999 -9999 -9999 -9999 80.908 78.851 77.643 76.819 76.749 76.643 76.515 76.52 76.567 76.485 76.432 76.595 77.998 79.017 78.975 -9999 -9999 -9999 77.338 77.027 76.893 77.529 78.026 79.189 79.804 79.711 77.846 77.795 78.214 79.068 79.335 79.552 80.95 83.397 85.01 84.692 -9999 79.627 77.769 77.573 77.836 77.689 77.434 77.358 77.37 77.39 77.374 77.369 77.344 77.266 77.291 77.301 77.356 77.457 76.929 76.066 75.932 75.717 76.068 -9999 -9999 76.916 76.902 77.94 83.28 83.766 -9999 80.276 79.748 77.593 76.146 76.03 76.737 77.952 79.771 78.947 78.093 77.493 76.721 76.361 76.323 76.463
75.586 75.662 75.795 75.89 84.32 91.041 91.07 93.653 93.102 93.146 89.423 80.293 77.391 77.189 77.208 77.697 77.839 78.419 85.59 86.858 87.61 87.165 86.038 82.126 78.092 78.019 77.778 77.676 79.111 77.998 78.391 85.226 86.671 87.592 87.518 85.622 80.885 78.304 78.309 78.127 78.722 78.126 78.328 79.543 81.397 78.519 78.264 81.534 84.957 84.966 83.776 78.991 78.562 79.105 81.219 78.429 78.323 78.38 78.963 78.564 78.555 79.524 82.231 85.85 81.852 80.306 79.28 79.26 78.738 78.731 78.733 78.745 78.661 80.208 80.221 78.624 78.685 78.704 79.575 78.95 78.845 78.901 79.096 79.257 79.446 80.417 81.154 78.887 78.627 79.226 79.762 84.083 86.483 87.125 87.51 87.7 81.45 78.885 78.994 78.697 78.724 78.658 78.67 78.586 79.378 79.32 79.518 81.261 78.592 80.218 78.585 78.636 79.24 78.362 78.351 78.974 80.006 79.508 78.232 78.175 78.233 78.097 77.739 77.76 77.726 77.709 77.644 77.595 77.538 77.535 77.403 78.338 78.459 78.501 78.161 -9999 -9999 77.663 77.711 77.646 -9999 77.893 78.455 78.623 80.122 79.721 77.236 76.635 76.518 76.486 76.436 76.221 76.243 78.337 78.429 78.225 78.183 78.886 78.514 77.434 77.175 77.928 81.362 85.17 83.207 81.075 82.716 80.78 78.601 77.685 76.567 76.057 75.744 75.581 75.52 75.34 75.094 75.446 76.41 78.198 77.128 77.071 76.205 75.693 75.603 75.615 75.748 75.884 75.982 76.791 79.659 81.064 81.56 81.389 80.398 76.682 75.568 75.988 76.174 75.911 77.308 77.726 77.474 77.938 78.722 79.655 79.673 79.53 78.812 78.428 78.152 77.918 77.408 77.242 76.985 76.544 76.17 75.852 75.751 75.235 74.993 74.85 74.963 74.956 74.964 74.962 74.939 74.959 74.907 74.942 74.902 74.906 74.965 75.014 74.989 75.021 75.024 75.043 75.046 75.001 74.93 74.989 75.135 75.111 74.995 74.924 74.969 75.068 75.074 75.136 75.079 75.048 75.093 75.134 75.122 75.066 75.057 75.052 75.07 75 74.999 74.981 75.012 74.91 74.884 74.888 74.84 74.871 74.94 74.823 74.807 74.797 74.82 74.765 74.752 74.715 74.699 74.72 74.734 74.737 74.733 74.669 74.633 74.69 74.676 74.709 74.73 74.603 74.623 74.582 74.349 74.442 74.694 75.04 75.525 76.046 76.402 76.422 76.336 75.95 75.578 -9999 -9999 74.972 74.891 74.858 74.753 74.709 74.746 74.687 74.693 74.78 75.006 74.953 74.867 74.812 74.828 75.613 77.607 79.16 77.917 77.768 83.864 84.863 83.891 78.761 77.337 75.947 75.742 75.832 75.739 75.658 75.637 75.586 75.506 75.489 75.724 76.039 75.927 75.902 75.941 76.39 77.514 78.1 77.887 77.383 77.013 76.93 77.01 -9999 -9999 82.124 82.967 81.221 77.791 76.67 76.578 76.357 76.504 76.524 76.497 76.43 76.579 77.084 78.671 79.515 79.03 78.49 77.926 78.457 -9999 77.713 77.589 77.78 78.383 79.301 80.481 81.215 78.861 77.824 78.162 78.689 78.804 80.269 82.743 85.548 87.206 85.312 -9999 -9999 78.727 77.835 77.721 77.672 77.363 77.301 77.35 77.367 77.438 77.474 77.364 77.208 77.276 77.245 77.245 77.615 77.163 76.089 75.65 75.571 76.359 -9999 -9999 -9999 -9999 81.92 86.483 85.198 81.658 80.054 80.297 77.949 76.28 75.872 76.208 77.296 77.745 76.437 76.724 77.09 76.686 76.361 75.891 76.201
75.503 75.545 75.717 76.248 80.481 90.12 86.251 90.646 94.627 95.025 93.701 87.744 77.854 77.148 77.18 77.728 77.911 78.208 80.165 86.081 87.464 87.705 86.409 84.798 78.304 78.662 77.77 77.7 77.676 77.928 78.084 82.162 86.185 87.574 87.339 86.664 83.687 78.397 78.49 78.062 78.99 78.094 78.223 79.437 78.102 78.417 78.235 79.335 84.194 85.253 84.28 80.766 80.617 80.208 80.532 78.451 78.61 81.56 80.633 78.519 78.764 79.629 79.691 78.853 78.78 81.848 78.851 78.785 78.798 78.721 78.671 79.015 87.21 86.378 87.92 83.851 83.74 78.876 79.716 79.89 78.893 78.885 78.951 79.146 79.15 79.849 79.158 82.646 83.121 85.239 87.794 87.533 88.458 88.218 88.755 88.54 85.834 78.861 78.68 78.62 78.634 78.614 79.227 78.686 80.478 80.036 78.473 78.452 78.546 79.464 80.299 78.578 79.608 79.109 78.28 78.709 79.516 78.2 78.058 78.055 78.279 78.054 78.319 77.768 77.72 77.686 77.659 77.53 77.537 77.48 77.423 78.384 78.316 78.403 77.95 -9999 77.434 77.625 77.8 77.66 77.424 77.221 77.849 78.6 78.246 77.243 76.349 76.324 76.463 76.39 76.34 76.225 76.472 78.495 78.676 78.626 78.707 78.111 76.763 77.275 80.933 79.856 83.731 86.934 86.09 85.48 86.155 81.854 78.517 76.171 76.317 76.042 75.834 75.994 76.306 75.449 75.243 75.634 78.003 79.042 77.16 79.103 76.487 75.743 75.693 75.706 75.815 75.946 76.058 76.8 77.275 80.243 81.931 82.21 80.624 77.044 75.47 75.72 76.537 77.007 77.84 79.341 78.137 78.28 77.916 78.736 79.181 78.956 78.657 78.392 78.203 77.834 77.688 77.213 76.808 76.531 76.269 76.111 75.73 75.263 75.079 74.892 74.934 74.939 74.977 74.97 74.904 74.837 74.867 74.94 74.955 74.994 75.012 74.992 74.963 74.98 74.964 75.014 75.03 75.003 74.911 74.913 74.971 75.013 75.003 74.975 75.035 75.082 75.11 75.079 75.01 75.036 75.079 75.111 75.176 75.06 75.067 75.114 75.112 75.088 75.016 74.996 74.946 74.91 74.885 74.941 74.909 74.919 74.917 74.864 74.878 74.822 74.833 74.795 74.762 74.678 74.69 74.73 74.747 74.753 74.683 74.607 74.711 74.67 74.687 74.72 74.68 74.733 74.691 74.65 74.465 74.475 74.637 74.997 75.371 76.023 76.403 76.466 76.5 76.131 75.754 75.251 74.897 74.908 74.9 74.879 74.841 74.567 74.614 74.668 74.7 74.722 74.714 74.76 74.751 74.745 74.717 75.046 76.028 77.49 76.983 76.392 76.955 80.592 82.146 78.144 76.231 75.635 75.677 75.648 75.637 75.583 75.531 75.458 75.507 75.992 76.749 77.584 76.344 75.927 75.981 76.429 78.292 78.916 78.556 77.608 76.99 76.985 77.025 77.57 79.725 82.297 85.18 83.456 79.07 76.842 76.495 76.451 76.528 76.567 76.561 76.791 77.028 77.689 78.514 79.294 78.974 78.133 77.46 78.368 79.503 78.462 77.679 78.423 -9999 79.233 79.043 78.477 78.169 77.498 77.64 77.947 79.599 81.283 84.569 85.205 85.684 84.448 82.546 80.473 -9999 -9999 77.719 -9999 77.267 77.246 77.242 77.691 77.849 77.795 77.359 77.256 77.395 77.468 77.23 77.023 76.181 75.641 75.492 75.919 77.302 79.126 79.344 -9999 -9999 82.91 84.249 83.474 80.935 79.536 77.973 76.47 75.906 75.664 75.694 76.289 76.901 76.478 76.568 77.161 77.079 76.991 76.674 76.462
75.442 75.517 75.6 85.699 90.305 90.424 92.055 94.529 94.828 96.203 95.588 92.005 88.574 82.72 77.114 77.667 77.84 77.767 81.339 86.826 87.282 87.558 87.712 85.701 78.53 77.962 77.786 78.039 77.733 78.834 78.028 80.765 86.106 87.075 87.472 87.829 85.699 78.829 78.661 78.186 78.008 78.055 78.039 78.05 80.391 79.35 79.119 79.282 84.178 85.077 84.316 82.384 81.214 79.048 78.299 78.312 78.233 78.216 79.309 78.442 78.737 78.783 79.933 84.232 84.806 84.435 79.376 78.751 78.81 78.601 78.603 80.511 87.058 90.439 92.285 91.623 90.676 87.909 80.58 80.368 78.947 78.877 78.924 79.129 79.386 84.032 86.118 86.893 87.29 87.822 88.52 88.339 88.956 88.88 88.095 87.779 85.68 78.956 78.815 78.475 78.591 78.596 78.755 78.549 78.851 78.999 78.42 78.665 78.885 78.367 79.822 80.203 79.046 78.295 78.131 78.032 78.006 78.066 78.024 78.029 78.098 77.956 78.227 79.274 79.972 77.67 77.584 77.539 78.321 77.449 77.546 78.179 78.047 77.852 -9999 77.152 77.25 77.494 77.922 77.901 77.211 76.729 76.825 77.463 76.777 76.229 76.057 76.186 76.334 76.379 76.275 76.252 76.451 77.189 78.368 78.683 78.606 77.975 76.485 77.43 78.823 79.653 84.98 86.949 87.665 87.091 86.457 -9999 77.977 77.12 76.742 76.032 76.078 75.833 75.616 75.384 75.309 76.262 78.273 81.496 81.026 80.131 76.806 75.86 75.836 75.752 75.717 75.923 75.784 76.347 76.699 79.83 81.965 81.233 77.858 75.733 75.302 75.792 77.133 77.174 77.542 78.162 77.506 78.849 78.709 78.95 78.953 78.809 78.496 78.618 78.245 78.012 77.621 77.308 76.932 76.64 76.092 75.93 75.584 75.353 75.038 74.818 74.846 74.918 74.886 74.803 74.858 74.935 74.865 74.973 75.004 75.001 75.013 74.96 74.978 75.029 75.08 75.084 75.086 75.07 75.047 74.943 74.904 75.036 75.034 75.053 75 75.091 75.063 74.997 75.015 75.065 75.075 75.001 75.125 75.08 75.111 75.198 75.09 74.949 75.051 74.985 74.989 74.95 74.958 74.964 74.945 74.936 74.898 74.879 74.967 74.986 74.885 74.793 74.711 74.712 74.727 74.728 74.702 74.711 74.685 74.597 74.665 74.589 74.647 74.708 74.606 74.626 74.579 74.644 74.656 74.662 74.74 74.915 75.148 75.81 76.493 76.536 76.442 76.083 75.433 75.008 74.891 74.908 74.931 74.88 74.735 74.624 74.617 74.651 74.67 74.617 74.545 74.619 74.67 74.674 74.811 74.918 74.95 75.318 75.802 75.981 77.276 79.885 81.267 76.863 76.563 76.912 75.808 75.717 75.749 75.602 75.439 75.393 75.453 76.227 77.529 77.1 76.269 75.745 75.93 77.001 78.527 78.553 78.616 76.894 76.76 77.089 77.003 77.05 78.773 81.06 83.969 82.985 79.645 77.014 76.457 76.477 76.658 76.858 77.061 77.962 78.241 77.975 78.409 78.627 78.352 77.768 77.135 77.861 80.396 80.454 77.85 79.013 -9999 -9999 78.626 78.026 77.559 77.395 77.546 78.074 79.892 81.281 82.493 81.294 82.777 84.805 82.16 79.007 79.24 -9999 -9999 -9999 77.395 77.33 77.482 78.689 78.028 77.429 77.258 77.113 77.636 78.276 77.396 76.368 75.625 75.519 75.661 76.444 78.076 80.641 80.14 81.426 83.013 -9999 -9999 -9999 79.937 79.295 77.958 76.267 75.88 75.639 76.034 76.214 -9999 76.872 -9999 77.768 77.888 78.041 78.854 77.143
76.098 75.444 83.071 90.044 91.761 92.237 93.528 95.142 95.441 95.685 95.908 95.491 92.147 87.121 77.082 77.093 77.461 76.916 78.599 84.923 87.101 87.432 86.855 85.617 80.71 77.933 77.899 77.958 77.584 78.875 79.071 81.05 85.823 87.194 87.463 87.003 86.673 80.677 80.551 79.136 79.286 78.641 78.002 78.642 81.659 81.501 78.439 78.309 82.556 85.05 84.785 83.465 81.539 80.781 78.324 79.437 78.239 78.182 79.262 78.858 79.349 78.331 79.644 83.24 85.682 84.882 82.899 78.683 78.828 78.621 79.357 88.25 92.004 93.267 92.905 85.526 92.322 92.924 87.78 80.117 79.163 80.666 79.802 84.197 86.428 87.003 88.782 88.477 88.545 88.468 88.208 88.662 88.243 87.836 86.948 86.54 82.433 78.885 78.648 78.478 78.495 78.505 78.441 78.362 78.37 78.76 79.911 79.147 78.37 78.31 78.282 78.152 78.13 78.107 78.048 78.056 78.061 77.993 77.989 77.939 78.153 78.111 78.77 80.358 80.667 81.711 80.409 78.869 78.373 78.418 79.227 79.286 77.869 77.245 77.113 77.029 77.118 77.062 77.422 77.666 76.809 77.003 78.321 78.484 77.043 76.4 76.553 76.388 76.304 76.39 76.278 76.177 76.33 76.231 78.248 78.609 78.335 77.689 76.325 76.967 78.036 78.643 84.551 87.55 88.546 87.904 87.359 84.631 79.328 78.138 78.127 77.073 76.566 75.968 75.472 75.316 75.355 76.214 80.13 81.55 82.289 81.798 79.043 76.046 75.47 75.524 -9999 75.696 75.624 75.616 75.679 78.291 80.667 80.107 77.389 75.313 74.991 75.291 76.755 76.885 77.485 77.629 77.974 78.606 79.495 79.344 79.056 78.814 78.642 78.318 78.093 77.927 77.632 77.246 76.897 76.629 76.246 75.964 75.772 75.428 75.014 74.805 74.829 74.842 74.812 74.867 74.862 74.969 74.937 74.907 74.931 74.952 74.994 74.956 74.97 75.015 75.039 75.007 75.015 75.055 75.073 75.001 74.982 75.016 75.057 75.024 75.017 75.025 75.062 74.956 75.016 75.103 75.083 75.102 75.06 75.022 75.104 75.112 74.98 75.048 75.167 75.007 74.957 74.983 74.969 74.943 74.873 74.923 74.881 74.859 74.964 74.91 74.844 74.724 74.692 74.723 74.75 74.679 74.67 74.656 74.628 74.594 74.624 74.615 74.617 74.609 74.58 74.541 74.505 74.549 74.912 74.882 74.808 74.812 75.055 75.646 76.232 76.534 76.286 75.99 75.204 74.886 74.875 74.902 74.916 74.877 74.751 74.795 74.782 74.704 74.703 74.664 74.587 74.455 74.566 74.651 74.733 74.772 74.799 74.82 75.031 75.265 76.046 77.372 77.303 76.044 76.354 77.433 76.401 76.051 76.291 76.223 75.771 75.777 76.263 76.273 76.75 76.165 75.751 75.675 75.794 76.411 77.348 77.974 76.845 76.471 76.829 77.897 77.5 77.34 78.387 79.749 82.96 81.148 78.195 76.558 76.458 76.486 76.626 77.439 78.058 79.918 80.034 78.109 78.477 -9999 77.715 78.384 78.841 78.595 83.277 87.28 82.565 -9999 -9999 -9999 -9999 77.477 76.549 76.846 77.443 77.865 78.896 79.459 78.855 78.49 80.565 81.451 79.196 77.903 79.347 -9999 -9999 -9999 77.293 77.313 77.191 77.705 77.433 77.351 77.223 77.25 77.632 78.056 76.872 75.695 75.459 75.462 75.77 76.628 76.357 78.968 80.754 82.053 82.552 82.145 82.18 80.651 78.227 77.058 76.386 76.158 76.172 76.211 76.777 76.584 -9999 -9999 -9999 79.391 79.543 80.922 82.337 80.267
75.279 75.3 84.987 91.24 92.388 93.271 93.334 94.104 95.075 95.303 95.697 94.912 93.675 86.622 77.043 77.068 77.356 77.623 77.35 84.015 86.692 87.413 86.807 85.762 82.818 77.893 77.829 78.068 77.525 77.77 79.431 79.114 84.924 87.231 87.561 87.018 86.446 82.305 80.416 79.71 77.983 78.249 77.948 78.074 79.76 78.108 78.185 78.29 81.964 84.947 85.15 84.213 82.1 80.786 78.322 78.713 78.2 78.14 78.217 79.201 78.601 78.354 78.743 82.552 85.202 85.104 83.182 78.639 78.822 78.656 80.176 90.696 93.146 93.705 93.722 93.013 94.551 93.412 91.448 85.546 85.156 87.474 88.064 88.416 88.007 88.076 88.902 88.708 88.338 88.276 88.631 87.93 87.853 87.658 85.744 81.895 78.877 78.897 78.771 78.488 78.428 78.41 78.369 78.311 78.31 79.458 79.553 78.409 78.274 78.161 78.134 78.14 78.109 78.122 78.092 78.083 78.056 78.018 77.975 77.906 77.931 78.326 79.023 80.522 81.739 82.904 82.537 82.369 80.396 78.608 81.084 80.117 78.456 77.08 76.87 76.864 77.196 77.349 77.978 78.705 78.945 79.96 82.599 82.401 80.021 77.386 76.419 76.244 76.083 76.564 76.407 76.275 76.281 76.48 77.501 78.703 78.119 77.134 76.141 76.225 76.62 77.668 -9999 84.231 85.98 87.381 88.404 85.577 80.118 78.385 78.17 76.928 76.298 76.11 75.675 75.313 75.321 75.441 78.724 81.591 81.561 80.257 77.234 75.488 75.359 75.34 75.452 75.601 75.277 75.213 75.191 75.91 77.743 79.28 78.006 75.815 74.961 74.911 75.531 76.049 77.306 78.812 78.944 79.545 79.703 79.46 79.128 78.752 78.695 78.387 78.025 77.809 77.345 76.994 76.632 76.489 76.173 76.058 75.775 75.289 75.115 75.028 74.872 74.892 74.865 74.845 74.819 74.853 74.864 74.907 74.902 74.894 74.885 74.886 74.941 74.983 75.016 75.013 74.96 74.909 74.997 74.955 74.979 75.006 74.972 75.09 75.024 75.027 75.033 75.052 75.068 75.027 75.167 75.014 75.036 75.083 75.081 75.078 74.986 75.065 75.001 74.908 74.94 74.914 74.849 74.79 74.887 74.92 74.924 74.949 74.88 74.829 74.746 74.645 74.667 74.71 74.726 74.697 74.663 74.622 74.565 74.559 74.529 74.565 74.589 74.581 74.573 74.5 74.445 74.537 74.729 74.806 74.793 74.819 75.057 75.56 75.979 76.331 76.226 75.461 75.1 74.847 74.845 74.883 74.924 74.882 74.895 74.872 75.101 74.895 74.742 74.706 74.663 74.552 74.594 74.635 74.662 74.65 74.701 74.801 74.879 75 75.171 75.612 75.428 75.506 75.894 76.425 76.01 76.137 77.115 76.551 75.915 77.457 79.006 78.225 76.635 75.786 75.601 75.683 75.737 75.964 76.18 76.162 76.335 76.216 77.033 77.615 77.142 76.954 77.788 78.875 78.191 76.893 76.68 76.43 76.454 76.516 76.526 76.884 77.201 81.915 86.686 82.239 80.103 78.682 77.905 78.143 78.512 86.417 86.553 86.025 82.417 79.703 -9999 -9999 -9999 77.062 76.942 77.128 77.606 78.007 77.906 77.944 78.234 78.443 79.556 78.62 77.457 78.763 80.181 82.519 83.24 81.372 78.219 77.357 77.205 77.122 77.263 77.285 77.213 77.455 77.567 77.561 76.622 75.414 75.335 75.35 -9999 77.035 78.255 80.272 81.799 82.546 81.978 80.95 82.117 82.617 77.63 75.507 75.331 75.593 76.094 76.664 77.286 76.639 -9999 -9999 78.79 79.578 79.564 79.96 81.239 80.58
75.149 75.218 86.179 90.385 91.204 93.079 93.472 93.955 84.921 94.806 95.174 94.391 93.308 90.763 77.768 77.033 77.205 77.551 77.077 81.754 86.38 87.135 87.347 86.364 85.191 77.95 77.781 78.49 77.789 78.226 79.506 78.453 81.749 86.682 87.437 87.448 86.032 83.656 78.461 81.947 79.37 79.172 82.455 78.192 78.678 83.821 79.072 78.001 79.486 84.296 84.114 83.484 79.608 80.984 80.359 79.756 78.667 78.129 78.127 78.42 78.494 78.565 78.424 79.936 84.792 85.47 84.49 80.12 79.764 78.987 80.584 86.965 92.219 92.727 93.657 95.358 95.09 94.568 92.984 86.818 88.471 88.213 88.386 88.334 88.689 88.661 88.077 87.865 87.541 86.737 86.285 83.742 83.647 81.585 80.674 79.035 79.081 78.846 78.804 78.633 78.316 78.343 78.346 78.289 78.195 78.338 78.315 78.281 78.216 78.227 78.206 78.141 78.192 78.119 78.125 78.092 78.022 78.003 77.95 77.876 77.772 82.228 80.079 85.942 84.294 82.691 82.59 80.816 81.583 82.76 81.965 80.585 78.799 76.926 76.768 76.888 77.331 78.588 80.074 80.839 81.595 83.204 84.916 84.546 82.069 79.99 77.158 76.384 76.524 77.388 78.737 77.242 77.374 77.011 77.951 78.682 77.991 76.629 75.992 75.949 76.308 77.701 79.475 82.215 83.295 84.423 88.64 85.091 80.649 78.103 76.567 75.646 75.668 75.767 75.498 75.301 75.263 77.379 79.98 80.355 79.243 77.106 75.861 75.359 75.24 75.244 75.62 76.005 75.565 75.067 75.53 78.12 77.856 79.78 80.098 76.966 75.738 74.861 74.994 75.51 76.64 77.253 77.991 78.913 79.515 79.523 79.277 78.991 78.672 78.406 77.946 77.614 77.303 77.14 76.669 76.494 76.35 76.155 75.742 75.278 75.078 74.886 74.798 74.909 74.861 74.863 74.898 74.799 74.752 74.81 74.826 74.776 74.832 74.873 74.884 74.931 74.97 74.967 74.892 74.864 74.844 74.905 74.952 75.027 74.978 74.98 74.962 74.95 75.041 75.085 75.142 75.079 74.996 74.876 74.957 75.051 75.07 75.03 75.062 74.988 74.938 74.895 74.941 74.915 74.862 74.863 74.976 74.97 74.851 74.853 74.796 74.763 74.706 74.619 74.734 74.717 74.675 74.68 74.658 74.623 74.597 74.509 74.524 74.562 74.567 74.552 74.529 74.463 74.414 74.511 74.622 74.754 74.715 74.737 74.947 75.387 75.993 76.311 76.249 75.949 75.158 74.936 74.866 74.918 74.969 74.943 74.954 75.007 75.517 75.096 74.717 74.746 74.772 74.711 74.668 74.666 74.652 74.667 74.715 74.804 74.846 74.873 74.873 74.958 75.046 75.148 75.384 75.547 75.722 75.897 77.169 76.965 75.985 78.053 80.722 81.222 78.236 75.814 75.617 75.637 75.659 75.591 75.805 76.019 76.267 76.922 77.569 77.086 76.586 76.692 76.814 76.817 76.868 76.48 76.448 76.273 76.453 76.585 76.604 76.698 78.315 83.022 86.778 85.111 81.229 78.925 78.077 77.799 78.33 82.917 85.267 84.419 78.781 78.069 78.12 77.251 77.044 -9999 -9999 -9999 77.564 77.81 77.739 77.473 77.623 77.791 78.331 78.32 77.933 78.887 79.953 84.214 86.112 81.751 78.458 77.414 77.233 77.2 77.215 77.199 77.247 77.352 77.049 77.828 76.972 75.81 75.35 75.255 75.172 75.952 77.766 80.757 81.883 79.836 79.614 79.278 79.884 78.887 75.619 75.206 75.127 75.222 75.418 75.534 76.135 -9999 -9999 77.625 78.505 79.043 79.563 79.522 79.148 79.006
75.198 75.154 77.36 87.509 90.116 91.765 92.388 91.683 93.618 93.512 93.796 93.386 92.384 91.505 78.347 77.019 77.141 77.851 77.596 82.299 86.158 86.891 87.452 86.58 85.258 78.233 78.029 77.705 77.562 79.557 81.411 80.538 83.518 85.85 87.111 87.61 86.999 85.642 79.728 82.762 86.882 86.876 87.113 81.556 80.273 85.815 85.026 78.006 79.216 82.186 79.851 79.613 80.388 80.206 78.547 78.278 78.197 78.057 78.054 78.366 78.543 78.278 78.55 80.623 84.842 86.381 84.811 80.528 78.857 78.817 79.118 88.553 92.159 93.687 94.514 95.262 94.997 94.433 93.118 88.663 88.571 88.547 88.486 88.424 87.986 88.012 87.211 86.401 86.042 82.297 80.62 82.132 79.686 79.056 80.485 79.059 78.931 78.818 78.775 78.557 78.352 78.319 78.343 78.335 78.318 78.348 78.289 78.285 78.282 78.304 78.234 78.249 78.126 78.158 78.098 78.055 77.983 77.934 77.929 77.854 78.373 84.85 86.592 84.223 84.636 82.34 79.546 79.48 79.761 80.429 79.494 79.025 77.584 76.845 76.781 76.86 77.164 78.3 80.155 82.838 84.862 85.346 85.955 85.71 84.361 82.305 -9999 78.891 80.695 83.563 84.281 82.188 79.446 77.706 77.145 77.674 76.863 76.224 76.067 76.182 77.405 78.459 77.74 79.122 81.508 78.921 80.098 80.875 80.262 77.112 75.49 75.53 75.662 76.122 75.709 75.442 75.408 76.779 79.206 78.883 76.812 76.438 76.105 75.292 75.152 75.226 75.806 76.466 76.205 75.297 75.592 76.766 79.604 81.539 81.611 79.738 76.647 74.904 75.035 75.451 76.85 77.828 77.783 79.402 79.856 79.595 79.38 79.1 78.672 78.232 77.967 77.66 77.353 77.13 76.759 76.537 76.201 75.9 75.787 75.446 75.019 74.852 74.778 74.78 74.871 74.883 74.753 74.713 74.789 74.792 74.789 74.811 74.889 74.846 74.825 74.843 74.969 74.943 74.876 74.879 74.886 74.872 74.856 74.923 74.911 74.972 75.051 75.023 75.012 75.061 75.083 75.058 75.003 74.917 74.968 74.998 75.028 75.023 75.008 74.948 74.912 74.902 74.924 74.971 74.958 74.992 74.979 74.845 74.824 74.799 74.757 74.701 74.668 74.673 74.705 74.663 74.593 74.598 74.621 74.582 74.47 74.493 74.532 74.552 74.499 74.356 74.412 74.43 74.451 74.522 74.664 74.836 74.636 74.565 74.871 75.507 75.926 76.406 76.389 76.201 75.248 74.921 74.961 75.057 75.017 74.961 74.915 74.993 75.027 74.873 74.827 74.82 74.837 74.828 74.845 74.66 74.665 74.709 74.737 74.811 74.841 74.869 74.722 74.784 74.853 74.864 75.042 75.278 75.519 75.801 76.872 77.618 76.702 78.645 81.262 81.293 79.72 76.05 75.783 75.669 75.621 75.641 75.834 76.115 77.119 77.487 76.584 76.519 76.524 76.633 76.585 76.588 76.441 76.434 76.461 76.469 76.616 76.672 76.58 77.056 80.619 85.892 88.122 88.127 84.626 80.219 78.577 78.06 78.429 80.004 81.834 82.374 78.365 77.169 77.136 77.166 77.098 77.045 77.128 77.156 -9999 77.349 76.961 76.614 77.13 77.032 77.27 77.528 77.599 77.933 78.335 81.613 83.357 79.981 77.613 76.983 77.072 -9999 -9999 -9999 77.263 77.175 77.472 78.719 77.05 75.754 75.334 75.131 75.032 75.35 75.774 77.114 77.772 76.957 78.106 77.749 76.967 75.901 75.692 75.116 75.017 75.065 75.035 74.982 75.472 75.517 -9999 76.506 77.138 78.356 79.674 77.94 76.193 76.756
75.253 75.222 75.2 75.156 77.261 85.41 86.155 84.623 90.848 91.625 90.275 92.596 92.382 92.57 89.044 78.17 77.593 77.309 77.429 80.575 84.973 87.042 87.326 86.795 85.677 81.973 77.712 77.528 77.908 78.145 80.961 78.787 77.675 85.014 87.546 87.666 86.482 85.426 78.782 82.034 81.289 86.915 84.652 83.183 79.335 84.74 85.264 81.827 81.002 80.865 83.93 82.335 82.576 78.157 78.197 78.402 79.335 78.409 78.015 78.371 79.193 78.644 78.7 78.875 82.526 85.549 85.018 83.019 78.652 78.691 78.994 81.536 90.446 91.363 93.585 95.26 94.926 94.22 93.478 89.134 88.202 88.254 88.089 88.106 87.126 83.941 85.071 81.927 79.055 78.666 78.813 80.197 79.061 78.832 79.86 79.907 78.605 78.608 78.556 78.509 78.385 78.357 78.376 78.397 78.389 78.386 78.343 78.308 78.279 78.275 78.171 78.174 78.176 78.115 78.079 78.026 77.955 78.321 78.647 78.016 78.476 81.544 82.541 82.245 86.137 84.225 81.727 80.005 79.274 78.985 79.163 79.307 83.269 77.095 76.796 76.937 77.05 77.955 80.393 84.87 86.318 86.448 86.951 87.838 85.702 83.043 83.327 85.106 86.519 87.417 87.453 86.433 84.254 81.578 78.343 77.183 76.82 76.254 75.92 76.628 80.215 78.222 75.832 75.557 75.776 75.848 75.502 76.038 77.177 75.576 75.393 75.379 75.553 75.937 76.059 76.53 75.91 75.404 78.106 78.948 79.658 79.633 78.102 75.843 75.227 75.229 75.741 76.248 76.082 75.508 75.66 76.147 79.766 82.673 82.227 78.799 75.368 75.156 75.36 75.767 77.514 78.668 78.313 79.533 79.934 79.515 79.154 78.75 78.493 78.194 78.076 77.737 77.415 77.248 76.747 76.597 76.137 75.933 75.604 75.063 74.995 74.901 74.749 74.726 74.831 74.798 74.748 74.701 74.768 74.784 74.695 74.788 74.895 74.817 74.814 74.863 75.03 74.976 74.936 74.916 74.904 74.924 74.896 74.914 74.818 74.939 74.973 74.969 74.999 74.986 74.968 74.948 74.98 74.984 75.029 75.021 74.963 74.962 74.986 75.004 74.934 74.913 74.907 74.975 74.982 74.835 74.869 74.893 74.861 74.9 74.785 74.656 74.645 74.679 74.697 74.659 74.525 74.548 74.621 74.692 74.505 74.526 74.514 74.489 74.435 74.375 74.417 74.439 74.467 74.452 74.444 74.525 74.558 74.617 74.843 75.312 75.737 76.288 76.358 76.013 75.234 74.969 74.992 75.023 75.003 74.892 74.825 74.886 74.929 74.824 74.879 74.892 74.809 74.732 74.721 74.702 74.704 74.743 74.754 74.682 74.723 74.733 74.69 74.741 74.821 74.87 75.002 75.157 75.627 76.226 76.895 78.022 76.532 77.698 80.099 81.012 79.825 77.441 76.057 75.608 75.61 75.79 76.004 76.409 77.318 76.587 76.294 76.305 76.442 76.502 76.514 76.471 76.417 76.401 76.524 76.63 77.18 76.98 76.673 77.619 80.821 87.129 89.423 89.946 87.873 -9999 79.308 77.959 78.395 78.291 77.552 78.333 77.853 77.055 77.091 77.169 77.135 77.137 77.178 77.042 -9999 77.026 76.789 76.647 76.898 76.971 77.135 77.469 77.702 77.597 77.321 77.983 78.617 77.841 77.053 77.094 77.265 -9999 -9999 -9999 77.2 76.889 76.772 77.312 76.542 75.19 75.061 74.992 74.991 75.034 75.126 75.176 75.329 75.59 76.713 76.799 76.036 75.455 75.84 75.338 75.279 75.218 75.495 75.673 75.545 75.349 75.352 75.601 75.332 76.17 76.769 76.063 76.2 76.797
75.272 75.281 75.244 75.232 75.218 75.205 80.588 87.44 89.457 86.756 89.044 82.977 89.626 90.596 91.707 80.095 77.86 77.187 78.008 77.486 83.477 86.39 87.31 87.22 86.153 84.287 77.68 77.698 78.335 77.432 79.648 78.82 78.511 84.1 86.046 87.141 86.959 86.674 82.825 79.871 78.825 85.283 85.496 78.423 77.883 82.674 84.074 83.434 79.061 79.047 84.103 84.238 83.754 78.114 77.996 78.036 78.928 78.078 78.011 78.107 79.916 78.294 78.369 78.317 80.147 85.333 85.312 84.178 79.306 78.995 78.542 79.359 84.929 87.518 92.779 93.753 93.653 93.805 91.891 87.997 87.449 87.107 86.658 82.599 82.237 81.215 78.768 78.705 78.933 78.654 78.605 78.9 80.321 80.551 79.97 80.664 78.7 78.528 78.502 78.458 78.447 78.482 78.436 78.432 78.395 78.389 78.315 78.356 78.283 78.215 78.187 78.125 78.092 78.069 78.05 77.952 77.895 78.856 79.969 79.572 79.385 81.407 86.828 88.17 86.941 86.201 84.435 81.011 80.29 80.967 80.306 80.414 81.144 84.571 82.283 76.955 76.976 79.842 84.414 85.61 86.112 86.452 86.371 86.13 84.586 82.667 84.995 86.856 87.992 88.464 88.433 87.476 86.695 85.053 78.585 77.317 76.853 76.211 75.761 75.937 76.545 75.578 75.286 75.386 75.391 75.317 75.272 75.292 75.291 75.43 75.348 75.228 75.306 75.614 75.976 76.522 76.685 76.076 78.704 79.873 80.955 81.185 79.841 76.569 75.443 75.28 75.489 75.985 75.868 75.788 75.471 78.058 80.304 81.723 81.736 79.223 75.511 76.126 76.756 76.535 77.651 80.115 79.1 80.024 80.009 79.613 79.113 78.644 78.423 78.377 78.046 77.644 77.456 77.223 76.825 76.607 76.056 75.694 75.472 75.169 74.989 74.908 74.705 74.735 74.756 74.722 74.715 74.717 74.737 74.761 74.734 74.766 74.874 74.84 74.827 74.893 74.946 74.879 74.851 74.906 74.937 74.932 74.939 74.913 74.938 74.906 74.959 74.814 74.885 74.867 74.848 74.945 74.978 74.98 75.049 74.994 75.011 74.981 74.939 74.96 74.908 74.86 74.899 75.035 74.913 74.834 74.852 74.893 74.85 74.784 74.757 74.71 74.697 74.689 74.687 74.675 74.593 74.537 74.51 74.608 74.468 74.486 74.48 74.446 74.413 74.402 74.43 74.445 74.39 74.353 74.29 74.316 74.373 74.509 74.864 75.208 75.803 76.272 76.282 76.025 75.207 74.973 74.944 74.915 74.871 74.792 74.777 74.851 74.846 74.777 74.937 74.909 74.689 74.57 74.679 74.72 74.732 74.744 74.641 74.654 74.652 74.638 74.662 74.741 74.833 74.836 74.955 75.315 76.191 78.198 77.069 76.026 76.225 77.455 78.277 78.851 79.601 79.099 76.481 75.622 75.569 75.753 75.971 76.165 77.792 77.104 76.227 76.324 76.565 76.479 76.43 76.392 76.411 76.498 76.535 76.673 76.963 76.749 76.687 77.238 79.204 84.426 87.51 88.169 86.751 -9999 -9999 78.134 77.774 77.6 77.187 77.154 76.896 77.065 77.117 77.219 77.135 76.987 76.947 76.826 -9999 -9999 76.718 76.7 -9999 77.009 77.297 77.576 77.854 77.993 77.362 76.923 77.1 77.303 77.278 77.58 -9999 -9999 -9999 -9999 76.711 76.837 77.154 76.952 76.253 75.186 74.952 74.86 74.913 75.114 74.919 74.9 75.014 75.407 76.588 76.508 76.629 77.93 76.129 75.707 76.428 76.792 77.056 76.425 75.873 75.494 75.097 75.048 75.236 75.45 75.571 75.813 76.418 77.905
75.282 75.279 75.303 75.289 75.264 75.244 76.195 84.489 88.155 88.96 93.008 91.852 90.425 93.001 91.89 77.858 76.835 77.399 78.831 77.782 83.536 86.134 87.173 87.231 86.562 84.875 77.94 77.639 77.418 77.37 77.284 77.589 77.519 83.275 85.869 86.99 87.265 87.01 84.352 78.196 79.506 84.418 83.717 78.769 77.733 78.716 78.925 80.777 78.178 78.999 83.771 84.723 84.055 81.159 77.956 78.026 78.152 78.314 77.903 77.883 78.192 78.362 78.325 78.325 79.975 84.899 85.577 84.705 80.68 79.759 78.706 78.322 78.623 80.713 87.66 88.322 90.601 83.733 86.436 86.39 86.339 83.399 82.279 80.175 78.639 79.316 78.726 78.669 78.718 78.829 78.766 78.604 79.41 78.569 78.529 78.515 78.485 78.515 78.447 78.468 78.459 78.502 78.531 78.454 78.41 78.377 78.316 78.326 78.205 78.175 78.176 78.085 78.042 78.055 78.013 77.909 78.492 79.918 79.512 77.96 78.007 81.195 85.682 86.103 87.399 85.363 84.942 86.258 84.843 84.21 82.556 81.932 81.535 80.578 79.38 76.619 77.245 79.117 83.261 85.602 85.558 85.71 85.26 85.577 85.289 85.076 86.161 87.235 87.98 88.739 89.298 87.839 86.487 81.275 80.308 77.851 77.425 76.731 75.92 75.509 75.356 75.302 75.261 75.498 75.364 75.287 75.32 75.343 75.31 75.246 75.223 75.311 75.212 75.518 75.764 75.267 75.258 75.04 76.031 77.452 81.798 82.002 80.676 77.789 75.624 75.332 75.294 75.401 75.44 75.302 75.289 76.363 78.03 80.052 79.51 77.7 75.782 76.001 76.198 76.965 78.722 80.697 81.028 79.327 79.712 79.833 79.12 78.865 78.63 78.316 77.845 77.713 77.492 77.199 76.84 76.299 76.075 75.802 75.623 75.308 74.868 74.858 74.778 74.689 74.656 74.711 74.648 74.601 74.684 74.772 74.778 74.81 74.817 74.882 74.88 74.896 74.88 74.82 74.772 74.735 74.84 74.817 74.891 74.942 74.87 74.885 74.865 74.831 74.826 74.847 74.881 74.914 74.951 74.918 74.964 74.938 74.824 74.918 74.94 74.947 74.894 74.854 74.912 74.862 74.847 74.827 74.793 74.746 74.69 74.73 74.824 74.813 74.749 74.7 74.658 74.608 74.55 74.498 74.485 74.525 74.665 74.578 74.48 74.446 74.412 74.404 74.405 74.43 74.363 74.296 74.282 74.263 74.292 74.378 74.786 75.424 75.828 76.391 76.341 76.088 75.328 74.925 74.908 74.833 74.761 74.947 74.909 74.9 74.835 74.823 74.943 74.946 74.793 74.69 74.709 74.662 74.714 74.744 74.733 74.72 74.731 74.729 74.761 74.759 74.668 74.742 74.887 75.349 77.685 79.5 75.83 75.671 75.574 75.817 76.599 77.693 78.244 77.882 76.139 75.775 75.712 75.798 76.26 76.746 77.274 77.314 76.708 76.452 76.639 76.331 76.269 76.335 76.367 76.443 76.481 76.505 76.477 76.728 76.89 76.717 76.791 81.079 84.423 85.405 -9999 -9999 -9999 -9999 -9999 77.109 76.89 76.418 76.607 77.006 77.253 77.346 77.197 76.754 76.565 76.618 76.714 76.823 76.656 76.485 76.711 -9999 77.399 77.53 77.576 77.746 77.492 77.03 76.931 77.354 77.855 78.638 78.57 -9999 -9999 -9999 76.577 76.551 77.084 76.334 75.672 75.143 75.097 75.371 75.852 76.062 75.38 74.927 75.231 75.547 78.453 76.705 75.225 75.674 75.384 75.456 76.651 79.253 80.763 78.415 76.519 75.458 75.054 75.056 76.165 75.746 75.422 76.89 77.593 76.749
75.331 75.332 75.326 75.3 75.266 75.199 75.191 76.878 78.508 89.004 92.343 92.263 84.552 91.086 88.832 77.495 76.8 78.369 79.633 77.379 78.861 84.206 86.574 86.891 86.273 85.261 79.748 77.636 77.796 77.318 77.224 78.089 78.432 81.9 85.582 87.037 87.148 86.614 86.495 79.986 78.768 78.77 77.681 77.908 77.661 77.993 77.944 78.656 78.599 77.847 81.745 84.725 84.463 82.888 78.119 79.652 80.128 79.94 78.399 77.863 77.962 78.731 79.51 78.348 79.668 83.323 85.672 84.517 80.939 78.979 79.212 78.338 78.301 83.403 81.16 85.355 92.239 90.636 91.718 92.191 87.53 79.471 81.523 80.449 78.54 78.855 79.143 78.837 78.55 78.52 78.551 78.532 78.736 79.102 78.496 78.457 78.516 78.505 78.454 78.522 78.52 78.519 78.462 78.425 78.93 78.33 78.234 78.246 78.26 78.916 84.372 87.287 86.06 88.2 78.863 77.81 79.109 80.074 78.085 80.223 84.587 82.222 87.433 87.532 87.776 87.646 88.426 88.042 85.41 84.91 83.359 81.995 79.06 81.041 79.142 76.761 76.706 77.175 82.543 85.119 85.505 85.885 86.091 85.523 85.346 85.929 87.146 88.058 88.714 88.524 88.941 88.268 87.637 86.364 81.885 77.674 77.403 77.547 76.129 75.56 75.153 75.27 75.193 75.275 75.249 75.168 75.151 75.145 75.471 75.36 75.111 75.2 75.288 75.384 75.319 74.954 74.87 74.76 76.214 78.402 80.994 81.557 79.449 77.695 75.538 75.193 75.217 75.186 75.179 75.155 75.048 74.929 75.754 76.109 75.9 75.795 74.85 74.943 76.022 79.25 79.666 79.748 78.654 77.102 78.864 79.569 79.304 79.075 78.767 78.117 77.809 77.713 77.376 77.246 76.945 76.493 76.261 76.07 75.754 75.45 74.883 74.806 74.699 74.701 74.692 74.595 74.56 74.62 74.661 74.654 74.707 74.683 74.81 74.856 74.846 74.878 74.846 74.814 74.88 74.859 74.856 74.823 74.853 74.838 74.765 74.79 74.812 74.812 74.807 74.827 74.84 74.87 74.825 74.808 74.843 74.835 74.817 74.87 74.906 74.873 74.887 74.848 74.739 74.794 74.806 74.758 74.694 74.678 74.746 74.756 74.808 74.795 74.756 74.73 74.681 74.6 74.512 74.484 74.479 74.549 74.606 74.547 74.475 74.491 74.348 74.34 74.322 74.356 74.31 74.278 74.278 74.258 74.184 74.326 74.851 75.311 75.625 76.035 76.2 75.756 75.148 74.961 75.02 74.913 74.853 74.931 74.955 74.858 74.76 74.75 74.928 74.979 74.907 74.823 74.81 74.768 74.797 74.773 74.835 74.836 74.8 74.803 74.789 74.791 74.788 74.778 74.786 75.187 75.655 75.499 75.725 75.715 75.49 75.49 75.537 76.233 77.011 77.515 76.512 75.776 75.973 76.489 76.71 76.528 76.279 76.76 76.394 76.23 76.288 76.142 76.069 76.287 76.349 76.381 76.463 76.489 76.551 76.903 77.579 77.715 77.414 80.218 84.232 84.5 -9999 -9999 -9999 -9999 -9999 -9999 77.099 76.63 76.544 76.603 77.54 77.572 77.38 76.846 76.663 76.586 76.739 77.173 76.908 76.46 76.821 -9999 77.231 77.399 77.427 77.672 77.096 76.968 76.709 76.711 77.995 79.31 78.612 78.462 77.876 77.04 76.545 76.414 76.14 75.406 75.4 75.071 75.127 75.946 77.417 76.942 76.055 75.263 75.241 74.869 75.326 75.989 75.142 74.847 75.049 75.77 76.911 78.619 81.801 78.993 76.45 75.346 75.174 75.641 76.896 75.883 77.059 80.252 80.603 79.54
75.343 75.332 75.299 75.287 75.273 75.284 75.203 75.429 86.94 88.996 82.083 92.742 93.461 90.058 88.947 86.14 76.847 77.305 77.872 77.508 79.33 84.105 86.46 86.934 87.259 85.411 81.164 77.517 77.88 78.53 77.233 77.477 77.515 78.452 85.191 86.917 87.29 87.067 85.575 81.664 78.06 77.993 77.577 78.149 77.606 77.6 80.74 82.362 78.976 77.914 79.605 84.433 84.884 83.322 79.122 79.345 78.059 78.219 79.714 77.872 79.003 79.181 79.451 78.927 79.448 82.15 85.089 85.016 82.737 78.443 78.607 78.283 78.268 79.352 90.343 92.894 94.267 94.741 94.252 91.989 90.526 80.47 80.956 81.406 79.676 79.434 79.258 78.51 78.501 78.495 78.584 79.389 78.818 78.736 78.553 78.513 78.533 78.515 78.637 78.645 79.362 85.771 87.153 85.603 87.734 86.519 81.565 78.344 78.323 80.133 85.941 92.586 91.59 91.565 81.762 77.753 83.941 78.234 85.261 88.742 87.159 89.076 86.097 84.971 88.405 89.441 86.719 85.96 85.368 81.517 78.864 81.149 80.574 79.758 77.036 76.725 77.009 79.423 84.353 85.591 85.793 86.023 86.164 84.294 83.242 83.488 85.727 87.602 89.259 87.246 85.41 86.845 87.462 85.121 80.471 77.942 77.485 76.528 75.899 75.521 75.319 75.397 74.985 75.456 75.69 75.426 76.117 76.378 76.532 76.332 75.603 75.342 75.304 75.479 75.405 75.179 74.758 74.916 76.591 77.181 78.833 78.482 77.837 77.054 75.633 75.187 75.118 75.19 75.172 75.09 74.95 75.173 76.328 76.841 78.464 79.021 77.732 75.751 77.73 82.258 81.109 78.719 78.113 78.883 79.264 79.688 79.218 78.848 78.563 78.211 78.068 77.797 77.648 77.346 76.808 76.662 76.386 75.978 75.71 75.382 75.036 74.751 74.659 74.584 74.672 74.621 74.565 74.682 74.703 74.684 74.668 74.725 74.828 74.9 74.843 74.792 74.818 74.84 74.852 74.904 74.825 74.862 74.858 74.791 74.718 74.743 74.725 74.74 74.803 74.791 74.895 74.775 74.843 74.839 74.83 74.873 74.858 74.752 74.778 74.844 74.841 74.821 74.773 74.76 74.803 74.743 74.674 74.72 74.789 74.805 74.771 74.849 74.795 74.792 74.733 74.644 74.558 74.509 74.481 74.531 74.529 74.52 74.428 74.368 74.351 74.375 74.32 74.335 74.265 74.224 74.29 74.262 74.186 74.3 74.884 75.364 75.737 76.134 76.165 75.883 75.174 75.02 74.998 74.932 74.9 74.881 74.796 74.799 74.808 74.852 74.949 74.956 74.939 74.893 74.918 74.83 74.741 74.754 74.835 74.886 74.713 74.741 74.771 74.791 74.914 74.774 74.719 74.71 74.833 75.228 75.715 75.382 75.328 75.29 75.285 75.536 75.612 76.241 75.797 75.671 76.087 77.058 77.063 76.631 77.315 76.734 76.311 76.177 76.092 75.963 76.082 76.285 76.354 76.378 76.521 76.548 76.688 76.876 77.811 78.389 78.002 79.943 84.677 83.331 -9999 -9999 -9999 -9999 -9999 -9999 -9999 78.127 77.546 77.59 79.112 79.102 77.933 77.05 76.859 77.032 76.77 77.438 77.405 77.091 77.184 77.079 -9999 77.097 76.76 76.658 76.852 76.874 76.808 76.759 77.162 77.614 78.228 78.952 77.914 76.921 76.6 76.567 76.249 75.39 74.945 74.904 75.341 76.357 80.184 77.568 76.246 76.535 75.512 75.355 75.414 75.425 74.773 75.11 76.73 77.814 76.025 75.22 76.89 -9999 75.739 74.884 74.859 75.48 75.778 75.871 77.575 80.164 80.948 81.092
75.357 75.362 75.296 75.284 75.283 75.259 75.171 80.605 90.329 90.849 92.122 93.029 93.027 91.685 90.065 83.191 76.704 77.261 78.435 78.158 78.426 83.276 86.004 86.841 86.869 85.635 81.673 77.579 79.868 81.175 80.567 77.421 77.548 77.707 83.108 86.822 87.056 87.109 86.318 83.369 77.336 78.868 77.749 78.418 77.862 77.764 80.565 82.251 80.429 79.194 79.589 83.846 84.646 83.772 79.469 77.874 77.908 78.205 79.494 77.809 77.853 78.213 78.867 78.233 78.047 79.26 84.619 85.169 84.135 78.738 78.765 78.645 79.01 84.116 83.509 92.571 94.705 95.297 95.142 94.114 91.747 86.316 80.955 81.242 79.558 78.445 78.443 78.418 78.383 78.461 78.646 79.374 78.547 78.501 78.534 78.544 79.087 79.446 78.649 80.132 89.107 90.269 91.899 90.035 91.689 91.811 89.214 78.339 78.194 79.959 88.435 92.91 91.797 91.509 87.277 80.007 78.318 85.655 82.617 86.552 90.126 90.026 90.613 89.519 90.291 88.227 86.182 83.757 83.25 82.697 79.032 79.157 77.254 76.535 76.408 76.418 77.263 81.139 84.331 84.084 84.86 83.539 81.307 81.113 80.944 80.452 81.356 85.899 85.601 79.967 80.558 82.584 84.123 84.206 81.852 79.624 77.294 76.097 75.762 75.381 75.296 75.259 75.226 75.98 75.89 76.863 77.133 77.6 77.287 76.324 75.332 75.375 75.467 75.777 75.584 76.23 75.209 74.93 75.126 75.935 75.369 75.33 76.418 75.982 75.114 74.972 75.05 75.324 75.29 75.242 75.103 74.934 76.137 79.363 81.409 81.327 78.905 76.655 81.149 80.707 78.277 77.437 78.139 80.504 79.947 79.817 79.397 78.968 78.442 78.362 78.037 78.04 77.715 77.142 76.568 76.552 76.288 75.874 75.82 75.331 74.891 74.747 74.612 74.628 74.664 74.676 74.687 74.715 74.597 74.668 74.687 74.703 74.795 74.824 74.778 74.715 74.776 74.822 74.715 74.732 74.823 74.889 74.879 74.758 74.805 74.754 74.704 74.701 74.801 74.817 74.9 74.837 74.867 74.821 74.849 74.916 74.885 74.772 74.766 74.816 74.793 74.824 74.841 74.775 74.755 74.772 74.79 74.757 74.675 74.708 74.736 74.687 74.78 74.765 74.613 74.664 74.615 74.581 74.504 74.518 74.537 74.543 74.368 74.3 74.296 74.312 74.279 74.284 74.216 74.137 74.166 74.25 74.21 74.326 74.619 75.184 75.643 76.27 76.134 75.472 75.122 75.043 74.977 74.928 74.981 74.847 74.793 74.831 74.883 74.944 74.933 74.915 74.901 74.932 75.031 74.841 74.656 74.771 74.839 74.819 74.745 74.859 75.129 74.943 74.802 74.647 74.642 74.678 74.801 74.969 75.148 74.885 74.912 75.028 75.118 75.138 75.338 75.4 75.387 75.502 76.141 77.854 77.716 77.587 78.821 77.823 76.453 76.126 76.033 76.065 76.148 76.262 76.373 76.947 77.202 77.062 76.751 76.66 77.306 77.473 77.147 77.874 78.579 78.839 78.414 77.864 78.133 -9999 -9999 -9999 82.93 -9999 -9999 82.216 84.04 81.968 78.554 77.428 77.463 77.492 78.28 77.953 77.497 77.484 77.471 77.078 -9999 76.678 76.2 76.004 76.597 76.9 77.213 76.988 76.757 76.787 77.662 79.196 77.868 77.197 77.137 76.692 75.633 75.198 74.907 74.89 75.281 75.782 77.334 76.356 78.416 78.845 76.581 75.221 74.91 74.908 76.253 78.265 80.529 79.962 75.61 76.918 76.84 -9999 75.174 74.512 74.611 75.315 75.402 75.372 76.212 79.947 81.251 82.222
75.33 75.35 75.329 75.323 75.273 75.265 75.244 83.994 90.329 91.517 92.078 92.203 91.785 91.337 85.508 80.654 76.714 76.852 77.988 79.342 77.85 81.39 84.757 86.704 87.074 86.223 84.707 78.151 79.634 81.184 78.643 80.634 81.341 78.212 82.94 85.786 87.014 87.305 86.498 85.465 79.495 77.93 77.9 81.386 80.596 77.528 78.68 80.468 78.133 78.353 78.616 82.816 84.818 84.108 81.901 77.872 77.943 78.55 79.248 78.246 77.765 78.644 79.226 78.724 78.302 80.017 83.281 84.578 84.258 80.588 78.327 79.755 79.155 78.349 89.669 92.05 93.855 94.284 93.936 93.874 90.751 90.196 78.917 78.752 78.458 78.739 78.784 78.514 78.396 78.932 79.659 79.008 78.496 78.497 78.496 79.715 88.942 86.984 89.213 90.771 89.595 85.166 93.119 92.083 91.074 89.335 85.825 77.753 78.55 82.466 89.879 93.11 92.097 91.159 87.563 81.053 80.193 85.701 85.611 87.989 81.595 91.4 92.233 91.815 91.436 86.183 82.481 79.1 77.451 80.212 81.203 80.043 76.683 76.353 76.299 76.321 76.617 78.495 79.642 79.084 79.672 77.724 76.87 78.214 78.697 78.289 79.504 80.925 78.112 76.83 77.405 78.7 79.849 84.081 82.612 77.742 76.905 76.071 75.588 75.347 75.383 76.22 75.941 75.662 76.232 75.988 76.201 77.762 78.157 77.037 75.249 75.559 75.615 75.735 76.265 76.558 75.067 74.801 75.927 78.269 76.209 78.417 79.535 76.875 75.498 74.918 75.589 75.541 75.853 75.483 76.886 76.312 78.221 82.069 82.805 81.819 80.147 77.861 76.045 75.969 75.705 77.431 82.103 82.972 80.087 79.484 79.304 78.87 78.776 78.745 78.089 77.894 77.436 77.297 76.882 76.605 76.166 76.056 75.787 75.099 74.829 74.591 74.729 74.698 74.656 74.669 74.672 74.674 74.657 74.663 74.693 74.639 74.731 74.787 74.656 74.724 74.776 74.827 74.836 74.748 74.883 74.843 74.909 74.822 74.832 74.756 74.734 74.793 74.744 74.743 74.765 74.789 74.7 74.699 74.724 74.837 74.845 74.796 74.775 74.769 74.821 74.886 74.827 74.774 74.756 74.777 74.806 74.737 74.684 74.617 74.606 74.718 74.714 74.621 74.564 74.572 74.601 74.551 74.494 74.463 74.445 74.379 74.329 74.281 74.208 74.256 74.277 74.227 74.165 74.128 74.165 74.391 74.149 74.317 74.683 75.171 75.58 76.005 76.126 75.611 75.167 75.073 75.013 75.001 75.026 74.931 74.822 74.849 74.885 74.816 74.855 74.858 74.876 74.939 74.957 74.834 74.771 74.825 74.877 74.835 74.832 75.004 76.383 75.683 74.854 74.785 74.805 75.002 75.007 74.873 74.827 74.809 74.809 74.709 74.851 75.012 74.983 74.98 75.255 75.287 75.704 77.224 77.909 78.062 77.945 77.504 76.703 76.109 75.962 76.042 76.101 76.115 77.245 78.571 77.754 77.57 76.934 76.771 77.413 77.167 76.579 76.655 76.498 76.926 77.129 77.093 76.959 -9999 -9999 83.404 85.831 86.018 -9999 85.548 86.717 81.217 79.673 78.017 77.869 78.711 78.573 77.951 77.467 77.538 77.253 76.934 76.583 -9999 76.357 76.323 -9999 76.841 77.096 76.868 76.692 76.669 76.598 77.114 77.204 77.38 77.107 76.242 75.278 75.108 74.966 74.845 75.235 77.139 79.36 80.356 82.445 81.665 78.255 75.881 75.353 75.398 78.992 84.703 83.347 81.832 79.821 -9999 -9999 74.404 74.126 74.372 74.762 75.147 75.188 75.327 77.046 80.469 81.936 83.263
75.317 75.364 75.385 75.339 75.259 75.275 75.189 75.195 83.613 90.628 91.239 90.895 90.79 88.933 84.201 79.069 76.629 76.732 80.093 80.388 78.984 80.088 85.2 86.446 87.143 86.605 85.248 80.517 77.321 78.514 78.423 78.543 81.194 78.047 78.982 84.865 88.276 87.232 86.946 85.224 81.07 77.99 78.006 81.072 81.723 77.575 77.425 77.426 77.659 77.978 77.973 81.626 84.559 84.576 83.269 78.227 78.856 79.29 78.88 78.724 77.716 78.914 80.465 78.133 78.32 78.519 83.261 82.167 79.418 82.543 84.521 81.352 84.859 79.627 86.755 88.878 92.265 93.303 92.817 88.795 90.801 90.638 80.755 79.134 79.293 78.473 78.385 78.451 78.714 79.244 79.405 84.378 87.59 82.036 78.734 86.64 89.933 90.749 91.372 87.217 93.154 93.758 92.421 94.055 88.188 81.337 78.884 77.506 79.645 84.135 86.456 89.235 83.996 90.768 85.154 80.022 77.719 78.378 81.066 87.857 82.8 91.71 90.718 92.923 92.339 84.839 77.124 76.979 79.489 80.539 80.381 78.621 77.819 76.381 76.227 76.303 76.348 76.663 76.634 76.812 76.435 76.539 76.506 76.45 76.244 76.599 76.874 76.685 76.567 76.478 76.605 77.369 79.134 81.32 81.168 79.655 77.902 76.095 75.525 75.33 75.525 76.427 76.759 76.621 78.146 79.258 78.639 78.923 79.19 78.374 76.237 75.596 75.644 75.506 75.515 75.381 75.02 74.79 75.184 77.9 79.067 81.092 81.35 79.368 75.553 75.164 75.349 75.463 76.222 76.88 79.033 77.616 77.717 80.836 81.63 81.549 80.431 77.446 75.009 74.712 75.336 79.545 83.938 82.371 79.847 78.603 78.52 78.784 78.714 78.669 78.328 77.769 77.532 77.125 76.85 76.812 76.259 75.95 75.73 75.268 74.982 74.752 74.783 75.058 74.709 74.61 74.685 74.648 74.66 74.688 74.736 74.746 74.747 74.658 74.694 74.732 74.8 74.791 74.801 74.788 74.771 74.807 74.833 74.811 74.688 74.763 74.75 74.715 74.78 74.721 74.73 74.711 74.713 74.736 74.763 74.713 74.756 74.742 74.662 74.771 74.759 74.778 74.74 74.743 74.692 74.764 74.746 74.734 74.676 74.633 74.675 74.701 74.755 74.657 74.562 74.56 74.59 74.519 74.466 74.434 74.348 74.304 74.299 74.262 74.256 74.311 74.235 74.17 74.104 74.123 74.353 74.591 74.25 74.318 74.881 75.491 75.808 76.102 76.008 75.667 75.096 75.063 75.004 74.931 75.039 74.978 74.918 74.893 74.794 74.782 74.809 74.835 74.875 74.967 75.042 74.719 74.78 74.869 74.911 74.816 74.927 75.341 76.032 76.017 75.139 74.937 75.604 76.842 76.052 75.172 74.981 74.832 74.979 74.845 74.912 75.044 75.013 75.009 75.352 75.536 75.553 76.96 78.247 77.754 77.507 76.038 75.961 75.883 75.872 76.058 75.965 76.321 78.811 81.669 80.638 78.736 77.108 76.543 76.789 76.806 76.633 76.594 76.784 76.942 76.813 76.778 76.91 -9999 80.845 84.219 88.579 87.825 86.39 86.897 87.838 83.514 80.949 78.374 77.511 78.145 78.139 77.886 77.739 77.625 76.624 76.467 76.478 76.565 -9999 -9999 -9999 -9999 76.891 76.771 76.658 76.663 76.775 76.919 76.749 76.925 76.813 76.246 75.491 75.343 75.334 75.067 77.277 81.05 83.046 83.961 84.597 82.767 77.774 75.823 75.515 78.365 82.823 85.392 85.14 84.614 83.533 -9999 76.088 74.256 73.971 74.059 74.341 74.614 74.632 75.519 78.934 81.476 82.746 82.431
