ncols 434
nrows 31
xllcorner    427018
yllcorner    434750
cellsize     2
NODATA_value -9999
38.498 39.025 39.3 39.97 40.196 37.404 33.436 33.268 33.32 33.35 33.449 33.551 33.626 33.64 34.757 35.313 33.719 33.797 39.559 40.341 41.044 40.825 40.209 39.463 35.309 33.811 33.889 33.887 34.007 34.01 33.883 33.769 33.785 33.803 33.833 33.854 33.813 33.831 33.794 33.774 33.739 33.73 33.743 33.852 33.792 33.93 33.924 34.004 33.942 33.975 34.012 34.104 34.433 34.963 34.861 34.473 34.499 34.635 34.682 35.019 34.874 36.125 36.406 42.883 45.777 46.697 46.28 44.183 40.82 37.659 37.363 37.245 37.519 37.415 40.39 38.959 39.762 39.112 44.811 48.603 49.198 49.739 47.883 42.341 40.015 40.078 39.297 39.361 39.412 40.199 39.864 40.473 40.651 44.389 48.31 50.154 50.175 49.628 45.339 41.859 41.771 41.033 42.22 41.292 41.482 41.731 41.839 42.106 43.008 49.939 51.279 51.973 51.505 50.226 43.94 43.342 42.947 42.649 42.701 42.86 42.927 42.996 43.11 44.335 44.285 45.666 52.15 52.469 51.237 48.568 44.942 44.46 44.185 44.337 44.299 44.382 44.393 44.898 45.822 47.827 51.48 52.832 53.652 52.812 51.957 48.162 46.965 46.023 45.568 45.702 45.754 45.785 45.982 46.625 46.979 51.276 54.491 55.566 55.717 54.859 53.732 48.009 46.934 46.857 47.437 46.952 46.892 46.964 47.105 47.27 47.488 51.439 47.567 47.495 47.325 47.357 47.43 47.423 47.423 47.397 47.45 47.367 47.319 47.318 47.344 47.465 47.732 47.867 48.465 48.691 52.02 53.279 53.895 54.678 54.859 55.372 55.025 54.252 53.454 52.194 52.01 48.835 48.288 47.75 49.23 48.341 47.253 47.063 46.95 46.835 46.755 46.652 46.523 46.47 46.435 46.431 46.41 46.387 46.29 46.237 46.21 46.125 46.011 45.992 45.907 45.851 45.719 45.588 45.566 45.534 45.466 45.437 45.346 45.324 45.242 45.207 45.082 45.011 44.974 44.929 44.868 44.815 44.999 44.615 44.586 44.555 44.643 44.497 44.479 44.399 46.129 46.983 47.554 47.157 48.554 49.474 50.546 49.367 48.516 44.163 44.066 44.151 44.122 43.996 44.126 43.969 44.043 44.065 44.029 44.185 44.216 44.272 44.231 44.199 44.164 44.061 43.994 43.888 43.938 43.449 42.185 44.187 50.545 49.341 44.95 45.48 42.148 42.425 42.972 43.271 43.473 44.079 43.771 47.217 47.94 50.182 50.976 46.421 45.113 45.32 50.175 57.186 61.181 63.308 59.559 54.478 52.617 52.325 58.418 63.656 60.857 60.79 61.551 59.019 59.353 57.198 53.822 54.483 54.79 54.68 54.716 53.283 53.159 53.563 53.074 53.087 53.161 53.234 53.293 53.4 55.02 55.227 54.707 59.821 62.602 60.221 59.229 55.087 55.18 55.339 55.448 55.493 55.685 55.753 55.854 55.935 56.376 56.145 56.055 56.065 56.079 56.112 57.016 56.163 56.991 56.465 56.515 56.579 56.646 56.631 56.711 56.766 56.819 56.857 56.928 56.774 56.812 56.876 56.856 56.913 56.998 57.043 57.125 57.115 57.196 57.415 57.382 57.58 57.298 63.383 58.847 60.352 57.346 57.372 57.4 57.347 57.307 57.321 57.401 57.283 57.451 59.066 57.258 57.237 59.231 65.483 58.486 58.793 59.85 57.111 57.016 56.891 56.834 56.865 56.903 56.885 56.816 56.78 56.762 56.631 56.649 56.587 56.558 59.653 61.12 63.242 63.817 62.17 58.984 58.217 56.823 55.736 55.676 55.652 55.537 55.437 55.382 55.248 55.151 55.115 55.106 55.133 55.099 54.998
37.414 38.009 38.511 38.749 39.321 34.052 33.288 33.251 33.324 33.406 33.482 33.556 33.584 33.58 33.705 35.965 35.521 36.88 39.931 40.723 41.176 40.393 39.623 34.668 33.719 33.762 33.763 33.811 33.905 34.406 33.872 33.796 33.768 33.753 33.764 33.815 33.828 33.835 33.819 33.784 33.776 33.711 33.659 33.717 33.769 33.819 33.897 33.962 33.952 34.002 34.047 34.078 34.121 34.162 34.218 34.193 34.282 34.398 34.477 34.356 34.725 35.068 36.527 43.031 45.753 46.85 45.707 44.623 38.87 37.19 36.985 37.006 37.151 37.222 41.518 43.819 44.377 41.488 46.047 48.839 49.724 49.084 47.846 42.7 39.295 40.091 39.705 39.328 39.175 39.76 39.618 40.903 40.794 46.628 49.314 50.151 49.923 48.696 44.462 40.969 40.985 40.941 41.214 41.034 41.994 41.381 41.685 41.821 46.2 50.135 51.342 51.775 50.812 46.245 43.165 42.486 42.539 43.503 42.469 42.609 42.722 42.797 42.949 43.013 43.297 43.123 43.34 50.267 50.619 46.05 44.595 44.688 44.051 44.544 44.057 44.146 44.263 45.238 45.69 49.607 51.946 53.431 53.726 52.5 51.662 46.263 46.023 45.595 45.628 45.45 45.516 45.535 45.787 46.472 46.706 52.793 54.826 55.646 55.386 55.661 53.333 46.783 46.675 46.635 46.618 46.67 46.733 46.791 46.973 47.705 49.331 54.601 54.148 55.347 51.356 47.491 47.277 47.294 47.297 47.304 47.394 47.333 47.297 47.27 48.278 47.676 48.001 47.476 48.422 48.073 47.904 50.072 52.868 53.169 53.911 54.264 54.632 54.715 54.872 54.158 53.663 52.797 47.787 47.522 47.317 47.491 47.607 47.181 46.857 46.65 46.569 46.457 46.407 46.46 46.385 46.364 46.288 46.264 46.201 46.11 46.072 45.906 45.929 45.874 45.761 45.693 45.628 45.539 45.522 45.376 45.319 45.234 45.154 45.199 45.043 45.013 44.975 44.896 44.832 44.837 44.794 44.741 44.693 44.607 44.498 44.487 44.427 44.347 44.307 44.162 44.827 46.381 47.325 47.558 49.05 50.026 50.38 49.113 46.134 43.924 43.941 43.909 43.963 43.835 44.266 43.892 43.896 43.984 44.011 44.111 44.257 44.143 44.167 44.16 44.15 44.145 44.076 43.907 43.837 44.047 44.336 49.888 50.867 50.835 50.071 49.507 46.782 44.967 43.629 43.525 43.605 43.787 43.653 47.841 51.07 51.147 52.997 51.565 45.117 45.176 53.612 59.537 61.286 64.549 64.799 60.058 55.36 58.648 62.533 61.858 62.219 59.82 58.177 60.005 59.043 56.067 54.481 56.667 54.267 53.817 53.21 53.118 53.167 55.805 54.452 53.136 53.146 53.197 53.393 55.484 56.225 56.132 59.912 63.466 63.69 63.847 60.5 57.975 55.15 55.261 55.368 55.47 55.594 55.642 55.807 55.828 56.274 55.923 55.928 55.926 55.988 56.039 56.92 56.332 56.814 56.332 56.427 56.461 56.477 56.622 56.621 56.69 56.741 56.827 56.831 56.79 56.802 56.828 56.825 56.867 56.933 56.942 56.938 57.021 57.054 57.194 57.31 57.684 57.465 57.843 57.478 57.993 57.208 57.208 57.207 57.232 59.226 59.733 57.478 57.153 57.341 57.104 57.151 57.137 57.079 57.481 57.051 56.983 57.006 56.969 56.893 56.756 56.724 56.685 56.723 56.712 56.701 56.679 56.612 56.556 56.549 56.515 56.558 60.41 62.097 63.94 65.663 63.593 61.694 61.167 57.003 55.608 55.504 55.487 55.466 55.335 55.288 55.229 55.194 55.12 55.019 55.043 54.99 54.973
36.913 36.933 37.513 37.907 36.206 33.356 33.22 33.3 33.353 33.404 33.514 33.535 33.561 33.606 34.647 34.068 37.211 39.81 40.324 41.199 40.719 39.938 39.298 33.748 33.705 33.675 33.702 33.779 33.789 33.782 33.8 33.791 33.765 33.763 33.701 33.728 33.773 33.803 33.817 33.82 33.828 33.763 33.714 33.599 33.722 33.738 33.736 33.814 33.907 34.014 33.955 34.006 34.027 34.043 34.047 34.039 34.119 34.16 35.525 34.345 34.981 34.925 39.567 42.931 44.839 45.348 45.174 42.176 37.482 37.162 36.66 36.777 36.896 37.485 42.611 44.713 44.042 41.383 45.329 48.271 49.627 48.655 47.346 41.817 39.556 39.318 38.896 38.97 38.939 39.928 39.308 40.258 39.956 48.179 50.564 50.573 50.802 48.707 42.308 40.793 40.879 40.507 40.679 40.803 41.603 42.168 42.74 42.012 48.722 50.305 51.632 51.493 50.514 46.098 43.028 42.779 42.122 42.306 42.249 42.339 42.477 42.558 42.714 42.841 42.994 42.992 42.992 43.11 43.237 45.421 44.779 44.507 43.605 43.856 43.838 43.889 44.074 45.254 45.596 50.532 52.271 53.498 54.271 52.758 51.318 46.567 45.651 45.157 46.318 45.252 45.318 45.412 46.268 46.844 47.237 54.247 54.832 55.661 55.087 54.591 49.91 46.722 46.747 46.974 46.659 46.462 47.572 46.716 47.277 47.22 52.133 54.438 56.069 56.319 55.154 53.121 48.291 47.235 47.202 47.179 47.214 47.242 47.246 47.249 47.35 47.152 47.008 46.948 46.99 49.171 48.394 47.566 47.89 49.217 52.667 53.133 53.646 54.803 54.775 55.009 54.629 54.015 53.076 52.634 50.158 47.31 47.001 46.996 46.91 46.537 46.408 46.368 46.3 46.298 46.307 46.266 46.173 46.193 46.072 46.039 46.11 46.082 46.123 46.599 46.634 45.601 45.385 46.018 45.497 45.665 46.032 46.119 45.217 45.126 45.094 44.946 44.85 44.727 44.676 44.692 44.63 44.586 44.552 44.497 44.457 44.446 44.348 44.25 44.204 44.117 44.073 43.971 44.433 44.708 45.458 49.435 49.822 48.85 44.326 43.773 43.798 43.816 43.725 43.848 43.857 43.797 43.811 43.828 43.805 44.08 44.7 44.223 44.159 44.179 44.194 44.101 44.06 43.975 43.914 43.851 43.867 44.091 48.814 50.622 50.953 50.209 49.555 45.368 43.686 44.172 43.642 43.603 43.662 48.427 51.191 51 51.394 49.935 46.085 45.273 55.13 58.474 62.07 64.255 65.364 54.579 53.119 56.167 52.601 55.321 59.532 54.844 53.505 54.687 56.084 56.249 57.24 55.999 53.669 53.182 53.088 53.054 55.272 56.166 56.116 55.961 54.136 53.331 53.368 56.182 56.228 56.615 60.428 63.551 63.633 63.774 61.725 59.709 55.195 55.206 55.297 55.377 55.548 55.623 55.771 55.866 55.936 55.825 55.871 55.942 55.949 55.857 55.932 56.472 57.085 56.428 56.296 56.34 56.401 56.468 56.564 56.62 56.674 56.705 56.738 56.72 56.709 56.736 56.765 56.787 56.801 56.986 56.907 56.896 56.922 57.043 57.379 57.42 57.012 56.916 57 57.258 57.309 57.682 57.588 57.144 56.989 59.023 57.063 56.988 60.399 57.07 57.073 57.307 56.964 56.991 56.974 56.928 56.925 56.894 56.842 56.563 56.595 56.606 56.63 56.588 56.537 56.545 56.498 56.459 56.478 56.38 56.371 60.175 64.565 65.741 65.86 65.963 63.074 58.816 55.63 55.509 55.389 55.296 55.282 55.183 55.234 55.211 55.162 55.103 55.061 55.015 54.979 54.948
37.511 37.188 36.963 37.159 34.934 33.164 33.22 33.313 33.374 33.43 33.53 33.507 33.534 33.944 34.346 37.334 39.199 39.986 40.877 40.926 40.224 39.371 34.29 33.663 33.644 33.679 33.668 33.714 33.732 33.746 33.746 33.757 33.791 33.819 33.879 33.796 33.705 33.76 33.761 33.803 33.787 33.776 33.759 33.706 33.688 33.632 33.625 33.679 33.75 33.832 33.982 34.362 33.921 33.893 33.882 33.853 33.961 33.992 36.032 34.776 35.411 35.755 40.396 43.603 44.933 44.632 43.462 37.656 36.44 37.003 36.389 36.545 36.723 37.654 38.535 40.162 42.49 39.097 46.253 47.638 47.769 47.389 42.988 40.902 39.392 38.653 38.835 38.601 39.071 39.11 40.208 40.839 40.79 48.687 49.711 50.436 50.524 48.426 40.859 41.064 40.509 40.319 40.442 40.648 41.191 41.628 42.04 43.844 49.99 50.773 52.036 51.468 50.424 43.84 42.783 41.951 41.983 41.978 42.084 42.12 42.262 42.396 42.525 42.598 42.782 42.834 42.927 42.976 43.035 43.111 43.435 43.53 43.304 43.465 43.611 43.69 43.832 45.327 46.008 50.789 52.592 53.566 53 51.957 49.75 46.447 46.695 44.958 45.383 45.048 45.339 45.505 45.653 46.017 46.825 53.391 55.055 55.701 54.767 54.52 48.895 46.536 46.284 46.257 46.216 46.32 48.045 46.719 47.101 47.091 52.251 55.773 56.351 56.08 55.107 49.452 47.21 47.705 47.025 47.024 47.085 47.111 47.127 47.121 47.075 47.047 46.973 47.59 46.828 47.125 48.604 47.877 47.056 47.13 47.975 49.608 52.012 52.922 53.814 54.111 54.481 54.509 54.321 53.712 53.136 52.504 50.798 46.975 46.542 46.38 46.243 46.252 46.264 46.169 46.202 46.134 46.092 46.178 46.74 46.881 46.031 45.964 45.83 45.594 45.352 44.952 44.751 45.821 46.163 46.099 44.492 44.377 44.895 44.654 45.724 44.592 45.718 46.16 47.461 44.714 44.389 44.365 44.375 44.291 44.282 44.269 44.23 44.226 44.166 44.109 44.046 43.945 44.21 45.037 43.986 43.712 43.606 45.108 43.664 43.668 44.642 44.084 43.592 43.573 43.68 43.673 43.761 43.747 43.908 45.217 45.206 44.231 44.225 44.237 44.364 44.095 44.062 44.023 43.978 43.884 43.797 43.831 45.11 48.849 50.598 51.299 45.655 43.707 43.855 43.705 43.604 43.702 43.665 45.115 50.651 49.071 48.607 47.854 46.692 50.758 54.462 60.463 57.046 61.926 59.147 63.24 56.55 57.337 57.401 63.798 57.613 57.671 55.926 53.493 53.423 53.716 54.043 55.005 53.154 53.588 53.42 53.123 56.027 56.048 56.117 56.131 56.176 55.636 53.844 55.668 56.271 54.903 54.656 60.613 62.811 63.692 62.999 57.902 55.205 55.821 56.193 55.31 55.455 55.601 55.694 55.797 56.604 55.813 55.75 55.86 55.921 55.814 56.051 56.339 57.88 58.728 56.103 56.116 56.21 56.365 56.406 56.539 56.615 56.755 56.671 56.664 56.64 56.649 56.707 56.726 56.755 56.808 56.807 56.803 56.837 56.957 57.298 57.3 56.947 56.876 56.916 56.947 56.873 56.829 57.137 57.233 59.351 62.749 59.38 64.382 59.923 59.029 56.933 57.137 56.927 56.852 56.849 56.845 56.833 56.79 56.778 56.478 56.494 56.476 56.511 56.658 58.521 56.937 59.171 61.852 57.616 56.996 56.389 62.561 64.648 65.7 64.917 65.419 63.737 63.048 56.367 55.363 55.228 55.187 55.198 55.184 55.17 55.076 55.079 55.012 54.974 54.954 54.939 54.886
37.106 37.492 37.472 34.994 33.248 33.171 33.25 33.339 33.401 33.452 33.451 33.449 33.488 33.591 33.887 37.686 39.898 40.713 41.292 40.602 39.873 39.163 33.737 33.638 33.616 33.648 33.646 33.702 33.677 33.682 33.678 33.692 33.726 33.747 33.743 33.823 33.811 33.716 33.707 33.737 33.773 33.782 33.795 33.777 33.715 33.646 33.639 33.595 33.648 33.701 33.718 33.811 33.9 33.805 33.72 33.789 33.831 33.848 34.479 34.657 34.885 37.17 41.34 44.691 45.172 44.203 42.223 37.203 35.873 36.128 36.361 36.335 36.504 36.583 37.822 40.17 40.01 43.64 47.777 48.141 47.616 47.449 40.973 38.434 38.508 38.41 38.404 38.364 38.463 38.588 39.597 40.49 44.45 49.099 50.11 50.247 49.586 43.89 40.731 41.28 40.35 41.005 40.202 40.382 40.859 41.079 40.712 44.36 48.494 49.978 50.979 51.382 49.238 43.277 42.4 41.833 42.925 41.756 41.841 41.809 41.95 42.183 42.372 42.385 42.457 42.655 42.744 42.807 42.943 43.038 43.018 43.082 43.197 43.275 43.31 43.428 43.828 44.274 47.52 50.209 52.102 53.027 52.788 51.609 47.567 45.566 46.346 44.625 44.704 44.799 44.799 45.011 46.547 45.948 51.515 53.671 54.477 54.623 53.948 52.569 46.833 46.521 46.008 46.295 46.011 47.04 48.108 47.186 46.66 47.067 54.398 56.414 56.607 56.789 54.559 48.414 47.145 46.932 47.043 47.006 46.905 46.924 46.942 46.964 46.929 46.894 46.892 46.851 46.774 47.574 46.861 46.604 46.937 47.054 47.445 47.11 47.787 50.51 52.09 53.207 53.5 53.737 54.46 54.778 54.179 53.476 51.924 47.084 46.531 46.451 46.148 46.115 46.095 46.064 45.98 46.011 46.157 46.6 46.05 46.005 45.809 45.757 45.613 45.375 45.023 44.777 44.683 44.603 45.065 45.802 44.21 44.395 44.455 43.911 43.952 44.127 47.102 44.562 44.85 45.591 44.384 44.346 44.43 44.3 44.205 44.163 44.073 44.051 44.013 43.952 43.956 43.891 43.887 43.823 43.701 43.681 43.583 43.5 43.466 43.438 43.426 43.507 43.491 43.576 43.653 43.661 43.683 43.797 43.87 44.847 44.744 44.713 44.395 44.147 44.188 44.075 44.114 44.072 44.029 43.944 43.872 43.734 43.743 45.028 48.528 44.75 44.433 43.784 43.65 43.632 43.648 43.673 43.653 44.521 45.209 48.909 50.322 52.289 51.984 56.578 57.515 59.533 54.515 55.54 63.841 57.024 60.049 55.646 60.071 62.023 61.526 59.909 59.758 54.506 53.325 54.758 54.591 53.474 53.124 53.083 53.139 55.79 56.07 56.066 56.129 56.186 56.221 56.217 54.666 53.144 55.318 54.04 53.904 53.993 59.859 61.348 60.936 60.277 62.555 61.525 58.442 57.138 55.537 56.663 58.474 59.021 57.819 55.803 55.704 55.73 55.862 56.055 67.596 65.993 70.336 67.108 58.823 56.195 56.171 56.28 56.308 56.445 56.595 56.614 56.574 56.564 56.633 56.629 56.726 56.718 56.721 56.693 56.702 56.686 56.766 56.878 57.866 56.87 56.832 56.858 56.827 56.841 56.834 56.799 56.828 56.834 56.76 58.713 59.727 63.383 62.235 59.587 57.439 56.979 56.762 56.798 56.769 56.802 56.792 56.731 56.533 56.419 56.405 56.367 56.591 64.392 62.79 64.04 64.192 63.289 61.635 56.656 56.023 57.591 61.442 64.07 63.974 63.085 62.909 58.689 55.96 55.232 55.21 55.204 55.134 55.124 55.129 55.077 55.002 58.405 55.284 54.928 54.895 54.819
36.838 36.93 37.2 34.687 33.295 33.191 33.274 33.325 33.391 33.403 33.433 33.414 33.493 33.614 36.546 38.927 40.195 41.037 40.911 40.061 39.445 35.2 33.645 33.59 33.605 33.642 33.636 33.665 33.626 33.638 33.63 33.658 33.669 33.652 33.687 33.689 33.715 33.824 33.735 33.721 33.738 33.736 33.748 33.74 33.755 33.706 33.724 33.611 33.632 33.571 33.706 33.692 34.235 33.635 33.684 33.683 33.754 33.699 33.75 34.069 34.653 38.201 42.676 44.466 45.38 44.685 40.515 36.975 37.589 35.905 37.104 36.123 36.597 36.757 39.946 38.581 37.431 44.863 48.795 48.502 47.985 47.372 39.205 38.138 38.137 37.938 38.023 38.166 39.298 38.414 39.004 39.594 43.412 48.228 49.23 49.922 48.929 42.241 40.54 39.948 40.346 40.011 39.984 40.485 41.538 41.474 41.194 44.753 48.894 50.052 50.092 49.942 48.334 41.625 42.272 41.425 42.043 41.509 41.565 41.599 41.802 42.018 42.339 42.575 42.456 42.456 42.528 42.642 42.758 42.836 42.961 42.982 43.101 43.12 43.141 43.247 44.41 44.445 47.91 50.752 51.895 52.512 51.267 50.381 45.346 45.628 44.759 44.933 44.5 44.55 44.693 44.911 45.515 46.61 52.62 54.299 54.739 54.313 53.675 50.336 46.133 46.689 45.763 45.769 45.841 45.842 46.218 46.394 47.185 46.978 55.33 56.048 56.379 56.039 54.221 47.219 47.12 46.801 46.8 46.699 46.764 46.79 46.91 47.204 46.939 46.787 46.776 46.744 46.685 46.555 46.653 47.412 46.47 46.638 47.336 46.663 47.352 47.089 48.104 49.445 52.082 52.803 55.037 54.186 54.012 52.989 47.5 46.538 47.069 46.115 45.98 46.013 45.868 45.89 46.018 46.08 47.233 47.326 45.826 45.633 45.53 45.44 45.375 45.136 44.904 44.681 44.607 44.086 44.029 43.875 43.911 43.913 44.213 43.97 43.911 44.798 45.154 48.907 46.686 44.311 44.313 44.291 44.28 44.162 44.704 45.006 43.919 43.804 43.763 43.807 43.745 43.747 43.789 43.697 43.653 43.659 43.597 43.495 43.473 43.41 43.361 43.383 43.429 43.507 43.555 43.586 43.589 43.583 43.716 44.663 44.628 44.636 44.473 44.202 44.092 44.005 43.98 44.048 44.034 43.958 43.925 43.851 43.792 43.752 49.114 53.7 50.821 45.312 44.287 43.669 43.61 43.624 43.699 43.805 44.126 48.13 52.008 48.476 52.439 57.998 56.901 59.735 57.659 59.879 57.973 60.637 57.582 54.368 54.448 60.334 57.478 62.114 62.186 56.675 53.387 53.916 53.592 53.247 53.111 53.063 53.209 56.047 56.088 56.119 56.179 56.208 56.461 56.188 56.18 54.423 53.502 53.534 53.72 53.902 53.967 54.104 54.735 60.282 62.687 62.313 59.643 58.56 55.964 59.414 61.247 62.146 61.953 55.729 55.622 55.665 55.701 55.824 67.842 72.129 69.423 63.993 69.918 59.106 58.884 56.152 56.347 56.369 56.436 56.465 56.557 56.593 56.551 56.566 56.666 56.627 56.662 56.662 56.653 56.674 56.702 56.961 57.386 56.846 56.76 56.686 56.628 56.683 56.699 56.723 56.688 56.682 56.738 56.76 56.738 56.649 56.584 56.661 56.621 56.989 56.767 57.341 57.302 57.227 56.897 56.648 56.427 56.352 56.349 56.247 60.471 64.295 64.898 65.41 65.449 64.612 62.275 59.729 55.885 55.825 58.279 59.71 61.022 62.145 61.878 58.284 55.255 55.256 55.223 55.167 55.141 55.114 55.037 55.155 61.13 67.627 60.809 55.166 54.714 54.638
37.512 37.227 36.781 34.666 33.175 33.112 33.291 33.331 33.391 33.365 33.352 33.381 33.576 33.779 38.678 39.908 40.745 41.297 40.475 39.601 36.226 33.664 33.635 33.612 33.596 33.608 33.585 33.568 33.586 33.594 33.604 33.613 33.637 33.647 33.646 33.683 33.683 33.974 33.787 33.807 33.729 33.688 33.674 33.74 33.713 33.733 33.796 33.704 33.679 33.566 33.638 33.603 33.608 33.654 33.623 33.618 33.63 33.589 33.705 33.789 33.98 39.909 43.36 44.775 44.803 43.493 40.363 35.859 37.52 35.547 35.821 35.877 36.56 36.803 39.023 38.463 38.391 46.924 47.601 47.953 47.411 44.231 38.191 38.152 37.608 37.673 37.787 37.858 38.466 38.804 38.923 39.278 47.464 48.383 48.761 47.723 46.82 39.847 40.489 39.877 39.457 39.712 39.792 41.153 39.971 40.83 41.591 47.321 49.291 50.383 49.821 49.622 43.022 41.013 41.857 41.128 41.204 41.316 41.35 43.465 41.677 42.791 41.698 43.652 42.969 42.603 42.517 42.502 42.601 42.636 42.799 42.85 42.966 43.034 43.03 43.072 43.085 43.715 49.316 51.09 52.237 52.019 51.012 48.059 44.359 44.909 44.731 44.356 44.3 45.073 44.798 45.311 45.501 50.283 53.633 54.454 54.877 54.778 53.359 47.242 45.902 45.722 45.437 45.53 45.581 45.624 45.738 46.537 47.829 52.667 54.937 56.151 56.268 56.06 51.111 46.584 46.603 46.402 46.387 46.503 46.577 46.765 47.663 47.297 49.056 48.232 46.738 46.602 46.563 46.563 46.457 46.564 46.9 46.799 46.491 47.197 47.64 46.708 46.6 47.693 47.879 51.663 52.402 52.757 53.32 51.472 45.974 45.822 45.948 45.922 45.884 45.773 45.852 46.197 47.877 47.63 45.881 45.657 45.589 45.355 45.186 45.151 45.099 44.998 44.781 44.452 44.844 46.018 46.251 46.229 44.013 43.889 43.953 43.972 44.549 45.61 45.905 47.724 44.358 44.212 44.481 45.784 44.09 43.986 44.072 44.037 43.771 43.552 43.647 43.857 43.875 43.735 43.636 43.571 43.568 43.52 43.493 43.494 43.363 43.3 43.335 43.349 43.356 43.403 43.443 43.514 43.524 43.491 43.472 43.518 43.627 43.725 43.83 44.036 43.98 44.013 43.946 43.954 44.013 43.996 43.991 43.98 43.881 43.838 50.554 54.442 51.403 44.828 43.898 43.648 43.613 43.67 46.553 51.611 45.733 50.113 49.055 45.395 54.517 58.872 60.245 61.449 57.282 56.284 52.057 58.037 58.097 58.376 59.074 57.17 62.482 63.914 62.668 61.99 54.562 53.623 54.196 53.486 53.19 53.132 56.088 56.093 56.094 56.15 56.199 57.182 57.532 57.287 56.248 56.311 53.348 53.38 54.099 54.106 54.265 54.372 54.442 54.548 60.735 61.181 55.194 56.102 57.29 56.798 58.106 58.592 60.911 55.839 55.507 55.467 55.732 67.711 70.077 71.282 72.584 73.329 72.092 62.582 66.294 56.425 56.24 56.441 56.422 56.44 56.539 56.605 56.536 56.565 56.544 56.526 56.571 56.573 56.599 56.57 56.633 56.84 56.971 56.752 56.644 56.516 56.561 56.525 56.547 56.576 56.652 56.653 56.711 56.704 56.694 56.693 56.667 56.652 56.593 56.523 56.512 56.557 56.576 56.682 56.607 56.397 56.377 57.157 56.248 56.171 57.3 61.748 64.571 64.991 60.501 64.133 59.219 56.844 55.666 55.622 55.958 55.975 56.315 57.231 55.973 55.246 55.244 55.209 55.2 55.089 55.015 54.916 54.857 54.7 64.454 70.862 69.136 56.232 54.309 54.353
37.432 37.891 37.556 37.299 36.303 35.517 33.069 33.437 33.332 33.282 33.3 33.43 33.611 36.58 39.698 40.227 41.114 40.897 40.008 36.407 33.741 33.683 33.631 33.627 33.609 33.569 33.508 33.497 33.509 33.533 33.535 33.598 33.633 33.691 35.545 35.229 33.741 33.65 33.667 33.731 36.005 33.816 33.71 33.639 33.702 33.696 33.699 33.67 33.787 33.662 33.667 33.591 33.617 33.557 33.592 33.586 33.594 33.553 33.633 33.802 33.756 33.954 35.758 37.432 43.642 42.714 36.958 38.128 35.469 35.696 35.491 35.604 35.868 35.856 36.302 36.769 42.668 46.464 47.88 47.58 46.221 40.031 37.9 37.611 37.31 37.367 37.556 38.369 37.781 38.433 38.737 44.226 48.531 48.358 48.645 47.175 43.707 39.331 40.238 39.494 40.482 39.396 39.557 39.783 39.995 40.678 41.702 48.756 49.504 50.309 49.467 48.346 43.238 41.009 40.926 41.353 41.152 41.046 41.086 41.202 42.996 42.062 40.977 40.952 41.576 42.772 43.445 43.731 42.83 42.548 42.559 42.651 42.806 42.902 42.918 42.961 43.02 43.098 43.114 44.572 50.592 51.504 50.648 47.599 44.234 44.581 44.306 44.263 44.062 44.641 44.505 45.342 45.568 50.622 53.764 54.3 54.744 53.915 52.996 46.988 45.88 45.581 45.228 45.368 45.385 45.383 45.548 46 46.169 52.366 54.757 55.614 55.603 55.012 47.808 47.813 46.473 47.142 46.585 46.346 46.454 46.63 47.723 46.723 51.896 54.293 52.698 47.33 46.459 46.389 46.372 46.261 46.275 46.426 46.982 46.162 46.314 46.503 47.611 47.485 46.625 47.601 48.276 51.871 51.77 46.475 45.721 45.701 45.797 45.744 45.755 45.753 46.518 46.117 46.805 46.403 45.561 45.622 45.402 45.201 45.065 44.94 44.865 44.807 44.651 45.928 47.947 49.453 50.525 49.096 45.884 43.946 44.898 46.153 46.685 47.578 45.687 50.488 48.417 52.045 53.021 47.674 49.541 44.078 43.936 43.631 43.421 43.332 43.654 44.156 43.703 43.964 45.785 46.914 43.991 43.472 43.444 43.278 43.224 43.144 43.23 43.172 43.235 43.331 43.34 43.306 43.391 43.339 43.383 43.398 43.428 43.491 43.519 43.502 43.626 43.699 43.813 43.941 43.974 43.994 44.012 43.992 43.963 46.98 50.704 51.44 50.214 44.129 45.053 43.673 43.87 48.814 53.342 54.511 50.516 54.255 49.217 53.228 53.771 58.089 59.822 59.542 55.327 51.164 53.352 59.874 60.282 62.948 59.714 60.835 61.868 60.666 63.122 61.102 53.263 53.404 53.542 53.399 53.108 55.238 56.093 56.095 56.084 56.146 56.931 57.526 57.499 57.505 57.524 55.763 53.209 53.391 54.035 57.411 56.614 54.985 54.438 54.512 54.583 54.791 57.079 55.849 54.955 59.816 58.836 62.806 62.114 57.436 55.411 55.359 55.386 58.918 68.991 66.518 70.703 72.338 73.416 62.752 58.715 56.438 56.34 56.412 56.325 56.386 56.528 56.553 56.57 57.075 58.638 62.31 56.875 56.438 56.469 56.586 56.559 57.399 56.903 56.711 56.44 56.37 56.371 56.381 56.446 56.562 56.575 56.588 56.668 56.675 56.668 56.713 56.682 56.591 56.537 56.519 56.488 56.455 56.401 56.388 56.39 56.387 56.38 57.65 56.19 56.107 56.243 62.698 63.633 64.762 64.787 63.286 60.855 55.7 55.545 55.479 55.422 55.351 55.358 55.367 55.306 55.249 55.195 55.298 55.047 54.898 54.857 54.456 54.255 58.477 69.553 72.994 68.264 58.514 54.002 53.985
36.478 36.979 37.437 37.817 37.587 37.315 36.977 36.145 33.367 33.426 33.297 33.502 33.719 38.866 40.066 40.867 41.283 40.35 39.639 36.274 33.762 33.702 33.672 33.64 33.609 33.58 33.535 33.47 33.434 33.478 34.868 33.62 33.614 35.926 36.484 36.069 35.553 34.514 33.639 36.085 37.43 34.665 33.848 33.687 33.62 33.626 33.667 33.662 33.621 33.667 33.68 33.619 33.624 33.569 33.585 33.521 33.576 33.599 33.793 33.869 33.768 33.699 33.732 33.939 34.092 35.763 34.895 37.212 35.038 35.946 35.292 35.303 35.389 35.58 35.985 36.283 43.28 45.075 47.037 46.998 46.103 39.22 37.601 37.169 37.477 37.271 37.315 38.562 37.679 38.557 38.281 43.739 47.863 48.513 49.595 47.414 43.993 39.407 40.559 39.583 39.33 39.187 39.294 39.363 39.878 40.548 46.496 48.952 49.857 50.059 49.763 49.088 41.178 41.988 40.879 41.359 40.702 40.854 40.871 40.979 41.315 41.042 40.774 40.719 40.732 40.662 41.068 43.715 44.385 43.907 42.809 42.572 42.549 42.634 42.778 42.865 42.93 42.99 43.009 43.027 43.043 43.385 48.673 46.156 44.084 43.92 43.628 43.714 43.81 44.05 44.135 44.633 46.744 50.818 53.376 54.742 54.334 53.669 49.541 45.466 45.682 45.157 45.092 45.172 45.182 45.234 47.261 46.489 46.089 52.613 54.934 55.288 54.902 54.123 46.166 46.172 46.185 46.537 46.295 46.161 46.227 46.331 46.644 46.561 52.154 54.708 55.652 55.731 52.343 46.586 46.201 46.187 46.097 46.113 46.142 45.925 45.873 45.976 49.294 47.726 46.457 47.749 46.292 46.112 47.003 45.662 45.642 45.615 45.685 45.574 45.697 47.289 47.163 46.14 45.901 46.044 45.797 45.171 45.043 44.994 44.915 44.789 44.808 44.585 44.561 46.582 48.727 49.843 50.378 49.435 48.25 44.191 44.578 45.544 47.131 46.728 49.729 52.646 54.537 55.488 56.256 55.095 49.53 44.103 43.87 43.488 43.254 43.257 45.631 47.541 48.108 49.959 51.339 52.314 51.907 49.208 47.503 43.394 43.2 43.061 43.052 43.075 43.148 43.172 43.234 43.218 43.21 43.194 43.212 43.25 43.298 43.356 43.418 43.483 43.522 43.634 43.704 43.758 43.85 43.928 43.968 43.952 43.996 43.992 48.706 50.157 48.553 44.229 44.657 45.009 51.018 54.674 55.5 53.682 53.253 51.187 47.652 51.846 55.377 55.749 57.202 58.526 58.536 57.928 60.251 63.545 64.551 64.107 61.294 62.23 59.435 54.228 55.552 53.195 53.138 53.424 53.293 53.135 53.755 56.077 56.096 56.103 56.135 56.286 57.373 57.492 57.498 57.489 56.803 56.194 55.712 54.339 55.705 57.407 57.368 57.365 55.46 54.535 54.574 54.68 58.545 59.293 57.923 59.807 62.61 59.474 63.779 58.106 56.352 55.365 55.255 55.228 59.573 69 71.174 70.531 70.707 63.993 59.996 56.366 56.411 56.434 56.408 56.548 56.533 56.519 62.731 62.436 60.688 64.34 58.074 56.419 56.362 57.03 59.168 59.577 57.073 56.608 56.408 56.312 56.28 56.315 56.415 56.377 56.416 56.482 56.547 56.637 56.67 56.693 56.625 56.408 56.409 56.435 56.548 56.439 56.363 56.316 56.328 56.351 56.447 59.145 56.751 56.044 56.055 58.3 61.976 63.742 56.688 60.294 55.666 55.482 55.44 55.374 55.371 55.672 61.169 55.811 63.484 61.964 59.266 62.359 58.406 62.788 58.378 57.233 53.839 53.89 69.859 72.951 71.08 60.674 53.678 53.741
32.883 35.283 35.631 36.878 37.381 37.648 37.327 36.588 34.004 35.336 33.984 33.673 37.77 39.81 40.479 41.212 40.652 39.955 36.414 35.578 34.443 33.7 33.692 33.637 33.592 33.594 33.543 33.48 33.45 33.48 33.784 33.532 34.028 36.205 36.556 36.689 38.113 37.385 34.636 36.914 38.155 38.054 37.278 33.908 33.885 33.663 33.592 33.624 33.58 34.196 33.65 33.628 33.618 33.567 33.609 33.556 33.567 33.539 33.66 33.73 33.738 33.707 33.697 33.822 33.984 34.118 34.399 34.604 34.682 34.8 35.013 35.119 35.183 35.873 36.167 35.558 44.132 45.74 46.59 45.616 40.562 36.951 38.331 37.483 37.505 36.879 37.044 37.242 40.279 40.084 39.236 45.93 48.242 48.892 48.357 48.292 40.796 39.367 39.922 38.726 38.813 38.968 40.059 39.137 41.094 44.841 46.563 47.891 50.258 50.066 49.231 46.896 40.626 40.46 40.413 40.429 40.558 40.565 40.561 41.157 40.725 40.686 40.598 40.541 40.508 40.434 40.478 40.356 41.248 43.778 44.415 43.679 42.665 42.609 42.59 42.684 42.778 42.875 42.85 42.989 42.966 43.05 43.049 43.088 43.368 43.415 43.37 43.484 43.636 43.698 44.595 44.342 47.751 51.934 52.676 53.467 52.979 51.964 47.509 45.603 45.847 44.831 44.867 44.913 44.907 45.065 48.545 46.005 47.135 55.148 55.412 55.184 54.866 51.161 45.925 45.872 45.869 46.164 45.899 45.916 46.968 46.178 46.602 47.429 53.456 55.296 55.884 55.31 54.182 47.256 46.229 46.041 45.991 45.953 45.97 45.917 45.802 45.656 45.718 47.333 47.817 47.349 46.003 46.211 45.576 45.486 45.444 45.615 45.483 45.499 48.108 48.569 49.465 47.066 45.514 48.577 49.056 45.668 44.727 44.675 44.887 44.582 44.579 44.147 45.641 47.368 48.865 49.759 50.248 49.415 48.234 47.283 44.069 44.74 47.196 50.502 53.447 52.079 56.272 54.861 56.702 52.195 51.496 44.444 44.366 43.087 43.105 44.454 46.164 49.732 50.245 50.712 51.791 52.652 51.962 50.833 47.175 43.602 43.805 43.189 42.929 42.882 42.982 43.027 43.028 43.043 42.99 42.97 43.008 43.058 43.231 43.202 43.251 43.37 43.388 43.486 43.552 43.667 43.753 43.85 43.914 43.987 44.03 43.994 43.954 43.975 43.87 43.924 44.245 45.884 52.74 55.524 55.763 54.833 48.84 47.856 54.651 55.677 55.183 46.936 54.486 57.552 59.915 61.148 60.363 63.318 64.284 63.676 63.951 64.071 61.655 54.727 53.224 54.58 53.111 53.218 53.101 53.073 55.315 56.04 56.105 56.215 56.133 56.178 57.132 57.494 57.483 57.481 56.24 56.163 57.128 57.44 57.227 57.405 57.401 57.409 57.417 56.959 55.779 55.008 57.517 56.415 59.014 62.187 58.429 63.169 64.882 59.572 56.282 55.241 55.212 55.156 55.122 67.467 71.405 70.53 68.188 61.739 56.275 56.299 56.347 56.376 56.315 56.451 56.388 56.694 68.558 71.479 71.347 62.903 57.592 61.659 61.97 65.264 61.657 62.116 59.548 57.172 57.344 56.465 56.148 56.47 56.647 56.494 56.355 56.525 56.562 56.602 56.613 56.635 56.607 56.528 56.501 56.51 56.52 56.382 56.363 56.323 56.301 56.288 56.392 58.676 56.38 55.966 55.985 55.963 57.266 58.179 61.746 63.543 57.28 55.446 55.484 55.385 62.497 62.657 66.128 63.352 68.232 68.545 68.882 67.137 64.503 67.07 65.261 59.257 53.693 55.918 61.842 69.928 67.391 53.443 53.454 53.499
32.207 32.089 31.815 32.379 35.388 36.743 36.968 34.518 36.501 37.607 34.24 34.139 39.523 40.138 41.098 40.968 40.158 39.346 35.55 36.675 37.059 36.455 34.083 33.63 33.588 33.538 33.518 33.486 33.477 33.903 33.374 33.465 35.607 36.513 36.617 38.176 38.138 38.183 38.238 38.186 38.113 38.101 38.201 35.807 34.068 33.753 33.706 33.672 33.582 33.829 33.932 33.575 33.646 33.625 33.633 33.586 33.573 33.563 33.543 33.643 33.687 33.737 33.769 33.803 33.919 34.121 34.426 34.553 34.46 34.66 34.817 34.841 34.938 35.395 35.892 38.789 45.87 46.235 46.177 45.215 40.68 36.268 37.666 36.926 36.731 36.601 36.751 37.194 37.139 37.786 37.896 46.648 47.189 48.786 48.28 43.916 38.733 38.519 38.548 39.057 38.624 38.692 39.294 39.456 39.65 42.457 45.77 48.24 49.285 50.509 47.584 42.289 40.54 40.904 40.979 40.287 40.355 40.351 40.463 41.168 40.482 40.43 40.392 40.421 40.339 40.267 40.317 40.22 40.225 41.018 42.88 44.334 45.049 44.127 42.867 42.616 42.579 42.678 42.727 42.885 42.884 42.956 42.981 43.025 43.026 43.098 43.206 43.284 43.337 43.458 44.16 44.25 49.119 51.951 52.769 53.573 52.557 51.512 45.745 44.763 44.802 44.564 44.724 44.759 44.722 44.878 46.011 45.558 51.491 54.452 55.555 55.278 53.876 48.301 45.844 45.987 45.645 45.836 45.696 45.755 45.974 47.276 46.451 47.038 53.318 56.852 55.818 55.038 53.997 47.872 46.27 46.183 45.833 45.857 45.81 45.791 45.753 45.646 45.561 45.547 45.764 46.804 46.827 45.749 45.363 45.346 45.362 45.357 45.329 45.726 46.399 48.76 49.746 46.665 46.285 49.457 50.356 50.25 47.636 44.456 45.043 44.132 44.114 46.179 47.889 47.931 49.11 49.98 50.141 49.106 50.154 50.008 49.929 49.978 49.16 50.881 53.493 55.662 57.071 56.145 55.809 50.909 44.498 43.795 44.119 42.98 42.922 43.481 46.287 48.447 50.06 50.944 52.162 52.888 51.871 50.459 44.522 43.082 43.16 43.571 42.752 42.744 42.887 42.936 43.026 42.931 42.905 42.967 42.962 45.089 43.955 43.029 43.071 43.729 44.081 43.386 43.368 43.509 43.603 43.68 43.825 43.995 43.946 44.036 44.025 44.037 43.99 43.929 43.883 44.583 53.257 54.214 55.022 52.687 46.449 45.067 47.395 53.433 49.034 44.459 52.782 57.469 55.993 59.354 57.465 62.291 63.21 56.505 63.921 65.157 63.123 56.584 53.149 53.524 53.052 53.146 53.047 54.792 56.073 56.062 56.099 56.102 56.127 56.139 56.117 56.216 56.543 56.546 56.16 56.231 57.518 57.433 57.43 57.439 57.396 57.354 57.414 57.382 57.44 56.816 56.735 54.927 54.544 62.879 59.371 64.838 65.849 63.252 55.268 55.092 55.109 55.072 55.05 55.609 61.931 69.772 58.684 56.087 56.186 56.275 56.313 56.31 56.267 56.393 58.134 66.421 67.85 63.577 61.182 56.474 62.639 57.304 62.316 65.584 60.385 56.931 57.729 56.39 56.225 56.154 56.231 59.916 62.861 60.165 58.056 56.9 56.937 57.185 57.15 56.88 56.549 56.577 56.559 56.544 56.478 56.628 56.581 56.335 56.304 56.255 56.284 57.408 56.083 55.843 60.289 59.234 63.357 67.073 68.422 66.711 60.559 63.526 63.716 62.884 67.614 59.422 68.005 71.1 70.898 71.801 71.629 70.962 69.67 69.004 67.985 59.721 60.39 54.574 57.415 58.251 55.416 53.262 53.269 53.259
32.187 31.925 31.888 31.56 31.743 32.298 33.854 33.447 33.831 34.988 33.997 38.824 39.921 40.374 40.615 40.504 39.646 35.425 36.101 36.944 37.122 36.449 33.958 33.622 33.61 33.564 33.499 33.497 33.493 33.839 33.465 35 36.26 36.64 37.445 38.096 38.19 38.207 38.195 38.154 38.098 38.143 38.304 34.431 33.556 33.596 33.654 33.741 33.696 33.58 33.508 33.601 33.586 33.577 33.655 33.629 33.624 33.553 33.524 33.547 33.576 33.631 33.766 33.797 33.883 34.021 34.206 34.218 34.184 34.43 34.598 35.201 34.758 35.308 35.244 41.436 45.231 46.875 47.676 45.195 40.821 37.503 38.336 36.261 36.301 36.427 37.11 36.666 37.134 37.291 42.485 46.766 46.871 47.145 47.006 45.782 39.057 39.011 38.552 38.648 38.398 38.508 38.795 39.763 40.217 39.842 48.116 48.242 48.915 48.212 46.656 39.585 39.606 39.813 40.456 40.052 40.043 40.083 42.467 45.117 43.43 40.331 40.202 40.198 40.184 40.105 40.093 40.021 40.021 39.982 39.987 40.471 43.538 43.868 43.309 42.92 42.865 43.378 42.741 42.673 42.719 42.872 42.901 42.954 42.993 43.032 43.102 43.097 43.157 43.269 43.888 44.72 50.203 52.202 53.274 53.516 53.403 51.167 45.679 44.442 44.331 44.43 44.493 44.566 44.785 48.131 46.119 47.194 53.248 54.631 55.321 54.859 53.507 47.848 45.697 45.9 45.246 45.476 45.481 45.514 45.593 46.319 46.057 50.606 55.236 55.503 56.049 54.979 52.983 46.25 45.955 45.726 46.531 45.686 45.667 45.659 45.672 45.611 45.502 45.397 45.308 47.787 49.24 45.271 45.288 45.247 45.284 45.203 45.354 45.689 45.797 46.454 48.408 45.598 47.121 49.013 49.838 47.527 44.821 44.034 43.945 44.247 47.012 47.72 47.391 47.953 49.185 50.301 49.879 48.987 50.511 52.217 52.126 52.212 51.28 49.824 45.528 53.495 55.583 55.345 54.947 47.296 43.843 43.742 43.002 42.791 42.773 43.146 43.418 43.324 49.108 51.786 52.474 52.754 51.533 50.198 43.374 43.171 43.1 43.488 42.611 42.712 42.765 42.791 43.597 42.816 42.92 43.58 43.703 47.835 44.933 43.319 43.173 43.25 43.475 43.216 43.957 43.44 43.603 43.643 45.941 45.693 44.639 43.919 44.013 44.055 44.185 44.235 43.981 43.908 49.4 52.423 52.127 48.18 49.26 44.963 44.657 45.984 44.421 45.271 44.943 53.642 56.886 47.514 48.776 51.933 52.431 54.966 56.378 63.193 61.702 54.653 53.083 53.002 53.019 53.033 53.068 54.833 53.982 55.487 56.111 56.12 56.168 56.186 56.191 56.172 56.155 53.545 55.626 57.348 57.466 57.445 57.553 57.457 57.44 57.393 57.419 57.401 57.382 57.378 57.325 55.98 59.599 62.747 63.599 64.178 64.696 60.859 55.185 54.955 54.964 55.018 54.929 55.02 55.674 55.731 55.863 55.997 56.032 56.075 56.199 56.187 59.217 60.922 62.168 68.562 68.94 64.207 61.301 59.601 58.529 63.835 61.049 64.205 61.592 56.536 60.778 60.74 56.297 56.119 56.274 64.429 64.516 59.186 61.503 57.209 56.983 57.196 57.116 56.776 56.412 56.399 56.395 56.407 56.56 56.595 56.574 57.144 56.578 56.395 56.314 57.292 56.051 55.819 63.57 61.726 67.026 66.318 70.596 65.403 69.871 67.155 68.862 66.775 60.487 71.631 69.8 61.916 73.204 73.194 72.568 71.678 70.574 69.946 68.898 67.301 62.112 55.44 53.019 53.154 53.197 53.164 53.133 53.174
32.045 32.122 31.917 31.741 31.743 32.307 32.781 33.038 33.361 33.618 34.169 35.767 39.249 39.297 39.857 39.99 38.974 34.742 36.681 37.058 36.811 35.919 33.841 33.575 33.561 33.546 33.475 33.472 33.453 33.504 33.534 35.746 36.666 36.62 35.365 34.905 38.041 38.255 38.162 38.136 38.155 38.199 34.933 33.509 33.545 33.6 33.598 33.645 33.7 33.627 33.562 33.521 33.521 33.599 33.58 33.635 33.556 33.616 33.542 33.534 33.509 33.524 33.608 33.634 33.777 33.926 34.041 33.898 33.894 34.191 34.727 35.53 36.516 36.873 35.912 42.28 45.326 46.496 45.572 44.391 38.466 36.914 37.082 36.687 36.179 36.199 37.335 36.567 36.91 36.866 45.813 46.81 47.178 46.89 46.758 39.531 40.035 38.569 37.95 38.235 38.112 38.736 38.659 39.059 39.631 44.005 47.579 48.523 48.561 47.583 42.756 39.456 39.489 39.481 39.586 39.764 39.814 39.892 40.881 45.111 43.978 40.171 40.131 40.1 40.06 40.015 39.979 39.932 39.916 39.863 39.828 40.794 41.14 40.649 42.309 44.275 46.229 45.755 45.179 43.578 42.619 42.698 42.762 42.949 42.829 42.972 42.969 42.996 43.039 43.05 43.227 43.953 50.726 52.659 53.355 52.797 52.251 48.035 44.471 44.581 44.042 44.167 44.21 45.092 44.686 48.588 48.467 45.875 52.585 54.796 55.229 54.284 52.974 45.548 45.329 45.26 45.087 45.216 45.287 45.272 45.443 46.123 46.15 51.389 55.304 55.689 55.414 54.458 49.63 47.15 46.624 46.853 47.565 45.473 45.505 45.468 45.443 45.459 45.429 45.375 45.32 45.302 45.624 45.076 45.134 45.065 45.16 45.13 45.441 45.65 45.701 45.81 45.737 45.353 46.855 47.261 47.506 45.844 44.472 43.986 43.968 43.91 47.331 47.341 47.38 48.287 49.323 50.44 49.93 48.745 50.813 52.399 53.734 53.108 51.431 46.159 43.827 43.771 52.223 54.016 46.172 43.847 43.793 43.631 42.882 42.693 42.742 44.138 46.389 47.273 50.399 51.979 52.673 52.281 52.113 47.248 42.761 42.925 42.928 42.67 42.551 42.575 42.686 42.97 42.79 42.731 44.517 46.448 43.339 43.692 43.458 43.429 43.589 44.48 44.758 44.774 44.813 44.585 43.913 43.72 51.713 52.598 47.695 43.958 43.97 44.036 44.069 44.209 44.23 43.945 43.928 44.825 47.042 48.597 54.132 53.766 51.773 46.582 44.45 44.902 44.474 46.703 44.541 44.72 45.038 51.625 59.512 61.81 63.65 62.767 56.658 53 53.817 52.972 53.015 52.983 53.053 53.05 53.206 53.764 54.025 56.037 56.141 56.184 56.211 56.215 53.988 53.126 53.168 55.085 57.43 57.503 57.469 57.546 57.412 57.42 57.43 57.414 57.425 57.414 57.396 56.898 58.156 60.274 62.631 62.611 59.003 54.997 54.901 54.874 54.936 54.854 54.796 54.943 55.587 55.718 55.736 55.876 55.81 55.948 56.295 58.179 62.242 62.32 58.101 68.552 65.795 60.616 64.319 59.095 60.177 61.222 69.633 59.015 62.484 57.09 58.849 59.323 57.143 56.129 63.489 65.885 67.168 69.065 57.866 56.986 56.034 56.469 57.602 63.255 57.372 56.682 56.565 56.447 56.429 56.522 56.396 57.368 56.658 56.285 56.203 57.059 56.1 56.006 63.63 67.997 64.737 61.163 66.316 72.613 70.481 63.688 61.771 68.655 62.506 72.447 64.824 72.551 70.74 73.563 72.958 69.804 67.811 69.757 67.544 66.054 58.254 53.07 53.112 53.091 53.09 53.122 53.098 53.111
31.935 31.864 32.111 32.042 31.737 32.301 32.495 32.568 32.848 34.075 34.326 34.633 34.271 34.09 35.189 38.971 35.314 36.132 36.911 36.99 36.236 34.688 36.137 34.027 33.529 33.523 33.478 33.44 33.433 33.447 33.491 34.178 36.523 36.662 33.813 33.458 34.368 38.138 38.147 38.13 38.189 38.138 33.883 33.466 33.467 33.542 33.508 33.531 33.583 33.606 33.602 33.581 33.483 33.519 33.519 33.499 33.563 33.579 33.577 33.622 33.72 33.545 33.525 33.502 33.594 33.676 33.758 33.642 33.749 33.948 34.076 34.296 35.195 35.64 35.981 44.313 45.735 46.273 44.848 40.282 35.861 37.282 36.417 36.399 35.827 35.932 36.111 36.152 36.912 36.622 45.202 46.667 47.2 47.821 46.61 37.943 37.567 37.605 38.21 37.741 37.874 37.954 38.333 39.492 38.988 47.1 48.154 48.803 48.454 47.199 41.348 39.495 39.439 39.301 39.402 39.54 39.573 39.621 41.514 42.926 41.611 40.039 39.957 39.946 39.895 39.922 39.815 39.834 39.778 39.713 40.052 41.569 40.959 39.887 41.843 44.906 46.472 46.346 46.629 43.576 45.133 42.92 45.4 43.255 42.672 42.74 42.844 42.812 42.953 42.929 42.966 42.971 43.168 50.727 48.056 52.331 52.338 47.423 44.307 44.819 43.872 43.949 43.995 44.373 44.111 44.59 44.907 46.657 53.056 53.772 54.016 53.151 49.134 46.349 45.418 44.91 44.894 45.041 45.437 45.385 45.656 45.487 46.645 52.935 54.923 55.846 55.09 54.141 48.738 46.953 47.303 46.434 46.017 45.33 45.349 45.37 45.454 45.345 45.386 45.237 45.235 45.167 45.07 45.007 44.963 44.978 44.908 45.066 45.44 45.554 45.647 45.784 45.602 45.442 45.304 46.537 44.933 44.019 44.052 44.032 43.903 43.914 46.456 47.347 47.364 47.804 49.576 50.355 49.842 48.744 51.236 53.115 54.587 52.477 50.863 46.498 43.921 43.855 45.368 44.344 43.788 43.756 43.72 43.638 42.692 42.627 42.679 42.89 47.166 49.366 50.395 51.958 52.533 52.109 50.915 46.446 42.458 42.567 43.708 42.866 42.393 42.52 42.544 42.587 42.61 42.667 45.021 45.866 43.546 48.088 44.945 43.493 43.451 44.268 44.759 43.925 43.705 43.88 43.898 46.744 52.474 52.519 49.224 43.832 43.886 43.999 44.078 44.153 44.203 44.137 44.077 44.039 44.43 51.854 54.345 54.333 50.655 44.403 44.586 51.928 50.051 44.764 44.589 44.73 45.12 56.411 61.159 53.944 61.913 53.131 53.047 52.915 52.914 52.937 52.967 52.927 52.983 53.002 53.036 53.046 53.215 53.093 54.038 56.177 56.219 56.137 53.382 53.154 53.24 53.608 57.267 57.527 57.457 54.716 54.532 57.416 57.462 57.436 57.403 57.424 57.408 57.426 57.423 57.402 58.61 55.841 55.376 55.617 54.821 54.665 54.75 54.764 54.698 54.802 55.35 55.848 55.453 55.687 55.713 55.977 59.859 62.148 62.423 62.516 61.567 70.283 71.122 65.961 72.228 68.137 59.714 68.206 68.852 66.667 60.458 59.79 61.21 58.625 56.262 64.05 70.365 65.335 65.13 67.545 65.884 57.64 57.862 55.988 56.066 65.13 61.545 61.62 56.688 57.222 56.994 56.587 56.614 56.635 56.251 56.247 56.331 57.105 56.761 60.6 58.901 69.436 66.073 70.743 71.845 70.902 66.515 59.106 71.424 69.914 70.615 70.327 75.101 73.459 73.615 72.362 72.995 72.633 72.404 68.67 64.16 60.78 53.96 53.081 53.097 53.051 53.051 53.091 53.089 53.094
31.19 31.697 32.053 31.948 32.042 31.985 32.237 32.267 36.403 38.023 35.047 35.595 34.539 34.648 34.273 35.229 33.887 33.791 35.707 36.556 36.253 36.196 34.744 33.783 33.482 33.476 33.442 33.403 33.409 33.421 33.437 33.428 34.022 34.923 33.464 33.36 36.853 38.167 38.118 38.127 38.193 35.174 33.942 33.76 33.533 33.435 33.444 33.465 33.502 33.536 33.566 33.573 33.576 33.567 33.458 33.484 33.517 33.529 33.609 33.543 33.599 33.548 33.579 33.506 33.525 33.53 33.587 33.55 33.593 33.767 33.828 33.958 35.682 35.383 41.302 44.427 44.89 44.76 44.722 40.066 35.848 38.269 35.97 35.523 35.58 36.177 35.86 36.957 36.799 41.264 45.698 46.531 46.977 46.89 44.546 38.079 37.587 37.385 38.573 37.527 37.667 38.024 38.231 39.555 39.893 47.163 48.18 48.737 48.262 47.567 40.268 39.517 39.554 39.027 39.132 39.252 39.325 39.418 39.552 43.233 45.455 41.445 40.019 39.877 39.821 39.848 39.777 39.764 39.703 39.641 39.69 39.866 40.149 40.05 43.052 43.554 42.824 45.865 45.494 46.458 47.5 48.067 47.233 48.833 44.427 42.595 42.673 42.714 42.87 42.823 42.879 42.941 42.978 43.056 44.865 50.45 48.015 45.349 44.324 43.801 43.62 43.707 43.783 44.646 43.949 44.815 45.623 51.879 53.328 54.011 53.654 52.517 45.488 45.46 46.149 44.599 44.755 44.831 45.372 45.56 45.402 46.223 49.132 53.461 54.399 54.741 53.979 54.503 46.373 47.606 45.82 45.113 45.27 45.18 45.118 45.159 45.296 45.274 45.168 45.098 45.11 45.103 45.021 44.916 44.886 44.883 44.799 45.433 45.545 45.521 45.651 45.565 45.398 45.008 44.382 44.097 44.042 43.966 44.004 43.914 43.911 43.923 45.581 47.352 47.374 47.341 49.136 51.189 51.615 50.701 51.343 52.896 53.854 52.328 48.939 47.492 43.928 43.869 43.824 43.798 43.707 43.737 43.644 43.072 42.472 42.467 43.657 44.5 43.14 48.106 50.241 51.949 52.276 51.492 50.142 43.767 43.386 44.018 44.032 42.344 42.301 42.426 42.41 42.467 42.443 42.559 43.349 43.543 45.645 52.566 52.723 51.631 45.969 45.862 43.836 43.925 43.638 44.241 43.632 44.89 51.988 52.446 49.738 44.765 43.946 43.985 44.069 44.102 44.1 44.192 44.141 44.094 48.006 51.054 53.174 52.83 45.151 44.275 49.485 53.556 51.334 49.403 44.882 45.088 45.011 44.944 48.387 52.21 53.997 57.61 59.08 56.861 52.924 52.883 52.874 52.895 52.91 52.966 52.984 52.997 53.055 53.116 53.847 53.372 55.7 54.046 56.399 53.254 53.839 55.556 57.476 57.488 55.245 54.336 54.336 54.439 56.948 57.413 57.473 57.465 57.45 57.448 57.425 57.423 55.866 54.488 54.877 55.459 54.788 54.545 54.615 54.642 54.56 54.537 54.815 54.973 55.206 55.24 55.292 59.135 61.519 62.188 62.744 62.15 59.963 60.24 63.601 71.66 71.28 64.376 69.303 69.302 71.159 68.515 64.018 65.693 62.008 57.006 61.469 68.195 66.007 70.731 69.653 68.934 68.05 60.639 63.539 56.455 69.999 69.135 70.832 68.593 59.333 55.782 55.777 56.24 57.357 57.095 56.929 56.523 56.935 57.275 55.565 56.689 62.386 70.992 69.257 71.174 73.541 70.638 71.349 72.615 65.723 73.663 72.784 73.645 72.956 72.482 72.967 72.331 71.794 72.197 67.235 63.286 59.147 53.08 53.083 53.06 53.057 53.016 52.97 53.005 53.049 53.055
30.133 30.915 31.903 31.546 32.227 32.19 32.52 35.258 38.837 40.314 35.649 35.982 35.755 36.155 35.672 35.903 35.817 35.136 34.319 33.712 37.217 38.569 42.698 34.853 33.515 33.468 33.44 33.393 33.384 33.374 33.369 33.359 33.365 33.387 33.386 35.901 38.2 38.106 38.077 38.172 38.106 34.245 33.851 33.518 33.426 33.322 33.323 33.406 33.461 33.513 33.522 33.517 33.599 33.628 33.526 33.513 33.447 33.483 33.569 33.538 33.57 33.556 33.57 33.566 33.547 33.498 33.424 33.441 33.48 33.528 33.598 34.568 35.014 35.323 43.191 44.535 45.335 44.775 44.607 36.196 35.356 35.928 35.342 35.267 35.367 36.624 35.722 36.102 36.813 42.23 45.753 46.984 46.99 46.78 40.795 37.18 38.364 37.177 37.246 37.275 38.014 37.989 37.776 37.717 41.516 45.891 47.35 48.795 48.158 46.779 39.981 39.227 38.785 38.765 38.964 38.996 39.08 39.224 39.559 42.268 46.521 44.764 43.975 41.241 40.718 39.86 39.768 39.795 39.673 39.67 39.696 39.811 39.937 43.885 43.838 43.493 43.263 42.936 41.492 40.556 47.604 48.434 48.444 47.913 46.009 42.762 42.579 42.588 42.662 42.681 42.771 42.856 42.854 42.903 42.979 43.423 43.132 44.741 44.357 43.351 43.362 43.502 43.59 44.273 44.138 43.941 44.502 51.522 53.42 54.003 53.148 52.025 44.982 45.096 44.876 45.355 44.846 44.605 45.17 44.888 47.379 46.73 47.189 53.836 54.593 54.521 53.451 48.929 45.25 46.98 46.535 45.397 44.94 44.942 44.908 45.815 45.2 45.334 46.482 44.99 44.895 44.94 44.92 44.891 44.77 44.683 44.647 45.388 45.52 45.501 45.551 45.316 44.95 44.379 44.057 44.062 43.978 43.987 43.954 43.901 43.874 43.889 44.673 47.264 47.334 47.351 49.767 51.266 52.773 52.707 52.405 53.215 53.723 52.946 51.21 47.253 47.141 46.674 43.794 43.643 43.612 43.676 43.568 43.594 42.352 42.341 42.792 43.066 47.436 49.972 51.061 52.112 52.283 51.885 49.389 42.932 43.289 48.025 44.371 42.196 42.295 42.326 42.373 42.381 42.366 42.479 43.105 44.286 49.167 52.386 53.643 54.497 53.912 51.713 50.192 43.643 43.608 44.217 43.519 48.773 52.318 52.336 50.377 46.784 44.121 43.947 44.023 44.135 44.146 44.199 44.202 44.237 47.551 49.64 51.118 47.667 44.216 44.29 51.867 54.301 53.624 54.01 46.767 45.127 45.203 46.106 45.471 45.337 57.606 61.997 61.575 56.824 52.903 52.853 52.82 52.886 52.876 52.906 52.926 52.951 52.989 52.983 53.048 53.086 56.28 59.633 59.309 56.879 53.814 57.179 57.437 57.447 54.353 54.372 54.781 54.441 54.365 56.785 57.485 57.472 57.44 57.451 57.369 56.814 54.418 59.922 57.235 57.614 55.842 54.526 54.434 54.509 54.433 54.411 58.079 58.996 59.093 59.348 59.611 61.028 62.009 62.173 62.788 60.302 59.25 59.266 59.427 67.937 66.452 62.207 65.594 68.352 65.179 64.664 60.577 64.708 62.38 58.46 61.213 62.94 70.758 72.084 73.322 64.848 70.239 63.572 64.364 58.77 63 72.861 73.776 69.586 62.969 55.71 55.715 55.62 55.621 55.616 55.879 55.908 56.06 55.756 55.589 58.35 65.023 67.132 69.913 72.84 63.339 71.373 64.335 70.875 57.771 68.069 64.647 60.717 67.472 70.464 71.545 72.941 73.249 71.264 70.237 62.644 57.99 53.106 53.084 53.035 53.048 52.996 52.961 52.97 52.981 52.917
31.885 30.471 31.172 31.538 32.651 32.041 31.379 36.807 37.123 37.42 36.92 35.24 35.014 34.346 33.945 34.472 34.816 35.823 35.075 35.12 38.116 41.365 41.61 34.821 33.545 33.488 33.362 33.357 33.369 33.331 33.324 33.305 33.296 33.29 33.402 34.447 37.109 37.842 38.041 38.062 34.416 34.231 33.647 33.306 33.324 33.248 33.269 33.351 33.415 33.455 33.487 33.479 33.613 33.713 33.742 33.659 33.578 33.445 33.454 33.467 33.487 33.496 33.523 33.531 33.538 33.522 33.506 33.494 33.447 33.448 33.521 34.056 34.394 34.649 43.592 44.882 45.12 45.856 42.507 35.8 35.3 35.024 34.9 34.964 35.057 35.158 35.515 35.593 35.811 43.148 45.311 46.818 46.144 45.625 37.934 37.115 37.364 37.91 36.918 37.003 37.144 38.163 38.05 37.997 39.529 46.279 47.169 47.054 46.205 41.349 38.745 39.182 38.622 38.532 38.657 38.78 38.866 40.541 39.199 39.296 40.168 40.833 43.764 42.757 43.473 41.66 42.536 40.28 39.705 39.709 39.781 39.815 40.007 44.331 44.43 44.112 43.778 43.359 43.094 42.164 47.102 47.614 47.659 47.325 47.174 46.221 43.299 42.605 42.496 42.439 42.572 42.68 42.697 42.813 42.847 43.136 44.846 44.012 43.147 43.108 43.218 43.268 43.265 43.467 43.742 43.95 44.763 52.97 53.693 53.905 53.209 50.473 45.136 45.942 44.412 44.87 44.366 44.411 45.498 44.607 45.053 45.921 51.467 54.517 55.267 54.292 52.976 46.196 45.01 45.492 44.954 45.211 44.794 44.733 44.852 45.381 45.131 48.616 52.508 49.343 45.092 44.725 44.763 44.761 44.699 44.558 44.477 44.788 45.479 45.42 45.386 45.047 44.632 44.099 44.072 44.089 43.956 43.969 43.885 43.85 43.889 43.855 46.755 47.378 47.299 47.374 49.679 51.421 53.445 53.659 53.735 53.919 53.881 52.782 51.02 47.441 47.378 44.841 43.636 43.564 43.53 43.545 43.474 42.404 42.221 42.199 42.428 43.46 46.289 50.086 51.232 52.395 51.671 50.719 47.913 43.389 43.107 48.138 45.621 42.067 42.173 42.263 42.28 42.266 42.234 44.827 45.205 45.043 49.29 52.467 53.884 54.548 53.605 52.206 46.471 44.813 43.581 43.508 43.463 44.845 50.895 51.062 50.167 50.136 48.881 44.229 44.011 44.056 44.182 44.221 44.253 44.291 44.299 44.707 44.174 44.249 44.264 44.453 53.423 54.901 54.406 55.269 53.031 49.04 46.959 47.349 46.932 47.788 57.17 58.915 59.556 58.228 54.02 52.854 52.778 52.825 52.807 52.88 52.866 52.882 52.921 52.991 52.993 52.989 56.08 62.392 59.23 55.907 55.682 57.357 57.387 57.01 54.958 54.29 54.398 54.386 54.415 57.49 57.496 57.479 57.484 57.471 55.853 54.501 55.947 55.807 58.981 65.078 57.758 58.285 54.55 54.345 54.334 54.253 55.441 61.661 61.834 61.525 61.421 61.497 61.494 61.387 60.157 56.331 54.294 55.322 57.101 58.483 58.674 59.687 62.884 64.81 60.876 58.716 61.846 60.907 62.158 62.886 62.736 68.16 73.493 72.474 66.743 71.486 68.492 62.569 60.134 60.767 71.893 72.646 69.336 70.104 59.093 55.745 55.683 55.622 55.848 65.771 56.296 57.986 55.8 55.556 55.532 57.209 70.342 60.564 68.451 71.716 71.591 75.322 62.422 74.27 63.764 71.103 71.866 71.438 65.4 72.937 68.462 73.252 70.344 72.184 72.285 62.014 65.264 54.625 53.073 53.044 53.052 52.999 52.97 52.949 52.932 52.916
32.388 31.983 31.595 30.416 30.22 30.851 31.275 35.139 34.639 36.012 34.386 36.137 36.861 36.47 33.639 33.585 36.741 34.418 33.777 35.929 37.673 40.893 42.1 36.188 38.073 33.549 33.363 33.341 33.32 33.295 33.277 33.252 33.226 33.231 33.346 33.605 33.678 34.306 37.213 35.721 34.202 34.235 33.828 33.364 33.227 33.229 33.275 33.294 33.338 33.414 33.45 33.503 33.652 34.298 33.853 33.791 33.695 33.645 33.54 33.458 33.426 33.488 33.496 33.526 33.54 33.503 33.519 33.488 33.467 33.47 33.454 33.901 33.774 39.502 44.175 44.647 44.834 44.368 39.301 36.437 36.402 34.758 35.217 34.716 34.854 34.912 35.563 35.679 38.36 45.055 45.303 45.719 45.247 43.917 39.142 37.942 37.072 37.367 36.646 36.838 37.77 38.08 37.997 38.372 45.212 46.167 47.272 46.714 45.621 38.702 38.316 38.456 38.2 38.339 38.431 38.54 38.75 39.575 40.777 40.436 40.845 42.546 41.613 42.186 43.182 42.364 45.215 43.828 41.134 40.026 41.498 41.216 43.463 43.737 43.985 44.331 44.265 44.046 43.566 43.326 43.939 40.571 43.592 42.34 42.591 42.944 43.03 43.217 43.38 42.941 42.549 42.433 42.557 42.61 42.657 42.731 42.762 43.136 42.894 42.951 42.999 43.088 43.054 43.313 44.241 44.458 50.179 52.806 53.83 53.621 52.47 48.192 44.373 44.749 44.104 44.043 44.089 44.175 44.607 44.825 44.702 45.643 52.032 54.365 54.775 54.31 52.873 46.614 46.808 46.67 44.705 44.535 44.571 44.974 44.654 44.84 44.856 48.731 52.815 54.068 50.487 45.729 44.567 44.525 44.612 44.499 44.379 44.322 44.532 45.245 44.982 44.785 44.138 44.062 44.067 44.001 43.955 43.918 43.817 43.851 43.797 43.753 43.924 47.315 47.322 47.319 49.676 51.562 51.883 53.383 52.746 52.802 52.88 52.617 50.283 47.463 47.366 45.562 43.55 43.495 43.45 43.459 42.835 42.048 42.048 42.622 42.633 43.481 43.089 50.402 51.567 52.04 51.403 50.163 43.321 44.72 44.213 43.488 42.186 42 42.041 42.14 42.132 42.14 44.757 47.375 50.171 46.916 43.499 43.387 46.416 48.497 52.995 52.246 51.12 45.955 44.121 44.42 43.724 44.412 48.428 49.535 50.075 50.1 50.231 47.02 44.088 44.065 44.133 44.221 44.282 44.32 44.363 44.342 44.273 44.264 44.295 48.768 53.509 54.22 54.929 54.259 53.639 52.98 49.364 47.658 47.969 56.649 58.758 59.494 58.516 58.447 58.022 54.267 52.804 52.879 52.818 52.836 52.868 52.907 52.871 52.893 52.912 54.288 53.207 55.22 53.317 55.472 57.403 57.389 57.372 57.415 57.424 56.614 55.454 54.351 56.596 57.537 57.502 57.504 57.497 57.419 54.85 59.752 60.41 61.35 62.988 66.369 67.03 62.441 55.133 54.156 54.16 54.157 57.904 61.691 61.877 62.239 62.434 62.342 58.476 57.136 56.331 55.709 55.32 59.586 56.356 56.327 56.369 56.484 56.743 58.346 57.393 57.428 57.601 58.311 58.717 60.994 59.61 71.225 72.292 73.367 65.796 71.363 64.752 67.136 67.762 63.305 65.03 71.113 70.274 60.556 63.291 55.827 55.634 62.415 67.241 66.077 63.637 65.679 57.606 64.928 55.606 62.098 71.012 66.631 69.825 74.001 71.559 60.717 71.702 70.069 66.286 65.103 72.676 67.503 63.97 71.786 72.958 73.602 67.705 73 70.329 69.655 60.736 53.347 53.092 53.06 53.026 52.967 52.962 52.963 52.899 52.936
32.11 32.03 31.843 31.847 30.662 30.06 30.674 33.057 35.159 32.594 32.259 35.265 36.683 34.513 34.835 35.19 36.453 32.778 33.053 33.83 33.371 34.899 40.281 41.356 40.098 34.033 33.481 33.216 33.28 33.217 33.253 33.179 33.194 33.173 33.198 33.25 33.251 33.494 33.757 33.401 33.67 33.29 33.284 33.287 33.219 33.194 33.292 33.294 33.283 33.379 33.427 33.476 33.911 33.685 33.667 34.116 34.488 33.986 33.66 33.552 33.456 33.454 33.464 33.466 33.504 33.455 33.543 33.472 33.489 33.476 33.425 33.475 33.537 34.394 43.637 45.007 44.713 44.516 38.099 34.861 38.317 35.04 34.755 34.476 34.679 34.689 35.344 36.291 41.483 44.543 45.54 45.599 44.873 43.458 37.556 36.728 36.578 36.449 36.453 36.637 36.754 38.814 37.229 42.359 46.507 46.741 47.404 46.195 45.113 39.549 38.658 38.055 37.984 38.147 38.178 38.252 38.492 39.516 39.945 41.63 42.645 45.53 47.718 45.794 39.71 39.609 40.906 40.958 40.377 40.324 43.013 42.937 42.887 43.06 43.468 43.724 44.043 44.334 44.126 43.901 43.784 42.746 42.068 42.67 39.951 39.79 40.786 42.882 45.552 45.005 43.184 42.95 42.582 42.387 42.555 42.55 42.596 42.726 42.664 42.703 42.865 42.869 42.874 43.156 43.384 43.545 50.233 52.247 53.086 53.191 52.033 44.993 44.023 43.932 43.796 43.821 43.923 44.425 44.272 45.187 45.321 51.317 53.631 54.296 54.796 53.464 49.541 45.477 47.943 47.677 45.289 44.399 44.36 45.17 44.531 44.798 44.787 50.65 52.942 54.072 53.69 50.631 44.604 44.348 44.337 44.367 44.344 44.234 44.152 45.095 44.699 44.145 44.069 44.006 43.997 43.904 43.899 43.862 43.775 43.768 43.685 43.673 45.387 47.313 47.523 47.525 47.948 48.297 51.211 52.946 51.774 50.894 51.293 51.453 48.723 47.386 47.231 44.304 43.435 43.394 43.331 43.405 42.731 41.932 41.958 42.452 42.458 47.754 49.263 50.61 52.122 52.053 51.821 51.305 43.439 42.481 42.453 42.521 41.958 43.163 42.02 42.073 42.012 42.022 47.736 48.48 48.857 48.697 47.32 46.085 43.222 43.224 43.221 45.604 48.851 49.561 43.658 43.958 43.334 46.511 47.913 50.013 50.045 50.052 50.132 47.629 44.164 44.065 44.11 44.208 44.303 44.359 44.375 44.43 44.383 44.424 44.405 49.705 53.707 54.723 54.299 54.852 54.797 54.178 53.322 49.819 46.784 54.887 58.031 54.715 59.425 61.929 60.465 56.992 53.665 53.353 52.888 52.79 54.681 54.897 52.899 52.867 52.879 53.053 53.364 53.268 53.155 53.433 56.727 57.309 57.341 57.377 57.397 57.413 57.46 56.663 57.512 57.507 57.498 57.52 57.478 54.78 63.903 64.233 58.465 63.359 66.693 67.588 67.635 62.419 55.406 53.964 54.01 53.948 58.253 60.458 60.665 60.872 61.033 60.944 56.647 54.901 56.432 56.311 61.085 59.767 56.999 54.802 54.54 54.363 57.364 58.153 56.503 55.767 56.711 57.092 57.256 57.846 58.352 63.087 71.649 71.521 71.764 68.757 73.24 60.923 60.133 65.105 69.126 70.098 61.306 67.451 56.109 55.7 55.991 69.47 72.598 73.172 73.14 66.978 71.2 66.314 58.934 64.114 65.447 71.314 68.547 66.634 69.773 68.472 71.723 65.617 69.875 69.605 74.057 70.995 70.367 68.669 70.309 72.917 73.75 73.063 72.114 66.166 54.409 53.164 53.177 53.062 53.009 53.013 53.031 53.016 52.997 53.029
31.942 32.179 31.822 31.38 31.145 30.877 30.52 30.191 31.375 30.629 30.852 31.648 31.858 30.716 31.515 31.782 32.536 32.166 31.64 32.365 32.3 32.616 34.553 36.084 39.545 38.637 34.6 33.577 33.343 33.245 33.241 33.265 33.173 33.144 33.128 33.14 33.165 33.168 33.213 33.16 33.404 33.387 33.189 33.201 33.201 33.2 33.322 33.329 33.338 33.419 33.48 35.703 34.802 34.148 33.618 33.709 33.719 34.277 34.133 33.804 33.711 33.481 33.426 33.428 33.51 33.53 33.485 33.443 33.472 33.495 33.485 33.501 33.437 33.436 35.374 42.72 43.367 43.385 35.407 34.647 34.683 34.254 34.258 34.237 35.397 34.589 35.55 35.021 41.262 45.282 45.805 45.531 44.484 39.154 38.358 38.001 36.64 36.406 36.178 36.863 36.546 38.79 38.328 42.31 46.676 46.868 47.206 45.842 43.75 39.549 38.966 37.835 37.687 37.922 37.96 38.127 39.676 39.33 41.919 39.761 41.666 42.917 42.439 42.599 39.706 39.753 39.947 40.021 39.865 39.877 42.799 43.049 42.76 42.572 42.789 43.239 43.537 43.838 44.094 44.403 44.374 44.685 44.59 43.638 41.249 40.565 39.92 41.795 45.825 45.717 43.181 45.661 48.121 46.422 45.995 42.364 42.401 42.52 42.458 42.538 42.658 42.583 42.713 43.54 43.96 43.512 52.125 52.279 52.796 51.738 51.058 45.486 44.062 43.67 43.59 43.711 43.693 44.629 43.921 44.29 44.706 50.831 52.737 53.611 54.268 53.126 46.451 46.404 47.179 46.49 44.688 44.209 44.502 44.35 44.985 44.636 48.564 52.29 53.9 54.15 53.147 51.933 44.55 44.283 44.147 44.17 44.206 44.112 44.17 44.29 43.918 43.975 43.938 43.918 43.899 43.872 43.898 43.766 43.716 43.658 43.608 43.62 43.494 44.491 46.298 46.664 47.307 50.136 49.855 53.113 51.397 49.286 48.077 48.004 48.204 47.621 47.271 43.923 43.37 43.332 43.35 43.314 42.264 41.844 43.055 43.491 42.224 44.101 49.497 50.706 51.931 51.84 50.659 47.697 42.809 42.437 43.271 42.167 41.825 42.088 41.89 41.913 41.886 41.954 47.903 49.475 49.01 49.32 48.949 44.598 43.495 43.251 43.199 43.207 43.275 43.764 43.57 43.463 43.357 46.95 49.197 50.003 50.1 50.092 50.136 50.11 44.533 44.07 44.083 44.162 44.228 44.351 44.341 44.485 44.471 44.476 44.467 44.518 49.92 53.598 53.98 54.546 55.307 54.882 54.79 53.407 50.118 50.914 53.806 52.756 60.798 62.106 59.956 57.149 55.248 58.663 53.835 53.09 53.724 53.976 53.264 53.604 52.903 53.409 54.621 53.518 53.38 53.635 53.973 59.32 57.281 57.319 57.324 57.398 57.386 57.469 57.503 57.452 57.472 57.511 55.99 57.578 63.939 64.713 62.837 66.249 69.027 69.792 69.513 67.899 63.548 53.966 53.756 53.829 53.897 53.94 55.693 56.015 58.666 55.792 54.622 55.33 56.398 56.209 56.9 58.368 55.856 55.299 54.394 54.346 58.955 57.268 54.555 54.546 54.83 57.464 57.357 57.673 57.474 56.019 61.752 69.929 70.569 62.141 69.232 63.363 57.867 66.513 69.147 70.033 69.176 63.855 58.406 55.715 65.993 73.16 73.154 70.963 62.873 71.38 71.61 67.99 63.251 63.121 65.124 69.23 62.259 71.196 67.135 72.988 73.034 71.267 72.43 72.343 71.766 63.914 70.262 68.659 70.26 69.981 71.905 72.936 72.29 68.841 53.65 55.728 56.868 55.652 53.09 52.997 53.028 53.087 53.117 53.137
35.024 37.729 36.173 38.044 33.954 32.306 32.657 31.542 30.875 30.671 30.487 30.198 30.374 30.166 30.833 30.804 31.141 30.702 31 31.399 31.692 31.717 32.278 33.315 38.704 38.096 37.656 39.844 33.73 33.231 34.905 34.062 33.133 33.114 33.115 33.12 33.501 33.31 33.127 33.099 33.115 33.135 33.164 33.197 33.213 33.253 33.365 33.314 33.739 34.018 36.019 37.527 37.147 36.535 34.626 33.838 33.69 33.72 34.087 34.236 33.924 33.646 33.425 33.398 33.382 33.351 33.392 33.437 33.5 33.527 33.491 33.501 33.471 33.404 33.4 33.433 37.532 37.778 34.821 34.823 34.089 34.809 33.94 34.329 37.19 36.489 36.524 35.692 42.708 45.087 45.751 45.343 43.932 38.73 38.535 37.802 36.528 35.837 35.994 37.017 36.17 37.451 39.112 43.501 46.78 47.213 46.833 45.473 39.21 37.7 37.677 37.647 37.713 37.625 37.747 37.832 39.284 40.922 42.397 40.86 39.573 39.57 39.632 39.589 39.598 39.666 40.175 40.128 42.254 42.797 43.224 43.312 43.316 42.978 42.598 42.641 43.039 43.381 43.724 43.946 45.099 45.548 45.065 44.867 44.488 43.848 41.84 41.58 41.47 41.679 40.083 44.691 47.523 47.576 46.556 43.639 42.353 42.289 42.252 42.416 42.432 43.139 42.553 43.214 43.291 48.586 51.966 52.502 52.554 51.396 45.981 43.366 43.957 43.464 43.4 43.531 43.453 43.588 44.857 44.692 45.295 50.596 53.071 53.446 52.775 51.709 47.612 47.934 47.365 44.783 43.989 44.025 45.151 44.227 44.489 44.432 49.186 53.34 54.446 54.66 53.326 46.917 44.342 44.312 44.275 43.97 44.067 44.081 44.003 43.834 43.739 43.768 44.045 43.881 43.856 43.824 43.797 43.737 43.662 43.651 43.583 43.581 43.519 43.993 43.991 44.303 43.467 43.472 44.419 44.397 44.753 44.545 46.443 47.316 47.32 47.429 45.247 43.403 43.359 43.301 43.293 43.276 41.706 41.726 43.063 42.631 43.14 46.249 50.043 51.017 51.935 51.186 49.813 44.755 44.216 42.624 43.219 41.983 42.374 41.8 41.779 41.851 41.799 41.837 42 43.269 43.483 44.761 47.002 42.973 43.056 43.192 43.181 43.211 43.198 43.256 43.331 43.29 43.163 43.223 45.54 49.837 50.051 49.952 50.005 50.09 43.991 44.087 44.131 44.157 44.198 44.286 44.399 44.477 44.534 44.584 44.599 44.593 44.573 45.381 51.933 54.119 54.659 55.254 55.109 54.295 53.554 55.131 52.935 53.467 54.742 60.567 58.947 56.137 57.374 61.517 58.888 62.403 55.74 55.669 54.016 55.511 53.729 54.934 59.653 54.634 58.735 59.502 63.025 63.671 57.882 58.709 57.42 57.324 57.389 57.414 57.449 57.412 57.45 57.43 54.684 58.243 61.678 64.202 64.135 66.917 69.303 69.852 69.784 68.795 64.88 56.375 53.685 53.658 53.842 54.548 54.224 54.173 54.026 54.001 54.009 55.575 56.223 56.193 55.513 58.545 59.015 57.49 54.697 55.072 60.457 56.72 54.428 54.797 59.181 60.219 58.836 59.443 55.426 54.558 55.767 66.086 68.632 59.407 62.348 58.316 57.686 59.386 65.404 67.045 67.806 62.036 59.186 71.395 73.895 72.389 75.339 73.874 71.122 70.643 72.009 65.615 67.889 65.287 68.209 67.589 61.05 69.037 61.504 68.843 56.959 64.794 69.534 72.404 70.607 64.179 72.23 61.99 67.129 72.16 72.854 62.738 69.962 61.011 59.088 58.825 58.75 57.858 54.997 55.976 53.226 53.092 53.088 53.09
36.452 38.713 42.712 40.815 34.483 32.493 32.796 32.412 31.636 31.78 31.363 31.307 31.221 30.869 30.566 30.902 30.217 30.546 30.264 30.514 31.56 31.132 32.023 32.137 36.272 36.925 36.317 41.667 33.885 33.369 33.383 33.927 33.561 33.107 33.051 33.112 33.437 33.391 33.137 33.09 33.091 33.115 33.161 33.201 33.21 33.551 33.623 33.935 35.292 35.232 36.699 37.432 37.864 37.75 36.258 35.415 34.26 33.836 33.862 34.299 34.105 33.952 33.724 33.432 33.37 33.369 33.291 33.356 33.404 33.417 33.5 33.488 33.468 33.505 33.401 33.402 33.359 33.462 33.954 34.052 33.614 33.673 33.706 33.854 37.458 37.997 35.361 35.39 43.524 45.321 45.631 44.779 43.596 36.733 36.401 35.638 35.448 35.618 35.684 36.025 36.37 36.305 36.586 43.082 45.07 46.152 47.505 44.309 38.759 38.073 37.342 38.033 37.75 37.369 37.527 37.749 39.876 40.854 42.792 40.958 39.679 39.608 39.6 39.575 39.626 39.675 39.688 40.239 41.68 42.848 42.822 43.079 43.23 43.392 43.305 42.957 42.653 42.762 43.22 43.38 44.643 45.217 45.336 45.452 42.377 44.688 44.484 42.918 41.343 39.893 39.806 39.909 45.067 46.422 46.994 43.807 43.469 42.309 42.046 42.129 42.182 42.709 42.387 42.857 43.116 49.831 52.158 52.833 53.627 51.556 46.132 44.646 43.827 43.12 43.189 43.251 43.787 43.537 43.807 44.327 48.672 51.678 53.183 53.385 52.274 51.34 44.486 47.028 47.419 44.396 43.882 43.798 44.147 47.528 46.07 50.533 51.307 53.825 54.176 53.79 52.715 45.13 44.023 44.188 43.873 43.784 43.824 43.827 43.784 43.765 43.677 43.496 43.703 43.829 43.786 43.886 44.122 43.688 43.677 43.638 43.566 43.52 43.483 43.498 44.242 44.041 43.528 43.451 43.601 43.85 43.497 43.841 43.683 44.486 43.485 44.377 43.393 43.381 43.292 43.33 43.346 43.296 41.607 41.615 41.879 41.984 47.39 48.73 50.349 51.662 51.868 51.058 51.355 44.547 44.729 43.011 44.113 41.635 42.305 41.777 41.724 41.765 42.542 41.994 42.575 42.26 42.94 42.722 43.142 42.714 42.717 43.732 43.395 43.463 45.71 46.178 46.061 44.181 43.192 43.207 46.074 49.902 49.971 49.958 49.968 45.382 43.879 44.074 44.125 44.169 44.28 44.188 44.372 44.474 44.603 44.677 44.691 44.763 44.756 44.722 46.204 52.163 53.987 54.963 55.021 55.18 55.669 59.542 58.405 56.452 52.159 53.364 52.435 52.291 55.032 60.065 60.681 56.972 56.625 62.195 58.071 57.038 56.431 60.538 55.818 55.373 62.761 64.055 65.172 67.289 66.312 62.558 55.861 56.485 57.333 57.319 57.36 57.369 57.414 55.816 54.285 54.15 56.134 60.955 56.596 65.404 68.192 68.721 68.669 66.559 63.195 56.573 53.51 53.477 53.655 54.545 54.051 54.134 54.192 54.229 54.216 55.188 55.606 56.081 58.358 59.561 59.397 58.463 55.024 56.994 58.435 54.358 58.996 61.961 61.832 61.489 61.081 60.152 55.655 58.197 60.336 64.726 63.515 64.397 56.295 56.412 56.981 57.047 57.059 60.455 59.879 55.299 63.853 73.684 74.893 72.758 75.001 72.179 72.804 73.421 69.75 71.385 71.69 73.74 71.76 68.538 73.164 70.611 59.85 65.781 57.949 67.823 59.014 61.089 71.293 70.326 70.323 64.225 68.751 70.947 69.2 68.017 70.05 66.147 60.17 61.876 61.719 60.434 58.691 60.042 57.572 56.785 53.151 53.079
40.359 41.744 42.615 41.787 35.327 32.271 32.453 32.529 32.521 32.001 31.585 31.793 31.795 31.445 31.806 31.787 31.335 31.136 32.028 31.08 31.435 30.385 30.912 30.984 31.09 32.785 36.515 36.755 34.71 35.488 35.589 33.439 33.088 33.111 33.069 33.071 33.086 33.058 33.074 33.057 33.105 33.132 33.152 33.155 33.182 33.47 34.384 34.34 34.242 34.53 35.469 36.273 36.993 36.688 34.289 36.894 34.396 34.456 34.23 34.067 34.002 34.338 34.234 34.225 33.573 33.4 33.308 33.21 33.305 33.382 33.44 33.485 33.473 33.465 33.476 33.445 33.414 33.364 33.417 33.385 33.407 33.391 33.507 34.664 37.749 38.146 35.689 39.206 43.245 44.739 44.887 44.225 37.56 35.803 35.592 35.096 35.193 35.351 36.161 35.865 37.01 37.357 40.258 43.976 45.248 45.824 44.643 43.607 37.308 37.467 37.219 36.944 37.205 37.248 37.332 37.511 39.592 39.866 42.078 42.016 40.065 39.605 39.676 39.665 39.671 39.708 39.796 42.083 42.396 43.114 42.925 42.599 42.639 43.224 43.522 43.855 43.132 43.111 42.72 43.714 44.341 42.235 44.42 45.361 44.982 45.494 43.864 43.458 43.152 41.982 41.231 39.886 39.728 41.683 42.358 43.142 43.349 41.828 41.834 41.93 41.992 41.989 42.662 42.893 46.891 50.433 52.368 52.957 51.883 50.599 45.74 44.576 44.612 42.9 42.998 43.085 43.806 43.197 43.7 43.688 49.073 52.564 54.028 53.371 52.385 49.988 44.127 44.023 43.457 43.6 43.58 43.747 43.783 45.173 52.159 51.331 52.853 53.556 54.068 53.557 52.251 44.623 43.887 44.077 43.618 43.654 43.698 43.606 43.683 43.655 43.55 43.432 43.517 44.118 43.779 44.227 44.533 43.658 43.629 43.594 43.597 43.538 43.477 43.488 43.556 43.743 43.845 43.513 43.518 43.469 43.399 43.42 43.579 43.572 43.471 43.405 43.309 43.317 43.332 43.318 43.918 42.571 41.466 41.462 41.798 41.8 43 47.908 50.278 51.532 51.276 50.932 49.097 44.442 44.262 43.68 44.088 41.506 41.643 41.644 41.658 41.698 42.058 42.169 42.226 42.967 47.92 48.896 47.534 45.748 42.839 42.666 42.883 43.607 46.779 48.066 48.264 46.733 43.4 45.079 46.46 46.13 46.05 50.034 46.333 43.775 43.849 44.027 44.067 44.189 44.299 44.354 44.359 44.461 44.535 44.712 44.786 44.777 44.831 44.864 44.913 46.452 51.863 54.561 54.39 50.79 57.636 58.865 59.682 57.122 52.633 51.655 51.658 51.664 51.645 52.842 56.782 59.078 57.209 61.775 58.558 61.348 60.858 60.561 59.847 62.425 65.778 65.83 67.285 67.958 67.864 65.988 63.262 55.05 54.449 55.639 55.095 57.247 55.697 54.509 54.164 54.102 55.13 53.985 53.991 60.39 63.156 66.247 65.894 64.823 58.058 57.25 53.36 53.267 53.425 54.224 54.02 54.837 54.42 54.791 54.176 54.033 54.149 54.232 56.329 58.79 59.076 58.118 54.693 58.247 57.344 54.374 63.522 63.082 62.945 62.491 62.406 61.55 60.893 59.871 63.751 62.17 66.708 57.69 54.527 54.58 54.371 55.286 55.323 54.859 54.416 54.631 66.752 70.425 73.477 74.107 64.839 72.094 73.092 71.829 71.969 71.511 69.958 74.988 73.706 74.315 69.028 67.869 74.622 57.098 57.315 63.042 68.227 64.028 60.555 59.785 55.678 67.045 68.779 70.661 70.608 69.277 66.245 55.655 59.23 62.431 62.314 58.644 60.598 58.734 60.644 58.686 57.04 54.482
41.068 42.67 39.973 40.821 35.461 34.223 33.499 33.649 33.945 32.97 31.852 31.902 32.669 31.776 34.122 31.488 31.989 32.269 32.272 31.614 31.901 31.012 32.303 31.293 32.31 33.899 34.399 36.039 35.798 34.624 34.187 33.189 33.104 33.083 33.072 33.05 33.094 32.992 33.033 33.032 33.276 33.558 33.24 33.278 33.477 33.622 33.357 32.762 32.069 32.455 33.548 34.531 42.579 35.327 35.856 36.026 34.008 33.921 33.725 33.844 33.801 33.6 34.217 34.431 33.911 33.554 33.444 33.406 33.351 33.332 33.358 33.378 33.397 33.47 33.475 33.504 33.405 33.39 33.355 33.309 33.344 33.361 33.352 33.491 37.968 37.939 37.637 42.005 43.683 44.693 44.42 44.268 36.103 35.588 34.987 34.862 34.983 35.147 36.124 35.625 35.71 35.887 41.43 44.55 45.659 45.788 44.331 42.148 36.677 36.605 36.659 36.917 36.848 36.946 37.062 39.887 41.971 40.771 39.64 40.187 39.783 40.842 41.412 39.729 39.685 39.774 41.56 42.759 42.9 43.841 43.49 43.065 42.915 42.654 42.938 43.244 43.539 43.42 43.049 42.782 43.418 44.084 44.293 44.696 45.086 44.713 44.271 44.11 43.662 43.381 42.605 40.756 40.395 39.892 43.344 43.596 43.78 41.64 41.725 41.739 42.516 42.015 42.183 42.464 48.656 51.376 52.501 52.895 51.666 49.358 43.019 43.391 42.777 42.711 42.805 42.857 42.817 43.046 43.467 43.737 51.377 52.864 53.466 53.062 53.125 45.663 44.16 43.48 43.384 43.491 43.435 44.282 43.731 45.024 49.942 52.72 52.65 52.909 53.334 52.869 51.903 44.608 44.061 43.602 43.395 43.482 43.516 43.488 43.461 43.514 43.542 43.465 43.288 43.272 44.068 43.92 43.753 43.667 43.622 43.554 43.58 43.543 43.463 43.489 43.458 43.427 43.637 43.476 43.528 43.472 43.418 43.453 43.442 43.441 43.458 43.394 43.399 43.349 43.293 46.432 47.699 46.316 41.364 41.864 41.754 42.127 44.436 48.771 50.753 51.591 51.102 50.191 44.519 42.375 42.061 43.638 42.24 42.138 41.725 41.517 41.61 41.615 41.665 42.422 42.38 45.732 48.451 49.333 49.441 48.408 44.09 42.439 42.462 42.743 43.784 46.162 47.947 48.466 43.966 45.76 44.47 44.64 44.369 44.538 44.585 43.669 43.871 43.969 44.081 44.211 44.291 44.374 44.425 44.49 44.588 44.72 44.803 44.872 44.945 44.938 44.996 45.051 46.443 51.639 50.594 49.771 53.18 59.416 59.762 56.969 52.759 51.631 51.535 51.561 51.618 51.566 51.591 52.067 52.202 53.123 55.256 60.563 60.246 59.398 60.491 62.854 65.508 66.49 68.003 68.346 68.249 66.119 58.764 56.399 53.479 53.557 54.129 54.785 54.825 53.928 53.789 53.816 53.853 53.823 54.003 62.293 65.113 65.62 64.376 63.249 63.649 60.459 53.335 53.122 53.281 54.384 53.728 53.74 53.857 53.959 53.819 53.847 54.036 54.169 54.653 58.193 57.518 58.086 55.091 59.387 54.966 54.243 63.807 63.989 63.853 63.624 63.45 62.856 62.397 61.545 66.028 65.231 65.675 55.51 54.535 56.25 55.315 56.001 56.116 54.454 54.401 54.31 56.593 65.875 71.003 72.424 73.418 70.437 67.836 68.791 70.434 70.338 72.032 74.741 74.569 64.562 71.258 73.915 65.558 60.346 66.549 59.503 67.08 55.161 54.989 55.525 53.965 54.123 66.627 57.651 55.758 65.084 55.192 54.12 58.911 60.837 60.677 60.494 60.185 62.674 60.915 59.616 55.101 58.146
39.751 41.617 42.274 37.598 32.913 33.056 33.099 33.747 33.752 33.353 32.568 34.139 33.13 35.183 35.657 32.554 31.896 32.211 32.859 32.306 32.008 32.839 34.348 31.556 33.488 35.166 34.541 37.065 36.15 35.062 34.506 34.65 33.607 33.815 35.134 33.11 33.091 33.056 33.092 33.154 33.178 33.432 33.599 33.549 33.231 33.118 32.657 32.021 31.631 31.421 32.37 33.279 33.695 34.375 34.69 35.317 34.294 32.376 33.107 33.391 33.679 34.006 33.612 33.866 33.718 33.978 33.945 33.779 33.565 33.459 33.399 33.347 33.351 33.422 33.425 33.421 33.516 33.427 33.441 33.349 33.346 33.322 33.298 33.348 34.356 36.467 33.267 40.995 44.457 44.135 44.371 41.637 34.624 34.975 34.655 35.159 34.761 34.945 35.162 35.408 35.769 35.837 43.68 44.822 45.83 45.299 43.67 36.804 36.758 36.392 36.813 36.798 36.612 36.698 40.033 43.003 43.36 42.088 40.47 40.538 39.689 40 41.985 41.798 39.83 39.768 41.795 42.71 44.28 44.201 44.135 43.701 43.345 43.053 42.806 42.71 43.244 43.347 43.37 43.393 42.898 42.871 42.896 44.155 44.808 43.666 44.009 44.238 44.377 43.965 43.668 43.217 42.607 39.981 43.79 44.38 41.714 41.398 41.476 41.524 42.378 41.813 42.106 41.985 47.317 50.747 51.611 52.229 51.391 44.156 43.166 43.275 42.526 42.527 42.636 42.614 42.759 44.335 43.591 43.986 51.591 52.861 53.457 53.01 52.82 45.026 43.501 43.216 44.044 43.543 43.237 43.419 43.255 45.25 45.178 51.451 52.837 53.129 52.912 51.987 45.38 43.88 44.792 45.107 43.285 43.372 43.364 43.369 43.327 43.328 43.292 43.316 43.191 43.111 43.081 43.523 43.638 44.818 44.548 43.541 43.543 43.519 43.503 43.459 43.432 43.42 43.441 43.423 43.457 43.45 43.47 43.491 43.413 43.392 43.433 43.379 43.394 43.314 43.27 46.335 48.096 47.846 42.233 41.506 41.526 45.875 48.734 49.466 51.725 51.724 50.733 50.727 43.395 42.247 46.576 42.173 41.42 42.324 41.614 41.48 41.44 41.475 41.571 41.795 41.844 46.61 49.764 49.456 49.108 48.161 43.858 42.522 42.438 42.497 42.823 44.456 43.774 44.278 43.95 43.916 43.91 44.937 44.601 43.799 44.046 43.716 43.855 44.004 44.092 44.209 44.243 44.411 44.557 44.556 44.624 44.691 44.797 44.903 44.972 45.055 45.147 45.181 45.248 46.017 49.694 50.177 52.287 53.371 56.969 57.844 56.556 54.44 52.033 51.481 51.507 51.48 51.51 51.54 51.57 51.749 51.781 53.766 52.972 56.863 60.828 61.41 65.015 66.674 68.136 68.129 66.9 64.527 61.798 54.318 53.732 53.586 53.518 54.129 53.824 53.367 53.444 53.506 53.491 53.505 53.56 62.351 64.123 64.82 65.56 64.641 62.726 57.221 53.429 53.023 53.107 54.632 53.702 53.654 53.597 53.615 53.68 53.787 53.877 54.601 54.281 55.693 55.495 54.938 54.546 59.369 56.079 59.26 63.107 63.564 63.63 63.911 63.761 63.953 63.534 61.815 62.463 62.911 61.426 58.011 61.53 61.939 59.772 60.614 59.937 57.421 56.452 54.708 54.982 56.701 56.956 60.867 59.708 59.754 63.839 65.791 67.997 70.253 71.351 72.027 72.81 73.399 74.181 74.705 67.239 69.706 68.635 62.431 61.977 56.218 61.592 54.295 53.833 53.785 53.74 53.663 53.531 53.434 53.463 53.383 54.421 57.688 58.183 58.345 60.47 61.728 61.114 60.726 61.48 59.545
32.254 38.477 36.138 35.483 32.615 32.427 32.658 33.034 32.929 33.082 33.281 36.105 36.01 36.496 35.703 35.747 33.035 31.542 32.449 32.97 32.535 32.569 32.495 33.075 33.678 34.962 34.908 36.23 33.016 34.862 34.729 35.24 36.258 37.192 35.485 33.599 33.43 33.272 33.24 33.799 33.765 33.648 33.7 33.033 32.549 31.3 31.167 30.993 30.768 30.97 36.297 37.142 38.607 33.906 34.095 35.019 35.831 33.432 32.254 32.371 33.486 34.424 34.031 33.561 33.462 33.593 34.29 34.37 34.099 33.791 33.476 33.433 33.35 33.315 33.392 33.388 33.397 33.46 33.447 33.391 33.355 33.298 33.324 33.247 33.397 33.813 36.814 40.596 41.832 42.57 42.453 40.823 35.221 34.872 34.555 34.748 34.513 34.611 34.697 35.39 35.966 39.636 45.761 45.038 45.839 44.984 43.525 37.487 36.675 36.259 36.073 36.238 36.395 36.953 41.341 43.739 43.063 42.022 39.174 40.593 42.101 41.952 40.215 42.632 40.206 39.919 40.276 43.003 43.858 44.114 44.299 44.306 43.826 43.555 43.237 42.9 42.763 42.674 42.918 43.345 43.259 43.036 42.89 43.716 42.925 43.202 43.469 43.756 44.06 44.299 44.207 43.948 41.709 41.407 43.548 43.948 41.529 41.117 41.281 41.279 41.554 42.511 42.679 42.545 48.849 50.946 51.674 50.943 49.957 43.161 42.901 42.532 42.26 42.344 42.448 42.465 42.51 43.39 42.959 46.872 50.513 51.936 52.186 52.042 52.03 43.465 43.15 42.932 42.921 43 43.101 43.826 44.339 46.306 45.228 51.447 53.662 53.117 52.972 51.231 44.813 43.364 43.314 43.613 43.105 43.247 43.22 43.142 43.408 43.429 43.185 43.172 43.18 43.065 42.937 43.075 43.475 43.61 44.009 43.474 43.464 43.498 43.916 43.458 43.405 43.483 43.456 43.388 43.424 43.42 43.395 43.38 43.391 43.404 43.343 43.301 43.332 43.252 43.13 45.084 46.347 43.564 42.482 41.566 41.495 41.648 47.279 50.945 51.034 51.126 50.671 48.904 45.897 49.411 46.627 43.513 41.241 41.267 41.335 41.354 41.39 41.372 41.521 41.75 41.769 47.163 48.703 48.904 48.172 44.781 42.266 42.575 42.544 42.551 44.874 46.106 45.501 45.017 43.676 45.137 44.246 44.271 44.539 43.623 43.62 43.753 43.845 43.939 44.076 44.261 44.428 44.481 44.567 44.705 44.77 44.876 44.79 44.919 44.994 45.168 45.272 45.268 45.353 45.347 45.549 49.524 51.108 54.014 57.02 58.205 57.492 52.862 54.574 51.382 51.363 51.364 51.461 51.495 51.475 51.542 51.65 51.773 51.796 52.238 58.871 59.601 63.998 66.27 67.21 59.98 65.658 64.198 58.419 56.369 54.6 54.209 54.156 55.137 53.027 52.966 53.127 53.144 53.157 53.13 53.116 57.629 63.155 64.894 64.808 64.027 61.725 54.568 52.853 52.797 52.872 54.309 53.811 53.572 53.599 53.561 53.594 53.717 53.803 54.726 53.591 54.279 54.057 53.871 55.342 56.1 55.042 59.525 63.311 62.561 62.489 62.639 63.183 63.445 57.062 60.398 62.205 63.545 62.043 57.865 63.753 63.643 63.391 62.893 62.313 61.661 59.693 56.139 54.338 57.971 58.1 58.061 56.073 54.357 54.971 55.683 54.701 65.791 67.208 70.558 71.523 73.228 73.966 74.224 72.832 68.76 70.308 65.62 56.175 59.459 63.145 57.128 53.838 53.716 53.741 53.607 53.509 53.415 53.331 53.277 53.196 53.073 53.048 54.294 57.896 59.088 57.827 57.008 60.736 61.439
31.979 32.059 32.114 32.156 32.247 32.429 32.36 32.846 32.947 33.242 33.072 36.916 37.461 36.981 36.894 34.577 32.764 33.247 33.703 32.782 31.892 31.736 32.984 32.952 35.301 34.563 33.477 35.065 34.97 33.249 35.336 36.05 36.454 37.235 36.3 35.532 34.657 34.045 33.808 34.042 33.567 33.266 32.522 31.706 31.504 30.793 30.212 30.037 29.99 30.106 30.594 30.516 36.095 37.985 33.953 35.299 37.476 34.943 32.176 31.58 31.874 33.276 34.143 33.882 33.585 34.032 34.131 34.253 33.949 34.235 34.037 33.711 33.478 33.389 33.336 33.337 33.365 33.385 33.387 33.453 33.386 33.316 33.345 33.303 33.27 33.292 34.499 39.495 42.042 41.657 40.474 39.55 33.663 34.033 34.017 34.204 34.345 34.338 34.449 34.731 35.039 40.14 43.767 45.143 45.632 44.844 42.009 36.155 36.05 35.843 36.262 36.04 36.164 37.453 41.268 43.079 42.835 41.398 38.676 38.873 42.031 42.668 40.887 39.757 41.577 40.909 40.028 42.985 43.235 43.468 43.916 44.07 44.257 44.041 43.873 43.451 43.237 42.891 43.06 42.83 42.985 43.567 43.501 43.183 42.725 42.624 42.907 43.207 43.612 43.873 44.188 41.982 40.303 40.179 43.528 43.87 41.189 40.904 41.096 41.813 41.705 41.848 42.391 42.467 50.085 51.411 51.646 51.184 49.924 42.946 42.16 42.098 42.701 42.259 42.22 42.72 42.398 43.74 43.676 48.039 50.824 52.007 51.819 51.371 48.575 43.175 43.328 42.73 42.717 42.737 43.532 43.184 43.132 43.372 44.392 52.105 52.475 53.265 53.835 50.893 44.266 43.779 43.306 42.92 43.034 43.108 43.025 45.171 48.077 44.491 43.103 43.016 42.984 42.96 42.837 42.75 43.044 43.56 43.765 43.474 43.84 43.522 44.04 43.371 43.342 43.416 43.367 43.439 43.349 43.391 43.301 43.309 43.267 43.31 43.285 43.373 43.764 43.407 42.928 42.776 41.685 41.004 40.993 42.409 43.847 45.477 48.684 50.255 51.259 51.125 50.338 46.341 45.609 48.309 46.943 45.462 41.16 41.167 41.279 41.256 41.21 41.322 41.394 41.543 42.411 46.393 48.346 48.761 47.891 42.846 41.758 42.1 42.412 42.447 43.897 45.253 46.072 44.853 45.969 46.39 46.476 46.011 44.202 43.738 43.663 43.72 43.846 43.904 44.123 44.283 44.793 44.553 44.635 45.076 44.892 45.058 45.002 44.902 45.054 45.123 45.281 45.398 45.511 45.526 45.632 46.588 49.901 51.116 53.721 57.522 56.677 54.437 52.442 51.35 51.987 51.349 51.359 51.405 51.413 51.437 51.519 51.585 51.654 51.866 51.871 52.812 61.754 64.736 65.875 65.988 65.228 60.241 58.597 57.029 57.852 56.426 55.981 55.121 54.798 54.472 53.856 52.644 52.751 52.715 52.704 53.924 60.41 62.398 58.015 58.572 53.461 52.613 52.692 52.575 52.577 53.032 53.136 54.561 54.465 53.824 53.656 53.645 53.741 54.691 53.658 54.306 53.924 53.881 54.277 54.397 56.274 55.099 56.601 59.427 57.396 61.684 63.384 62.777 63.366 64.79 65.007 59.661 56.401 61.703 64.747 64.831 64.551 63.931 64.93 63.573 62.834 55.743 54.909 58.822 59.503 56.082 53.965 54.774 54.804 53.903 53.832 62.173 63.993 65.829 69.999 72.132 70.736 69.158 69.192 67.859 61.144 67.947 66.557 67 61.783 59.849 60.502 57.385 56.642 54.169 53.57 53.554 53.697 54.95 54.676 53.217 53.012 52.897 52.781 53.238 52.63 53.408 57.891 58.728
32.061 32.598 32.082 32.195 32.181 32.182 32.131 32.156 32.234 32.683 32.643 36.101 37.417 36.725 35.922 34.657 33.465 32.297 32.599 31.449 31.292 32.335 33.12 34.977 35.079 34.063 31.218 32.794 32.877 33.072 34.95 35.69 36.514 37.357 36.928 36.368 35.284 33.786 33.227 32.594 31.998 31.877 31.377 30.421 30.343 30.213 29.997 29.97 29.928 29.903 29.908 30.281 30.317 34.417 37.228 33.872 34.592 33.824 32.164 31.39 30.722 31.68 32.678 33.442 33.737 33.917 34.073 33.775 33.735 33.702 33.936 33.772 33.572 33.551 33.502 33.373 33.32 33.35 33.365 33.39 33.354 33.418 33.349 33.337 33.237 33.288 33.234 33.317 35.914 40.901 39.065 34.273 33.926 33.982 34.37 33.974 34.096 34.354 34.332 34.983 34.718 40.482 43.516 44.455 44.78 43.413 38.133 35.977 36.05 35.707 36.178 35.801 35.969 36.315 38.26 39.75 40.173 38.813 39.16 38.386 40.742 41.27 39.985 39.909 40.49 42.602 42.267 43.001 42.965 42.969 43.216 43.581 43.938 44.227 44.338 43.974 43.736 43.383 43.172 42.776 42.532 43.158 43.402 43.542 43.251 42.964 42.645 42.654 43.145 43.263 43.61 41.131 39.838 41.402 42.926 42.013 40.708 40.786 40.896 41.009 41.187 41.58 41.856 47.368 50.846 51.535 51.6 50.364 48.415 42.444 42.812 42.005 42.521 42.005 42.03 42.911 42.203 42.995 43.695 50.134 51.932 51.949 51.392 51.451 48.776 42.759 43.149 42.455 42.566 42.623 42.573 42.621 44.117 43.536 48.16 51.518 52.933 53.112 52.871 50.771 43.53 44.475 43.6 43.568 43.014 42.888 42.877 44.785 46.787 43.565 43.422 42.93 42.87 42.868 42.847 42.763 42.602 42.623 43.385 43.338 43.319 43.384 43.14 43.216 43.332 43.329 43.295 43.328 43.277 43.242 43.245 43.164 43.173 43.168 43.133 43.335 43.586 43.259 42.819 42.592 41.121 40.839 41.306 41.585 42.514 47.806 48.939 50.131 51.163 51.256 49.919 44.666 42.458 43.333 45.068 41.523 41.036 41.025 41.173 41.199 41.079 41.169 41.319 41.452 41.471 41.474 41.642 44.162 46.998 43.119 41.861 41.945 42.25 42.314 43.581 43.699 43.825 43.802 44.059 45.273 45.467 46.49 45.691 43.681 43.598 43.727 43.855 43.87 44.153 48.446 44.768 44.626 44.566 44.661 44.854 45.213 45.141 45.098 45.088 45.158 45.31 45.446 45.538 45.628 45.724 45.79 45.954 47.05 50.303 51.327 53.015 51.433 54.103 56.762 54.963 51.551 51.896 51.394 51.35 51.415 51.451 51.474 51.552 51.669 52.528 52.021 52.537 54.382 56.486 62.427 61.417 59.534 59.85 58.984 59.133 58.105 57.838 57.253 58.074 56.315 56.014 55.813 54.893 52.998 53.118 57.223 54.535 54.786 60.959 53.188 52.516 52.425 52.449 52.453 52.415 52.497 52.617 52.667 52.677 53.243 54.106 54.261 54.602 53.6 54.579 54.443 53.833 53.877 57.385 59.029 62.321 60.037 64.736 58.214 55.524 55.446 57.153 65.14 65.455 68.637 69.197 61.308 63.861 63.903 63.646 64.364 64.432 64.773 64.909 64.501 59.973 54.845 54.468 58.025 59.257 58.736 54.114 53.659 54.267 53.732 53.799 55.545 55.38 54.947 65.559 69.067 67.872 65.911 56.248 56.138 56.91 62.982 57.667 54.07 58.238 58.222 61.431 60.091 61.535 60.918 57.473 57.494 60.185 61.247 59.127 54.191 53.006 52.922 52.806 52.712 52.623 52.481 52.468 52.723
32.065 32.15 31.995 32.074 32.354 32.178 32.06 32.109 32.341 32.177 32.341 32.987 33.67 35.297 33.494 33.806 32.721 32.885 32.762 32.134 32.27 34.005 35.674 36.276 31.757 34.049 31.13 31.703 31.564 33.449 34.309 35.058 35.434 36.037 36.592 35.678 35.104 33.41 32.994 32.444 31.722 31.249 30.49 30.006 30.054 29.997 29.988 30.026 29.933 29.875 29.902 29.917 30.148 30.142 30.55 31.183 31.671 32.458 30.276 30.498 30.399 30.568 30.92 32.374 33.989 33.702 33.502 33.855 33.796 33.71 33.439 33.533 34.142 33.937 33.713 33.515 33.474 33.298 33.256 33.283 33.331 33.354 33.389 33.333 33.359 33.247 33.268 33.228 33.284 33.333 34.472 33.406 33.616 33.688 34.012 33.768 33.867 33.881 34.181 34.597 34.903 42.635 43.762 44.472 43.967 42.959 36.024 35.218 35.527 35.258 35.375 35.644 35.674 35.888 38.347 38.816 38.332 39.266 39.566 38.625 38.869 38.931 41.392 39.006 39.806 39.881 42.597 42.756 42.895 43.022 42.986 43.151 43.389 43.673 44.031 44.229 44.208 43.941 43.652 43.197 43.074 42.773 42.663 43.005 43.235 43.543 43.32 42.742 42.573 42.752 41.552 39.86 40.516 42.495 43.109 40.744 40.451 40.563 40.652 40.86 40.757 42.567 42.876 48.753 50.853 51.628 51.316 50.31 44.14 42.544 43.148 41.778 41.664 41.825 41.844 41.858 42.417 42.3 43.063 51.07 51.743 52.303 52.846 49.816 44.099 43.181 42.421 42.284 42.326 42.441 43.528 43.772 43.21 43.025 48.457 51.741 52.93 52.756 51.416 44.851 43.081 43.253 42.896 43.728 42.953 42.782 42.73 42.835 43.595 43.008 43.144 43.36 42.967 42.675 42.7 42.607 42.477 42.339 42.656 43.026 43.071 42.9 42.683 43.057 43.186 43.169 43.18 43.268 43.117 43.078 43.119 43.068 43.037 43.094 43.06 42.97 43.611 42.837 42.641 41.53 40.676 40.694 41.502 41.449 41.316 45.245 49.368 50.361 50.869 49.925 48.875 41.888 42.692 43.518 46.245 42.285 41.651 40.999 41.048 41.068 42.16 41.24 41.981 41.602 41.443 41.516 41.518 41.575 42.095 42.971 42.006 41.937 42.133 42.436 43.475 46.386 43.639 43.458 43.462 43.495 43.764 43.839 43.805 43.508 43.636 46.492 46.259 43.967 47.551 50.607 50.106 49.02 45.558 45.461 44.82 45.051 45.175 47.465 46.455 45.332 45.333 45.472 45.629 45.731 45.833 45.923 45.989 46.101 46.859 49.4 53.224 53.973 56.125 58.443 58.604 52.295 54.274 51.349 51.321 51.36 51.417 51.427 51.456 51.563 51.904 51.723 52.011 52.005 52.359 54.688 56.84 58.767 59.656 60.218 60.126 60.022 59.714 59.44 58.931 58.317 57.806 58.779 57.332 56.76 56.884 59.681 62.104 62.933 57.148 57.194 52.975 52.285 52.283 52.238 52.323 52.459 52.546 52.537 52.627 52.692 52.746 52.762 52.824 52.987 53.506 53.627 54.484 54.582 59.453 67.656 69.24 67.635 63.234 59.452 61.892 55.104 58.558 64.588 69.218 70.583 71.003 69.956 63.795 63.029 62.75 62.77 63.214 63.516 63.948 64.213 57.646 53.89 54.701 56.945 56.315 54.383 53.646 60.005 55.354 58.703 53.566 53.536 54.401 53.709 53.315 64.168 55.656 54.096 53.113 53.17 53.06 53.47 54.421 53.477 54.891 52.838 54.413 57.268 61.255 59.387 59.184 60.164 62.585 61.38 59.514 59.86 56.553 52.971 55.516 52.807 52.558 52.55 52.966 52.327
32.111 32.225 32.31 32.23 32.077 32.352 32.328 32.441 32.328 32.248 32.135 32.048 32.048 32.014 32.157 32.706 32.462 32.551 32.727 32.9 34.222 36.406 36.393 32.208 33.108 33.68 31.985 31.113 30.947 33.811 32.072 31.531 33.698 34.834 35.279 34.442 33.244 31.852 31.794 31.329 30.645 30.253 30.041 29.906 29.935 29.928 29.947 29.937 29.801 29.676 29.776 29.942 29.916 29.889 30.115 29.909 30.144 30.228 29.821 29.865 29.856 30.085 30.418 30.877 32.037 33.042 33.877 34.05 34.256 34.134 33.815 33.69 33.835 33.955 34.26 33.946 33.516 33.41 33.29 33.234 33.28 33.311 33.298 33.331 33.349 33.326 33.268 33.222 33.217 33.186 33.253 33.322 34.886 33.401 33.433 33.605 34.334 33.792 33.996 34.518 39.375 43.923 44.182 44.496 43.36 39.319 35.374 35.699 35.065 35.079 35.22 35.349 35.412 35.764 37.899 38.206 39.223 39.424 40.737 39.936 41.54 39.823 38.858 37.829 38.013 40.018 42.16 42.424 42.591 42.838 42.928 42.986 42.911 43.096 43.653 43.709 44.004 44.337 44.219 43.959 43.51 43.299 42.81 42.66 42.828 43.139 43.387 43.411 43.081 42.945 42.638 40.218 41.598 42.538 42.672 40.471 40.22 40.341 40.413 41.678 40.936 41.02 41.465 49.45 50.732 51.786 50.982 49.817 42.529 41.688 41.898 41.389 41.495 41.615 41.596 41.727 43.388 42.668 47.814 50.746 51.931 51.808 51.585 50.122 42.724 43.193 42.086 42.098 42.18 42.246 42.323 44.124 42.907 42.762 50.597 51.346 51.833 51.268 51.174 44.081 43.046 43.404 42.632 43.021 42.516 42.582 42.614 45.344 44.374 42.945 48.137 50.694 44.117 42.645 42.491 42.519 42.415 42.311 42.159 42.127 43.078 42.784 42.221 42.52 43.044 43.046 43.202 42.963 42.988 43.01 42.998 42.952 42.992 43.031 43.726 42.958 42.883 42.652 42.456 41.428 40.502 40.562 40.968 41.72 45.736 48.154 50.616 50.625 50.66 50.417 47.439 41.569 41.213 44.533 43.94 41.676 41.126 40.88 40.946 40.985 41.416 41.791 41.812 41.5 41.836 45.934 43.294 41.703 41.621 41.675 42.599 42 42.134 43.466 47.088 48.54 49.211 46.135 46.501 43.49 43.407 43.443 43.403 43.407 45.603 46.633 45.699 45.566 49.393 50.706 50.824 51.123 50.408 49.611 48.697 45.12 45.266 46.854 52.459 48.692 45.384 45.516 45.601 45.743 45.849 46.047 46.101 46.167 46.251 46.936 47.076 51.746 52.119 54.479 54.959 57.239 56.486 53.893 51.797 51.319 51.364 51.428 51.475 51.508 52.299 51.62 51.622 51.631 51.854 55.175 57.209 57.846 58.165 58.062 58.68 59.196 59.603 59.873 60.036 59.742 59.792 59.693 58.871 58.743 57.558 59.767 61.265 62.444 62.799 61.385 52.14 52.062 52.104 52.197 54.001 54.664 54.277 52.989 52.749 52.665 52.68 52.737 52.763 52.818 52.88 52.818 52.85 53.169 61.073 68.477 68.79 69.96 65.385 64.725 61.901 56.377 55.603 65.686 68.816 71.277 71.656 68.32 61.277 57.488 56.219 56.384 58.938 61.967 62.998 62.965 54.157 53.979 54.657 56.062 54.366 53.47 60.614 61.988 62.238 61.128 59.993 54.347 54.27 53.399 53.259 53.337 55.396 54.011 52.984 52.982 52.981 53.146 53.943 53.268 53.355 52.68 52.797 52.962 56.495 56.257 57.938 62.564 64.022 63.246 61.965 61.795 57.507 54.962 58.377 53.977 52.591 53.878 54.423 55.613
31.935 32.059 32.12 32.18 32.291 32.244 32.475 32.473 32.853 32.943 32.399 32.29 32.109 31.966 32.048 32.112 32.131 32.362 32.47 32.646 36.443 36.795 36.257 35.565 33.911 34.577 34.848 33.675 32.404 34.158 33.646 31.58 32.278 33.517 34.268 33.434 32.501 31.531 30.844 30.191 29.896 29.748 29.861 29.825 29.786 29.844 29.849 29.801 29.735 29.705 29.834 29.954 29.918 29.85 29.836 29.865 29.905 29.873 29.821 29.738 29.771 29.922 30.156 30.606 31.684 33.216 33.982 34.472 34.615 34.035 33.916 33.83 33.897 33.668 33.844 33.881 34.005 33.872 33.515 33.349 33.259 33.252 33.219 33.264 33.307 33.321 33.319 33.272 33.27 33.236 33.159 33.176 33.213 33.206 33.273 33.389 33.921 33.904 34.195 34.33 39.353 43.858 44.353 44.209 42.991 38.994 35.433 35.647 34.846 34.788 35.018 35.101 35.201 37.893 37.856 40.743 40.071 39.726 41.066 38.618 38.536 37.827 37.776 37.765 37.745 37.753 39.625 39.826 42.126 42.524 42.716 42.857 42.986 42.984 43.071 43.289 43.591 43.896 44.172 44.361 44.173 43.783 43.453 43.061 42.814 42.653 42.839 43.301 43.307 43.498 41.11 39.84 40.585 42.397 41.539 39.979 40.039 40.166 40.227 40.463 40.63 40.932 46.239 49.335 50.343 50.865 50.073 49.591 41.847 42.361 41.31 41.195 41.285 41.409 41.8 41.501 41.98 42.361 49.729 50.442 52.023 51.713 51.399 43.774 42.02 42.077 41.877 42.148 42.022 42.437 42.187 44.501 44.215 46.743 50.85 51.559 51.857 51.448 49.568 42.561 42.474 42.492 42.194 42.3 42.403 42.528 42.468 45.117 43.093 42.773 49.829 52.056 52.6 47.252 42.78 42.47 42.254 42.238 42.113 41.997 41.928 41.933 41.907 42.521 42.715 42.802 42.876 42.809 42.863 42.896 42.868 42.864 42.9 42.833 43.568 42.849 42.85 42.529 42.316 41.002 40.518 40.5 41.159 43.411 46.266 48.403 49.473 50.787 50.392 49.913 44.54 41.614 41.356 41.132 41.746 41.117 40.794 40.815 40.853 40.854 41.014 40.979 42.099 41.482 41.555 47.273 48.419 48.019 47.135 45.095 41.689 41.793 41.988 43.308 47.064 49.514 50.653 50.206 49.415 44.686 43.46 43.355 43.293 43.36 45.329 44.426 46.16 45.652 50.001 50.777 50.283 50.154 50.651 51.238 50.283 48.902 47.926 50.2 51.648 47.631 45.665 45.627 45.643 45.834 45.921 46.079 46.222 46.301 46.357 46.402 46.599 47.253 49.65 53.818 55.318 57.681 57.678 55.305 51.541 51.329 51.303 51.371 51.415 51.433 52.148 51.56 51.563 51.588 51.72 56.77 57.807 57.316 56.413 56.346 57.081 58.7 57.79 58.068 58.683 59.303 59.354 60.309 61.909 60.068 57.547 56.094 53.83 59.789 61.022 52.859 51.849 51.846 51.903 52.014 53.438 56.509 56.169 55.052 54.929 55.253 55.353 53.992 52.841 52.726 52.767 52.82 52.834 52.829 53.081 66.88 65.396 67.643 68.508 69.633 62.225 55.499 61.712 66.922 70.318 70.965 69.115 64.321 59.171 55.035 54.455 54.411 54.821 54.721 58.087 60.118 54.42 53.981 55.813 56.26 54.834 53.418 59.468 62.671 63.424 63.23 62.831 62.854 58.631 53.908 53.642 54.255 55.555 53.615 52.945 52.809 52.842 53.329 52.787 53.587 53.819 52.554 52.67 52.736 54.725 54.541 54.842 62.57 64.374 63.89 62.346 59.727 56.005 60.061 60.928 54.473 52.482 55.314 57.632 54.712
