ncols 433
nrows 32
xllcorner    427058
yllcorner    431604
cellsize     2
NODATA_value -9999
41.669 42.777 41.532 41.378 41.34 41.31 41.284 41.242 41.207 41.237 41.29 42.854 45.76 45.164 46.767 48.171 46.12 41.332 41.236 41.959 41.889 41.929 42.345 43.857 42.239 41.901 41.761 41.789 41.789 45.403 45.249 43.54 42.306 43.44 44.025 42.334 42.389 42.5 43.766 43.117 43.66 47.526 47.86 49.93 50.48 50.921 51.314 51.737 52.058 52.534 52.858 52.963 52.516 52.048 51.66 51.237 50.832 50.446 49.953 43.859 42.377 47.862 55.279 53.876 54.824 53.141 51.612 48.462 49.785 48.721 47.07 46.875 46.914 47.28 47.386 47.131 46.899 46.757 46.676 46.658 46.836 46.908 47.042 46.956 47.418 48.408 50.153 50.994 49.566 48.331 47.817 47.936 48.771 49.487 50.098 50.148 50.399 50.593 50.116 49.216 48.085 47.984 47.993 54.129 56.911 57.593 57.979 58.525 58.981 59.243 58.98 58.392 58 57.412 56.969 52.354 48.937 49.272 50.462 53.118 53.398 52.343 52.667 52.029 51.244 51.116 51.497 52.531 52.068 51.409 51.666 51.545 51.533 51.441 51.294 51.733 53.619 54.698 53.822 59.253 59.937 61.157 60.057 60.345 59.309 54.127 52.729 55.277 54.359 50.297 49.053 47.236 47.4 46.843 47.901 47.034 42.86 43.598 48.612 48.934 48.744 48.722 47.213 44.085 41.549 41.357 41.483 41.271 41.1 41.069 41.934 41.782 42.02 41.904 42.613 41.181 41.18 41.265 41.291 42.311 46.221 49.507 50.436 51.37 51.647 51.897 52.257 52.414 52.688 52.896 53.228 53.403 53.724 53.96 54.122 54.398 54.682 54.952 55.139 55.236 55.079 54.821 54.516 54.307 49.481 47.8 48.073 48.273 48.549 48.848 49.111 48.712 48.148 47.821 47.337 48.451 48.836 51.044 52.275 50.694 43.794 43.494 42.059 41.948 41.933 41.937 41.979 42 42.253 42.263 44.078 45.581 41.967 41.859 41.829 41.912 41.854 41.814 41.731 41.68 41.626 41.571 41.521 41.413 43.072 48.784 49.67 50.27 50.74 50.974 50.62 50.055 49.424 49.027 48.318 44.368 47.349 49.148 49.661 50.32 49.963 51.1 50.691 50.299 49.729 49.218 48.851 51.301 52.808 53.358 51.915 43.402 42.864 41.642 40.634 40.357 40.338 40.267 40.236 40.193 40.196 40.243 40.267 40.267 40.261 40.291 40.284 40.268 40.274 40.294 40.28 40.294 40.298 40.348 40.327 40.316 40.347 40.332 40.345 40.403 40.37 40.385 41.224 40.744 40.409 41.498 43.319 41.582 47.006 50.252 51.556 47.073 49.668 41.057 40.478 40.365 40.377 48.472 49.737 49.714 49.659 49.648 49.718 49.709 49.754 43.402 40.548 40.259 40.162 40.218 40.242 40.232 40.258 40.284 40.241 40.227 40.212 40.178 40.098 40.117 40.306 40.663 40.27 40.131 39.976 39.922 39.915 39.903 40.031 40.057 40.074 39.985 39.962 39.987 41.722 40.879 40.324 40.754 40.334 40.325 40.16 40.177 43.947 47.205 47.278 47.32 47.339 47.409 47.479 47.518 47.59 47.646 47.715 47.746 46.362 45.194 42.476 40.799 40.204 40.171 40.158 40.433 40.998 40.207 40.166 40.233 40.784 40.55 40.23 40.4 40.187 40.182 40.118 40.253 40.776 41.355 41.868 42.146 42.913 44.374 45.557 46.866 47.529 47.469 47.603 47.542 47.081 46.6 46.215 48.61 48.056 47.11 43.32 42.798 42.779 42.793 43.228 43.936 44.346 42.683 42.253 41.07 46.808 48.261 48.46 48.629 48.814 49.087 49.26 49.344 49.107 48.991 48.697
41.566 41.529 41.421 41.424 41.354 41.345 41.278 41.237 41.215 41.171 41.213 41.234 42.702 44.093 45.704 47.033 46.767 42.806 40.226 40.682 41.387 43.315 43.571 44.456 41.97 41.903 42.346 42.039 42.05 44.316 45.461 43.749 42.286 42.253 42.294 42.337 42.397 42.37 42.813 42.93 43.494 47.35 47.5 50.014 50.425 50.917 51.326 51.728 52.112 52.548 52.942 52.918 52.473 52.108 51.574 51.179 50.823 50.38 49.947 43.712 42.381 52.208 55.364 54.412 55.658 50.123 50.854 49.159 49.579 48.653 47.042 46.814 46.781 46.748 46.781 46.734 46.735 46.674 46.649 46.668 47.242 48.729 48.466 47.197 47.245 48.074 49.723 49.282 48.73 47.885 47.977 48.221 49.24 49.938 51.137 50.828 50.572 50.367 50.102 48.764 48.033 47.932 53.822 56.806 57.312 57.713 58.352 58.821 59.36 59.144 58.564 58.022 57.571 57.139 56.626 50.487 49.016 50.2 51.205 53.53 53.837 53.467 53.049 51.731 51.25 51.311 51.617 52.273 51.594 51.504 51.616 51.633 51.514 51.365 51.164 52.319 53.997 55.052 58.841 61.502 61.4 55.842 54.828 56.897 59.763 56.106 52.63 53.966 51.193 51.095 49.336 46.986 45.812 46.219 46.308 44.942 42.815 43.999 48.397 49.15 48.933 49.629 49.875 46.638 42.043 41.347 41.235 41.144 41.09 41.761 41.347 41.203 41.288 41.201 41.159 41.096 41.235 41.282 41.271 41.311 41.876 46.297 47.48 51.063 51.359 51.566 51.973 52.187 52.402 52.711 52.913 53.223 53.375 53.757 53.525 54.249 54.488 54.643 54.864 55.521 55.296 55.075 54.836 50.875 47.878 48.065 48.318 48.549 48.8 49.395 49.489 49.104 48.533 48.19 47.662 47.565 47.147 49.409 49.283 50.291 47.108 47.638 44.855 42.31 41.89 41.886 41.913 41.91 41.926 42.083 44.905 46.063 42.601 44.225 45.061 42.366 41.905 41.848 41.694 41.644 41.606 41.573 41.515 41.409 41.407 43.056 50.185 50.805 51.106 50.688 50.189 49.492 48.894 48.427 48.388 43.273 43.783 46.669 48.652 49.891 50.979 50.663 50.213 49.722 49.223 48.732 49.06 52.802 53.256 53.912 53.755 53.442 48.358 40.796 40.469 40.441 40.378 40.32 40.285 40.231 40.198 40.201 40.228 40.264 40.246 40.28 40.247 40.271 40.283 40.252 40.292 40.274 40.324 40.291 40.315 40.291 40.335 40.337 40.324 40.314 40.346 40.406 40.397 40.625 40.556 40.675 45.037 48.202 52.458 54.274 54.895 54.985 48.238 41.845 40.373 40.432 47.078 49.696 49.725 49.703 49.688 49.692 49.709 49.578 43.392 40.311 40.142 40.191 40.196 40.231 40.277 40.297 40.284 40.261 40.273 40.257 40.257 40.2 40.157 40.124 40.158 40.343 40.651 40.094 39.981 39.939 39.958 40.033 40.031 40.037 39.981 39.968 40.267 44.234 44.207 42.079 40.585 40.543 41.155 40.298 40.206 40.339 45.236 47.237 47.294 47.358 47.408 47.449 47.511 47.55 47.637 47.689 47.739 47.781 47.791 47.736 45.653 40.45 40.208 40.21 40.837 41.134 40.541 40.199 40.227 40.215 40.345 40.262 40.35 40.45 40.221 40.181 40.162 40.595 40.802 41.35 41.858 42.218 43.055 44.084 45.519 46.898 47.431 47.459 47.588 47.497 47.104 46.786 46.204 45.544 48.172 48.091 42.934 42.836 42.817 42.858 43.25 43.209 43.349 42.806 42.018 41.754 47.595 48.338 48.445 48.643 48.869 49.051 49.22 49.358 49.124 48.903 48.733
41.622 41.489 41.421 41.389 41.349 41.406 41.319 41.256 41.213 41.16 41.142 41.201 41.259 45.7 44.103 44.934 43.943 41.933 39.931 40.182 40.649 42.165 42.946 42.573 42.552 41.979 43.237 42.191 42.967 43.584 45.134 43.838 42.277 42.213 42.3 42.369 42.378 42.406 42.498 42.446 42.605 46.685 47.449 50.048 50.469 50.871 51.282 51.754 52.108 52.641 52.929 52.905 52.489 52.037 51.62 51.172 50.804 50.408 49.786 43.032 42.62 52.562 55.974 56.759 55.775 52.398 51.285 50.35 49.44 48.311 46.974 46.799 46.79 46.731 46.72 46.683 46.644 46.622 46.597 46.692 47.919 49.035 50.825 47.934 47.305 47.677 51.172 48.925 48.525 49.501 49.681 49.23 50.048 51.073 51.887 51.943 51.545 50.626 49.526 48.851 48.126 48.043 55.766 57.098 57.694 58.231 58.743 59.129 59.149 58.744 58.191 57.806 57.223 56.076 49.713 49.025 49.864 51.039 52.827 53.538 51.917 52.569 52.052 51.316 51.275 51.699 52.388 51.746 51.429 51.618 51.626 51.562 51.515 51.193 51.854 51.845 56.306 55.1 58.929 58.917 60.432 51.193 56.026 58.191 60.391 57.925 51.816 53.69 50.416 49.229 47.773 47.773 46.92 43.923 43.801 42.226 40.312 43.313 46.391 48.486 48.681 49.672 50.116 45.979 41.958 41.417 41.185 41.117 41.9 41.57 41.015 40.992 40.951 41.065 41.092 41.088 41.187 41.239 41.229 41.275 41.34 42.377 46.391 49.783 50.226 51.339 51.716 51.89 52.165 52.477 52.693 53.043 53.207 53.466 53.754 53.97 54.235 54.362 54.652 54.92 55.148 55.276 49.795 47.801 48.062 48.328 48.611 48.842 49.063 49.697 49.932 49.471 49.072 48.58 48.213 47.753 47.325 48.053 48.386 45.752 46.599 47.011 45.847 42.768 41.839 41.831 41.837 41.831 41.887 42.272 44.156 43.376 43.864 46.357 45.368 44.711 42.221 41.921 41.762 41.6 41.497 41.467 41.412 41.345 41.348 41.362 44.025 50.721 50.619 50.013 49.565 48.815 48.469 48.572 48.011 49.449 49.997 50.36 50.882 51.051 50.709 50.146 49.676 49.294 48.796 48.567 52.444 53.376 53.745 53.897 53.383 52.799 46.594 41.718 40.5 40.461 40.706 40.388 40.311 40.279 40.21 40.204 40.218 40.307 40.236 40.228 40.263 40.221 40.251 40.261 40.236 40.275 40.277 40.298 40.301 40.322 40.303 40.314 40.309 40.312 40.311 40.379 40.387 40.401 40.55 40.395 50.749 53.647 53.967 54.832 55.182 53.625 41.67 40.378 40.469 48.837 49.739 49.713 49.687 49.676 49.68 49.731 49.666 41.686 40.315 40.167 40.224 40.208 40.229 40.266 40.288 40.269 40.253 40.267 40.256 40.237 40.249 40.276 40.198 42.189 40.426 40.338 40.331 40.177 39.954 39.95 40.033 40.077 40.065 40.013 40.001 39.994 43.795 45.814 45.924 41.301 41.095 41.159 40.189 40.207 40.474 46.361 47.272 47.299 47.351 47.39 47.429 47.501 47.546 47.602 47.688 47.717 47.814 47.803 47.759 47.686 46.332 46.168 40.442 40.4 40.346 40.319 40.331 40.195 40.187 40.23 40.181 40.209 40.244 40.309 40.199 40.184 40.216 40.668 40.739 41.347 41.843 42.269 42.926 44.252 45.86 46.896 47.483 47.53 47.565 47.52 47.218 47.301 46.367 45.861 47.569 44.815 42.924 42.812 42.71 42.849 43.108 44.241 44.844 43.762 42.231 41.08 46.825 48.216 48.473 48.605 48.859 49.038 49.271 49.284 49.133 48.955 48.725
41.539 41.538 41.423 41.381 41.365 41.307 41.308 41.266 41.2 41.152 41.128 41.105 41.147 41.222 43.419 42.966 40.366 39.514 39.278 39.614 41.093 44.051 40.959 41.254 42.077 42.19 42.122 41.992 42.111 44.806 44.103 43.141 42.506 42.281 42.325 42.301 42.341 42.345 42.406 42.442 42.902 47.418 49.071 50.009 50.509 50.939 51.331 51.79 52.193 52.591 53.007 52.866 52.5 52.04 51.674 51.216 50.78 50.434 49.423 43.864 42.347 53.11 56.281 56.575 55.796 53.427 51.682 49.542 49.327 47.978 46.896 46.748 46.76 46.715 46.642 46.59 46.555 46.555 46.545 46.606 47.101 48.004 47.562 47.721 48.944 48.934 49.598 49.202 49.756 50.769 51.012 50.54 50.48 51.765 51.955 51.941 51.537 50.075 48.557 48.194 48.163 54.148 56.934 57.489 57.933 58.549 58.898 59.353 58.928 58.427 57.825 57.308 56.598 51.147 48.977 49.427 50.833 52.932 53.591 53.317 52.182 52.426 51.389 51.296 51.805 52.259 51.539 51.483 51.579 51.653 51.646 51.479 51.395 51.447 51.941 54.538 56.114 56.632 53.828 55.04 55.586 56.277 53.306 58.01 57.947 56.023 52.499 51.131 49.957 47.884 46.476 48.19 46.513 43.815 41.892 41.016 41.953 41.024 42.783 45.257 47.493 50.663 50.122 46.357 41.484 42.267 41.649 41.38 41.387 41.02 41.009 40.97 40.975 40.982 41.058 41.07 41.15 41.16 41.213 41.261 41.305 41.321 42.585 46.44 49.034 51.004 51.442 51.644 51.94 52.182 52.428 52.724 53.181 53.208 53.437 53.697 53.926 54.153 54.45 54.657 54.701 46.238 47.096 48.125 48.343 48.595 48.852 49.072 48.96 49.373 49.791 49.864 49.448 49.04 48.511 48.16 47.76 47.338 46.981 46.058 49.977 49.317 46.047 42.305 41.593 41.747 41.792 41.863 43.671 44.183 42.371 43.939 45.003 46.134 46.262 45.268 45.073 42.781 41.832 41.636 41.5 41.422 41.381 41.341 41.34 41.253 41.613 42.983 49.717 49.406 48.959 48.438 48.484 49.058 49.465 50.012 50.309 50.809 51.072 50.63 50.177 49.701 49.329 48.76 50.65 52.797 53.389 53.798 53.828 53.38 52.805 49.594 48.718 49.231 43.283 41.042 41.928 40.451 40.726 40.853 40.259 40.702 41.504 40.38 40.226 40.216 40.204 40.195 40.226 40.247 40.251 40.285 40.236 40.263 40.258 40.303 40.257 40.331 40.32 40.313 40.349 40.336 40.37 40.368 40.451 40.734 42.845 54.37 55.156 55.395 47.722 51.803 40.575 41.448 41.068 47.531 49.697 49.659 49.655 49.662 49.722 49.281 41.707 40.275 40.193 40.201 40.22 40.269 40.28 40.272 40.32 40.258 40.221 40.195 40.229 40.256 40.286 40.255 43.246 44.62 42.348 40.306 40.182 40.027 39.987 40.047 40.053 40.081 40.044 40 39.958 40.04 42.152 43.017 42.459 41.716 41.016 40.356 40.234 42.471 46.794 47.202 47.279 47.327 47.398 47.458 47.51 47.55 47.576 47.663 47.751 47.787 47.85 47.775 47.697 47.657 47.573 47.554 46.083 44.816 40.439 40.305 40.202 40.18 40.2 40.225 40.202 40.208 40.212 40.208 40.169 40.169 40.216 40.738 40.763 41.239 41.821 42.267 43.001 44.35 46.012 46.783 47.47 47.434 47.611 47.425 47.312 47.037 48.521 46.897 47.899 44.598 42.968 42.889 42.833 42.863 43.119 44.172 44.938 44.219 42.195 40.767 43.228 48.5 48.407 48.685 48.898 49.041 49.252 49.327 49.12 48.895 48.706
41.561 41.494 41.43 41.402 41.37 41.303 41.305 41.555 41.321 41.162 41.133 41.125 41.092 41.13 41.442 41.98 44.732 42.783 39.837 39.059 43.802 42.23 41.486 40.472 41.456 41.828 42.338 42.036 42.463 46.28 45.484 42.626 42.28 42.293 42.465 42.544 42.32 42.368 42.377 42.433 42.518 43.008 47.487 50.049 50.501 50.908 51.329 51.812 52.197 52.605 53.08 52.945 52.424 52.092 51.644 51.244 50.814 50.359 49.322 43.211 44.413 54.332 55.929 56.701 55.853 53.001 50.473 48.966 49.148 47.651 46.809 46.728 46.8 46.674 46.598 46.541 46.538 46.493 46.5 46.586 46.72 46.79 47.012 47.051 47.551 49.486 48.285 48.737 50.035 51.056 51.021 51.024 51.731 51.878 51.981 51.924 50.792 49.359 48.255 47.948 54.124 56.868 57.436 57.79 58.31 58.92 59.34 58.96 58.606 58.1 57.595 57.003 55.159 49.078 49.182 50.323 52.3 52.445 53.033 52.603 52.392 51.738 51.272 51.54 52.723 51.93 51.65 51.467 51.643 51.643 51.574 51.537 51.184 51.713 53.934 55.897 55.675 58.618 56.503 58.239 61.689 54.981 57.132 59.529 60.114 57.665 52.454 50.867 51.161 48.568 51.169 51.96 47.913 42.27 41.689 41.674 40.065 41.195 41.467 44.473 49.296 51.774 53.09 50.822 43.404 41.803 41.493 41.324 41.107 41.072 41.022 40.974 40.971 40.96 40.992 41.039 41.064 41.103 41.14 41.216 41.243 41.339 41.314 44.64 46.471 47.187 51.045 51.313 51.662 51.934 52.068 52.324 52.699 52.937 53.13 53.422 53.663 53.927 54.095 54.444 47.872 44.423 42.734 47.068 48.572 48.839 48.293 48.071 48.548 48.887 49.33 49.851 49.834 49.468 48.958 48.583 48.23 47.739 47.426 46.844 48.93 47.928 45.139 45.284 42.178 41.684 41.827 42.872 43.406 43.609 41.884 44.871 45.634 46.128 46.141 46.123 45.92 46.004 42.509 42.105 41.464 41.395 41.306 41.292 41.227 41.137 41.097 41.097 42.697 48.652 48.374 48.577 49.004 45.399 49.74 50.407 50.822 51.14 50.671 50.252 49.722 49.278 48.773 50.64 52.848 53.318 53.836 53.828 53.415 52.989 49.772 48.725 49.171 49.601 48.7 40.944 40.891 41.128 40.79 40.351 41.446 40.505 40.789 40.19 40.171 40.155 40.203 40.202 40.234 40.223 40.248 40.218 40.25 40.274 40.27 40.292 40.275 40.276 40.303 40.298 40.317 40.318 40.455 40.465 40.83 40.371 41.208 52.186 54.957 54.862 54.201 42.033 40.688 40.786 40.28 40.222 47.869 49.504 49.711 49.743 49.358 41.467 40.218 40.219 40.245 40.233 40.246 40.262 40.3 40.282 40.232 40.24 40.156 40.185 40.184 40.241 40.264 40.299 40.338 44.626 42.574 40.253 40.09 39.982 39.941 40.056 40.092 40.033 40.023 39.988 40.033 40.61 40.482 40.796 41.377 40.948 40.36 40.217 40.332 45.092 47.25 47.31 47.317 47.369 47.429 47.485 47.56 47.594 47.645 47.714 47.77 47.793 47.787 47.714 47.672 47.613 47.563 47.51 47.463 47.386 42.997 44.037 40.33 40.23 40.233 40.224 40.261 40.186 40.209 40.341 40.192 40.15 40.174 40.473 40.644 41.33 41.789 42.235 42.812 44.318 45.729 46.778 47.469 47.502 47.535 47.531 47.288 47.285 50.401 53.287 53.206 48.319 43.848 43.108 42.87 42.864 43.101 43.409 44.212 44.78 44.963 43.054 42.237 47.93 48.419 48.696 48.817 49.053 49.297 49.283 49.187 48.905 48.746
41.554 41.521 41.441 41.415 41.349 41.289 41.311 44.31 41.724 41.17 41.145 41.123 41.098 41.065 41.07 41.061 42.976 43.743 43.743 41.378 44.904 45.025 43.992 40.272 41.498 43.044 43.62 42.189 42.869 50.865 52.444 48.657 42.832 42.486 42.971 43.529 42.361 42.333 42.353 42.43 42.51 42.666 45.355 50.024 50.517 51.004 51.338 51.651 52.27 52.536 53.06 52.86 52.417 52.035 51.53 51.149 50.774 50.379 48.069 43.426 42.406 50.581 53.55 55.264 56.093 51.507 50.803 50.865 48.973 47.423 46.896 46.835 47.687 46.614 46.511 46.529 46.494 46.454 46.517 46.584 46.665 46.778 46.947 47.607 47.869 48.728 47.727 48.497 49.773 50.698 50.844 51.232 51.917 51.962 51.93 51.363 50.288 48.993 48.021 48.014 56.622 57.167 57.721 58.134 58.708 59.278 59.246 58.677 58.238 57.714 57.163 56.579 49.812 49.091 49.747 51.318 52.018 52.378 52.376 52.474 52.162 51.459 51.395 51.899 52.027 52.572 51.508 51.661 51.622 51.696 51.538 51.394 51.391 51.326 55.421 56.263 55.996 56.184 58.875 59.678 59.384 61.105 62.052 61.907 59.967 56.785 51.918 48.763 50.306 50.93 53.964 54.298 50.642 42.454 43.777 43.02 40.044 39.579 41.391 41.74 49.72 52.757 52.975 51.852 44.996 42.254 41.315 41.167 41.111 41.085 41.01 41.011 40.972 40.937 40.941 40.969 41.046 41.06 41.099 41.173 41.264 41.246 41.316 41.316 44.151 46.321 49.953 51.031 51.363 51.719 51.903 52.203 52.467 52.787 52.922 53.156 53.398 53.704 53.491 45.548 44.506 44.432 42.856 41.912 48.674 49.06 47.663 47.577 48.067 48.444 48.914 49.359 49.821 49.787 49.399 48.992 48.584 48.152 47.78 47.237 46.845 46.492 41.855 42.486 44.211 42.957 44.865 44.569 42.118 44.732 45.193 44.985 45.899 46.123 46.159 46.155 46.085 46.094 45.54 41.856 41.533 41.378 41.303 41.193 41.178 41.115 41.036 40.97 40.928 42.317 48.432 48.995 49.256 49.985 50.38 50.933 51.044 50.737 50.16 49.762 49.24 48.805 48.467 52.619 53.322 53.811 53.857 53.374 52.773 49.312 48.804 49.262 49.67 50.111 50.678 50.771 41.166 41.511 40.773 41.676 41.55 40.572 40.223 40.139 40.186 40.469 40.15 40.219 40.178 40.161 40.194 40.209 40.243 40.236 40.251 40.237 40.234 40.298 40.275 40.302 40.313 40.801 41.457 40.633 40.553 40.334 40.385 47.266 53.331 53.148 48.847 41.781 40.191 40.256 40.252 40.146 40.162 46.8 49.749 49.638 40.659 40.168 40.173 40.219 40.264 40.289 40.305 40.276 40.326 40.256 40.206 40.185 40.129 40.129 40.196 40.226 40.287 40.301 44.36 44.944 41.695 40.132 39.96 39.993 40.036 40.106 40.039 40.021 40.023 40.064 44.081 41.348 40.367 40.473 40.891 40.688 40.228 40.239 40.765 47.108 47.256 47.37 47.338 47.435 47.5 47.515 47.571 47.674 47.722 47.781 47.827 47.816 47.754 47.688 47.623 47.559 47.508 47.471 47.413 47.347 47.282 42.41 40.266 40.232 40.221 40.377 41.056 40.196 40.296 40.385 40.17 40.163 40.175 40.456 40.598 41.118 41.791 42.165 42.865 44.362 45.815 46.759 47.416 47.385 47.497 47.417 47.276 51.206 55.414 55.451 55.157 47.855 44.208 42.842 42.893 42.895 43.091 43.106 42.873 44.245 44.387 42.153 46.959 48.254 48.406 48.664 48.831 49.14 49.314 49.301 49.177 48.911 48.688
41.545 41.489 41.469 41.416 41.365 41.27 41.968 42.962 41.609 41.161 41.164 41.138 41.114 41.05 41.017 40.997 41.025 42.718 43.513 43.611 41.475 40.263 39.658 39.551 40.912 42.416 42.916 44.851 51.306 54.134 53.809 52.257 44.197 49.131 45.63 43.871 42.288 42.363 42.357 42.449 43.176 43.16 44.609 49.155 50.528 50.982 51.397 51.784 52.216 52.595 53.034 52.835 52.457 52.042 51.58 51.181 50.733 50.326 48.403 43.35 45.486 45.418 52.555 53.218 52.724 51.232 49.871 48.439 48.542 46.994 46.565 47.157 47.002 46.519 46.516 46.458 46.4 46.46 46.52 46.638 46.679 46.73 46.886 49.328 49.957 48.698 47.696 48.125 49.071 49.999 50.651 51.463 51.804 51.815 51.964 50.904 49.558 48.512 48.157 55.628 57.071 57.629 58.081 58.557 59.042 59.305 58.869 58.405 57.795 57.45 56.829 51.163 48.986 49.627 50.893 51.978 52.889 51.994 51.912 51.856 51.323 51.305 52.413 53.238 51.798 51.837 51.51 51.695 51.639 51.556 51.475 51.216 51.745 54.905 55.697 55.685 56.516 57.413 59.215 57.512 58.166 61.658 60.607 60.918 58.246 52.252 49.202 48.176 48.295 50.649 54.192 53.993 50.924 40.969 41.583 40.824 39.69 39.45 39.475 41.144 48.399 51.31 51.409 48.995 44.472 41.771 41.379 41.225 41.165 41.097 41.052 41.063 40.991 40.961 40.935 40.962 41.011 41.043 41.062 41.128 41.166 41.197 41.229 41.283 41.275 43.643 46.429 49.952 50.988 51.416 51.651 51.984 52.221 52.481 52.573 53.001 53.125 48.78 44.472 44.491 44.43 44.326 41.727 41.483 42.896 46.729 46.812 47.179 47.7 48.04 48.518 48.935 49.326 49.764 49.718 49.512 49.039 48.607 48.148 47.669 47.285 46.869 45.616 42.315 45.082 47.879 48.358 47.619 42.099 44.601 44.636 44.373 45.011 46.154 46.154 46.129 46.118 46.107 46.137 45.33 42.451 41.449 41.243 41.147 41.063 41.058 41.012 40.952 40.904 40.854 43.09 44.917 48.98 50.458 50.92 50.988 50.591 50.206 49.716 49.335 48.738 48.703 52.544 53.431 53.902 53.744 53.311 52.844 49.782 48.766 49.301 49.694 50.177 50.68 51.044 50.758 48.69 42.765 40.895 41.538 40.915 40.303 40.224 40.197 41.11 40.916 40.153 40.173 40.176 40.204 40.179 40.219 40.195 40.24 40.21 40.223 40.261 40.249 40.274 40.247 41.156 41.378 40.797 41.263 40.294 40.307 40.279 40.93 43.788 49.529 41.846 40.711 40.204 40.162 40.134 44.95 40.31 40.17 45.006 41.723 40.183 40.178 40.219 40.24 40.259 40.327 40.292 40.31 40.301 40.256 40.193 40.157 40.134 40.15 40.219 40.247 40.301 41.2 43.875 44.643 45.006 40.024 39.981 40.024 40.094 40.082 40.058 40.034 40.062 43.15 46.459 43.58 41.741 40.951 40.518 40.31 40.245 40.39 46.462 47.261 47.335 47.36 47.413 47.461 47.517 47.559 47.699 47.704 47.751 47.854 47.913 47.741 47.687 47.649 47.577 47.498 47.47 47.417 47.371 47.298 47.08 41.054 40.265 40.245 40.283 40.172 40.981 40.367 40.357 40.384 40.216 40.178 40.204 40.79 40.724 41.188 41.899 42.322 42.987 44.223 45.745 46.84 47.426 47.437 47.495 47.452 47.347 51.686 54.246 54.862 51.326 48.928 44.176 42.891 43.056 43.076 43.174 43.179 43.214 46.921 45.72 42.224 46.235 48.38 48.417 48.663 48.855 49.076 49.282 49.358 49.156 48.896 48.727
41.552 41.546 41.467 41.427 41.368 41.314 41.567 43.338 41.572 41.148 41.192 41.142 41.136 41.086 41.054 40.971 40.967 42.516 44.015 44.313 44.987 44.494 44.084 42.636 41.963 43.616 42.575 48.008 52.398 54.146 54.272 50.582 51.765 52.234 52.779 50.569 47.459 42.91 42.364 42.388 43.405 43.578 43.078 45.888 45.784 46.641 49.475 45.931 47.741 52.09 52.673 45.693 48.472 51.561 46.602 50.939 47.484 50.134 45.527 42.805 43.042 48.807 52.58 52.424 51.647 50.741 49.179 48.727 48.108 46.576 46.597 48.119 48.615 46.882 46.456 46.436 46.45 46.5 46.601 46.67 46.724 46.758 47.049 49.472 50.863 48.395 48.378 48.745 49.065 49.635 50.158 50.97 51.292 51.608 51.346 49.877 48.885 48.027 52.476 56.936 57.322 57.96 58.348 58.903 59.238 59.031 58.486 57.989 57.479 57.012 51.731 48.963 49.234 50.183 53.437 53.629 52.958 52.711 51.745 51.375 51.33 51.371 52.603 53.332 52.224 51.393 51.744 51.63 51.654 51.483 51.417 51.151 53.306 55.951 56.381 55.914 53.649 59.254 57.522 55.713 60.721 58.01 61.915 60.511 55.876 49.839 49.154 47.118 45.404 45.752 50.462 52.134 44.375 40.514 39.782 39.475 39.517 39.48 39.448 39.55 45.339 46.708 45.717 43.533 42.061 41.454 41.246 41.233 41.173 41.169 41.105 41.177 41.422 41.006 40.978 40.923 40.95 40.959 41.025 41.034 41.125 41.136 41.2 41.218 41.273 41.319 45.248 46.496 47.18 51.094 51.369 51.703 51.959 52.179 52.335 52.694 52.879 47.634 44.456 44.47 42.75 41.6 41.384 44.787 46.314 46.244 46.444 46.851 47.235 47.728 48.037 48.602 48.913 49.372 49.961 49.794 49.458 48.942 48.456 48.122 47.672 47.26 46.841 46.438 48.723 50.594 50.661 49.144 44.239 42.533 41.675 41.865 44.97 46.095 46.12 46.118 46.132 46.151 46.195 46.105 42.178 41.304 41.171 41.106 41.031 41.009 40.976 40.915 40.849 40.802 40.709 43.487 50.381 50.925 51.067 50.604 50.17 49.67 49.174 48.813 50.78 52.913 53.403 53.861 53.811 53.338 52.79 49.008 48.813 49.239 49.771 50.286 50.679 51.071 50.836 50.554 49.96 48.617 40.795 40.495 40.398 40.302 40.289 41.226 41.349 40.758 41.294 40.143 40.156 40.137 40.139 40.149 40.18 40.193 40.206 40.247 40.214 40.24 40.25 40.258 40.274 41.462 41.768 40.689 40.307 40.282 40.315 40.274 40.293 40.567 40.516 41.998 41.45 41.575 47.278 41.465 40.229 40.241 40.287 40.187 40.195 40.227 40.222 40.241 40.301 40.324 40.279 40.304 40.262 40.216 40.21 40.172 40.16 40.196 40.238 40.292 40.437 40.416 41.036 40.319 41.083 39.969 40.033 40.068 40.085 40.035 40.031 40.054 40.149 43.183 46.367 47.009 42.028 40.762 40.279 40.239 40.375 45.264 47.279 47.3 47.321 47.387 47.473 47.536 47.547 47.66 47.702 47.748 47.775 47.799 47.802 47.734 47.656 47.576 47.547 47.481 47.439 47.369 47.306 43.564 41.206 40.264 40.279 40.266 41.239 40.456 40.211 40.188 40.165 40.307 40.196 40.185 40.255 40.568 40.66 41.374 41.734 42.316 42.757 44.145 45.81 46.724 47.502 47.396 47.56 47.499 47.257 47.67 50.544 53.089 50.912 49.615 45.151 43.055 42.941 42.988 43.146 43.227 43.144 46.324 47.674 45.829 46.92 48.291 48.478 48.628 48.873 49.099 49.354 49.382 49.085 48.912 48.724
41.539 41.53 41.471 41.421 41.368 41.384 41.992 42.663 42.617 41.711 41.193 41.188 41.154 41.111 41.048 41.002 40.963 41.533 43.057 44.524 44.856 45.389 45.366 44.962 44.085 39.338 39.77 39.772 47.933 49.075 52.129 52.59 45.066 50.923 53.831 53.37 49.631 44.153 42.338 42.35 42.387 42.435 42.58 43.178 42.893 43.912 43.631 43.836 43.182 42.845 42.434 43.157 45.359 45.139 44.728 44.512 45.132 45.427 43.604 42.519 48.18 50.869 51.946 51.986 50.429 51.126 50.662 48.625 47.726 48.374 48.776 49.631 47.763 46.415 46.399 46.385 46.412 46.508 46.569 46.662 46.729 46.867 47.32 48.205 48.848 49.574 48.641 48.823 48.955 49.081 49.411 50.019 50.319 50.443 50.035 49.148 48.063 48.116 56.612 57.217 57.803 58.322 58.76 59.161 59.194 58.624 58.215 57.624 57.28 52.715 49.689 48.999 49.783 51.998 53.592 54.442 52.836 52.773 51.492 51.259 51.319 52.62 52.724 53.243 51.484 51.531 51.693 51.698 51.527 51.451 51.253 51.509 55.168 55.903 56.596 54.184 52.792 58.882 55.469 61.179 60.667 60.635 61.579 50.682 49.705 48.511 47.203 48.396 51.529 52.601 51.309 51.974 45.862 41.268 39.614 39.374 39.451 39.442 39.431 39.521 39.371 41.365 40.663 41.195 40.81 43.576 43.695 41.356 41.74 43.713 43.651 44.519 43.63 41.042 40.999 40.985 40.985 40.926 40.975 41.034 41.041 41.101 41.152 41.198 41.222 41.278 41.283 43.259 46.211 49.936 51.091 51.399 51.649 51.903 52.159 52.232 45.409 44.455 44.444 42.87 41.334 41.327 44.816 46.562 46.446 46.345 46.281 46.396 46.951 47.209 47.597 48.215 48.481 48.93 49.494 49.742 49.845 49.442 49.017 48.495 48.1 47.654 47.289 46.96 48.822 50.303 50.762 50.421 45.919 41.751 41.615 41.709 42.58 45.979 46.133 46.111 46.108 46.143 46.105 42.049 41.315 41.211 41.136 41.072 40.996 40.896 40.91 40.847 40.836 40.75 40.725 40.946 43.54 50.61 50.646 50.124 49.597 49.19 48.63 49.402 53.012 53.378 53.91 53.863 53.344 52.774 49.576 48.878 49.295 49.712 50.104 50.656 51.046 50.856 50.343 49.965 49.418 48.952 47.709 44.765 40.461 40.295 41.182 41.741 40.666 40.928 40.279 40.09 40.117 40.103 40.101 40.118 40.151 40.171 40.183 40.309 40.264 40.378 40.237 40.293 40.69 40.538 41.402 41.816 40.489 40.272 40.298 40.314 40.355 41.25 40.66 40.488 42.92 42.519 48.192 44.347 42.621 40.122 40.159 40.208 40.209 40.213 40.245 40.273 40.292 40.313 40.316 40.286 40.211 40.247 40.186 40.177 40.206 40.25 40.291 40.305 40.475 40.395 40.228 40.072 39.96 39.982 40.071 40.09 40.047 40.021 40.04 40.084 40.276 40.423 44.739 44.972 41.313 40.582 40.231 40.238 44.039 47.249 47.314 47.335 47.411 47.411 47.53 47.599 47.616 47.701 47.745 47.789 47.896 47.839 47.728 47.661 47.608 47.567 47.508 47.44 47.4 47.398 47.261 43.439 40.27 40.903 40.863 41.081 40.487 41.129 40.61 40.985 40.431 40.162 40.147 40.177 40.19 40.636 40.683 41.363 41.821 42.227 42.867 44.163 45.886 46.929 47.319 47.442 47.51 47.428 47.153 47.076 52.964 50.612 49.271 49.718 49.109 44.098 42.993 43.26 43.294 43.327 44.149 45.726 44.4 43.286 44.942 48.213 48.423 48.638 48.871 49.073 49.264 49.338 49.135 48.941 48.716
41.586 41.52 41.467 41.449 41.24 49.078 42.835 41.935 43.565 42.291 41.25 41.2 41.18 41.143 41.114 41.059 41.039 41.006 41.022 41.621 44.115 44.725 44.792 45.354 44.521 40.584 40.32 38.845 39.573 44.41 44.934 52.848 45.67 53.511 54.206 53.767 53.257 48.191 44.879 42.356 42.583 42.546 42.435 42.517 42.859 43.473 43.417 43.337 42.821 42.43 42.42 43.814 44.561 43.584 44.748 43.266 44.989 44.5 43.405 42.448 44.086 46.508 52.036 51.115 52.649 52.352 53.494 48.566 46.676 46.74 48.513 46.703 47.079 46.389 46.368 46.432 46.46 46.524 46.566 46.688 46.736 47.067 48.124 49.103 48.547 50.599 49.245 48.556 48.745 48.702 48.691 49.006 49.319 49.445 48.989 48.176 47.965 55.628 57.088 57.527 58.091 58.484 59.113 59.324 58.828 58.299 57.816 57.295 56.877 51.458 48.908 49.603 51.262 53.912 52.852 52.04 52.263 51.641 51.331 51.302 51.696 53.346 52.336 51.64 51.49 51.736 51.64 51.651 51.475 51.397 51.54 53.155 56.505 57.32 57.422 57.236 56.61 59.518 59.969 57.349 58.348 60.955 56.396 54.394 52.222 47.542 46.592 48.264 51.768 54.114 52.937 49.973 43.639 39.733 39.345 39.298 39.387 39.457 39.945 39.487 40.005 41.781 42.386 41.702 42.678 45.988 45.359 46.876 43.531 45.283 43.976 41.694 41.579 41.035 41.009 41.024 41.045 42.576 41.005 40.945 41.022 41.045 41.106 41.166 41.191 41.245 41.288 41.285 42.258 41.87 48.934 50.93 51.482 51.665 51.761 45.318 44.479 44.496 44.293 41.683 41.272 41.339 41.765 43.444 43.968 46.41 46.335 46.256 46.526 46.788 47.239 47.747 48.224 48.561 49.097 49.337 49.756 49.787 49.329 48.917 48.531 48.066 47.682 47.307 48.337 50.356 50.354 49.822 43.976 41.447 41.535 41.548 41.598 42.484 45.198 46.039 46.125 43.681 41.913 41.263 41.202 41.134 41.075 41.041 40.945 40.871 40.812 40.734 40.73 40.693 40.651 40.593 40.493 42.452 49.849 49.548 49.192 48.675 50.746 52.527 53.414 53.817 53.735 53.277 52.802 49.756 48.754 49.296 49.654 50.235 50.701 51.147 50.871 50.414 49.884 49.381 48.947 48.53 46.899 46.379 42.126 40.388 41.174 40.279 40.605 40.249 40.113 40.088 40.067 40.082 40.124 40.111 40.127 40.119 40.185 40.152 40.667 41.231 40.304 41.102 40.49 40.227 40.244 40.564 40.491 40.28 40.375 40.375 40.41 40.351 40.463 41.307 42.109 49.054 49.915 45.573 51.582 40.313 40.193 40.234 40.226 40.254 40.274 40.277 40.319 40.341 40.313 40.282 40.258 40.245 40.215 40.245 40.223 40.282 40.344 40.407 40.357 40.23 40.12 39.959 39.988 40.062 40.041 40.044 40.006 39.999 40.048 40.243 40.345 40.416 41.236 40.749 40.272 40.232 40.366 40.493 47.144 47.309 47.313 47.409 47.434 47.505 47.555 47.603 47.653 47.743 47.761 47.787 49.061 49.397 47.707 47.597 47.562 47.51 47.476 47.407 47.333 47.167 45.815 40.336 40.223 40.945 40.427 40.427 41.044 40.43 41.152 41.085 40.703 40.207 40.171 40.178 40.148 40.29 40.626 41.306 41.738 42.273 42.641 44.056 45.732 46.75 47.436 47.383 47.495 47.418 47.063 46.727 51.309 50.772 49.036 48.145 48.522 44.235 43.079 43.051 43.104 43.222 44.027 45.14 42.502 41.563 47.017 48.565 48.448 48.607 48.896 49.044 49.336 49.309 49.096 48.881 48.708
41.578 41.551 41.491 41.501 41.448 54.17 56.021 52.785 48.73 42.784 41.54 41.226 41.186 41.174 41.126 41.131 41.09 41.085 41.072 41.071 41.568 41.416 44.111 45.011 43.624 42.372 42.385 40.424 39.438 43.657 52.133 53.024 48.737 52.276 54.276 49.886 54.534 53.406 50.706 51.65 49.154 45.392 42.401 42.399 42.38 42.397 42.371 42.435 42.414 42.476 42.409 42.654 43.329 42.857 43.964 43.291 43.667 42.647 42.422 42.406 47.782 52.806 55.512 52.375 51.334 53.066 49.181 47.915 46.763 46.877 47.187 47.645 46.407 46.317 46.392 46.406 46.401 46.47 46.571 46.708 46.777 46.924 48.059 48.443 48.87 50.49 49.085 48.59 48.298 48.243 48.181 48.138 48.424 48.661 48.323 47.963 53.993 56.897 57.408 57.818 58.477 58.971 59.211 59.027 58.47 58.008 57.477 56.907 52.424 48.921 49.14 50.131 51.833 52.266 51.986 52.52 51.642 51.461 51.373 51.4 52.136 53.33 52.184 51.457 51.69 51.707 51.736 51.508 51.474 51.75 52.237 55.412 55.769 56.424 54.331 56.15 58.69 56.514 60.71 58.736 53.969 57.85 57.08 57.017 54.644 48.463 47.559 45.777 49.061 52.345 50.669 47.525 42.113 39.514 39.344 39.516 39.35 39.392 39.342 39.465 42.358 41.26 41.616 42.338 40.927 44.714 48.793 50.016 51.02 48.537 41.305 41.173 41.331 41.876 41.882 43.818 44.926 44.644 41.972 40.958 40.938 41.033 41.032 41.086 41.148 41.178 41.249 41.28 41.319 41.32 41.34 43.245 51.049 51.411 46.505 44.527 44.475 42.391 41.374 41.301 41.249 41.163 41.435 41.744 44.935 45.587 46.411 46.326 46.228 46.414 46.814 47.362 47.682 48.143 48.592 48.959 49.27 49.82 49.79 49.453 48.939 48.467 48.129 47.825 47.732 49.784 48.604 48.4 43.589 42.493 41.77 41.464 41.474 41.599 42.715 45.623 45.724 42.162 41.263 41.183 41.122 41.062 41.013 40.961 40.905 40.841 40.805 40.737 40.691 40.635 40.603 40.515 40.477 40.431 40.767 48.943 48.727 50.76 52.828 53.417 53.885 53.788 53.324 52.842 49.082 48.866 49.269 45.794 50.061 50.682 51.061 50.842 50.371 49.915 49.441 48.975 48.477 47.899 46.736 47.295 47.015 44.387 40.603 40.238 40.187 40.103 40.096 40.061 40.046 40.079 40.02 40.061 40.058 40.124 40.113 40.163 40.201 40.154 40.216 40.558 40.381 40.263 40.208 40.207 40.202 40.226 40.277 40.228 40.29 41.524 40.588 40.642 42.04 41.189 48.639 52.711 42.885 40.203 40.238 40.236 40.263 40.255 40.308 40.305 40.313 40.287 40.247 40.19 40.234 40.267 40.275 40.251 40.273 40.372 40.395 40.446 40.256 41.323 40.057 39.981 40.059 40.136 40.087 40.043 40.015 39.989 40.071 40.552 40.646 40.575 40.347 41.435 40.467 41.051 41.321 47.129 47.295 47.327 47.34 47.453 47.44 47.546 47.614 47.638 47.704 47.772 47.808 48.312 48.412 47.72 48.014 47.971 47.5 47.481 47.421 47.348 47.278 43.73 45.062 40.49 40.221 40.498 41.343 40.465 40.222 40.639 41.428 40.69 40.268 40.151 40.163 40.181 40.182 40.515 40.559 41.139 41.713 42.229 42.721 44.378 45.755 46.748 47.329 47.34 47.456 47.392 47.103 46.916 49.246 49.646 49.896 49.288 47.145 43.403 42.971 42.859 43.192 43.319 43.386 43.053 41.822 40.799 47.986 48.265 48.419 48.642 48.822 49.095 49.319 49.283 49.097 48.875 48.664
41.602 41.586 41.492 41.434 41.776 53.792 54.888 55.499 54.934 46.163 41.557 41.589 41.355 41.205 41.189 41.188 41.129 41.157 41.118 41.121 41.093 41.094 41.073 41.07 41.305 41.338 41.762 42.581 43.259 43.671 42.974 47.169 46.665 51.225 53.668 52.604 52.717 51.692 53.134 53.459 52.873 48.276 42.751 42.386 42.356 42.417 42.393 42.414 42.894 42.72 42.379 42.4 42.39 42.423 42.72 42.429 42.396 42.411 42.391 42.598 51.609 53.023 55.643 48.958 52.538 52.742 48.975 47.314 46.494 46.806 49.817 49.448 46.366 46.311 46.371 46.391 46.459 46.53 46.672 46.713 46.779 46.822 47.134 47.797 48.479 50.588 48.98 48.335 47.891 47.969 48.056 48.056 48.127 48.171 48.025 52.344 56.757 57.284 57.75 58.262 58.774 59.284 59.284 58.664 58.126 57.695 57.117 54.74 48.992 48.891 49.918 51.306 51.912 51.485 52.727 52.639 52.931 51.43 51.418 51.585 52.403 52.268 51.558 51.581 51.762 51.745 51.686 51.539 51.266 51.459 52.931 53.883 55.466 57.281 56.832 53.402 53.068 56.422 60.941 57.215 51.774 55.731 57.079 56.432 55.323 49.713 47.293 44.717 46.516 48.282 47.66 47.929 41.551 39.325 39.278 39.229 39.264 39.252 39.254 39.211 40.714 42.309 41.762 40.057 43.425 47.535 50.061 51.148 50.768 47.188 41.843 41.194 44.146 45.065 45.041 42.954 42.017 43.646 44.903 43.908 40.932 40.96 41.001 41.073 41.077 41.114 41.174 41.184 41.221 41.306 41.325 41.323 48.744 45.442 44.481 44.44 42.72 41.39 41.304 41.185 42.333 42.61 41.157 41.088 41.267 41.786 46.509 46.436 46.296 46.251 46.406 46.899 47.401 47.795 48.191 48.635 49.017 49.402 49.776 49.751 49.31 48.905 48.539 48.098 47.682 47.302 47.14 46.545 46.128 45.137 43.425 45.569 44.82 41.805 41.818 41.647 42.646 41.322 41.211 41.138 41.077 41.008 40.932 40.898 40.84 40.814 40.739 40.69 40.647 40.569 40.538 40.534 40.438 40.474 40.549 42.17 50.449 52.917 53.408 53.921 53.825 53.313 52.791 49.598 48.818 49.181 49.696 50.268 50.686 51.011 50.781 50.288 49.926 49.382 48.947 48.534 44.055 40.485 47.224 46.864 46.121 42.391 40.578 40.167 40.11 40.13 40.084 40.068 40.049 40.016 40.028 40.06 40.05 40.09 40.258 40.996 40.158 40.208 40.212 40.28 40.245 40.569 40.228 40.214 40.173 40.213 40.349 40.203 40.217 40.568 40.522 40.235 40.586 44.014 42.963 41.743 41.161 42.542 40.319 40.222 40.262 40.286 40.335 40.314 40.286 40.242 40.213 40.188 40.188 40.251 40.212 40.286 40.292 40.397 40.406 40.327 41.34 41.829 39.996 40.026 40.059 40.096 40.046 40.012 40.04 40.045 40.122 40.371 40.589 40.16 40.347 40.608 40.408 40.329 45.2 47.265 47.275 47.307 47.403 47.474 47.513 47.607 47.644 47.682 47.761 47.832 47.907 48.182 47.994 47.821 47.616 49.283 47.486 47.432 47.361 47.318 47.278 47.218 45.812 44.584 40.332 40.295 40.438 40.863 40.328 41.51 40.752 40.354 40.207 40.175 40.156 40.175 40.266 40.793 40.613 41.15 41.673 42.127 42.781 44.14 45.546 46.706 47.328 47.353 47.444 47.379 46.997 47.021 48.575 49.221 45.156 48.451 46.753 43.562 42.974 42.977 43.076 43.112 43.066 42.672 41.93 40.666 48.391 48.244 48.447 48.705 48.916 49.095 49.27 49.309 49.116 48.869 48.681
41.607 41.603 41.557 41.421 44.032 56.007 55.95 55.798 56.016 52.498 52.469 42.115 43.643 41.572 41.243 41.223 41.22 41.18 41.166 41.165 41.151 41.141 41.116 41.126 41.112 41.115 41.074 41.151 43.271 43.336 43.925 41.746 42.901 45.526 43.47 46.254 53.379 53.803 52.725 52.77 52.407 49.706 44.229 44.636 43.749 42.717 43.001 42.46 42.47 44.061 42.495 43.716 42.391 42.392 42.391 42.378 42.404 42.422 42.386 42.424 50.932 56.123 54.865 52.255 53.176 53.246 49.284 47.929 47.641 49.74 48.11 46.645 46.238 46.316 46.373 46.487 46.486 46.599 46.697 46.762 46.82 46.89 46.768 47.092 48.075 49.151 48.347 48.028 47.909 47.992 48.08 48.145 48.174 48.126 48.202 55.643 57.071 57.597 58.076 58.572 59.077 59.153 58.881 58.231 57.839 57.277 56.912 51.44 48.872 49.242 50.735 51.623 52.619 52.799 53.65 52.976 53.191 52.811 51.457 51.96 51.801 51.982 51.511 51.674 51.715 51.765 51.587 51.427 51.223 52.05 55.827 57.869 57.971 59.173 60.349 52.933 53.815 56.045 59.379 57.127 51.911 53.576 55.97 56.151 55.844 54.126 44.088 42.662 41.981 41.87 43.093 41.927 40.17 39.342 39.272 39.251 39.243 39.232 39.204 39.331 39.223 39.582 41.578 39.639 40.273 45.922 49.985 50.947 49.818 44.49 41.48 41.396 41.201 42.287 44.978 45.099 44.979 44.86 43.699 42.982 41.993 40.986 40.98 40.982 41.035 41.056 41.104 41.144 41.182 41.268 41.301 41.303 41.347 43.92 44.456 44.206 41.39 41.303 41.191 41.209 41.597 44.493 41.852 41.175 41.071 41.037 42.661 46.359 46.441 46.313 46.217 46.472 46.833 47.329 47.728 48.094 48.559 48.917 49.354 49.922 49.793 49.411 48.93 48.469 48.159 47.673 47.327 46.879 46.387 46.115 43.182 44.427 43.86 46.656 42.179 41.363 41.275 41.193 41.141 41.069 41.013 40.933 40.904 40.865 40.802 40.777 40.735 40.688 40.608 40.513 40.47 40.451 40.471 40.418 40.536 40.569 41.563 53.065 53.825 53.753 53.215 52.722 49.337 48.849 49.346 49.743 50.224 50.693 51.162 50.923 50.344 49.865 49.481 48.999 48.349 42.584 40.45 48.075 47.877 45.606 43.224 40.827 40.311 40.191 40.161 40.079 40.073 40.052 40.026 40.01 40.024 40.03 40.081 40.411 41.64 40.565 40.308 40.208 40.119 40.149 40.293 40.286 40.225 40.393 40.184 40.189 40.242 40.201 40.227 40.302 40.346 41.352 43.016 43.266 43.948 42.098 41.826 42.348 40.223 40.236 40.277 40.313 40.329 40.313 40.241 40.207 40.18 40.128 40.165 40.226 40.209 40.284 40.349 40.307 40.273 40.312 40.559 39.991 40.027 40.092 40.1 40.059 40.023 40.019 39.998 40.047 40.468 40.41 40.636 40.718 40.221 40.253 40.348 45.192 47.191 47.241 47.369 47.368 47.455 47.466 47.534 47.615 47.698 47.719 47.835 47.841 47.788 49.378 47.679 47.604 47.649 48.159 47.423 47.43 47.337 47.286 47.195 47.174 46.986 41.567 40.428 40.906 40.403 40.207 40.763 41.094 40.507 40.155 40.182 40.139 40.209 40.185 40.245 40.589 40.677 41.173 41.779 42.096 42.826 43.9 45.912 46.764 47.332 47.359 47.489 47.369 47.048 46.722 48.944 49.515 49.054 49.294 49.034 43.138 43.099 43.004 43.108 42.999 43.101 42.826 41.836 40.834 49.334 48.289 48.484 48.674 48.859 49.067 49.302 49.303 49.101 48.884 48.672
41.631 41.589 41.531 41.394 49.317 57.328 56.208 56.128 56.147 54.769 54.131 54.032 52.792 47.68 50.099 48.035 41.516 41.59 41.195 41.224 41.253 41.154 41.16 41.143 41.154 41.119 41.156 41.158 41.46 41.799 44.494 44.197 44.379 39.883 45.365 45.491 45.838 47.879 47.647 49.27 44.814 45.896 45.877 45.736 46.559 45.165 44.409 44.884 42.498 45.138 45.224 45.274 42.697 42.949 42.402 42.364 42.413 42.363 42.402 42.692 53.746 55.596 54.954 52.09 54.167 51.82 48.252 47.485 49.915 49.911 46.634 46.188 46.867 46.358 46.559 46.991 46.59 46.599 46.671 46.809 47.164 47.88 47.259 46.94 47.479 47.856 48.073 48.106 48.008 47.989 48.134 48.174 48.137 48.326 54.16 56.929 57.489 57.852 58.475 58.879 59.347 59.061 58.444 58.108 57.417 56.815 51.275 48.869 48.907 50.201 51.82 52.771 53.29 52.84 52.94 53.406 52.229 52.739 51.869 52.552 52.591 51.573 51.519 51.717 51.719 51.657 51.646 51.238 51.325 52.295 54.742 54.158 58.899 58.234 59.025 55.862 56.706 56.787 57.441 53.055 52.341 52.561 52.71 54.513 55.243 52.285 45.477 42.086 40.975 40.614 40.117 42.395 39.454 39.294 39.265 39.281 39.228 39.261 39.171 39.172 39.281 39.121 39.128 39.261 39.11 39.137 44.696 48.772 46.592 42.425 41.134 41.326 41.256 41.242 44.178 42.27 41.864 41.067 43.202 44.074 42.086 41.073 41.588 40.978 41.014 41.012 41.029 41.088 41.147 41.238 41.218 41.23 41.281 41.28 41.827 41.626 41.242 41.239 41.24 41.208 41.127 41.692 43.968 43.665 41.169 41.108 41.105 42.199 46.506 46.426 46.312 46.233 46.509 46.829 47.231 47.646 48.245 48.503 49.028 49.553 49.913 49.778 49.374 48.975 48.572 48.125 47.715 47.337 46.846 46.341 45.963 44.882 45.868 46.36 46.533 41.429 41.202 41.119 41.07 40.969 40.965 40.902 40.846 40.813 40.734 40.734 40.72 40.667 40.614 40.524 40.488 40.42 40.45 42.232 42.944 40.545 40.482 47.094 53.324 53.197 52.842 49.952 48.869 49.346 49.871 50.216 50.691 51.158 50.808 50.466 49.816 49.353 48.992 48.428 43.156 41.763 43.617 48.676 43.344 40.281 40.49 40.24 40.19 40.181 40.151 40.093 40.065 40.028 40.019 40.034 40.006 39.965 40.052 41.206 40.431 40.048 40.092 40.086 40.122 40.136 40.236 40.1 40.408 40.963 40.351 40.188 40.18 40.182 40.194 40.156 40.825 42.628 43.313 43.313 43.305 43.717 43.372 41.841 40.354 46.106 40.464 40.289 40.968 40.995 40.232 40.196 40.048 40.139 40.219 40.213 40.277 40.328 40.295 40.187 40.207 40.209 40.051 40.018 40.095 40.126 40.105 40.025 40.012 40.013 40.074 40.322 40.575 40.513 40.958 41.394 40.227 40.249 44.117 47.26 47.273 47.355 47.369 47.419 47.472 47.589 47.583 47.663 47.704 47.8 47.848 47.809 47.734 47.643 48.042 48.003 48.659 47.691 47.37 47.335 47.287 46.675 46.956 47.073 44.446 43.269 42.677 41.158 40.476 40.239 40.241 40.305 40.19 40.193 40.15 40.299 40.255 40.218 40.273 40.626 40.509 41.094 41.697 42.082 42.526 43.848 46.571 47.631 47.299 47.336 47.472 47.341 47.14 48.283 49.682 51.365 49.624 48.36 43.863 43.096 43.064 42.845 43.254 43.202 43.239 42.831 42.118 40.895 48.751 48.268 48.485 48.689 48.898 49.116 49.33 49.297 49.132 48.908 48.668
41.677 41.61 41.534 41.463 51.464 57.602 57.733 57.591 56.643 54.454 54.34 54.284 54.209 54.132 54.039 53.977 50.299 43.313 50.003 42.893 41.321 41.26 41.233 41.175 41.168 41.205 41.186 41.147 41.143 41.139 41.692 43.576 44.741 42.964 41.405 43.017 40.162 38.842 44.285 41.186 40.359 41.778 44.563 45.407 45.126 45.353 45.7 46.27 46.059 46.093 45.773 44.978 44.59 45.366 42.496 42.57 42.483 43.053 42.318 42.286 51.429 54.623 49.864 51.856 53.305 51.73 47.761 47.267 49.692 47.987 46.109 46.19 46.805 46.812 46.918 47.08 47.385 46.68 46.682 47.384 47.906 48.319 47.05 46.975 47.298 47.736 47.995 48.141 48.162 48.13 48.236 48.216 48.173 48.431 56.77 57.41 57.847 58.214 58.778 59.242 59.085 58.583 58.068 57.682 57.048 56.59 50.081 49.216 49.891 52.213 52.984 53.112 53.487 53.462 52.71 53.304 53.205 52.06 52.241 52.642 51.621 51.578 51.85 51.747 51.735 51.636 51.473 51.183 51.391 53.581 53.779 56.289 57.072 58.86 56.748 56.51 57.006 56.689 55.292 53.89 52.386 49.691 50.428 51.584 52.738 49.715 42.995 41.216 40.591 40.355 39.427 39.458 39.337 39.293 39.253 39.262 39.245 39.15 39.187 39.118 39.148 39.094 39.109 39.109 39.083 39.287 41.113 40.214 39.362 39.531 40.303 41.093 41.152 41.357 41.201 41.17 41.115 41.072 41.653 44.675 44.608 44.526 41.795 40.906 40.989 40.971 41.008 41.079 41.15 41.132 41.153 41.173 41.2 41.272 41.215 41.226 41.251 41.222 41.169 41.169 41.084 41.137 42.032 42.002 41.276 41.121 41.115 41.107 45.525 46.437 46.438 46.322 46.219 46.531 46.863 47.376 47.788 48.184 48.598 49.046 49.408 49.857 49.776 49.376 48.952 48.511 48.066 47.719 47.223 46.98 43.471 42.218 44.595 44.837 46.373 42.942 41.165 41.068 40.994 40.955 40.888 40.818 40.842 40.744 40.703 40.662 40.64 40.638 40.611 40.524 40.492 40.42 40.38 40.438 43.089 43.318 40.53 40.499 43.163 52.381 48.946 48.915 49.304 49.837 50.305 50.768 50.939 50.745 50.346 49.909 49.378 48.969 48.433 43.922 41.459 42.026 42.723 42.08 40.21 40.198 40.216 40.223 40.204 40.197 40.145 40.096 40.021 40.028 40.017 39.96 39.984 39.992 39.979 40.009 40.047 40.02 40.057 40.065 40.092 40.127 40.122 40.139 40.142 40.324 40.53 40.178 40.135 40.156 40.183 40.155 40.195 40.326 42.69 43.371 43.33 43.298 42.672 42.772 41.254 40.172 40.275 46.323 40.493 40.294 40.27 40.179 40.17 40.161 40.241 40.24 40.341 40.364 40.225 40.186 40.187 40.082 40.059 40.067 40.102 40.125 40.122 40.037 40.086 40.233 40.368 40.477 41.033 41.083 40.687 40.22 40.268 40.38 47.171 47.295 47.334 47.41 47.387 47.497 47.559 47.558 47.651 47.724 47.747 47.853 47.792 47.763 47.692 47.62 47.552 47.496 47.47 47.396 47.362 47.311 46.625 46.175 46.075 46.343 44.387 43.931 40.552 41.616 40.457 40.204 40.262 40.2 40.162 40.207 40.307 40.379 40.207 40.225 40.249 40.529 40.565 41.153 41.64 42.076 42.853 45.96 47.843 47.508 47.359 47.264 47.385 47.371 47.535 49.075 52.505 53.038 50.896 48.612 44.123 43.208 43.204 43.219 43.367 43.041 43.238 43.035 42.001 40.866 49.177 48.335 48.459 48.682 48.861 49.131 49.34 49.272 49.048 48.828 48.662
42.708 42.703 41.585 41.803 55.575 57.358 57.493 57.574 57.621 54.724 54.588 54.511 54.369 54.387 54.287 54.214 54.184 54.048 51.816 47.646 52.324 42.516 43.54 41.552 41.249 41.258 41.228 41.188 41.176 41.212 41.343 42.805 44.454 44.462 45.29 46.186 44.399 44.011 42.839 38.669 38.571 39.412 39.935 43.415 43.961 45.407 45.944 46.033 45.328 46.903 46.578 46.203 46.539 43.959 42.597 42.735 42.907 43.431 42.531 42.341 48.97 51.208 50.997 49.884 47.852 47.5 47.063 47.439 46.894 46.313 46.206 46.226 47.461 48.237 47.298 47.075 46.826 47.019 46.931 48.038 48.492 47.193 47.101 47.044 47.386 47.732 48.001 48.13 48.179 48.165 48.19 48.212 48.199 48.695 56.901 57.669 58.034 58.66 59.225 59.216 58.725 58.247 57.758 57.25 56.536 49.752 49.02 49.613 51.25 52.734 55.093 51.757 52.543 52.765 52.833 53.037 52.185 52.105 51.85 52.729 51.531 51.685 51.731 51.714 51.599 51.441 51.223 51.285 53.042 54.739 53.839 54.256 55.907 55.102 51.225 57.035 56.497 55.841 54.973 54.371 51.312 48.723 49.679 47.672 45.537 45.802 41.763 40.795 41.307 40.154 39.345 39.337 39.253 39.251 39.23 39.228 39.207 39.185 39.159 39.147 39.101 39.124 39.108 39.108 39.095 39.12 39.478 39.188 39.203 39.26 39.349 40.187 41.357 41.182 41.318 41.206 41.153 41.121 41.162 44.524 43.993 44.079 40.971 40.893 40.933 40.969 40.974 41.008 41.054 41.067 41.125 41.118 41.148 41.215 41.197 41.216 41.18 41.149 41.158 41.14 41.094 41.155 41.149 41.534 43.366 41.643 41.151 41.142 41.192 44.957 46.468 46.44 46.3 46.236 46.488 46.962 47.364 47.763 48.062 48.619 49.131 49.308 43.862 49.77 49.344 48.912 48.547 48.161 47.494 41.783 41.884 41.119 44.046 44.481 43.635 42.157 41.047 41.014 40.935 40.894 40.837 40.783 40.729 40.669 40.659 40.607 40.617 40.639 41.021 40.574 40.475 40.4 40.391 40.318 40.345 42.833 42.835 40.45 40.47 46.108 48.901 49.239 49.811 50.161 50.669 51.049 50.905 50.328 49.908 49.393 48.892 48.5 44.222 41.159 40.778 40.169 40.22 40.638 40.171 40.175 40.165 40.183 40.176 40.184 40.096 40.059 40.027 40.001 39.995 39.969 39.98 39.968 39.941 39.971 39.993 39.996 40.053 40.077 40.08 40.266 40.076 40.141 40.774 40.68 40.438 40.66 40.33 40.135 40.163 40.166 40.19 40.185 40.192 42.613 43.323 43.307 43.258 42.709 40.812 40.271 43.398 42.73 40.357 46.066 40.632 40.198 40.234 40.186 40.255 40.324 40.363 40.27 40.193 40.196 40.135 40.024 40.053 40.138 40.176 40.114 40.062 40.106 40.181 40.727 40.404 40.312 40.159 40.639 40.287 40.253 40.388 46.43 47.275 47.26 47.344 47.434 47.433 47.537 47.584 47.623 47.694 47.788 47.783 47.829 47.816 47.699 47.65 47.588 47.531 47.439 47.404 47.362 47.319 47.31 46.252 46.136 46.108 46.052 46.021 45.191 41.482 40.37 40.391 40.222 40.223 40.246 40.2 40.246 41.025 40.449 40.247 40.301 40.221 40.47 40.569 41.053 41.586 42.019 44.764 46.535 47.99 47.161 47.25 47.273 47.412 47.312 48.643 51.316 51.352 51.735 50.162 51.426 43.911 43.015 43.045 43.037 42.979 43.358 43.035 42.948 42.135 40.846 48.712 48.319 48.492 48.723 48.911 49.102 49.348 49.287 49.085 48.831 48.624
41.669 41.831 42.102 41.849 56.926 57.208 57.237 57.383 56.021 54.851 54.814 54.71 54.661 54.629 54.495 54.458 54.32 54.279 54.258 54.107 54.105 53.997 48.302 45.469 51.071 41.776 41.661 41.29 41.297 41.304 42.659 43.698 44.549 45.547 47.159 46.574 46.39 45.703 45.026 39.629 38.973 38.542 38.533 38.534 44.455 46.373 46.792 44.41 44.468 46.738 45.237 46.596 46.944 44.101 46.196 45.682 43.037 45.121 44.254 42.403 42.993 46.884 52.106 50.271 47.138 47.47 46.732 46.354 46.381 46.278 46.243 46.285 46.717 47.783 47.622 46.927 46.79 46.96 47.162 47.22 47.309 48.555 46.902 47.052 47.451 48.049 48.46 48.464 48.43 48.268 48.2 48.263 48.192 48.239 48.234 51.083 58.118 59.005 59.405 59.013 58.478 57.888 57.323 56.937 51.191 48.91 49.213 50.72 53.403 53.857 57.073 53.52 52.987 52.899 52.84 53.009 52.494 52.665 52.555 51.65 51.553 51.791 51.755 51.693 51.63 51.44 51.285 52.189 55.363 56.483 54.418 52.864 56.135 57.747 54.017 58.024 55.535 55.097 55.891 55.591 52.659 50.909 49.465 45.243 43.889 42.38 41.141 40.446 41.1 39.576 39.332 39.351 39.273 39.261 39.226 39.182 39.17 39.147 39.145 39.09 39.064 39.072 39.084 39.083 39.12 39.158 39.296 39.127 39.103 39.167 39.229 39.232 40.84 41.022 41.364 41.464 41.24 41.184 43.764 44.751 44.744 42.389 40.977 40.967 40.904 40.927 40.911 40.95 40.995 41.012 41.097 41.056 41.101 41.104 41.143 41.161 41.116 41.141 41.122 41.119 41.092 41.065 41.081 41.126 42.893 43.392 41.203 41.156 41.134 41.139 44.94 46.559 46.422 46.283 46.211 46.597 47.02 47.351 47.824 48.202 48.417 41.964 47.003 49.783 49.873 49.381 48.913 48.538 43.162 43.701 43.854 41.198 41.057 41.75 41.35 41.21 40.987 40.966 40.903 40.828 40.762 40.735 40.675 40.654 40.633 40.623 40.599 41.876 42.519 41.093 40.453 40.417 40.39 40.375 40.343 40.353 40.812 40.305 40.385 40.787 47.914 49.607 50.318 50.678 51.052 50.774 50.359 49.881 49.344 48.876 48.37 43.93 45.62 42.208 42.244 40.303 40.217 40.185 40.174 40.173 40.173 40.126 40.138 40.13 40.054 40.037 40.011 39.978 39.981 39.93 39.953 39.934 39.951 39.97 39.959 39.978 40.012 40.648 41.09 41.152 40.366 40.098 40.896 41.024 40.89 40.476 40.099 40.167 40.14 40.169 40.187 40.201 40.222 40.229 42.028 43.311 43.312 43.284 42.879 45.884 43.161 42.109 40.216 40.339 40.461 40.242 40.25 40.262 40.3 40.319 40.334 40.219 40.222 40.185 40.054 40.102 40.117 40.137 40.114 40.093 40.126 40.192 40.262 40.343 40.998 40.473 40.328 40.21 40.23 40.236 43.934 47.265 47.318 47.339 47.455 47.446 47.503 47.565 47.641 47.688 47.754 47.757 47.804 47.773 47.713 47.631 47.609 47.562 47.475 47.446 47.357 47.317 47.155 46.592 46.224 46.251 46.148 46.116 46.084 46.067 45.982 43.995 41.899 40.271 40.285 40.231 40.228 40.233 40.415 40.64 40.852 40.468 40.311 41.24 40.623 41.01 41.609 42.06 42.924 43.952 47.22 46.928 47.341 47.292 47.389 47.329 46.832 47.731 49.381 49.237 50.577 51.138 45.875 43.298 42.941 43.125 43.257 43.301 43.019 44.332 44.661 40.845 48.093 48.297 48.446 48.684 48.886 49.109 49.305 49.273 49.068 48.851 48.605
41.709 41.617 41.562 42.715 56.672 56.936 56.979 57.163 55.075 54.677 54.717 54.794 54.813 54.918 54.769 54.728 54.574 54.544 54.416 54.38 54.288 54.229 54.197 54.077 50.302 53.527 49.287 42.464 50.017 41.895 41.923 44.521 45.719 45.609 46.158 46.478 46.72 46.511 46.176 42.812 41.116 40.447 38.908 40.302 42.788 44.224 44.357 39.914 40.643 42.813 44.364 44.432 43.249 43.743 48.471 49.774 48.564 46.333 43.793 42.855 47.646 51.83 52.123 51.004 47.779 47.555 46.937 46.626 46.304 46.329 46.272 46.632 46.969 47.096 47.191 46.873 47.065 46.802 47.001 47.314 47.367 46.862 47.271 47.678 48.409 48.847 48.768 48.538 48.344 48.462 48.453 48.328 48.215 48.255 48.247 48.304 48.644 57.19 59.043 58.62 58.095 57.631 57.061 56.496 48.959 48.939 50.05 52.437 54.481 58.196 57.45 57.843 53.215 52.909 52.424 51.908 52.366 51.956 51.733 51.522 51.729 51.777 51.739 51.642 51.54 51.198 51.556 51.551 58.064 57.623 58.276 56.843 56.834 57.322 57.618 56.39 54.898 55.516 55.796 54.555 50.548 50.537 45.98 44.489 44.819 41.529 40.5 41.079 40.697 39.97 39.339 39.384 39.296 39.292 39.234 39.212 39.124 39.121 39.105 39.056 39.058 39.116 39.137 39.122 39.13 39.127 39.161 39.157 39.098 39.091 39.129 39.194 39.23 39.351 40.521 41.493 41.494 41.409 42.117 42.928 44.656 44.638 42.601 40.996 40.962 40.947 40.934 40.916 40.993 41.012 41.004 41.06 41.034 41.107 41.071 41.097 41.091 41.116 41.072 41.106 41.075 41.09 41.121 41.112 41.162 41.546 41.136 41.119 41.128 41.066 41.045 45.489 46.407 46.395 43.695 46.056 46.491 46.925 47.356 47.47 41.623 41.182 41.167 47.871 49.885 49.777 49.195 43.24 43.152 44.019 41.889 41.003 40.995 41.956 41.25 41.049 42.109 40.989 41.63 40.895 40.762 40.822 40.637 40.617 40.624 40.593 40.908 42.879 42.985 41.746 40.976 40.437 40.418 40.405 40.359 40.298 40.347 40.317 40.267 40.382 40.794 42.645 50.628 51.132 50.731 50.319 49.854 49.32 48.911 48.44 45.775 44.105 44.834 40.713 40.197 40.493 40.19 40.196 40.154 40.153 40.141 40.142 40.12 40.078 40.038 39.979 40.119 40.221 40.056 39.962 40.227 39.919 39.915 39.931 39.958 39.98 40.992 41.206 41.205 40.149 40.044 40.051 40.278 41.026 40.612 40.207 40.109 40.138 40.154 40.162 40.21 40.337 41.336 40.519 40.304 42.701 43.319 43.294 43.28 44.265 44.506 40.795 41.941 40.429 41.432 40.254 40.304 40.314 40.323 40.308 40.208 40.238 40.211 40.125 40.091 40.103 40.158 40.175 40.131 40.075 40.104 40.153 40.373 40.468 40.412 40.39 40.752 40.253 40.264 43.896 47.184 47.299 47.318 47.384 47.455 47.525 47.537 47.599 47.655 47.753 47.791 47.82 47.757 47.807 47.668 47.587 47.57 47.498 47.458 47.407 47.323 47.28 46.565 46.239 46.277 46.194 46.203 46.213 46.114 46.089 46.038 45.996 44.597 40.812 40.295 40.218 40.305 41.352 40.314 40.31 40.232 40.211 40.25 40.242 40.588 41.05 41.5 42.082 42.654 44.265 45.832 46.885 47.351 47.233 47.332 47.299 46.831 47.53 48.808 47.24 50.161 50.659 48.14 43.13 43.005 43.152 43.392 43.253 44.103 45.198 44.489 41.207 48.105 48.283 48.486 48.676 48.857 49.112 49.349 49.273 49.05 48.859 48.634
42.554 42.118 41.624 44.265 45.721 53.601 56.426 56.795 54.339 54.41 54.473 54.551 54.649 54.71 54.721 54.798 54.851 54.749 54.658 54.588 54.487 54.454 54.337 54.306 54.234 54.156 54.047 54.068 49.948 46.093 44.152 44.225 45.038 45.49 45.711 46.244 46.543 46.602 46.577 44.399 42.611 42.216 41.675 41.551 41.151 41.126 42.328 42.517 41.309 42.878 42.03 45.221 40.548 43.617 48.86 48.898 47.741 47.545 46.722 48.242 50.784 52.774 48.942 52.681 48.923 48.068 48.03 47.575 47.509 47.015 47.061 46.826 47.246 47.442 47.936 47.875 47.151 46.986 46.923 47.416 47.403 48.198 48.326 49.066 49.238 49.044 48.938 48.459 48.367 47.865 49.331 49.951 50.219 48.613 47.883 48.202 48.322 48.541 56.663 58.144 57.69 57.296 56.596 49.683 48.83 49.516 50.926 56.105 53.328 56.019 54.242 56.588 54.979 52.952 52.28 52.297 52.37 51.933 51.491 51.642 51.907 51.85 51.759 51.683 51.365 51.273 51.488 54.646 58.182 59.018 59.081 57.474 55.673 55.492 54.919 54.345 55.42 54.193 54.367 51.003 48.214 47.937 47.705 45.319 42.347 40.959 40.024 40.252 40.652 39.651 39.337 39.649 39.258 39.213 39.198 39.162 39.138 39.129 39.106 39.077 39.076 39.274 39.352 39.289 39.243 39.195 39.164 39.172 39.109 39.099 39.084 39.114 39.185 39.22 39.279 40.258 41.145 41.554 42.065 44.746 42.527 42.68 41.051 40.999 40.99 40.935 40.929 42.674 41.542 41.095 42.486 43.377 41.063 41.036 41.031 41.038 41.038 41.051 41.111 41.091 41.088 41.08 41.182 42.211 41.231 41.129 41.264 41.131 41.088 41.094 41.07 41.05 44.916 46.523 44.485 41.32 44.12 46.436 46.947 42.375 41.18 41.19 41.146 41.186 47.895 49.882 44.515 41.006 41.481 41.877 41.018 40.999 40.984 40.96 40.956 40.957 41.234 41.72 40.887 41.114 41.819 41.817 40.731 40.602 40.648 42.188 42.943 42.947 42.976 41.261 40.451 40.459 40.429 40.392 40.351 40.324 40.311 40.326 40.297 40.257 40.306 40.473 43.528 50.68 49.142 49.783 49.295 48.911 48.438 43.915 42.54 42.205 40.583 40.232 40.162 40.17 40.149 40.153 40.14 40.155 40.097 40.114 40.083 40.036 40.04 41.764 42.847 41.928 40.149 39.914 40.371 41.335 39.92 39.908 39.9 39.907 41.966 41.22 40.013 40.023 39.998 40.479 40.92 40.586 40.083 40.089 40.169 40.16 40.153 40.185 40.254 43.574 45.875 42.956 40.962 40.244 42.611 43.311 43.32 43.291 42.682 40.489 40.119 48.267 45.226 41.134 40.285 40.448 40.328 40.189 40.184 40.184 40.184 40.092 40.103 40.13 40.164 40.118 40.064 40.08 40.133 41.513 41.145 40.488 40.569 40.534 40.428 40.272 40.287 45.799 47.141 47.324 47.355 47.395 47.466 47.515 47.634 47.664 47.726 47.809 47.806 47.851 47.746 47.678 47.627 47.548 47.519 47.483 47.45 47.331 47.269 47.278 46.281 46.188 46.231 46.379 46.253 46.191 46.166 46.1 46.074 46.081 46 45.946 41.556 40.547 40.82 40.727 40.76 40.215 40.17 40.212 40.236 41.74 40.631 41.015 41.598 42.1 42.77 44.14 45.89 46.871 47.341 47.329 47.376 47.298 46.854 46.72 49.389 50.327 49.188 50.041 46.781 44.151 43.005 42.991 42.942 43.186 43.164 42.881 41.727 40.916 49.007 48.281 48.445 48.69 48.92 49.114 49.338 49.281 49.049 48.853 48.613
42.002 42.688 41.842 41.729 41.681 41.645 44.695 54.164 54.07 54.157 54.26 54.362 54.357 54.431 54.493 54.61 54.632 54.757 54.788 54.841 54.77 54.68 54.603 54.515 54.488 54.361 54.31 54.24 54.177 54.091 53.745 42.784 45.793 45.051 45.262 45.873 46.317 46.269 43.176 41.532 41.543 41.377 42.025 42.1 41.802 41.437 42.909 44.395 42.301 42.233 43.28 45.266 48.499 50.191 48.006 45.279 49.526 48.121 47.914 49.349 52.657 53.936 51.363 51.685 50.996 48.104 48.566 48.509 48.374 48.034 48.207 47.985 48.13 48.644 48.513 48.764 48.962 48.851 48.162 48.681 49.053 48.782 49.259 48.875 48.849 47.973 47.953 49.105 48.161 48.117 49.572 50.444 49.165 48.386 46.47 47.499 48.073 48.324 48.38 50.456 52.715 56.824 51.246 48.828 49.013 50.138 52.445 59.237 58.649 54.472 56.226 58.174 54.377 53.01 53.932 52.802 52.054 51.747 51.492 51.749 51.783 51.828 51.658 51.513 51.24 51.311 52.352 54.047 56.9 54.157 57.699 57.618 52.142 51.394 52.136 52.559 52.231 51.537 50.101 48.759 47.517 46.424 48.034 45.552 42.099 40.649 41.339 40.192 39.505 39.389 39.349 39.338 39.257 39.238 39.162 39.184 39.126 39.119 39.106 39.105 39.223 39.412 39.529 39.71 40.064 39.221 39.223 39.177 39.228 39.206 39.127 39.146 39.158 39.214 39.2 39.262 40.195 41.136 41.43 41.346 41.21 41.099 41.074 41.055 41.024 40.979 43.322 44.234 41.701 45.052 45.405 41.869 40.961 40.964 40.996 41.043 41.018 41.033 41.103 41.081 41.083 41.059 41.031 41.085 41.118 41.073 41.114 41.123 41.073 41.074 41.118 41.08 41.05 41.682 42.107 41.847 41.338 43.1 42.161 41.189 41.161 41.156 41.137 41.153 41.332 41.927 41.021 40.985 41.004 40.964 40.976 40.961 40.962 40.938 40.949 42.126 41.101 41.395 42.897 41.224 41.947 42.608 42.317 40.67 42.225 42.921 42.976 43.018 40.897 40.433 40.508 40.441 40.448 40.441 40.386 40.338 40.337 40.28 40.283 40.264 40.225 40.268 40.351 48.297 49.766 49.384 48.871 48.424 42.989 42.014 42.047 42.132 42.704 40.205 40.103 40.148 40.172 40.157 40.153 40.155 40.12 40.101 40.068 40.015 41.704 42.91 47.459 47.079 43.951 40.145 40.549 40.95 39.848 39.879 39.879 39.877 40.419 39.955 39.952 39.955 40.016 40.451 40.445 40.027 40.059 40.071 40.118 40.191 40.159 40.236 43.548 46.293 46.404 46.332 44.257 40.442 40.29 41.635 43.233 43.351 43.254 40.497 40.519 46.87 42.765 40.294 40.439 41.648 40.246 40.193 40.263 40.127 40.081 40.109 40.182 40.202 40.168 40.128 40.155 40.226 41.394 42.045 40.607 40.412 40.722 41.078 40.77 40.567 40.257 41.623 46.326 46.141 47.387 47.468 47.532 47.555 47.658 47.72 47.737 47.819 47.852 47.761 47.733 47.651 47.577 47.533 47.443 47.396 47.347 47.313 46.648 46.193 46.138 46.145 46.197 46.221 46.264 46.277 46.24 46.177 46.153 46.13 46.057 46.032 45.62 41.785 40.47 40.84 41.258 40.494 40.18 40.212 40.235 41.624 40.45 41.084 41.54 42.094 42.945 46.412 46.239 46.846 47.309 47.309 47.36 47.325 46.906 46.514 48.131 49.01 50.85 52.658 44.391 42.97 43.067 43.171 43.152 44.186 44.282 42.88 41.767 40.683 48.717 48.301 48.486 48.681 48.925 49.175 49.397 49.228 49.07 48.813 48.627
43.965 43.703 41.815 41.827 41.822 41.748 44.65 53.159 51.412 53.628 54.057 54.075 54.166 54.189 54.347 54.36 54.413 54.539 54.585 54.663 54.737 54.865 54.839 54.772 54.679 54.594 54.545 54.418 54.455 53.025 44.093 43.571 44.862 44.756 44.026 43.89 44.57 44.093 41.431 41.377 41.353 41.371 41.313 41.307 42.648 41.759 41.883 42.728 41.872 43.698 44.732 46.819 48.494 47.635 45.973 47.479 48.821 46.196 45.369 48.557 52.353 54.695 54.182 53.675 50.829 51.206 50.777 48.324 47.597 48.004 47.625 47.634 47.532 47.492 47.982 48.222 48.758 48.636 48.6 48.727 48.9 48.799 47.875 47.453 47.204 47.163 46.587 48.605 48.772 46.113 51.097 54.027 51.742 47.913 45.809 45.994 47.473 48.258 48.552 48.501 48.421 50.893 49.573 49.031 49.993 50.914 51.572 58.846 59.104 53.354 57.142 57.244 56.877 54.691 54.295 54.795 51.984 51.553 51.709 51.888 51.846 51.778 51.706 51.41 51.385 52.745 54.61 57.994 58.267 57.831 54.557 56.61 56.718 57.562 53.44 51.673 51.254 50.587 49.673 48.062 47.17 45.75 45.121 43.198 41.346 40.355 40.763 39.523 39.363 39.342 39.241 39.286 39.245 39.175 39.154 39.135 39.105 39.116 39.104 39.126 39.462 39.51 39.734 45.603 46.429 41.372 41.596 39.728 39.278 39.23 39.21 39.166 39.149 39.16 39.191 39.254 39.237 39.783 41.553 42.692 41.97 41.202 41.124 41.094 41.097 44.128 44.283 41.876 44.014 45.57 43.952 41.152 40.944 40.976 40.997 40.999 41.007 40.99 41.03 41.005 41.039 41.035 41.04 41.078 41.073 41.038 41.113 41.119 41.124 41.088 41.111 41.065 41.073 41.142 41.073 41.837 41.339 41.138 41.178 41.125 41.127 41.164 41.118 41.145 41.056 41.021 40.983 40.949 40.923 40.94 40.918 40.944 40.921 40.923 40.897 41.044 41.4 41.054 40.869 42 41.152 41.851 42.79 41.269 41.25 42.936 43.044 42.782 40.742 42.547 43.052 40.523 40.445 40.447 40.429 40.415 40.345 40.282 40.262 40.254 40.258 40.204 40.247 40.536 47.479 48.871 43.393 43.352 46.368 49.623 41.894 40.619 40.375 40.18 40.163 40.176 40.174 40.153 40.162 40.149 40.12 40.064 40.077 41.96 42.872 47.598 48.542 47.892 47.214 45.386 40.345 39.89 39.814 39.854 39.831 39.856 39.901 39.929 39.948 39.976 39.976 40.158 40.323 40.044 40.029 40.074 40.155 40.136 40.309 45.834 46.394 46.318 46.286 46.359 45.341 46.452 43.715 40.42 42.414 43.311 41.29 41.839 41.518 44.674 44.2 40.264 42.397 40.561 40.2 41.357 40.232 40.112 40.102 40.145 40.133 40.162 40.149 40.124 40.228 40.295 40.439 40.337 40.379 40.385 40.518 40.224 40.245 40.534 41.011 40.289 40.273 42.327 47.207 47.538 47.591 47.578 47.679 47.739 47.829 47.812 47.761 47.724 47.66 47.609 47.531 47.488 47.419 47.397 47.3 47.273 46.377 46.02 46.082 46.086 46.2 46.159 46.228 46.236 46.267 46.248 46.217 46.152 46.12 46.083 46.067 45.983 44.39 42.122 40.588 40.215 40.208 40.192 40.25 41.383 40.517 40.982 41.52 42.025 42.731 46.225 46.256 46.746 47.269 47.246 47.356 47.216 46.892 46.69 47.302 48.732 49.073 49.123 44.225 42.843 42.864 43.298 43.239 43.523 43.604 42.993 41.747 41.761 49.604 48.344 48.515 48.71 48.94 49.132 49.369 49.204 49.066 48.796 48.587
42.454 43.207 41.911 42.815 41.833 41.743 41.719 41.73 41.68 44.066 49.285 47.785 53.734 53.762 54.074 54.145 54.236 54.285 54.371 54.397 54.474 54.568 54.614 54.695 54.761 54.839 54.867 54.683 54.671 54.373 45.195 43.318 43.503 44.22 43.202 43.581 43.227 41.34 41.346 41.324 41.298 41.3 41.271 41.274 41.26 41.556 42.157 43.143 42.733 44.536 44.657 43.108 48.189 40.643 41.682 43.457 47.499 46.992 46.739 47.366 51.362 54.153 53.628 52.603 52.995 53.641 53.15 48.171 46.186 45.988 45.845 45.935 46.274 46.55 46.76 49.139 48.03 47.633 47.322 47.716 50.646 48.691 46.684 46.492 47.578 46.995 46.792 44.997 46.198 49.685 52.219 55.486 51.55 48.398 44.383 46.68 50.3 50.215 49.424 48.448 48.483 48.588 48.668 49.016 50.386 51.602 54.855 58.633 59.088 58.905 54.715 57.653 57.53 55.811 55.438 55.694 52.747 51.628 51.903 51.838 51.798 51.69 51.579 52.385 53.325 55.847 57.255 57.665 55.722 57.088 54.756 52.704 54.354 59.093 51.61 51.413 50.845 50.456 49.572 48.918 47.056 46.518 44.057 42.204 40.484 41.307 39.678 39.303 39.297 39.272 39.252 39.281 39.22 39.197 39.143 39.173 39.102 39.06 39.109 43.428 41.792 39.573 41.195 47.88 47.616 47.239 44.785 42.729 39.511 39.288 39.227 39.202 39.16 39.143 39.166 39.221 39.188 39.214 39.339 43.14 42.02 41.11 41.145 41.241 43.503 44.532 42.575 45.054 45.496 44.276 43.908 41.296 40.96 40.937 40.922 40.931 40.968 40.956 40.981 41.002 41.036 41.078 41.047 41.06 41.078 41.072 41.082 41.103 41.101 41.124 41.124 41.146 41.098 41.085 41.106 41.137 43.463 41.404 41.091 41.102 41.082 41.1 41.111 41.002 40.973 41.029 40.967 40.909 40.943 40.931 40.908 40.944 40.893 40.874 40.839 40.87 40.854 40.85 40.8 40.908 42.04 42.218 41.975 42.877 42.238 40.949 42.336 43.573 42.635 43.06 43.574 42.241 40.827 40.471 40.442 40.378 40.365 40.328 40.252 40.232 40.242 40.249 40.212 40.215 40.57 46.579 41.186 40.897 42.746 44.642 41.043 40.226 40.182 40.189 40.177 40.162 40.195 40.181 40.301 40.159 40.13 40.131 41.351 42.85 47.345 50.087 49.367 48.664 48.034 46.249 42.01 40 39.841 39.837 39.804 39.835 39.842 39.896 39.909 39.946 39.951 39.997 40.018 41.129 40.272 40.061 40.1 40.137 44.696 46.612 46.509 46.402 46.328 46.263 46.374 46.491 45.337 41.159 40.268 40.64 42.777 44.211 40.416 40.18 40.128 42.568 40.6 40.172 40.219 40.255 40.146 40.145 40.181 40.178 40.185 40.209 40.134 40.164 40.296 40.298 41.829 40.423 40.325 40.545 40.421 40.413 40.219 40.492 41.096 40.73 40.309 40.27 41.676 47.346 47.599 47.707 47.737 47.754 47.882 47.813 47.758 47.678 47.624 47.535 47.482 47.445 47.361 47.338 47.243 46.632 45.915 45.954 46.013 46.029 46.08 46.14 46.118 46.188 46.239 46.375 46.259 46.149 46.136 46.13 46.08 46.071 45.221 41.114 40.375 40.178 40.18 40.215 40.343 40.707 40.46 40.944 41.526 41.954 42.461 43.976 45.163 46.616 47.217 47.22 47.36 47.215 46.829 46.431 47.817 48.895 49.071 49.217 44.423 42.924 42.916 43.052 43.305 43.423 43.461 42.941 42.528 41.059 48.675 48.292 48.522 48.731 48.941 49.135 49.373 49.258 49.045 48.785 48.622
41.675 41.67 41.673 41.743 41.812 41.76 41.753 41.718 41.618 41.647 41.696 41.972 45.832 50.529 53.536 53.668 53.981 54.037 54.102 54.159 54.275 54.357 54.356 54.446 54.539 54.595 54.689 54.716 53.362 47.842 44.736 43.788 43.892 43.187 42.746 42.652 41.453 41.266 41.289 41.283 41.255 41.244 41.256 41.215 41.227 41.225 41.172 41.452 41.261 44.331 44.728 46.92 42.057 45.792 44.235 40.11 39.182 44.24 47.272 45.756 47.478 50.683 46.049 51.099 52.159 53.757 54.066 50.379 47.004 44.294 44.849 48.642 46.586 48.571 47.22 51.588 51.173 49.772 45.759 49.946 51.008 47.481 44.837 44.882 44.596 44.793 46.342 44.376 44.11 52.812 54.027 52.694 52.212 47.787 42.995 50.86 51.804 54.056 54.508 48.972 48.416 48.484 48.855 49.861 51.138 51.638 57.958 59.336 53.249 54.534 57.185 54.254 59.354 56.408 57.344 55.779 51.718 51.82 51.924 51.865 51.761 51.721 51.433 52.361 52.595 56.207 54.095 54.607 54.467 59.072 60.031 60.102 57.568 57.206 51.981 51.102 50.591 49.422 48.482 53.453 56.411 53.065 43.108 41.352 40.331 40.512 39.31 39.286 39.323 39.239 39.207 39.208 39.188 39.165 39.13 39.127 39.041 39.048 39.533 47.028 47.583 46.429 47.145 47.702 47.325 45.454 44.11 44.401 40.946 39.498 39.297 39.289 39.223 39.189 39.173 39.175 39.135 39.161 39.209 40.355 39.666 40.89 41.13 41.18 41.548 44.278 45.457 45.387 44.476 43.88 41.234 40.903 40.912 40.936 40.943 40.929 42.487 41.036 40.936 40.935 41.024 41.011 41.05 41.026 41.059 41.018 41.05 41.049 41.111 41.161 41.181 41.095 41.138 41.096 41.101 41.079 42.025 44.371 43.417 41.096 41.066 41.046 40.988 40.964 40.949 40.89 40.899 40.863 40.904 40.89 40.868 40.87 40.85 40.892 40.853 40.857 40.818 40.878 40.858 40.841 41.566 42.126 41.727 41.262 42.031 42.696 43.527 43.332 43.266 41.949 43.021 43.599 41.468 40.484 40.513 40.433 40.355 40.338 40.299 40.245 40.216 40.212 40.224 40.195 40.269 40.192 40.285 40.38 40.645 42.056 40.495 40.174 40.168 40.154 40.18 40.181 40.173 40.546 42.148 40.672 40.365 41.932 42.997 49.71 51.011 50.664 49.817 49.288 48.535 47.929 47.082 44.176 39.979 39.847 39.84 39.775 39.812 39.844 39.921 39.926 39.957 39.96 39.995 39.988 40.45 40.123 40.139 40.152 40.147 45.32 46.445 46.471 46.389 46.309 46.319 46.366 46.435 43.411 41.467 40.44 40.383 43.019 40.811 40.256 42.185 44.493 40.694 40.2 40.23 40.163 40.111 40.135 40.185 40.206 40.202 40.173 40.104 40.271 40.341 40.33 45.346 44.374 41.383 40.354 40.651 40.508 40.383 40.216 40.502 40.841 41.032 40.378 40.253 41.716 47.435 47.719 47.726 47.818 47.834 47.746 47.673 47.627 47.584 47.51 47.463 47.382 47.351 47.285 46.524 45.863 45.927 45.936 45.976 45.985 46.03 46.125 46.118 46.099 46.181 46.242 46.288 46.273 46.208 46.168 46.171 43.033 40.526 40.285 40.199 40.183 40.17 40.199 40.844 40.485 40.413 41.014 41.477 41.907 42.557 43.773 45.37 46.693 47.268 47.205 47.321 47.211 46.715 46.541 49.325 50.217 49.251 49.751 48.313 43.239 43.077 43.438 43.495 43.413 43.423 42.889 43.083 40.658 49.345 48.349 48.519 48.748 48.884 49.133 49.357 49.21 49.028 48.848 48.628
41.701 41.57 41.615 41.603 41.599 41.633 41.71 41.708 41.613 41.548 41.589 41.498 41.525 41.59 43.592 41.633 44.859 51.39 53.676 53.702 54.008 54.06 54.21 54.213 54.351 54.345 54.449 54.244 41.939 42.475 41.484 41.615 42.546 41.902 43.208 41.316 41.227 41.204 41.238 41.252 41.244 42.178 44.772 43.931 41.34 41.149 41.168 41.114 41.174 42.774 43.315 45.267 49.593 45.806 40.959 39.605 41.319 39.274 41.258 42.459 45.492 47.042 47.727 50.892 51.875 52.151 52.983 46.143 44.291 45.792 51.148 51.94 52.425 50.526 49.674 51.857 48.747 50.085 44.985 44.958 47.604 44.791 43.385 42.879 42.697 44.863 45.9 51.016 50.674 53.283 55.151 54.175 55.038 49.65 43.156 53.33 55.69 57.001 57.192 51.461 48.443 48.385 48.864 51.664 55.237 57.594 59.286 56.269 57.289 55.752 53.625 53.481 59.54 56.624 57.017 55.27 51.696 51.93 51.826 51.873 51.702 51.464 51.331 52.198 53.56 56.349 57.688 56.948 52.726 59.735 56.068 54.349 56.818 52.311 51.053 51.166 50.128 49.292 50.257 53.687 56.552 51.007 48.373 44.909 41.278 39.657 40.197 39.314 39.267 39.243 39.208 39.19 39.181 39.173 39.177 39.137 39.129 39.317 47.013 47.417 47.816 48.1 47.797 47.364 46.99 44.296 44.41 44.687 45.067 44.262 39.541 39.485 39.275 39.236 39.173 39.147 39.106 39.105 39.155 39.181 39.256 40.056 40.721 41.249 41.285 42.843 44.498 44.126 43.876 41.88 40.906 40.891 40.866 40.881 41.431 42.073 43.562 41.134 40.883 40.928 40.956 41.009 41.019 41.07 41.017 41.04 41.016 41.075 41.065 41.097 41.128 41.637 41.13 41.074 41.092 41.028 41.034 43.4 43.74 41.097 41.043 40.962 40.954 40.924 40.902 40.818 40.865 40.927 40.87 40.869 40.861 40.837 40.866 40.865 40.86 40.865 40.887 40.858 40.876 43.841 42.254 41.851 41.622 42.621 40.976 41.934 42.997 43.518 41.891 40.545 43.615 41.944 40.793 40.457 40.438 40.393 40.37 40.333 40.304 40.244 40.206 40.176 40.179 40.199 40.159 40.172 40.18 40.202 40.541 40.195 40.176 40.178 40.15 40.198 40.189 40.232 40.626 40.596 42.928 44.547 40.55 42.162 47.361 49.68 50.565 51.154 50.7 49.903 49.322 48.583 47.772 46.186 41.371 40.019 39.837 39.809 39.813 39.885 41.259 40.336 39.945 39.953 39.984 40.004 39.958 41.3 40.541 40.191 40.168 40.14 44.648 46.581 46.511 46.427 46.244 46.291 46.248 42.222 40.486 40.461 42.74 44.102 42.613 40.256 40.307 40.848 40.226 40.207 40.147 40.196 40.133 40.163 40.258 40.299 40.185 40.181 40.225 40.265 40.39 42.19 45.647 44.504 41.378 40.626 40.86 40.736 40.436 40.433 40.264 40.21 40.971 41.553 40.484 40.265 40.294 46.208 47.617 47.902 47.735 47.757 47.652 47.568 47.539 47.463 47.451 47.389 47.313 47.232 46.114 45.803 45.817 45.9 45.929 45.943 46.009 46.018 46.055 46.161 46.144 46.216 46.216 46.208 46.288 46.231 46.303 40.373 40.805 40.847 40.207 40.195 40.135 40.176 41.366 40.473 40.444 41.553 42.664 41.986 42.411 43.69 45.111 46.677 47.15 47.225 47.291 47.259 46.771 46.625 47.643 48.943 50.353 49.898 45.744 42.938 42.987 43.005 43.306 43.464 43.548 43.072 41.696 41.359 48.432 48.309 48.512 48.738 48.97 49.152 49.345 49.238 49.024 48.849 48.626
41.749 41.645 41.583 41.584 41.549 41.516 41.507 41.493 41.537 41.519 43.757 43.097 41.447 41.46 41.445 41.436 41.374 41.326 41.53 44.226 51.511 53.7 53.889 53.987 54.12 54.141 54.253 54.07 42.061 42.608 41.296 41.218 41.204 41.175 41.205 41.2 41.221 41.228 41.191 41.204 41.196 45.119 46.301 46.322 46.322 42.269 44.795 41.179 41.127 41.535 42.209 44.07 46.267 43.143 45.836 43.231 44.238 41.181 39.729 38.392 40.803 41.128 45.197 46.668 47.778 50.04 48.837 47.001 44.033 46.742 50.421 53.437 52.679 51.489 47.881 50.93 51.091 44.038 44.05 44.113 43.48 42.794 42.613 41.717 42.971 45.388 47.229 51.424 50.727 53.129 55.158 54.846 54.241 49.811 53.362 56.167 56.82 58.004 58.062 57.351 49.147 48.779 49.573 50.981 55.13 55.32 53.384 53.601 53.678 58.237 58.26 57.87 57.566 55.897 52.201 51.584 51.917 51.902 51.921 51.739 51.718 52.028 52.379 53.625 53.714 56.896 52.78 59.291 60.296 62.219 59.408 62.263 51.843 54.335 52.143 50.411 50.135 48.432 49.334 51.551 52.572 51.741 52.019 47.86 42.627 39.295 39.27 39.299 39.23 39.247 39.237 39.162 39.191 39.209 39.262 39.206 39.267 46.195 47.438 47.81 47.948 47.787 47.421 47.152 44.917 44.281 44.608 44.923 45.239 45.591 46 41.392 39.325 39.311 39.253 39.226 39.159 39.117 39.128 39.125 39.151 39.236 39.563 40.901 41.411 41.085 42.905 43.258 41.169 40.861 40.873 40.861 40.858 41.696 42.217 41.445 40.999 40.888 40.858 40.89 40.908 40.927 40.984 41.008 41.044 41.049 41.03 41.012 41.062 41.092 41.134 41.576 41.165 41.089 41.057 41.007 41.032 40.979 41.938 42.368 40.971 40.947 40.917 40.903 40.897 40.884 40.849 40.838 40.856 40.83 40.841 40.81 40.797 40.85 40.837 40.878 40.889 40.996 45.66 46.697 44.265 42.463 41.552 42.896 40.569 42.367 41.227 41.779 42.111 43.643 43.378 41.239 40.452 40.473 40.443 40.367 40.372 40.336 40.325 40.287 40.247 40.185 40.127 40.175 40.143 40.138 40.141 40.144 40.143 40.151 40.144 40.171 40.18 40.191 40.157 40.229 40.49 40.598 45.459 44.811 42.711 47.059 48.429 48.852 49.642 50.511 51.449 50.649 49.895 49.352 48.595 47.776 45.814 44.24 40.013 39.875 39.915 39.944 40.132 41.546 41.298 39.93 39.949 39.979 39.99 39.985 40.302 40.317 40.194 40.179 40.443 45.359 46.597 46.477 46.387 46.318 46.075 41.049 40.525 40.555 41.468 43.481 41.793 41.347 40.327 43.363 41.409 42.515 40.256 40.165 40.155 40.218 40.279 40.824 40.241 40.155 40.19 40.28 40.418 40.479 41.537 40.728 41.006 40.709 41.214 40.899 41.11 40.752 40.461 40.277 40.23 40.495 41.258 40.576 40.274 40.272 41.74 47.534 47.705 47.666 47.653 47.554 47.518 47.421 47.371 47.329 47.282 43.527 42.35 45.782 45.749 45.841 45.826 45.932 45.952 45.938 46.035 46.04 46.074 46.184 46.167 46.184 46.269 46.377 41.05 40.274 40.275 40.239 40.2 40.212 40.191 40.195 40.494 40.734 40.31 45.263 45.898 47.764 45.844 44.307 45.015 46.636 47.166 47.244 47.332 47.197 46.893 46.526 49.022 50.646 50.146 49.053 46.548 43.051 43.027 43.171 43.368 43.511 43.366 43.112 43.847 41.856 48.392 48.313 48.521 48.76 48.91 49.185 49.348 49.23 49.012 48.809 48.585
41.769 41.694 41.643 41.583 41.549 41.505 41.411 41.424 41.417 41.417 41.382 41.795 41.389 41.418 41.413 41.422 41.38 41.33 41.311 41.317 41.642 42.146 45.402 52.543 51.671 53.659 53.761 49.505 41.537 41.271 41.15 41.148 41.105 41.14 41.184 41.216 41.236 41.257 41.205 41.161 41.105 44.863 46.301 46.292 46.293 46.31 45.198 45.703 41.243 41.115 41.191 41.202 44.503 43.694 47.47 42.959 47.454 42.765 39.824 42.765 38.814 38.91 43.251 45.179 45.704 45.809 46.231 45.18 44.934 49.337 51.491 52.977 53.367 47.44 47.195 46.054 50.731 43.609 43.065 41.703 43.555 42.306 41.551 41.309 41.138 45.058 48.551 50.853 53.253 52.237 54.339 53.086 50.809 50.139 54.572 49.056 56.542 57.55 57.436 53.375 47.978 49.511 50.547 51.601 56.697 57.738 58.279 58.044 54.388 58.596 58.852 57.074 56.272 54.477 52.104 51.67 52.015 51.818 51.823 51.708 51.506 51.401 54.413 55.316 57.116 55.189 58.006 61.479 63.608 64.289 58.412 60.369 62.93 53.595 52.621 52.41 48.908 48.003 47.653 51.949 52.713 52.739 52.152 49.232 43.736 39.373 39.303 39.227 39.188 39.213 39.351 39.322 39.335 39.416 39.397 39.209 43.417 47.319 47.606 48.035 47.928 47.557 47.211 44.791 44.244 44.598 44.879 45.254 45.656 45.95 46.025 45.699 44.146 39.51 39.332 39.239 39.206 39.174 39.131 39.068 39.156 39.168 39.24 39.755 40.658 41.016 41.088 40.979 40.893 40.894 40.866 40.903 42.448 43.286 42.505 41.318 40.851 40.854 40.85 40.873 40.911 42.918 40.944 40.985 41.005 41.006 41.034 40.978 41.051 41.052 41.058 41.099 41.222 41.071 41.06 41 40.952 40.955 40.952 40.951 40.919 40.856 40.933 40.86 40.881 40.833 40.825 40.827 40.804 40.83 40.77 40.751 40.785 41.078 40.899 40.865 41.031 47.616 47.801 47.261 46.68 45.479 43.564 43.148 41.883 41.036 41.728 42.554 43.493 43.285 43.476 41.313 41.478 40.659 40.487 40.416 40.345 40.36 40.363 40.324 40.242 40.219 40.155 40.164 40.123 40.125 40.143 40.106 40.106 40.121 40.117 40.115 40.164 40.142 40.215 40.36 44.334 46.865 46.156 45.621 44.965 46.849 47.619 48.236 49.072 49.603 50.574 51.28 50.715 49.947 49.32 48.578 47.789 47.21 44.708 40.175 39.908 39.944 39.939 40.343 40.138 39.877 39.923 39.953 39.942 40.012 39.999 40.464 40.256 40.215 40.225 40.328 42.15 46.504 46.506 43.136 40.386 40.387 40.346 40.467 43.01 43.466 44.224 42.272 40.287 44.852 40.323 40.63 40.181 40.156 40.204 40.236 40.385 40.297 40.22 40.193 40.145 40.328 40.478 40.629 40.764 40.533 42.492 41.507 40.323 40.249 40.458 40.657 41.178 40.698 40.546 40.231 40.327 40.245 40.995 40.278 40.288 40.426 47.521 47.633 47.575 47.495 47.456 47.39 47.323 47.203 42.281 40.327 40.327 41.478 45.115 45.871 45.806 45.84 45.838 45.948 45.945 46 46.019 46.076 46.11 46.166 46.176 42.039 40.273 40.275 40.238 40.187 40.244 40.155 40.176 40.162 40.241 40.278 43.569 48.449 50.843 50.828 49.099 46.03 45.474 46.606 47.245 47.203 47.32 47.203 46.835 46.609 48.561 50.113 49.919 48.705 45.594 43.712 43.037 43.155 43.449 43.533 43.486 43.374 43.803 41.899 48.763 48.254 48.51 48.723 48.923 49.125 49.347 49.209 49.024 48.795 48.591
41.787 41.752 41.714 41.622 41.582 41.574 41.475 41.437 41.446 41.345 41.312 41.307 41.296 41.318 41.375 41.336 41.365 41.388 41.47 45.249 41.615 46.999 44.557 41.242 43.543 43.495 44.747 42.904 41.684 41.266 41.081 41.075 41.051 41.084 41.122 41.175 41.243 41.232 41.183 41.111 41.341 46.176 46.335 46.314 46.295 46.3 46.289 46.298 46.295 45.338 42.667 41.751 42.522 41.773 42.766 47.816 49.221 47.733 42.341 47.213 41.553 39.379 38.905 38.228 39.819 44.855 46.646 41.012 42.711 42.057 50.253 50.877 51.563 48.03 41.806 45.927 49.635 47.12 44.057 41.415 42.015 41.914 41.027 40.922 41.115 48.372 48.139 52.805 52.743 53.058 51.717 51.795 43.601 49.922 53.365 55.295 55.837 54.287 56.055 49.721 54.234 50.653 52.417 52.108 57.305 55.351 53.112 53.417 57.017 57.431 55.275 54.073 56.156 52.642 51.695 52.031 51.917 51.908 51.745 51.631 51.469 51.876 54.648 56.668 57.519 52.584 52.208 56.036 56.856 61.285 62.882 60.785 54.204 53.486 53.025 54.164 50.429 46.709 48.944 51.835 52.955 52.419 52.121 49.913 45.539 39.374 39.266 39.252 39.234 39.328 40.182 39.467 39.41 39.56 39.329 41.034 47.217 47.597 47.942 47.956 47.581 47.326 46.838 44.15 44.457 44.795 45.154 45.491 45.823 45.958 45.761 45.347 45.071 41.126 40.357 39.635 39.298 39.231 39.193 39.125 39.091 39.127 39.191 39.214 39.574 40.426 41.153 41.093 40.983 40.924 40.941 42.851 42.324 43.883 44.753 44.563 40.857 40.848 40.869 40.9 42.319 42.07 41.45 41.142 40.974 40.937 40.983 41.025 41.014 41.029 41.103 41.119 41.04 41.042 40.996 40.98 40.909 40.891 40.875 40.88 40.853 40.857 40.87 40.865 40.845 40.811 40.78 40.803 40.74 40.769 40.776 40.808 40.837 41.798 41.199 40.979 47.87 48.948 48.31 47.706 47.212 46.66 43.234 41.798 41.831 41.916 40.878 40.489 40.683 43.243 41.891 41.845 41.813 41.357 41.883 41.881 40.412 40.381 40.369 40.37 40.294 40.255 40.179 40.111 40.116 40.122 40.101 40.088 40.096 40.099 40.132 40.123 40.137 40.164 40.273 46.062 48.271 47.53 47.002 46.192 45.501 45.26 46.605 47.614 48.216 49.011 49.984 50.77 51.257 50.618 50.046 49.272 48.525 47.746 46.1 41.209 40.083 39.924 39.913 39.911 39.906 39.909 39.93 39.932 39.952 39.965 39.999 40.013 41.335 40.215 40.237 40.216 40.153 43.22 43.241 40.731 40.369 40.354 40.375 42.12 40.291 41.946 42.284 41.047 41.812 40.88 40.166 40.247 40.17 40.202 40.239 40.243 40.408 40.357 40.251 40.213 40.269 40.354 40.431 40.736 41.075 40.391 40.796 40.338 40.269 40.208 40.385 40.51 40.661 40.874 40.508 41.55 40.233 40.356 40.723 40.824 40.256 40.237 40.266 44.504 43.777 47.348 47.398 47.344 47.287 42.642 40.466 40.279 40.312 40.327 40.299 44.482 45.601 45.787 45.818 45.942 45.903 45.923 45.989 46.073 46.111 46.126 43.123 40.343 40.255 40.275 40.229 40.219 40.213 40.188 40.195 40.174 40.2 41.709 44.408 48.846 51.558 50.987 47.09 45.497 45.243 46.628 47.2 47.242 47.29 47.164 46.774 46.527 49.074 49.479 49.672 49.084 46.84 43.395 43.056 43.295 43.359 43.492 43.478 43.593 43.534 40.548 49.365 48.37 48.532 48.698 48.916 49.198 49.335 49.222 49.008 48.842 48.613
41.859 41.819 41.744 41.68 41.631 41.565 41.502 41.466 41.438 41.387 41.358 41.227 41.249 41.221 41.218 41.206 41.271 41.264 41.303 48.452 48.934 49.83 50.43 45.353 41.213 41.111 41.101 41.731 42.501 45.728 41.108 40.963 41.004 41.045 41.055 41.117 41.159 41.138 41.084 41.146 45.711 46.357 46.388 46.382 46.324 46.34 46.321 46.26 46.25 46.228 46.306 46.251 45.669 43.995 41.728 44.999 46.969 46.492 48.068 49.668 44.746 41.983 40.189 38.802 38.815 39.408 39.916 40.044 38.607 43.198 42.193 47.085 47.694 45.139 41.577 39.463 42.85 45.278 43.199 40.035 41.111 40.221 41.112 42.822 41.922 48.254 48.443 50.274 51.294 49.774 46.287 43.407 42.492 50.827 53.177 48.811 49.88 45.547 48.145 56.776 54.043 57.829 57.499 52.32 56.72 54.008 58.966 56.758 59.052 59.265 55.299 56.645 54.735 52.062 51.703 52.042 51.881 51.842 51.833 51.952 52.813 51.793 52.325 56.018 54.329 52.25 52.909 59.967 60.834 62.622 61.975 60.604 56.924 51.24 49.974 52.248 47.949 46.657 47.219 48.302 52.214 50.816 50.368 46.346 41.546 39.254 39.252 39.274 39.383 39.98 39.643 39.566 39.565 39.533 39.494 47.041 47.511 47.804 47.989 47.732 47.347 47.065 44.355 44.276 44.627 45.044 45.414 45.773 46.064 45.807 45.494 45.151 44.805 44.403 44.07 40.981 39.548 39.269 39.252 39.165 39.168 39.133 39.159 39.207 39.184 39.234 39.523 41.371 41.05 41.011 41.841 42.423 43.887 45.103 42.741 40.758 40.813 41.174 41.885 43.276 41.728 41.161 41.384 40.944 40.892 40.953 40.972 40.979 41.124 42.396 41.442 41.097 41.049 40.991 40.965 40.91 40.925 40.836 40.838 40.795 40.757 40.835 40.809 40.801 40.804 40.738 40.734 40.781 40.707 40.772 40.774 40.821 40.846 40.857 41.193 45.364 48.2 48.843 48.908 48.258 47.761 47.249 46.772 43.366 41.958 41.345 42.506 41.03 40.521 41.652 40.525 41.591 40.917 41.925 41.899 40.83 40.382 40.416 40.395 40.383 40.313 40.245 40.19 40.167 40.094 40.084 40.098 40.074 40.079 40.06 40.079 40.108 40.143 40.244 40.489 47.828 48.528 48.246 47.732 46.984 46.317 45.467 45.337 45.633 47.594 48.467 49.012 49.649 50.604 51.12 50.667 50.062 49.085 48.562 47.843 47.062 43.529 39.996 39.964 39.93 39.915 39.929 39.932 39.943 39.921 39.921 39.985 39.999 39.975 40.233 40.222 40.226 40.204 40.237 40.485 40.776 40.435 40.375 40.392 40.489 40.142 40.251 40.425 40.224 40.704 40.209 40.261 40.268 40.233 40.251 40.238 40.332 40.41 40.274 40.258 40.227 40.238 40.417 40.54 42.405 40.975 40.377 40.354 40.302 40.278 40.253 40.31 40.509 40.568 40.561 41.052 41.117 40.437 40.324 40.191 40.299 41.067 40.53 40.234 40.215 41.681 45.938 47.366 47.303 43.644 41.169 40.275 40.271 40.268 40.295 40.282 40.342 41.328 45.708 45.771 45.796 45.826 46.005 45.916 45.987 46.02 46.109 40.577 41.362 40.457 40.224 40.245 40.233 40.436 40.192 40.176 40.188 40.841 41.574 41.625 47.41 50.6 49.514 47.131 44.069 45.092 46.533 47.133 47.222 47.274 47.165 46.883 46.518 48.508 49.953 49.413 47.624 46.041 42.995 43.06 43.401 43.345 43.322 43.29 44.628 44.694 40.622 48.489 48.348 48.559 48.76 48.933 49.222 49.345 49.179 49.009 48.753 48.581
41.652 41.738 41.693 41.665 41.7 41.652 41.585 41.492 41.464 41.377 41.416 41.31 41.272 41.266 41.221 41.117 41.103 41.167 44.143 47.507 47.54 50.093 43.957 44.318 41.176 46.817 41.27 41.66 47.503 47.681 41.055 40.897 40.907 40.901 40.972 40.98 41.026 41.003 41.038 41.095 45.195 46.316 46.352 46.364 46.362 46.366 46.341 46.323 46.317 46.264 46.252 46.27 46.251 46.279 45.389 44.946 44.719 44.225 47.247 44.431 46.51 43.207 42.578 40.962 40.274 39.704 41.06 38.802 39.61 38.142 40.091 40.195 40.974 39.536 39.072 44.527 45.944 41.493 48.53 43.644 46.868 48.177 48.011 49.072 51.276 50.178 43.092 48.736 49.045 49.595 48.352 40.313 41.97 51.32 48.972 54.154 47.729 50.447 51.136 55.03 56.735 55.638 54.783 56.128 58.996 55.574 53.34 57.53 58.447 56.198 55.229 55.672 52.173 51.74 52.03 51.913 51.925 51.791 51.695 51.554 52.151 51.497 51.744 55.736 56.89 53.274 52.868 59.213 57.475 59.602 60.487 55.009 50.943 49.972 49.802 48.245 47.375 45.63 46.193 44.48 45.338 48.118 47.152 40.988 39.318 39.309 39.291 40.035 41.232 40.762 40.121 39.595 39.535 39.828 45.829 47.422 47.67 48 47.816 47.486 47.168 44.865 44.225 44.63 44.972 45.332 45.636 45.975 45.914 45.557 45.236 44.827 44.442 44.173 43.851 44.176 42.817 40.13 39.28 39.217 39.207 39.187 39.162 39.112 39.15 39.229 39.238 39.708 41.552 41.04 41.249 41.04 41.672 44.752 40.836 40.784 41.473 41.86 43.147 41.468 41.056 41.032 42.632 41.528 40.901 40.924 40.938 41.046 41.365 41.285 42.111 41.56 41.486 41.021 40.981 40.918 40.854 40.823 40.736 40.789 40.726 40.743 40.761 40.823 40.727 40.733 40.709 40.704 40.702 40.761 40.745 40.801 40.823 40.943 45.988 47.004 42.315 48.154 48.817 49.003 48.383 47.748 47.277 46.603 42.938 41.075 39.959 40.454 40.502 40.498 40.883 41.031 42.179 42.17 41.155 40.41 40.499 40.464 40.382 40.355 40.317 40.304 40.199 40.17 40.148 40.107 40.078 40.092 40.082 40.046 40.073 40.089 40.215 43.3 45.993 47.226 47.987 48.552 48.321 47.719 46.889 46.213 45.484 45.303 46.905 47.583 48.297 49.044 49.613 50.506 51.046 50.342 49.789 49 48.451 47.535 45.943 41.712 40.028 39.971 39.963 39.928 39.952 39.956 39.923 39.944 39.948 39.969 40.006 41.466 40.327 40.282 40.258 40.303 40.393 40.441 40.582 40.77 40.749 40.231 40.117 40.12 40.131 40.148 40.192 40.285 40.241 40.192 40.238 40.248 40.23 40.26 40.29 40.3 40.291 40.287 40.259 40.41 40.545 43.853 41.627 40.431 40.373 40.348 40.264 40.256 40.273 40.495 40.542 40.574 40.528 40.793 40.712 40.559 40.417 40.208 40.172 40.218 40.233 40.281 40.229 41.639 47.121 47.152 41.022 41.29 40.269 40.225 40.237 40.256 40.253 40.3 40.322 41.668 45.796 45.76 45.827 45.844 45.838 45.902 46.096 42.175 41.303 40.54 40.228 40.197 40.178 40.217 40.688 41.094 40.147 40.173 40.554 40.659 40.325 44.225 47.602 46.149 44.703 43.776 45.18 46.539 47.116 47.229 47.29 47.201 46.729 46.608 46.278 48.991 48.502 46.101 47.373 43.525 43.095 43.453 43.349 43.331 43.059 44.278 44.514 40.914 48.764 48.392 48.593 48.799 48.978 49.228 49.381 49.21 49.042 48.851 48.579
41.636 41.63 41.595 41.621 41.582 41.61 41.673 41.601 41.535 41.422 41.369 41.293 41.276 41.252 41.191 41.165 41.093 41.032 41.029 40.982 46.265 48.673 44.902 41.81 46.459 47.053 47.769 46.835 50.779 47.366 41.004 40.896 40.869 40.838 40.882 40.934 41.105 40.968 40.984 41.295 46.218 46.269 46.295 46.305 46.339 46.344 46.329 46.362 46.357 46.341 46.291 46.225 46.155 46.16 46.223 44.881 44.33 44.142 42.363 42.65 40.947 41.6 43.174 43.148 43.026 42.474 40.717 40.722 41.182 40.634 40.384 40.798 40.218 39.635 39.657 38.527 46.303 49.13 42.971 45.178 48.853 50.054 50.706 45.041 49.399 43.522 39.671 41.387 39.963 40.037 41.57 39.978 49.972 50.083 47.352 54.837 47.623 47.268 52.696 54.862 54.598 51.99 54.262 55.227 58.243 58.804 59.071 58.887 60.399 58.754 56.036 53.011 51.674 51.807 52.058 51.917 51.837 51.792 51.561 51.424 52.79 51.664 51.879 56.503 61.177 61.131 61.031 58.422 56.777 52.857 52.502 51.199 50.648 49.936 49.202 47.123 46.387 49.119 51.263 49.178 43.855 41.125 39.753 39.29 39.322 39.404 43.185 43.824 41.703 41.159 39.585 39.509 39.438 44.878 47.362 47.75 48.04 47.861 47.564 47.214 44.785 44.228 44.546 44.965 45.23 45.609 45.953 45.969 45.637 45.33 44.972 44.684 44.222 43.925 44.042 44.33 44.626 43.637 39.672 39.279 39.232 39.205 39.18 39.133 39.073 39.121 39.143 39.218 39.562 40.306 41.815 41.086 40.947 40.86 40.84 42.26 42.559 41.573 42.572 41.8 43.042 41.264 42.28 43.135 40.93 40.938 40.959 42.437 41.109 40.92 40.949 40.959 41.204 41.312 40.914 42.007 41.3 41.955 41.239 40.773 41.067 41.961 40.876 40.953 40.761 40.696 40.685 40.658 40.715 40.749 40.778 40.794 40.832 40.87 45.164 45.623 45.605 47.711 48.267 48.872 49.007 48.35 47.909 47.205 46.84 42.734 40.507 39.704 42.022 40.581 40.6 40.761 43.138 41.056 40.383 40.522 40.777 40.425 40.386 40.352 40.331 40.29 40.248 40.237 40.144 40.12 40.076 40.051 40.033 40.062 40.02 40.086 40.923 45.028 45.65 46.608 47.183 48.011 48.588 48.409 47.607 46.894 46.247 45.478 45.117 47.048 47.663 48.494 49.071 49.771 50.305 49.804 49.136 48.362 47.706 47.03 44.99 45.598 40.991 40.953 39.992 39.983 39.953 39.929 39.947 39.894 39.927 40.037 40.129 40.167 40.172 40.288 40.381 40.259 40.285 40.566 41.006 41.941 41.201 40.273 40.152 40.153 40.132 40.113 40.154 40.193 40.285 40.221 40.238 40.27 40.221 40.284 40.278 40.278 40.315 40.305 40.274 40.378 40.506 40.906 42.227 40.608 40.393 40.332 40.341 40.302 40.243 40.404 40.495 40.564 40.557 40.383 40.88 40.598 40.446 40.417 40.237 40.171 40.22 40.254 40.223 40.292 41.833 40.967 40.219 40.204 40.176 40.2 40.19 40.241 40.241 40.29 40.313 40.329 40.367 45.287 45.698 45.773 45.823 45.826 41.409 41.339 41.021 40.449 40.206 40.218 40.26 40.212 40.392 40.423 40.163 40.187 40.274 41.559 40.762 40.746 42.277 42.192 42.528 43.937 45.073 46.429 47.067 47.195 47.319 47.168 46.706 46.505 46.389 48.583 47.307 48.598 46.642 43.297 43.191 43.279 43.475 43.425 43.245 42.791 41.797 46.322 48.652 48.345 48.6 48.811 49.022 49.211 49.394 49.195 48.996 48.807 48.613
41.652 42.234 41.544 41.55 41.499 41.501 41.476 41.514 41.523 41.535 41.504 41.412 41.337 41.28 41.255 41.205 41.126 41.063 41.044 41.011 40.989 41.471 40.951 41.068 42.712 49.354 52.391 52.682 50.683 43.103 40.772 40.8 40.831 40.853 40.843 40.896 40.951 41.508 40.896 43.913 46.316 46.279 46.306 46.282 46.298 46.325 46.312 46.327 46.328 46.331 46.284 46.297 46.26 46.221 46.145 44.26 44.14 44.073 43.627 41.974 41.772 41.357 41.558 41.334 42.632 43.12 41.923 41.125 41.796 41.717 41.19 41.449 40.49 40.458 40.432 41.665 46.823 42.981 40.771 40.451 41.198 48.363 43.918 44.839 49.46 48.824 42.077 41.653 43.418 49.083 48.292 50.475 46.044 50.641 47.727 47.369 48.689 50.672 52.169 54.732 56.159 52.011 55.295 58.208 54.81 52.801 54.866 57.763 58.575 56.684 54.44 52.975 51.7 52.028 51.959 51.944 51.784 51.619 51.736 51.533 51.602 51.901 54.922 57.093 60.413 61.746 60.866 58.679 55.759 51.835 51.056 51.054 50.151 49.29 49.638 51.421 47.191 50.301 52.347 50.145 41.596 39.658 39.292 39.303 39.296 41.656 43.925 44.239 44.377 41.589 39.541 39.933 43.359 47.303 47.583 47.973 47.947 47.63 47.258 46.936 44.173 44.482 44.831 45.166 45.519 45.941 46.072 45.7 45.41 44.975 44.663 44.361 44.029 44.047 44.37 44.669 45.007 45.337 42.329 43.261 39.462 39.227 39.206 39.168 39.143 39.076 39.102 39.175 39.58 39.661 40.863 40.719 42.018 41.069 41.227 43.197 40.765 41.868 42.818 42.529 41.632 41.347 41.334 42.504 42.814 40.935 40.901 40.864 40.846 40.879 40.859 40.874 40.884 40.925 40.917 41.398 41.589 41.02 40.74 40.659 40.64 40.751 40.678 40.653 40.651 40.679 41.159 40.671 40.7 40.733 40.761 40.779 40.815 40.855 40.843 41.998 46.532 47.165 47.834 48.274 49.019 48.966 48.348 47.903 47.282 46.703 44.723 40.515 40.29 41.866 40.663 40.499 40.518 40.42 40.481 40.519 40.457 40.385 40.349 40.322 40.272 40.282 40.315 40.242 40.18 40.158 40.088 40.035 40.006 39.984 39.997 40.052 40.653 43.725 45.092 45.922 46.465 47.127 48.062 48.65 48.32 47.463 46.783 46.209 45.491 46.255 46.898 47.655 48.29 49.076 49.61 49.15 48.273 47.679 46.989 45.705 45.426 46.187 45.343 41.892 40.049 39.999 39.961 39.947 39.902 39.858 39.902 40.152 40.192 40.197 40.151 40.562 41.849 40.582 40.223 40.34 42.109 41.84 41.879 40.864 40.315 40.185 40.141 40.129 40.198 40.274 40.209 40.221 40.219 40.259 40.254 40.269 40.295 40.328 40.37 40.343 40.281 40.34 40.518 41.427 42.629 41.772 40.445 40.379 40.343 40.334 40.301 40.223 40.498 40.561 40.469 40.069 39.754 42.263 41.246 40.884 40.415 40.256 40.241 40.62 40.195 41.64 40.283 40.709 40.204 40.124 40.144 40.155 40.183 40.22 40.213 40.225 40.258 40.282 40.319 40.368 43.823 45.604 45.763 43.08 41.123 41.373 40.519 40.197 40.176 40.16 40.346 40.372 40.518 40.637 40.886 40.163 40.249 41.792 40.314 40.734 41.306 41.866 42.426 43.483 44.822 46.256 46.989 47.174 47.265 47.167 46.844 46.464 46.343 48.573 49.004 49.63 47.096 43.487 43.05 43.068 43.245 43.23 43.337 42.593 41.582 40.735 48.395 48.345 48.564 48.765 48.993 49.193 49.377 49.126 48.989 48.771 48.6
41.53 41.495 41.496 41.474 41.443 41.458 41.42 41.436 41.404 41.406 41.384 41.369 41.445 41.414 41.318 41.245 41.204 41.155 41.088 41.049 40.993 40.964 40.903 40.92 42.572 47.176 50.252 52.102 51.137 41.909 40.77 40.77 40.891 40.943 40.877 40.869 40.826 46.033 49.159 50.312 46.847 46.302 46.306 46.313 46.307 46.28 46.236 46.279 46.311 42.176 45.265 46.267 46.166 46.264 45.842 44.186 44.152 44.08 42.944 41.203 41.636 41.013 43.304 41.414 41.387 41.784 41.069 41.063 40.967 41.655 42.147 40.881 40.562 40.591 40.601 44.418 42.438 41.717 41.278 41.343 44.972 43.628 44.553 45.028 47.241 44.266 42.603 41.315 45.737 49.656 50.776 50.962 50.641 48.93 47.156 47.853 49.071 49.227 51.403 59.151 56.969 52.467 56.309 55.133 57.078 57.008 56.222 57.787 57.108 54.246 53.118 51.817 51.887 52.026 51.951 51.888 51.856 52.747 52.494 51.569 51.619 53.978 56.101 55.455 59.888 61.351 61.55 59.005 58.039 51.393 51.219 50.976 49.285 49.123 52.463 54.771 54.616 53.115 50.083 44.368 39.404 39.324 39.305 39.318 39.375 42.983 44.145 44.559 44.91 45.28 44.554 44.666 46.413 47.558 47.878 47.965 47.704 47.383 46.994 44.442 44.257 44.686 45.125 45.486 45.777 45.994 45.821 45.511 45.145 44.727 44.388 44.049 43.947 44.211 44.571 44.897 45.278 45.658 45.972 44.769 41.233 39.441 39.269 39.203 39.181 39.133 39.067 39.066 39.236 39.212 39.222 39.598 41.279 41.025 40.863 40.982 40.826 41.05 41.859 43.763 43.382 42.071 40.942 42.242 42.428 41.463 41.235 40.769 40.786 40.774 40.823 40.83 40.843 40.834 40.847 40.863 40.849 40.774 40.701 40.633 40.647 40.602 40.584 40.573 40.534 40.628 41.867 40.702 40.688 40.722 40.716 40.746 40.759 40.843 40.811 40.82 45.096 46.323 46.112 44.393 48.256 48.997 48.976 48.286 47.844 47.355 46.515 41.949 40.039 39.534 42.414 40.764 40.636 40.518 40.554 40.45 40.417 40.381 40.371 40.31 40.303 40.266 40.254 40.211 40.195 40.159 40.111 40.024 39.995 39.989 39.984 40.041 40.029 40.856 44.299 45.043 45.698 46.435 47.076 48.006 48.864 48.123 47.487 47.002 46.053 45.381 45.282 47.073 47.657 48.547 48.949 48.387 47.651 47.075 45.515 45.584 46.249 46.382 45.583 44.025 40.364 39.984 39.945 39.925 39.908 39.909 40.111 40.215 40.2 40.173 40.136 40.142 40.312 41.765 40.47 40.186 41.29 41.514 41.231 40.606 40.214 40.161 40.191 40.172 40.228 40.155 40.192 40.197 40.224 40.209 40.2 40.253 40.284 40.334 40.316 40.354 40.366 40.364 40.495 41.589 43.238 44.203 43.201 40.42 40.363 40.345 40.312 40.247 40.38 40.423 40.342 39.867 42.007 42.765 42.804 42.353 40.364 41.821 40.295 40.301 40.217 40.249 40.267 40.8 40.192 40.144 40.125 40.157 40.174 40.196 40.211 40.216 40.213 40.26 40.281 40.263 40.321 41.432 45.013 40.858 40.215 40.576 40.437 40.207 40.165 40.207 40.882 40.361 40.89 40.428 40.283 40.199 40.376 40.661 41.856 40.604 41.222 41.791 42.443 43.588 45.057 46.465 47.124 47.185 47.278 47.17 46.822 46.463 47.43 48.962 48.479 49.788 47.843 43.48 43.062 43.098 43.308 43.313 43.252 42.612 42.043 40.618 48.575 48.355 48.589 48.789 49.019 49.212 49.32 49.208 48.952 48.76 48.588
