ncols 435
nrows 31
xllcorner    427044
yllcorner    433678
cellsize     2
NODATA_value -9999
66.753 66.648 65.997 66.286 65.572 65.392 66.351 66.305 64.365 64.237 64.271 64.178 64.095 64.015 63.956 63.956 63.923 63.904 63.912 63.871 63.917 63.864 63.91 63.948 63.963 65.646 67.08 67.873 68.758 68.447 67.624 66.789 63.983 64.072 64.006 64.107 64.043 64.114 63.881 63.84 63.779 63.685 63.692 63.691 63.664 63.602 63.584 63.604 63.431 63.407 63.357 64.021 64.181 63.581 63.712 64.445 63.512 63.091 63.119 63.079 64.735 63.756 63.665 63.292 63.289 63.071 63.081 63.056 63.14 63.432 63.365 63.068 64.348 63.116 63.133 63.042 63.597 63.223 64.512 63.796 63.119 63.186 63.166 63.005 63.199 63.334 63.18 62.622 62.611 62.618 62.535 63.267 67.375 67.505 67.551 67.193 67.072 66.676 67.468 66.213 62.331 62.019 61.969 61.973 61.902 61.875 61.836 61.77 61.727 61.731 61.773 61.75 61.725 61.667 61.717 61.646 61.672 62.091 62.262 61.938 61.991 62.048 62.902 61.883 62.499 62.742 68.27 70.5 71.953 71.171 69.692 65.021 61.287 61.224 61.085 60.966 60.354 60.269 60.17 60.051 59.921 59.729 59.557 59.384 59.148 59.073 58.982 58.708 58.534 58.401 58.357 58.193 58.065 58.01 57.864 57.781 57.654 57.616 57.629 57.63 58.611 57.683 57.925 57.397 57.35 57.307 57.351 57.331 57.394 57.413 57.457 57.491 57.486 57.876 61.838 62.669 61.855 60.332 58.549 58.096 57.747 57.317 57.267 57.31 57.23 57.301 59.158 59.601 61.423 63.264 63.927 64.006 64.315 64.034 63.597 63.178 63.352 63.92 64.265 64.254 63.951 63.499 60.852 55.728 54.735 54.614 54.495 54.795 54.25 54.195 54.179 54.114 54.311 56.533 57.721 61.467 62.468 60.762 60.187 59.266 59.257 59.971 59.687 62.449 63.791 71.153 70.051 70.664 72.16 72.497 72.805 73.071 73.746 74.218 75.566 73.418 71.72 60.305 60.189 61.971 61.562 61.977 62.744 62.29 61.211 61.113 61.159 61.12 61.151 61.111 61.243 61.302 61.395 61.314 61.293 61.292 61.248 62.205 61.751 63.231 60.838 60.794 60.903 60.896 60.951 60.892 60.984 60.961 60.981 61.065 61.088 61.112 61.18 62.38 63.027 62.564 61.636 61.448 61.625 61.871 61.944 62.199 63.406 64.938 64.742 64.127 61.475 62.059 66.377 66.339 66.379 66.4 61.788 60.519 60.429 60.443 60.477 60.458 60.48 61.482 60.33 62.856 64.198 64.433 64.611 64.764 64.469 64.291 64.062 64.074 64.228 64.458 64.708 64.543 64.414 64.125 64.634 65.01 65.172 65.405 65.487 65.395 65.143 64.941 62.775 58.881 58.716 58.595 58.537 58.412 58.3 58.216 58.119 58.039 57.987 57.87 57.792 57.826 57.74 57.795 57.741 57.747 57.792 60.839 60.893 62.468 63.201 63.204 62.663 63.757 64.399 63.138 62.233 62.986 64.243 64.121 62.963 62.521 63.704 64.615 63.958 62.308 57.045 56.139 56.124 56.055 56.047 56.048 56.043 56.072 56.143 56.146 56.463 59.919 60.022 60.063 60.018 60.037 60.07 60.124 60.107 60.234 60.248 60.183 60.308 60.331 60.369 60.462 57.892 58.11 58.14 57.994 65.388 65.63 65.796 65.599 66.043 66.106 65.959 62.455 65.671 65.466 59.017 55.29 54.399 53.926 51.711 51.204 50.255 43.902 46.606 41.106 40.812 40.832 40.763 40.747 40.792 44.483 44.915 44.979 48.249 57.989 58.475 58.666 60.741 61.63 59.045 58.997 59.015 58.949 45.665 40.648 40.594 40.663 40.76
66.359 66.272 66.05 65.889 65.599 65.432 66.853 65.519 64.686 64.461 64.251 64.175 64.073 64.063 63.989 63.923 63.919 63.886 63.886 63.909 63.923 63.983 64.089 64.255 63.991 65.274 67.04 67.789 68.593 68.463 67.568 66.294 64.49 64.005 64.356 64.197 63.942 64.091 63.947 63.842 63.854 63.787 63.723 63.674 63.641 63.571 63.604 63.463 63.311 63.302 63.292 63.473 63.377 63.344 63.477 63.669 63.396 64.33 63.656 63.474 63.868 63.572 63.422 63.634 63.37 63.426 63.585 63.419 63.408 63.421 63.501 63.276 63.855 64.041 63.302 63.251 63.3 64.413 63.79 65.586 63.289 63.463 63.05 63.322 63.154 63.223 63.633 62.653 62.591 62.566 62.521 62.648 66.735 67.169 66.139 65.055 64.587 64.723 67.083 67.113 63.192 61.907 61.861 61.856 61.772 61.754 61.73 61.71 61.686 61.642 61.612 61.559 61.618 61.59 61.565 61.481 61.605 62.858 62.093 61.918 61.923 61.98 62.6 61.899 62.206 62.118 67.817 71.113 71.842 71.619 70.147 62.151 60.898 60.717 60.754 60.599 60.294 60.144 60.018 59.862 59.691 59.489 59.333 59.204 58.981 58.874 58.758 58.554 58.514 58.398 58.289 58.145 58.082 57.938 57.785 57.795 57.832 58.845 57.741 58.033 57.507 57.59 57.458 57.451 57.402 57.358 57.399 57.346 57.583 62.878 65.728 63.666 58.305 57.255 57.28 58.123 57.2 58.279 58.488 58.733 58.667 57.286 57.178 57.278 57.243 59.193 59.754 59.806 62.726 63.553 63.905 64.245 64.091 63.681 63.364 63.316 63.774 64.184 64.383 64.033 63.674 63.165 55.904 54.961 54.843 54.773 54.635 54.461 54.407 54.411 54.259 54.27 55.902 57.391 58.112 61.432 60.044 60.151 59.269 59.28 59.273 61.258 69.48 69.715 72.088 73.072 72.56 72.837 73.067 73.666 74.028 74.294 73.914 73.746 73.185 72.96 72.573 63.603 60.205 60.745 61.771 61.863 61.891 62.09 61.117 61.079 61.128 61.153 61.172 61.258 61.214 61.321 61.364 61.311 61.341 61.333 61.3 61.594 63.495 62.228 60.85 60.866 60.883 60.85 60.935 60.898 60.971 60.973 61.079 61.035 61.118 61.163 61.248 61.626 61.584 61.814 61.484 61.689 61.788 61.934 62.049 62.121 62.223 62.96 63.121 63.216 61.899 60.806 65.388 66.457 66.511 66.294 60.585 60.48 60.486 60.503 60.472 60.386 60.438 61.472 60.36 64.1 65.571 65.781 65.567 65.785 65.644 65.741 65.574 65.284 64.722 62.269 61.671 62.057 61.08 63.47 61.866 63.022 63.891 61.994 63.649 64.947 63.348 61.422 59.943 58.905 58.712 58.608 58.496 58.443 58.312 58.23 58.171 58.041 57.928 57.875 57.781 57.774 57.705 57.752 57.705 57.721 59.202 60.847 60.857 62.424 63.2 63.236 62.681 63.877 64.242 63.225 62.738 62.992 64.043 63.989 63.011 62.549 63.619 64.516 63.728 62.725 57.565 56.241 55.975 56.049 56.03 56.061 56.052 56.081 56.225 56.13 58.432 60.381 60.277 60.333 60.229 60.218 60.225 60.137 60.105 60.063 60.044 59.923 59.947 60.034 59.983 59.99 57.352 57.122 57.648 53.808 65.448 65.643 64.979 66.104 66.153 66.032 59.12 65.598 65.569 65.589 65.821 61.436 60.462 53.093 51.264 51.632 51.575 51.22 47.689 42.169 40.88 40.815 40.835 40.771 40.765 40.801 41.313 42.937 42.08 45.345 55.036 58.512 59.547 58.972 58.854 58.883 59.013 49.254 40.67 40.612 40.654 40.606 40.581
66.272 66.254 66.848 65.94 65.288 65.206 65.395 64.773 64.348 64.699 64.334 64.232 64.159 64.055 63.982 63.958 63.954 63.955 63.912 63.872 63.935 65.838 66.04 66.484 66.784 66.723 66.984 67.77 68.759 68.526 67.65 66.861 64.178 65.902 66.687 67.063 67.697 66.781 66.113 65.241 65.892 64.275 63.708 63.663 63.669 63.599 63.559 64.958 64.015 64.375 64.516 64.276 63.517 63.659 64.572 64.198 63.521 64.847 64.547 63.385 64.172 63.468 63.421 63.58 63.452 63.46 63.92 63.524 63.827 63.74 63.463 67.47 65.215 63.993 64.67 68.042 64.481 67.807 68.926 69.659 69.283 69.26 69.208 69.368 70.699 70.064 69.768 63.049 62.564 62.563 62.51 62.505 63.489 66.695 66.276 62.7 63.877 63.165 64.406 62.393 62.295 61.805 61.747 61.742 61.702 61.626 61.652 61.598 61.556 61.566 61.558 61.531 61.508 61.526 61.45 61.445 61.505 62.17 62.001 61.863 61.801 61.88 61.749 61.917 64.407 63.456 67.437 71.865 72.04 72.129 68.324 62.312 61.287 60.894 60.41 60.239 60.169 60.046 59.915 59.664 59.543 59.403 59.244 59.084 58.918 58.813 58.644 58.649 58.462 58.394 58.242 58.115 58.012 57.844 57.869 57.95 59.153 64.349 57.746 57.546 57.533 57.545 57.5 57.506 57.422 57.414 57.462 57.61 63.441 66.923 66.792 65.869 59.292 57.389 57.219 57.141 57.105 57.077 57.681 57.865 57.749 57.255 57.282 57.233 57.234 57.537 59.65 61.813 63.327 63.773 64.066 64.38 63.987 63.641 63.142 63.403 63.836 64.132 64.328 64.157 63.518 62.875 55.241 55.089 55.011 54.929 54.802 54.62 54.545 54.504 54.393 54.657 61.31 66.213 65.884 69.733 63.415 60.101 59.752 67.683 66.629 71.778 72.147 72.412 73.018 73.083 74.356 75.065 74.359 73.663 73.69 72.905 72.612 72.3 72.077 71.99 72.826 66.613 60.364 62.07 65.479 61.734 61.261 61.93 61.016 61.01 61.101 61.195 61.198 61.256 61.283 61.35 61.366 61.349 61.293 61.361 61.362 61.757 63.255 63.411 60.967 60.925 60.854 60.897 60.891 60.989 61.003 61.007 61.066 61.06 61.296 61.205 61.647 61.264 61.377 61.632 61.663 61.754 61.91 61.97 62.111 62.196 62.404 63.275 62.055 61.752 61.997 62.31 60.764 61.141 62.191 60.537 60.539 60.478 60.615 60.431 60.441 60.461 60.547 62.446 60.282 64.127 65.858 65.806 65.797 65.692 65.754 65.784 65.776 65.659 62.741 60.341 60.077 60.393 62.252 62.842 59.552 61.713 62.639 59.191 62.676 60.161 62.496 59.429 58.973 58.887 58.761 58.678 58.56 58.478 58.346 58.267 58.14 58.061 57.986 57.817 57.79 57.745 57.765 57.807 59.955 57.769 57.935 60.82 60.839 62.385 63.182 63.207 62.562 63.752 64.374 63.247 62.303 63.101 64.219 64.029 63.019 62.581 63.555 64.485 63.569 62.784 57.388 56.087 55.968 55.976 56.011 56.067 56.037 56.13 56.151 56.171 58.849 60.755 60.739 60.62 60.6 60.627 60.547 60.643 60.379 60.461 60.397 60.273 60.299 60.221 60.156 60.085 58.561 56.861 57.175 54.913 65.547 64.942 66.016 66.206 65.835 63.492 65.793 65.653 65.513 65.718 59.047 65.845 64.557 56.505 52.363 52.263 51.886 51.731 51.465 50.473 47.643 42.777 40.83 40.824 40.8 40.735 40.802 40.627 41.123 41.119 43.119 47.458 58.059 58.561 58.662 58.764 58.517 40.955 40.629 40.551 40.559 40.622 40.645
65.001 65.277 66.531 66.894 65.802 65.467 65.176 65.163 64.471 64.542 64.252 64.213 64.202 64.123 64.013 63.962 63.947 63.921 63.927 63.895 63.93 67.317 67.411 67.545 67.522 67.714 67.708 67.757 68.534 68.671 67.809 66.821 66.265 66.797 67.381 68.212 68.141 67.334 67.426 67.331 66.867 63.939 63.804 63.669 63.594 63.521 63.512 65.689 63.799 63.781 63.901 65.036 63.501 63.648 64.403 63.823 63.686 64.425 67.227 67.355 65.175 68.619 66.343 68.202 68.706 68.675 70.787 70.204 70.2 69.667 70.814 71.224 71.417 71.028 71.746 71.298 71.276 71.752 71.718 71.57 72.087 71.777 72.731 72.014 72.1 72.178 72.214 65.435 62.53 62.519 62.472 62.487 63.132 66.143 64.89 62.065 61.858 61.692 61.642 61.697 61.746 61.664 61.639 61.646 61.614 61.546 61.568 61.524 61.485 61.507 61.443 61.439 61.395 61.351 61.375 61.367 61.358 61.968 61.861 61.699 61.771 61.747 61.698 64.304 66.306 63.258 67.461 71.275 71.508 71.067 69.659 63.215 60.702 60.827 60.199 60.083 59.964 59.959 59.782 59.637 59.512 59.332 59.19 58.906 58.917 58.752 58.625 58.517 58.391 58.308 58.133 58.067 58.017 58.605 62.353 62.847 59.019 59.791 57.616 57.514 57.562 57.456 57.49 57.494 57.465 57.555 57.589 60.391 64.283 66.501 66.928 66.359 65.344 58.302 57.128 57.249 57.338 57.994 58.237 58.597 57.521 57.215 57.205 57.174 57.211 57.793 59.747 62.24 63.536 63.868 64.243 64.047 63.878 63.34 63.315 63.69 64.029 64.273 64.028 64.038 63.156 56.22 55.373 55.235 55.151 55.056 54.827 54.791 54.71 54.64 54.82 60.587 64.141 64.14 72.23 72.587 68.964 66.376 71.661 72.127 72.359 72.897 73.3 73.784 76.017 74.559 77.489 76.351 73.125 72.736 72.461 71.913 71.59 71.374 70.004 69.483 72.839 71.799 65.893 65.595 61.233 66.255 60.953 60.964 61.065 61.078 61.211 61.185 61.236 61.276 61.277 61.378 61.314 61.325 61.308 61.344 61.341 61.341 61.314 61.087 60.995 60.928 60.936 60.883 60.955 60.982 60.992 61.03 61.119 61.187 61.583 61.254 61.432 61.39 61.53 61.69 61.774 61.881 62.051 62.105 62.116 62.319 63.169 64.07 63.511 61.496 62.824 64.272 60.694 60.515 60.524 60.513 60.53 60.776 60.659 60.531 60.408 60.34 60.388 60.823 60.265 64.157 65.702 65.414 65.729 65.682 62.873 62.951 65.593 65.645 61.948 60.081 59.886 60.044 62.039 62.882 59.31 61.491 60.878 59.855 62.558 59.598 62.48 60.544 58.965 58.827 58.788 58.604 58.548 58.424 58.31 58.26 58.098 58.042 57.911 57.84 57.706 57.669 57.764 60.94 61.03 60.979 59.892 58.102 58.048 61.365 63.191 63.205 62.813 63.913 64.324 63.164 62.263 62.95 64.151 64.108 63.105 62.713 63.716 64.523 63.675 62.532 56.416 56.128 56.038 55.931 55.969 56.023 56.066 56.124 56.177 56.215 58.988 60.67 60.668 60.695 60.665 60.657 60.755 60.755 60.708 60.677 60.688 60.633 60.593 60.772 60.565 60.445 58.449 56.897 57.042 56.018 65.702 65.982 66.109 66.118 65.987 60.338 65.537 65.582 65.403 57.838 65.982 66.125 66.087 65.976 63.407 59.023 52.421 52.22 51.861 51.531 51.213 49.225 41.459 42.226 40.744 40.837 40.811 40.752 40.67 40.647 40.717 40.895 41.239 54.843 58.511 58.526 48.675 40.71 40.657 40.556 40.524 40.57 40.617
64.792 64.87 65.127 66.39 66.225 65.598 65.307 65.592 64.562 64.621 64.353 64.215 64.212 64.117 64.052 63.952 63.94 63.919 63.905 63.895 63.957 67.645 68.19 68.26 68.418 68.404 68.376 68.438 68.645 68.525 67.782 67.317 67.352 67.507 67.667 68.077 68.228 67.712 67.771 67.896 66.141 64.631 63.714 63.642 63.574 63.507 63.423 65.838 71.185 69.203 68.875 70.182 70.186 70.048 69.889 70.458 70.089 71.111 71.221 72.009 71.381 71.831 71.835 72.292 72.003 72.297 71.967 72.017 72.383 72.366 72.483 72.425 72.371 72.606 72.744 72.779 72.673 72.803 73.025 72.882 72.789 72.665 72.92 72.812 72.836 72.663 72.708 66.288 62.484 62.556 62.483 62.436 62.85 63.244 61.779 61.746 62.95 61.948 64.121 63.11 61.487 61.685 61.538 61.481 61.48 61.443 61.453 61.429 61.399 61.406 61.343 61.312 61.294 61.24 61.167 61.207 61.231 61.905 61.969 61.56 61.666 61.659 62.653 61.977 63.763 62.036 66.634 70.224 71.552 71.173 69.95 62.718 60.477 61.122 60.107 60.027 59.889 59.834 59.633 59.507 59.354 59.236 59.115 58.896 58.833 58.677 58.632 58.432 58.368 58.258 58.156 58.193 61.966 59.159 61.442 60.774 59.026 57.571 57.507 57.487 57.516 57.489 57.506 57.444 57.524 59.669 61.48 61.717 62.544 66.127 67.081 66.47 65.668 59.15 57.8 58.22 57.843 57.135 57.013 57.098 57.044 57.172 57.557 57.248 57.167 57.659 60.952 63.164 63.849 64.145 64.282 63.894 63.64 63.188 63.285 63.891 64.296 64.274 63.967 63.537 59.328 55.523 55.485 55.405 55.289 55.128 54.972 54.907 54.918 54.83 55.305 57.966 62.884 61.391 69.252 72.743 72.46 72.351 72.986 73.227 73.526 74.035 74.168 73.799 74.526 79.484 81.277 78.319 72.159 71.607 65.755 65.229 61.678 60.583 60.399 61.836 65.795 62.302 60.28 65.617 68.421 67.032 61.095 60.881 60.986 61.122 61.197 61.263 61.262 61.267 61.318 61.299 61.342 61.334 61.354 61.402 61.389 61.406 61.347 61.222 61.024 61.001 61.008 60.967 61.008 60.975 61.005 61.075 61.077 61.183 61.214 61.592 61.524 61.584 61.736 62.114 63.204 62.699 62.542 62.402 62.357 63.224 64.2 64.289 62.519 62.363 62.868 61.268 60.696 60.543 60.648 60.762 60.744 60.779 60.631 60.528 60.423 60.303 60.296 61.048 61.529 61.184 62.964 61.743 61.073 60.142 59.994 60.069 60.256 60.302 60.139 59.879 59.852 59.952 62.096 62.998 59.879 61.026 61.219 59.211 62.54 60.004 62.46 59.603 58.847 58.802 58.762 58.625 58.519 58.369 58.288 58.21 58.131 58.048 57.908 57.782 57.724 57.72 57.715 61.019 59.296 59.958 58.63 59.517 57.468 61.384 63.182 63.209 62.816 63.687 64.437 63.326 62.24 63.17 64.184 63.965 63.004 62.551 63.58 64.466 63.887 62.414 57.301 56.12 56.092 55.951 55.916 56.016 56.037 56.137 56.161 56.199 58.94 60.193 60.272 60.308 60.312 60.34 60.374 60.415 60.477 60.549 60.572 60.636 60.699 60.631 60.822 60.666 57.296 56.687 57.091 60.351 65.877 66.057 66.21 65.787 63.495 65.746 65.452 65.629 65.824 66.009 66.089 66.168 65.74 63.478 65.719 63.904 55.469 52.253 52.189 52.028 51.711 51.252 50.329 47.223 40.981 40.759 40.783 40.794 40.729 40.762 40.727 40.705 40.608 41.441 53.871 48.86 40.794 40.689 40.668 40.646 40.585 40.546 40.576
64.511 64.607 64.775 64.747 65.445 64.996 65.137 67.008 65.728 65.049 64.374 64.203 64.184 64.174 64.116 64.002 63.942 63.877 63.879 63.92 63.868 66.869 68.244 68.109 68.089 68.045 68.008 68.02 68.467 68.711 68.306 68.113 68.289 68.291 68.315 68.458 68.469 68.503 68.268 68.468 68.256 64.388 63.769 63.646 63.555 63.48 63.404 65.368 69.821 72.188 72.063 72.889 72.265 72.458 72.26 72.341 72.464 72.886 72.842 72.633 73.04 72.737 72.736 72.908 73.315 72.95 73.011 73.065 72.71 73.015 72.941 72.812 72.722 72.566 72.522 72.424 72.677 72.195 71.962 72.028 71.971 71.805 71.291 71.296 71.373 71.645 70.761 65.128 62.464 62.549 62.482 62.415 62.536 62.193 61.483 62.544 64.074 64.579 64.706 63.589 61.865 61.479 61.515 61.444 61.327 61.329 61.28 61.314 61.292 61.287 61.256 61.237 61.254 61.196 61.144 61.122 61.141 61.561 62.056 61.488 61.54 61.572 63.435 61.844 61.861 62.273 66.869 69.577 71.115 71.443 69.79 62.902 60.671 60.822 60.215 59.828 59.751 59.731 59.511 59.469 59.34 59.224 59.047 58.852 58.793 58.684 58.57 58.441 58.383 58.274 58.236 58.268 58.985 65.493 60.694 57.468 57.551 57.522 57.499 57.502 57.413 57.485 57.586 59.583 61.009 61.587 61.839 61.887 62.242 65.482 66.806 66.817 66.069 62.038 59.821 57.978 58.087 57.297 56.986 57.043 57.074 57.03 57.049 58.424 57.23 57.152 57.293 58.828 62.649 64.535 64.14 63.734 63.387 63.183 63.59 64.077 64.341 64.166 63.702 62.846 56.617 55.696 55.571 55.46 55.452 55.255 55.204 55.124 55.046 55.288 56.816 60.886 59.855 57.69 68.383 72.674 73.485 73.771 74.261 74.34 73.794 73.483 73.179 72.776 72.62 78.276 80 78.522 65.9 62.438 60.292 60.291 60.296 60.292 60.259 60.273 60.233 60.108 60.199 61.601 67.042 62.371 61.093 60.936 61.018 61.188 61.153 61.205 61.251 61.241 61.277 61.294 61.418 61.425 61.475 61.404 61.448 61.46 61.387 61.38 61.057 61.068 61.035 61.017 61.053 60.974 61.008 61.034 61.259 61.27 61.464 62.98 62.13 62.146 62.705 64.097 64.453 64.563 64.368 64.553 64.85 64.78 64.758 63.673 62.139 63.585 62.181 62.734 60.924 60.825 60.831 60.762 60.735 60.786 60.534 60.444 60.41 60.291 60.319 60.427 60.645 62.487 60.882 60.387 60.052 60.007 59.937 59.984 59.891 59.921 59.833 59.743 59.669 59.559 62.072 63.025 59.895 59.755 60.871 59.13 61.363 59.44 61.408 59.464 58.816 58.81 58.686 58.514 58.494 58.335 58.308 58.198 58.071 58.014 57.902 57.797 57.715 57.71 59.808 60.881 60.995 61.068 60.026 60.206 57.35 60.427 63.191 63.213 62.593 63.685 64.098 63.226 62.218 62.984 64.158 64.097 62.973 62.774 63.63 64.514 63.758 62.355 56.741 56.129 56.141 55.955 55.99 55.977 56.001 56.142 56.201 56.32 59.718 60.043 60.059 59.971 60.005 60.048 60.07 60.143 60.133 60.227 60.184 60.247 60.349 60.306 60.435 59.844 59.281 56.902 56.489 59.678 66.026 66.144 66.08 65.933 65.758 65.633 65.592 65.767 63.671 66.054 66.141 66.081 64.776 65.775 65.56 65.557 65.396 62.932 53.959 52.284 51.846 51.732 51.208 50.735 46.243 41.246 40.808 40.769 40.736 40.734 40.774 40.762 40.673 40.624 40.866 40.818 40.973 40.707 40.669 40.655 40.673 40.622 40.631
64.251 64.28 64.296 64.459 64.749 64.87 65.422 64.72 64.9 64.935 65.818 64.261 64.163 64.07 64.035 64.018 64.016 63.978 63.92 63.932 63.841 66.627 67.384 67.343 67.213 67.137 67.225 67.636 68.441 68.616 68.136 68.152 68.276 68.182 68.072 67.9 67.944 67.973 67.955 67.86 67.658 63.916 63.747 63.623 63.559 63.445 63.36 64.992 70.853 73.076 73.081 73.174 73.024 73.028 73.227 72.885 72.862 72.775 72.703 72.689 72.685 72.435 72.281 73.048 72.121 72.083 72.009 71.979 71.969 71.767 71.851 71.877 71.329 70.889 71.687 70.634 70.653 71.642 70.457 70.23 70.226 69.779 69.928 69.313 68.127 66.609 65.357 63.446 62.451 62.456 62.446 62.41 62.698 61.7 63.76 64.529 64.944 64.857 64.781 63.643 63.208 61.404 61.253 61.124 61.199 61.192 61.223 61.205 61.214 61.153 61.169 61.144 61.112 61.09 61.032 61.032 61.078 61.509 61.522 61.413 61.446 61.395 61.613 61.402 62.252 62.163 65.738 69.529 71.003 71.486 70.148 67.279 60.253 60.088 59.842 59.598 59.712 59.596 59.487 59.367 59.214 59.169 59.04 58.938 58.737 58.721 58.511 58.48 58.357 58.307 58.528 58.365 58.037 59.964 57.505 57.471 57.535 57.475 57.454 57.461 57.417 57.615 59.695 61.541 61.737 61.885 62.131 62.286 62.546 64.693 66.549 66.956 64.209 62.39 59.859 58.073 57.255 57.071 57.019 57.025 57.053 57.051 57.048 57.088 58.405 57.206 57.171 57.199 57.203 59.255 60.272 63.594 63.194 62.986 63.911 64.101 64.261 63.867 63.529 58.261 56.216 55.722 55.759 55.686 55.565 55.441 55.34 55.289 55.263 55.376 60.32 64.978 64.632 59.53 60.186 72.09 73.663 74.553 73.37 73.126 72.715 72.391 71.897 71.801 66.505 75.266 77.232 67.838 63.103 61.928 60.234 60.237 60.235 60.243 60.222 60.218 60.187 60.117 60.093 60.322 62.193 61.062 62.024 61.066 61.095 61.232 61.198 61.237 61.278 61.293 61.354 61.363 61.41 61.411 61.475 61.421 61.413 61.451 61.487 61.509 61.219 61.168 61.08 61.272 62.019 61.489 61.228 61.826 62.656 63.742 63.636 63.957 62.988 62.684 63.89 64.22 64.397 65.129 64.964 65.173 64.837 64.732 64.35 62.759 63.535 64.198 63.199 61.64 60.915 60.893 60.811 60.781 60.753 60.634 60.542 60.509 60.367 60.235 60.163 60.211 60.301 60.174 60.137 60.065 59.989 59.961 59.937 59.86 59.847 59.792 59.747 59.705 59.571 59.468 61.692 60.614 59.245 59.167 59.146 59.07 59.009 58.928 59.593 58.91 58.777 58.72 58.611 58.574 58.403 58.327 58.222 58.148 58.056 57.964 57.91 57.74 57.73 60.766 61.149 60.4 62.15 59.759 62.419 60.2 58.043 61.444 63.207 63.165 62.71 63.859 64.333 63.215 62.279 62.944 64.17 63.992 62.964 62.457 63.644 64.695 63.708 62.574 57.245 56.135 56.075 55.9 55.939 55.971 56.092 56.071 56.168 56.359 59.951 60.418 60.288 60.266 60.217 60.206 60.176 60.139 60.029 60.021 60.047 59.988 60.033 60.031 60.002 60.005 59.282 56.498 55.851 61.9 66.085 66.112 66.035 58.359 65.52 65.504 65.707 65.85 65.981 66.123 66.151 61.159 65.671 65.676 65.535 65.697 63.453 66.06 63.626 54.425 54.9 52.391 51.746 51.545 51.099 49.291 44.459 41.159 40.726 40.762 40.768 40.702 40.684 40.668 40.899 42.78 40.877 40.99 40.93 42.65 41.721 41.622 40.671
64.039 64.046 64.079 64.132 64.257 64.294 64.414 64.487 64.529 66.427 65.368 64.983 64.306 64.087 64.028 64.009 63.958 63.913 63.868 63.86 63.832 65.856 66.469 65.212 65.178 66.41 66.803 67.621 68.274 68.744 68.026 67.341 67.316 67.304 67.173 67.106 67.179 67.107 67.093 66.854 66.896 64.421 64.186 63.981 63.533 63.425 63.277 64.671 70.299 72.377 72.315 72.382 71.898 72.115 71.716 71.919 71.995 71.656 71.344 71.782 71.149 70.84 70.968 71.213 70.319 70.596 70.23 70.039 66.806 69.938 69.711 68.592 66.202 65.163 64.666 64.039 65.894 63.65 63.578 66.896 65.52 62.862 63.487 62.983 62.825 62.718 62.537 62.531 62.431 62.443 62.454 62.406 62.52 61.497 64.395 64.937 65.034 64.917 64.803 64.684 63.139 62.399 60.368 60.229 60.774 60.987 61.083 61.106 61.116 61.119 61.072 61.049 61.005 61.027 61.01 60.966 60.995 61.209 62.68 61.255 61.286 61.356 61.265 61.208 61.386 61.859 64.788 69.573 70.88 71.541 70.403 64.58 60.109 60.021 59.955 59.721 59.637 59.631 59.516 59.228 59.239 59.099 58.96 58.854 58.687 58.641 58.52 58.464 61.478 61.904 61.032 58.342 57.604 57.424 57.444 57.433 57.47 57.422 57.474 57.39 57.491 60.508 61.543 61.846 61.939 62.181 62.386 62.69 62.806 63.429 63.928 63.366 63.554 60.603 57.322 57.162 57.1 57.052 57.034 56.995 56.996 56.952 57.009 57.047 57.071 57.131 57.56 57.206 57.297 57.298 57.253 58.48 60.017 63.688 64.101 64.41 64.171 63.786 63.147 56.926 56.056 55.946 55.867 55.746 55.607 55.577 55.528 55.449 55.356 55.774 62.03 65.573 65.658 64.89 61.326 69.65 73.22 73.191 72.424 71.632 71.751 71.375 63.288 61.079 59.945 63.198 61.485 60.104 60.212 61.057 60.197 60.146 60.146 60.141 60.168 60.146 60.116 60.1 59.994 60.076 60.159 60.187 60.939 61.387 61.053 61.235 61.242 61.332 61.352 61.361 61.376 61.354 61.404 61.386 61.44 61.448 61.453 61.484 61.612 61.499 61.269 61.22 61.177 62.837 62.938 63.357 63.505 63.587 64.704 64.119 64.128 63.896 63.231 61.753 63.906 63.601 63.34 62.952 63.351 64.274 63.182 63.972 61.96 61.421 63.515 63.096 62.26 62.265 61.039 60.93 60.886 60.783 60.644 60.542 60.456 60.324 60.338 60.19 60.129 60.179 60.789 60.812 60.307 60.047 60.002 59.956 59.947 59.844 59.771 59.779 59.685 59.628 59.536 59.443 59.308 59.996 59.188 59.133 59.137 59.082 59.031 58.867 58.912 58.795 58.818 58.642 58.552 58.469 58.391 58.316 58.162 58.058 57.992 57.931 57.87 57.76 57.678 60.399 63.226 63.948 63.648 66.102 67.827 61.815 59.125 58.481 63.115 63.28 62.863 64.076 64.155 62.932 62.186 63.146 64.057 64.064 63.044 62.64 63.645 64.596 63.929 62.55 56.302 56.05 56.055 55.937 55.903 55.933 55.951 56.073 56.192 56.191 60.114 60.688 60.649 60.646 60.548 60.537 60.525 60.449 60.427 60.39 60.321 60.327 60.205 60.189 60.195 60.933 58.583 56.711 52.998 61.906 66.119 66.176 65.693 65.744 65.565 65.608 65.781 65.949 66.091 66.116 65.994 66.016 65.743 65.38 65.614 65.707 65.959 66.082 66.088 65.947 61.879 53.862 52.038 51.84 51.789 51.54 50.822 45.92 42.659 41.052 40.754 40.763 40.683 40.708 46.584 48.063 40.919 40.916 46.796 44.476 41.437 41.168 40.668
63.918 63.898 63.934 63.994 63.969 64.047 64.097 64.177 64.1 64.207 65.269 64.579 67.224 66.025 65.155 64.574 64.047 64.027 64.098 63.899 63.868 64.384 63.844 63.88 63.933 64.318 66.667 67.459 68.461 68.633 67.957 67.121 66.624 66.438 66.097 66.428 65.059 66.324 64.978 64.409 64.449 63.873 64.48 63.759 63.472 63.4 63.251 64.922 69.391 71.041 71.282 71.146 70.421 70.442 67.904 70.198 66.486 69.603 65.433 65.048 65.026 64.953 64.105 64.515 63.865 63.276 64.244 65.64 62.925 63.173 63.05 62.671 62.785 62.985 62.78 62.833 63.236 62.767 62.847 66.42 65.662 63.262 63.3 63.53 62.856 63.046 63.687 62.946 62.282 62.403 62.44 62.342 62.424 62.701 62.781 64.863 64.974 64.905 64.803 64.799 63.561 63.429 64.863 65.048 64.493 60.854 61.073 61.075 61.053 60.982 60.968 60.98 60.99 60.936 60.928 60.878 60.888 61.184 61.332 61.18 61.106 61.146 61.183 61.174 62.973 63.249 64.702 70.879 71.101 71.563 70.488 64.833 60.062 60.206 59.833 59.844 59.735 59.656 59.484 59.284 59.178 59.056 58.998 58.835 58.697 58.589 58.441 58.548 62.293 60.961 62.32 58.669 57.423 57.464 57.442 57.409 57.41 57.427 57.383 57.42 61.145 61.765 61.973 62.078 62.318 62.6 62.733 62.949 63.163 63.355 63.479 63.681 63.766 63.798 58.207 57.133 57.087 57.021 57.007 56.985 56.962 56.995 56.982 57.026 56.97 57.1 57.606 57.626 57.34 57.272 57.307 57.271 57.274 57.978 63.647 64.267 63.978 63.535 62.716 57.321 56.245 56.12 56.033 55.973 55.841 55.754 55.673 55.823 56.126 61.101 65.244 66.036 65.335 61.809 61.446 64.755 72.601 72.343 71.248 67.155 61.36 60.251 59.605 60.487 59.791 60.3 60.107 60.073 60.119 60.16 60.119 60.083 60.088 60.083 60.118 60.087 60.157 60.066 60.104 60.104 60.059 61.795 63.011 63.966 61.475 61.59 61.304 61.275 61.366 61.392 61.394 61.374 61.365 61.437 61.431 61.422 61.486 61.516 61.608 61.496 61.393 61.238 61.288 63.909 65.482 64.043 64.812 64.044 63.748 64.097 65.005 64.478 61.867 62.065 61.255 61.36 61.172 61.402 61.356 61.213 61.729 61.691 61.201 61.126 61.577 62.115 61.558 61.081 60.842 60.771 60.793 61.171 60.657 60.544 60.571 60.411 60.368 60.199 60.129 60.072 60.136 60.488 60.736 60.125 60.022 59.934 59.891 59.834 59.811 59.772 59.737 59.565 59.463 59.344 59.302 59.228 59.15 59.063 59.024 58.954 58.959 58.876 58.832 58.769 58.735 58.647 58.603 58.424 58.368 58.273 58.176 58.088 58.001 57.956 57.769 57.723 57.625 57.589 58.862 65.098 65.225 67.242 69.19 67.413 61.766 61.443 63.209 63.198 62.705 63.788 64.318 63.214 62.379 63.299 63.981 64.106 63.119 62.64 63.518 64.648 63.879 62.518 56.891 56.017 56.071 55.932 55.849 55.851 55.949 56.089 56.173 56.251 60.503 60.62 60.632 60.612 60.655 60.728 60.773 60.711 60.717 60.733 60.712 60.594 60.573 60.584 60.49 57.671 56.29 56.378 53.912 64.495 66.062 65.924 63.557 65.556 65.625 65.726 66.096 66.033 66.176 66.041 65.921 65.784 65.636 65.627 65.779 64.502 66.066 66.107 66.054 63.594 64.835 65.534 61.958 54.075 52.148 51.951 51.72 51.103 49.422 43.596 40.956 40.806 40.753 40.991 45.966 44.041 40.665 40.664 42.533 43.572 41.374 40.744 40.684
63.682 63.77 63.744 63.804 63.797 63.791 63.839 63.908 64.01 63.997 64.032 64 64.312 64.53 64.742 66.94 65.519 64.464 64.219 64.292 64.065 63.917 63.862 63.851 63.825 63.957 66.618 67.557 68.182 66.239 65.758 64.719 64.134 63.803 63.946 64.014 63.847 63.658 63.67 63.602 63.611 63.779 67.215 64.029 63.452 63.301 63.241 63.711 64.99 65.018 63.117 65.075 64.626 63.014 63.123 63.208 63.13 63.819 63.126 63.058 63.074 63.154 62.871 62.865 64.483 63.46 63.599 64.171 62.788 63.393 63.529 62.818 63.241 63.768 62.891 63.043 62.99 62.648 63.766 63.073 64.098 62.765 62.456 62.42 62.417 62.385 62.384 62.309 62.342 62.348 62.365 62.363 62.455 62.12 64.631 64.803 64.893 65.021 64.893 64.784 65.384 65.987 65.989 65.958 65.913 61.782 60.936 60.985 61.152 60.764 60.926 60.878 60.846 60.873 60.815 60.866 60.832 60.873 62.305 61.086 61.059 61.094 61.077 61.045 63.179 64.291 64.075 63.694 63.6 63.413 63.443 61.083 60.117 59.972 59.774 59.836 59.893 59.673 59.438 59.261 59.126 59.051 58.986 58.798 58.716 58.677 59.336 58.726 61.676 61.962 60.449 57.894 57.39 57.402 57.368 57.399 57.337 57.379 60.161 61.212 61.87 62.041 62.259 62.419 62.664 62.821 63.092 63.162 63.524 63.569 63.858 63.939 64.201 64.412 59.57 57.132 57.128 57.037 57.035 57.003 56.933 56.943 56.945 57.023 56.992 57.069 57.079 57.205 57.396 57.334 57.301 57.246 57.233 57.247 57.362 59.203 62.412 63.204 58.618 56.963 56.299 56.264 56.211 56.059 55.888 55.927 59.543 62.929 59.39 64.871 65.804 65.736 64.871 61.775 61.672 62.782 72 72.74 67.152 60.401 59.795 60.467 59.518 59.845 59.707 59.877 60.004 60.088 60.108 60.163 60.073 60.136 60.068 60.105 60.136 60.166 60.12 60.154 60.106 60.304 65.196 68.176 62.139 62.594 64.286 61.2 61.352 61.357 61.394 61.383 61.386 61.437 61.394 61.43 61.416 61.427 61.441 61.541 61.703 61.57 61.658 61.249 61.26 61.267 63.582 62.377 61.834 61.943 61.206 61.141 62.188 61.514 61.14 61.069 61.061 61.004 61.03 61.008 60.964 60.962 60.935 60.876 60.892 60.853 60.845 60.746 60.759 60.754 60.741 60.701 60.584 60.547 60.5 60.472 60.746 60.334 60.366 60.164 60.179 60.082 60.023 60.078 60.093 60.07 60.021 59.964 60.024 59.945 59.721 59.777 59.695 59.486 59.437 59.325 59.299 59.245 59.127 59.116 59.055 58.995 58.902 58.881 58.782 58.813 58.733 58.572 58.458 58.369 58.349 58.205 58.118 58.001 57.949 57.856 57.794 57.769 57.587 57.604 62.183 63.981 66.527 67.361 67.94 65.171 59.066 61.36 63.257 63.224 62.858 63.83 64.311 63.212 62.202 63.038 64.166 63.921 62.917 62.802 63.704 64.742 63.641 62.398 56.692 56.009 55.938 55.851 55.891 55.85 56.018 56.083 56.168 56.265 60.168 60.192 60.281 60.345 60.333 60.374 60.397 60.432 60.537 60.551 60.565 60.624 60.721 60.662 60.839 57.09 56.276 56.329 54.657 64.135 65.948 65.87 65.707 65.399 65.777 65.867 65.998 66.138 66.087 65.939 65.812 65.649 65.562 65.774 66.064 66.038 66.165 66.081 59.151 65.551 65.625 65.624 65.69 64.289 52.518 52.116 52.053 51.943 51.651 50.723 44.793 42.426 40.919 40.899 43.986 40.71 40.672 40.625 40.556 40.859 41.62 43.289 42.446
63.635 63.551 63.552 63.609 63.71 63.693 63.757 63.75 63.737 63.743 63.777 63.9 63.868 63.875 63.84 64.713 65.625 64.604 64.745 64.378 64.806 63.973 63.758 63.752 63.826 63.806 63.742 63.779 63.81 63.867 63.838 63.767 63.683 63.671 63.626 63.765 63.715 63.607 63.533 63.535 63.605 63.642 63.6 63.486 63.319 63.289 63.184 64.699 65.046 63.582 63.138 63.809 63.771 63.596 64.479 65.975 63.576 64.201 64.009 63.168 63.819 63.926 63.941 63.406 63.074 63.19 62.871 63.12 62.559 62.459 62.459 62.429 62.816 62.523 62.426 62.422 62.388 62.796 63.429 62.406 62.777 63.459 62.628 62.379 63.213 63.364 62.436 62.307 62.328 62.376 62.357 62.298 62.494 62.454 64.061 64.791 64.886 65.008 64.915 64.831 64.894 65.994 65.942 65.974 65.881 64.499 60.628 60.626 60.549 60.73 60.865 60.999 60.797 60.779 60.741 60.715 60.732 60.745 61.91 60.983 60.899 61.003 60.968 60.917 60.998 63.021 61.723 60.784 60.666 60.553 61.179 60.331 62.691 59.957 59.841 59.904 59.75 59.534 59.324 59.276 59.113 59.1 58.891 58.856 58.665 62.502 62.3 61.032 58.724 59.182 57.499 57.353 57.417 57.303 57.391 57.353 57.3 59.583 61.68 61.998 62.121 62.381 62.475 62.816 62.928 63.17 63.367 63.59 63.779 63.974 64.169 64.278 64.559 64.67 63.924 57.364 57.091 57.062 57.066 56.972 57.025 56.97 57.016 57.031 57.066 57.091 57.128 57.241 57.246 58.633 57.339 57.275 57.198 57.234 57.531 57.208 57.195 59.341 57.301 56.748 56.549 56.499 56.417 56.256 56.076 56.008 59.959 64.155 63.445 65.236 65.92 65.083 60.672 59.755 59.991 60.956 71.772 72.659 67.04 61.198 59.795 59.837 59.545 59.628 59.783 59.901 60.089 61.073 60.939 60.65 60.178 60.168 60.237 60.162 60.144 60.155 60.211 60.168 60.213 60.203 61.47 67.242 60.612 60.933 62.045 61.237 61.316 61.464 61.435 61.386 61.426 61.364 61.412 61.45 62.456 61.73 61.382 61.658 61.367 61.28 61.231 61.169 61.194 61.164 61.217 61.137 61.183 61.158 61.114 61.159 61.104 61.101 61.151 61.119 61.133 61.059 61.07 61.078 60.983 61.018 60.921 60.946 60.942 60.895 60.891 60.827 60.806 60.735 60.737 60.687 60.662 60.617 60.582 60.505 60.412 60.381 60.288 60.229 60.222 60.09 60.068 59.984 59.954 59.942 59.882 59.836 59.757 59.769 59.646 59.717 59.529 59.417 59.318 59.275 59.25 59.13 59.087 59.057 59.026 58.965 58.898 58.844 58.758 58.744 58.742 59.571 58.683 59.115 58.296 58.183 58.132 57.981 57.984 57.841 57.743 57.684 57.601 57.654 59.823 62.689 65.09 66.504 66.348 63.291 57.298 61.008 63.198 63.23 62.631 63.972 64.241 63.108 62.413 63.093 64.201 63.99 63.144 62.765 63.727 64.683 63.809 62.707 57.194 56.031 55.926 55.841 55.793 55.9 55.945 56.079 56.197 56.177 59.442 59.784 58.037 60.096 60.126 60.185 60.215 60.165 60.151 60.215 60.219 60.278 60.343 60.372 60.41 57.014 56.257 56.759 55.829 55.285 56.732 65.572 65.609 65.611 65.537 61.327 66.091 66.137 58.299 65.851 65.665 65.496 65.678 65.84 65.948 66.085 66.061 65.996 65.778 65.632 65.453 65.664 61.102 63.533 66.105 60.871 53.233 52.25 52.056 53.903 52.331 48.012 42.36 40.853 40.756 40.72 40.753 40.656 40.783 40.627 40.514 41.941 42.687
63.635 63.593 64.989 63.518 63.495 63.486 63.532 63.585 63.585 63.684 63.682 63.73 63.645 63.703 63.706 63.774 63.75 63.742 63.938 64.331 64.264 63.914 63.781 63.646 63.652 63.673 63.732 64.035 63.865 63.75 63.884 64.433 63.704 63.884 64.226 63.681 63.517 63.489 63.518 63.49 63.483 63.451 63.431 63.344 63.262 63.203 63.138 63.598 64.92 63.619 62.982 62.797 63.562 63.182 63.288 63.406 62.851 62.7 62.523 63.109 63.464 62.492 62.498 62.507 62.447 63.055 63.596 63.363 63.542 62.961 62.413 62.811 63.44 62.687 62.457 62.498 62.541 62.59 62.586 62.468 62.484 62.447 62.444 62.436 62.394 62.407 62.355 62.351 62.315 62.335 62.371 62.238 62.313 62.325 63.763 64.728 64.835 64.912 64.975 64.9 64.804 65.632 66.051 65.978 65.972 65.254 61.555 60.528 63.396 64.792 64.029 61.204 60.729 60.677 60.667 60.652 60.613 60.631 61.812 60.938 60.824 60.889 60.862 60.792 60.924 60.967 60.864 61.628 62.825 60.597 64.208 65.627 65.862 60.025 59.958 59.955 59.847 59.505 59.433 59.286 59.128 59.029 58.894 58.779 59.503 58.98 59.07 59.362 58.42 57.427 57.432 57.335 57.351 57.327 57.29 57.779 61.426 61.869 62.105 61.395 62.451 62.784 59.952 63.014 63.275 63.513 63.658 63.884 63.981 64.273 64.356 64.675 64.79 65.002 65.113 58.483 57.096 57.086 57.043 56.964 57.032 57.061 57.06 57.048 57.141 57.127 57.186 57.247 57.299 57.288 57.4 57.311 57.227 57.272 57.577 57.231 57.158 57.056 56.959 56.787 56.674 56.575 56.478 56.307 56.313 56.324 63.435 62.004 60.854 60.284 64.273 64.652 61.963 59.859 59.896 60.043 62.221 60.202 60.02 59.918 59.815 59.751 59.653 59.738 59.863 60.119 60.19 61.575 61.117 60.537 60.371 60.472 62.388 60.412 60.209 60.228 60.482 60.22 60.257 60.761 61.211 66.541 65.609 65.027 62.47 62.692 63.464 61.524 61.449 61.354 61.637 61.301 61.308 61.292 61.277 61.235 61.202 61.211 61.218 61.218 61.22 61.26 61.236 61.21 61.241 61.19 61.237 61.217 61.191 61.162 61.157 61.192 61.118 61.138 61.175 61.117 61.125 61.056 61.019 61.008 61.011 61.015 60.945 60.939 60.828 60.844 60.839 60.814 60.763 60.704 60.682 60.821 60.636 60.622 60.472 60.466 60.336 60.306 60.191 60.187 60.158 60.043 59.958 59.909 59.889 59.772 59.675 59.638 59.602 59.491 59.384 59.384 59.266 59.164 59.092 59.091 59.213 59.155 58.989 58.922 59.376 58.893 59.401 58.658 58.736 60.273 60.813 59.871 60.688 60.523 58.911 58.284 57.909 57.859 57.744 57.663 57.625 57.49 58.138 58.423 60.052 60.315 65.219 63.286 57.295 60.743 63.183 63.196 62.711 63.804 64.256 63.286 62.14 63.188 64.295 63.959 63.054 62.64 63.639 64.565 63.803 62.556 57.106 55.986 55.906 55.891 55.751 55.818 55.904 56.055 56.086 56.225 58.899 58.931 56.205 56.202 56.235 56.625 56.975 57.316 57.281 59.618 57.35 59.976 60.207 60.316 60.074 56.247 56.267 59.751 59.674 56.198 52.675 54.091 65.169 63.421 66.014 63.68 66.118 66.043 65.739 65.758 65.626 65.587 65.842 65.91 66.023 66.116 66.003 65.691 62.971 65.449 65.614 58.96 65.845 66.082 66.118 66.103 62.125 52.595 53.222 52.217 51.885 51.147 52.565 51.786 41.427 40.936 40.621 40.672 40.697 40.682 40.665 40.488 41.164
63.583 63.628 64.188 65.783 64.434 64.887 63.464 63.409 63.459 63.522 63.534 63.482 63.607 63.575 63.593 63.593 63.613 63.649 63.712 63.68 63.802 63.668 63.962 63.817 63.572 63.607 63.892 64.065 63.85 63.78 63.84 64.161 63.672 63.579 63.664 63.464 63.432 63.402 63.368 63.389 63.411 63.346 63.245 63.164 63.181 63.042 63.06 64.576 63.307 62.673 62.646 62.78 62.672 62.647 62.602 62.657 63.026 62.751 62.603 62.814 62.961 62.534 62.508 62.604 62.565 62.553 62.512 62.499 62.585 62.572 62.514 62.486 62.565 62.485 62.546 62.562 62.52 62.525 62.477 62.443 62.468 62.428 62.413 62.377 62.418 62.38 62.373 62.301 62.299 62.282 62.374 62.289 62.367 63.114 64.361 64.682 64.782 64.855 64.921 64.879 64.879 65.037 65.981 65.998 65.932 65.888 63.861 64.772 64.702 64.676 64.626 62.843 60.767 60.625 60.565 60.564 60.531 60.583 61.238 60.801 60.713 60.778 60.796 60.73 60.806 60.887 61.463 60.677 60.665 63.399 65.038 65.343 62.528 60.063 60.062 59.912 59.682 59.466 59.345 59.204 59.168 59.654 58.856 59.99 62.345 62.87 60.986 59.905 57.965 57.439 57.34 57.398 57.322 57.338 57.27 59.632 61.558 62.137 62.471 62.589 62.807 62.943 63.162 63.324 63.637 63.704 63.995 64.142 64.35 64.603 64.74 65.002 65.159 65.37 65.515 61.343 57.208 57.055 57.027 57.07 57.07 57.109 57.054 57.171 57.187 57.168 57.249 57.223 57.41 57.43 57.436 57.44 57.66 57.674 57.275 57.249 57.227 57.151 57.041 56.875 56.796 56.71 56.635 56.497 56.438 62.071 64.849 62.531 59.343 59.275 60.468 64.159 63.179 60.663 60.044 60.094 60.971 60.066 60.046 59.951 59.899 59.878 59.86 59.921 62.65 62.225 62.289 60.524 60.531 60.525 60.53 64.034 66.64 61.931 60.269 60.266 60.459 60.878 61.495 61.592 64.972 66.682 66.039 62.655 61.611 61.248 61.303 61.176 61.246 61.197 61.183 61.217 61.189 61.192 61.25 61.259 61.262 61.28 61.259 61.274 61.284 61.257 61.249 61.27 61.241 61.268 61.237 61.214 61.258 61.188 61.181 61.213 61.158 61.159 61.078 61.102 61.097 61.028 61.071 60.949 60.929 60.963 60.904 60.895 60.862 60.807 60.768 60.75 60.717 60.665 60.699 60.617 60.537 60.533 60.636 60.435 60.369 60.328 60.23 60.205 60.079 60.032 60.007 59.951 59.867 59.797 59.771 59.68 59.638 59.534 59.456 59.421 59.311 59.26 59.127 59.029 58.98 58.963 58.918 58.809 58.778 58.724 58.682 58.757 58.9 58.754 58.831 59.289 59.004 59.279 58.35 58.004 57.831 57.816 57.701 57.595 57.529 57.558 60.79 60.338 60.666 60.006 62.198 59.018 57.197 61.341 63.212 63.285 62.849 63.845 64.089 63.02 62.171 62.983 64.226 64.041 62.992 62.742 63.811 64.444 63.621 62.515 57.147 55.88 55.894 55.77 55.773 55.819 55.903 56.069 56.064 56.06 56.134 56.133 56.157 56.184 56.25 56.233 56.256 56.307 56.217 56.2 56.198 56.223 56.222 56.226 57.436 56.238 56.283 60.028 60.262 53.792 52.692 52.861 52.164 55.027 65.809 66.138 66.116 65.941 64.648 65.628 65.565 63.848 57.96 65.853 66.129 66.089 65.924 65.735 65.422 65.535 65.745 65.909 66.069 66.156 66.014 58.924 64.165 64.643 57.333 53.04 52.054 51.724 52.941 57.138 55.394 42.695 49.67 41.032 40.676 40.678 40.638 40.656 40.513
63.562 63.532 63.517 63.492 63.513 63.49 63.439 63.438 63.315 63.362 63.392 63.402 63.415 63.42 63.438 63.507 63.501 63.547 63.58 63.569 63.541 63.597 63.548 63.675 63.62 63.813 63.664 64.013 63.683 63.67 63.687 64.586 63.446 63.376 63.354 63.388 63.396 63.335 63.369 63.298 63.241 63.2 63.129 63.14 63.055 63.019 62.985 63.024 62.71 62.692 62.755 62.722 62.651 62.672 62.625 62.641 62.663 62.623 62.645 62.595 62.644 62.633 62.593 62.638 62.536 62.593 62.647 62.573 62.555 62.532 62.473 62.493 62.539 62.478 62.49 62.5 62.403 62.493 62.49 62.421 62.395 62.408 62.335 62.349 62.343 62.306 62.336 62.254 62.298 62.279 62.297 62.292 62.295 63.35 64.104 64.449 64.749 64.878 64.938 64.935 64.834 65.181 65.761 66.05 65.829 64.853 64.681 64.662 64.701 64.651 64.606 63.952 61.041 60.528 60.54 60.449 60.442 60.467 60.745 60.719 60.662 60.743 60.757 60.622 60.642 60.806 60.8 64.858 60.615 64.209 64.231 61.759 60.073 60.065 60.01 59.862 59.554 59.517 59.345 59.19 59.105 58.985 58.976 59.229 62.085 62.621 60.885 57.699 57.463 57.386 57.295 57.331 57.26 57.254 59.801 61.713 62.236 62.543 62.608 62.93 62.984 63.294 63.577 63.669 63.957 64.028 64.34 64.479 64.724 64.839 65.087 65.244 65.414 65.568 65.871 65.906 57.933 57.071 57.112 57.067 57.072 57.177 57.151 57.205 57.217 57.282 57.314 57.427 57.438 57.466 57.527 57.5 57.49 57.363 57.399 57.306 57.234 57.19 57.089 57.03 56.928 56.842 56.764 56.726 56.58 57.987 62.378 60.068 60.922 61.996 64.115 64.065 63.985 62.046 60.264 60.801 61.718 60.805 60.105 60.025 60.031 60.079 60.026 60.114 64.917 66.554 64.897 64.365 60.686 60.691 60.811 62.379 67.121 64.593 60.629 60.851 61.28 61.482 61.365 61.305 61.273 61.376 61.258 61.203 61.097 61.126 61.126 61.147 61.184 61.199 61.233 61.211 61.207 61.218 61.215 61.256 61.321 61.269 61.248 61.255 61.269 61.265 61.226 61.221 61.207 61.258 61.224 61.228 61.183 61.207 61.177 61.169 61.144 61.11 61.042 61.101 60.981 60.99 60.953 60.949 60.928 60.875 60.881 60.84 60.802 60.82 60.78 60.76 60.688 60.619 60.6 60.567 60.569 60.501 60.468 60.368 60.313 60.289 60.197 60.197 60.141 60.067 60.01 59.999 59.893 59.873 59.765 59.687 59.705 59.569 59.505 59.381 59.336 59.301 59.249 59.143 59.081 59.01 58.885 58.896 58.737 58.665 58.55 58.548 58.406 58.38 58.339 58.2 58.205 58.069 57.912 57.868 57.808 57.77 57.714 57.623 57.511 57.561 58.979 58.734 58.796 60.406 59.282 57.895 57.207 61.338 63.263 63.23 62.799 63.825 64.18 63.276 62.266 62.994 64.277 63.87 62.951 62.603 63.751 64.55 63.712 62.669 56.678 55.844 55.867 55.817 55.697 55.76 55.777 55.91 55.99 56.021 56.065 56.079 56.089 56.115 56.151 56.163 56.186 56.196 56.212 56.143 56.192 56.191 56.227 56.196 56.247 56.225 56.298 58.513 58.756 54.265 53.073 52.518 52.195 52.538 63.351 65.893 65.542 58.668 64.767 65.532 65.685 65.608 65.957 66.124 66.114 65.946 65.813 65.654 65.476 65.648 57.38 65.875 66.175 66.118 66.133 65.563 65.61 65.439 65.73 59.085 59.409 52.131 54.22 54.822 54.112 55.211 51.392 42.324 40.669 40.66 40.671 40.704 40.61
63.415 63.54 63.496 63.473 63.472 63.523 63.45 63.448 63.409 63.351 63.317 63.241 63.238 63.288 63.291 63.294 63.336 63.369 63.335 63.437 63.466 63.424 63.42 63.383 63.466 63.584 65.036 65.041 63.47 63.536 63.403 63.339 63.216 63.282 63.258 63.523 63.508 63.321 63.264 63.198 63.187 63.12 63.047 62.998 62.959 62.881 62.959 63 62.783 62.734 62.777 62.687 62.688 62.674 62.666 62.631 62.556 62.542 62.631 62.606 62.596 62.544 62.57 62.516 62.549 62.519 62.518 62.478 62.476 62.419 62.552 62.52 62.458 62.456 62.616 62.461 62.503 62.442 62.481 63.661 63.714 62.898 62.45 62.737 63.816 62.729 62.446 62.41 62.273 62.251 62.309 62.23 62.26 63.073 63.183 61.514 64.695 64.844 64.905 64.937 64.904 64.836 65.086 64.93 64.587 64.646 64.653 64.615 64.611 64.567 64.488 64.4 61.391 60.525 60.355 60.332 60.263 60.316 62.759 60.61 60.542 60.569 60.631 60.617 60.562 60.564 60.575 60.528 60.427 60.266 60.52 60.531 60.135 60.139 60.019 59.749 59.572 59.496 59.348 59.278 59.155 58.991 59.23 60.353 59.905 59.819 58.642 57.397 57.391 57.329 57.361 57.285 57.314 60.924 62.186 62.452 62.586 62.888 59.987 63.174 63.422 63.654 63.792 64.018 64.161 64.412 64.547 64.81 64.909 65.204 65.419 65.553 65.845 65.922 66.238 63.83 58.961 57.075 57.121 57.079 57.182 57.106 57.201 57.243 57.236 57.348 57.373 58.302 58.939 59.407 58.355 57.818 57.587 57.591 57.512 57.376 57.364 57.308 57.172 57.204 57.139 56.985 56.862 56.877 56.868 57.479 59.763 59.5 63.427 64.134 64.113 64.174 64.188 64.368 60.659 61.26 60.716 60.924 60.155 60.204 63.598 63.176 60.163 60.061 63.661 65.525 62.809 67.356 62.059 60.91 62.262 61.817 61.261 61.329 61.154 61.209 61.171 61.12 61.143 61.108 61.176 61.135 61.209 61.164 61.191 61.124 61.221 61.243 61.23 61.21 61.243 61.275 61.214 61.255 61.235 61.288 61.256 61.243 61.271 61.26 61.271 61.232 61.215 61.239 61.175 61.167 61.157 61.2 61.154 61.146 61.174 61.147 61.221 61.14 61.138 61.153 61.128 61.141 61.061 61.026 61.08 61.034 60.97 60.987 60.941 60.887 60.864 60.854 60.79 60.729 60.869 60.827 60.562 60.578 60.428 60.416 60.316 60.22 60.226 60.092 60.12 60.028 59.953 59.956 59.86 59.847 59.794 59.689 59.616 59.536 59.478 59.464 59.371 59.29 59.278 59.124 59.045 58.993 58.938 58.877 58.765 58.717 58.601 58.544 58.407 58.373 58.291 58.215 58.151 58.014 57.928 57.863 57.868 57.728 57.607 57.593 57.519 57.588 58.681 61.395 61.424 60.641 59.341 57.729 57.19 61.386 63.174 63.223 62.778 63.901 64.355 63.199 62.297 63.044 64.29 64.023 63.019 62.48 63.728 64.66 63.72 62.536 57.659 55.775 55.778 55.723 55.656 55.791 55.835 55.8 55.997 55.966 55.995 56.042 56.065 56.002 56.094 56.094 56.14 56.135 56.128 56.158 56.176 56.168 56.226 56.84 56.988 56.339 56.686 57.651 55.639 54.662 53.458 52.518 52.27 52.24 52.171 52.229 62.22 65.379 65.481 65.638 65.648 63.837 66.097 66.133 66.008 59.17 65.593 65.505 65.638 65.838 65.952 66.102 66.119 66.003 65.842 64.361 65.581 65.607 65.778 66.072 63.935 56.384 55.26 54.845 52.158 52.392 55.485 50.919 46.794 42.374 40.748 40.66 40.688
63.481 63.402 63.402 63.447 63.45 63.468 63.507 63.498 63.406 63.382 63.39 63.354 63.309 63.207 63.166 63.199 63.217 63.264 63.253 63.227 63.284 63.3 63.334 63.316 63.298 63.328 63.347 63.452 63.504 63.284 63.118 63.129 63.108 63.453 63.422 63.603 63.448 63.284 63.242 63.18 63.083 63.014 62.937 62.848 62.89 62.877 62.881 62.906 63.12 62.622 62.695 62.654 62.604 62.621 62.553 62.605 62.601 62.522 62.603 62.592 62.575 62.634 62.937 62.581 63.708 63.687 62.8 62.974 62.553 62.827 62.502 62.562 62.372 63.03 62.722 62.358 62.706 62.377 62.581 62.54 62.309 62.23 62.24 62.268 62.259 62.447 62.373 62.375 62.359 62.26 62.241 62.247 62.283 63.419 61.804 60.688 63.553 64.763 64.873 64.937 64.917 64.637 64.421 64.35 64.412 64.592 64.589 64.541 64.478 64.478 64.44 64.432 62.518 60.49 60.279 60.24 60.185 60.234 61.762 60.659 60.418 60.556 60.539 60.489 60.33 60.418 60.362 60.339 60.232 60.197 60.089 60.079 60.184 60.07 59.83 59.664 59.61 59.486 59.441 60.213 59.292 59.209 62.184 60.175 59.337 59.157 57.585 57.362 57.315 57.295 57.328 57.239 57.214 62.362 62.518 62.651 62.967 63.103 60.292 63.395 63.762 64.008 64.157 64.419 64.523 64.765 64.902 65.156 65.231 65.541 65.695 65.949 66.047 66.37 66.52 62.799 60.388 57.172 57.128 57.158 57.173 57.156 57.259 57.216 57.4 57.533 58.769 58.416 58.877 58.023 58.029 58.482 57.685 57.638 57.565 57.55 57.467 57.363 57.438 57.394 57.285 57.161 57.117 56.958 57.03 59.5 59.445 59.32 63.012 64.062 65.394 66.691 65.429 63.614 61.272 60.378 60.371 62.733 63.131 63.791 62.413 64.48 60.211 60.211 60.159 61.356 65.854 64.506 61.426 60.931 60.896 60.991 60.987 61.056 61.09 61.035 61.078 61.09 61.152 61.178 61.165 61.24 61.226 61.264 61.288 61.265 61.12 61.168 61.196 61.231 61.23 61.173 61.235 61.204 61.232 61.264 61.236 61.237 61.244 61.234 61.279 61.212 61.27 61.273 61.297 61.28 61.261 61.308 61.292 61.296 61.379 61.388 61.427 61.347 61.395 61.298 61.46 61.636 62.329 61.378 61.242 61.292 61.24 61.272 61.239 61.046 61.066 60.947 60.991 60.895 60.893 60.911 60.914 60.8 60.554 60.579 60.397 60.386 60.34 60.268 60.175 60.074 60.073 59.889 59.803 59.808 59.689 59.682 59.586 59.522 59.434 59.388 59.293 59.266 59.222 59.172 59.1 59 58.951 58.868 58.818 58.689 58.671 58.612 58.517 58.423 58.322 58.327 58.174 58.358 57.998 57.9 57.92 57.77 57.752 57.597 57.56 57.449 57.454 57.358 57.348 57.487 57.454 57.113 57.085 61.369 63.145 63.188 62.784 64.001 64.262 63.146 62.316 63.115 64.286 63.98 62.839 62.544 63.679 64.616 63.748 62.605 57.587 55.823 55.701 55.716 55.643 55.674 55.726 55.801 55.892 55.964 55.989 56.028 56.093 56.048 56.076 56.107 56.113 56.134 56.431 56.355 56.452 56.347 55.939 55.558 55.271 54.603 53.926 56.81 57.221 53.766 53.696 52.533 52.442 52.345 52.311 52.204 52.767 62.266 65.449 65.734 66.03 65.998 66.109 66.093 65.7 65.733 65.452 65.525 65.76 65.892 66.064 66.158 66.018 65.845 65.78 65.551 65.572 58.925 65.431 66.057 57.474 52.942 54.575 54.358 53.705 56.228 55.55 51.413 50.112 44.803 45.862 40.808 40.619
71.065 63.84 63.418 63.439 63.364 63.337 63.392 63.345 63.424 63.399 63.356 63.353 63.29 63.284 63.254 63.176 63.114 63.026 63.056 63.06 63.132 63.183 63.152 63.154 63.243 63.233 63.275 63.284 63.276 63.08 63.019 63.021 63.135 63.567 66.733 63.699 63.615 63.252 63.177 63.064 63.011 63.019 62.895 62.885 62.952 62.871 62.874 62.894 62.95 62.793 62.751 62.687 63.81 63.957 63.832 62.491 63.685 62.891 62.554 62.697 62.852 62.429 62.354 62.77 62.348 62.309 62.298 62.227 62.274 62.245 62.303 62.27 62.236 62.267 62.265 62.235 62.274 62.257 62.265 62.226 62.261 62.232 62.215 62.203 62.145 62.6 62.426 62.456 62.338 62.167 62.269 62.236 62.184 61.872 61.32 60.947 62.07 64.742 64.722 64.75 64.622 64.631 64.348 64.184 64.028 64.549 64.444 64.445 64.422 64.421 64.374 64.251 64.195 61.317 60.234 60.173 60.071 60.054 60.113 60.244 60.386 60.403 60.455 60.402 60.261 60.182 60.121 60.118 60.224 60.194 60.163 60.13 60.118 59.925 59.763 59.711 59.568 59.396 59.89 61.354 59.244 60.302 63.942 62.141 60.602 57.635 57.283 57.321 57.247 57.33 57.247 57.309 57.227 57.193 61.938 62.965 63.242 63.45 63.703 63.844 64.073 64.204 64.406 64.644 64.9 64.998 65.249 65.337 65.626 65.875 66.076 66.332 66.464 66.757 66.868 64.241 58.084 57.175 57.128 57.17 57.126 57.239 57.286 58.43 58.045 58.036 58.132 58.029 58.104 58.117 58.143 58.352 58.418 57.712 57.658 57.698 57.6 57.639 57.631 57.592 57.398 57.304 57.257 57.112 57.587 59.868 59.313 61.867 64.288 63.958 66.264 66.691 65.212 63.848 63.362 64.822 60.672 63.17 64.143 64.041 63.492 64.6 62.496 64.848 63.152 61.424 61.234 60.976 60.959 60.928 60.914 61.008 61.003 61.06 61.078 61.158 61.177 61.183 61.221 61.254 61.223 61.191 61.251 61.27 61.236 61.206 61.154 61.183 61.115 61.167 61.141 61.178 61.246 61.174 61.285 61.228 61.303 61.34 61.394 61.439 61.41 61.519 61.463 61.493 61.694 61.506 61.611 61.626 61.696 61.741 61.698 61.797 61.797 61.752 61.795 63.383 66.239 68.748 66.328 61.798 61.609 61.579 61.587 61.65 64.051 65.355 64.568 61.429 63.747 63.871 61.902 61.156 61.236 61.188 61.037 60.975 60.823 60.772 60.681 60.58 60.444 60.328 60.295 60.148 60.123 59.945 59.93 59.784 59.728 59.671 59.57 59.474 59.268 59.205 59.128 59.116 58.983 58.928 58.877 58.845 59.271 58.696 58.641 58.537 58.536 58.435 58.4 58.319 58.181 58.163 58.06 58.002 57.892 57.88 57.733 57.65 57.591 57.529 57.45 57.345 57.307 57.198 57.083 57.08 57.019 56.946 57.188 57.992 57.758 59.049 64.275 60.238 62.333 63.23 64.19 63.878 63.009 62.496 63.797 64.523 63.483 62.449 56.6 55.721 55.689 55.609 55.567 55.637 55.652 55.791 55.835 56.01 56.023 56.081 56.086 56.125 56.242 56.756 56.613 56.531 55.187 54.952 54.937 54.332 54.339 53.773 53.661 53.571 53.409 54.815 55.605 53.184 52.812 52.675 52.593 52.539 52.411 52.372 59.92 62.681 62.679 65.133 65.975 66.114 66.091 65.862 62.877 65.658 65.498 65.482 64.22 66.048 66.114 66.05 65.951 65.802 65.62 65.482 65.695 65.425 64.661 65.708 52.321 53.779 55.199 54.838 54.187 53.91 52.414 51.842 51.157 50.791 48.676 48.234 40.881
75.013 74.736 72.25 68.115 67.972 63.806 63.399 63.304 63.305 63.333 63.272 63.322 63.334 63.218 63.265 63.189 63.175 63.088 63.041 62.955 62.887 62.956 63.006 63.003 63.06 63.083 63.113 63.15 63.001 62.95 62.91 62.916 63.044 63.193 63.914 63.742 63.784 63.431 63.508 64.933 63.336 63.414 63.778 66.193 65.835 63.243 63.042 63.033 63.645 63.223 63.203 62.495 62.475 62.479 62.389 62.372 62.383 62.328 62.333 62.318 62.297 62.493 63.297 62.294 62.319 62.316 62.21 62.299 62.308 62.31 62.256 62.209 62.242 62.187 62.193 62.203 62.144 62.22 62.199 62.208 62.182 62.134 62.184 62.169 62.179 62.179 62.233 62.223 62.372 62.244 62.235 62.18 62.13 63.286 61.438 63.309 64.244 64.649 64.562 64.533 64.559 64.501 64.52 63.83 63.702 64.21 64.426 64.385 64.325 64.195 64.202 64.171 64.105 63.123 60.206 60.107 60.052 59.953 60.062 60.22 60.278 60.355 60.365 60.27 60.185 60.108 60.067 60.107 60.151 60.118 60.13 60.184 60.009 59.767 59.759 59.699 59.636 59.471 61.123 60.189 59.349 61.576 63.381 61.785 58.8 57.208 57.353 57.232 57.302 57.282 57.236 57.259 57.227 57.223 58.317 63.162 63.48 63.782 63.874 64.163 64.276 64.563 64.765 64.973 65.186 65.259 65.567 65.736 65.972 66.093 66.469 66.548 66.871 67.15 67.338 67.372 58.646 57.168 57.08 57.165 57.243 57.304 57.366 58.294 57.819 57.971 58.07 58.066 58.132 58.149 58.51 58.592 58.778 58.451 57.832 57.828 57.746 57.799 57.766 57.672 57.502 57.514 57.377 58.309 58.731 59.685 59.657 64.881 66.251 67.18 67.668 66.937 65.791 64.793 66.897 67.454 62.256 60.761 64.073 64.155 65.055 64.736 62.22 64.924 61.963 61.01 60.953 60.924 60.986 60.952 61.036 61.092 61.124 61.152 61.143 61.173 61.22 61.177 61.204 61.207 61.156 61.175 61.18 61.236 61.167 61.206 61.218 61.166 61.117 61.204 61.114 61.256 61.319 61.363 61.491 61.414 61.567 61.662 61.681 61.817 61.858 64.41 62.138 62.859 62.286 63.056 62.164 62.067 62.152 62.2 62.15 62.155 62.152 62.12 64.881 67.401 68.457 68.331 66.849 62.111 62.024 62.058 61.971 61.928 62.17 67.899 65.682 66.388 66.765 63.505 61.532 61.443 61.576 61.429 61.454 61.44 61.279 61.126 61.084 61.027 60.744 60.757 60.586 60.523 60.281 60.241 60.181 59.913 61.342 62.158 59.683 59.483 59.507 59.451 59.272 59.204 59.092 59.013 58.845 58.82 58.714 58.905 58.596 58.53 58.499 58.339 59.083 58.417 58.254 58.092 58.049 57.959 57.894 57.86 57.803 57.755 57.589 57.611 57.459 57.46 57.315 57.282 57.225 57.119 57.04 56.962 56.904 56.77 56.826 56.697 56.699 56.61 57.217 58.339 58.788 64.067 62.871 62.594 63.598 64.582 63.803 62.526 56.595 55.717 55.695 55.554 55.621 55.578 55.623 55.714 55.815 55.93 56.012 56.036 56.472 56.84 56.473 55.506 54.688 54.693 54.311 54.244 54.072 53.94 53.834 53.707 53.591 53.478 53.372 54.571 53.698 53.044 52.924 52.84 52.691 52.602 52.549 53.273 62.525 62.617 62.682 62.655 64.988 66.032 65.718 63.273 65.708 65.571 65.654 65.732 65.943 66.092 66.173 65.955 65.86 65.696 65.591 65.622 65.748 65.723 65.495 56.154 53.193 55.35 55.484 55.439 55.455 54.768 52.904 52.605 52.091 54.928 54.397 50.128 45.222
75.644 75.66 75.318 74.757 74.458 70.897 69.343 63.887 63.369 63.312 63.284 63.251 63.21 63.271 63.245 63.179 63.132 63.089 63.071 63.006 62.957 62.902 62.848 62.773 62.849 62.943 62.974 62.941 62.923 62.843 62.807 62.985 63.053 63.106 63.191 63.219 63.41 63.695 66.475 65.097 63.621 63.605 63.73 66.206 64.847 64.575 63.595 63.828 63.836 62.514 62.45 62.416 62.388 62.379 62.371 62.285 62.294 62.242 62.241 62.249 62.329 69.066 72.363 72.256 67.249 62.382 62.311 62.306 62.352 62.238 62.232 62.177 62.125 62.085 62.06 62.148 62.129 62.156 62.134 62.078 62.159 62.134 62.122 62.15 62.091 62.132 62.191 62.221 62.382 62.103 62.112 62.136 62.127 63.243 63.544 64.626 64.563 64.531 64.553 64.524 64.439 64.413 64.465 63.856 63.46 63.29 64.304 64.189 64.166 64.11 64.078 64.001 63.706 61.837 60.261 60.023 60.074 61.074 60.231 60.189 60.24 60.277 60.247 60.153 60.117 60.067 59.917 59.954 60.176 60.165 60.186 60.115 59.927 59.792 59.773 59.724 59.574 61.179 61.246 59.371 61.464 60.792 59.807 57.924 57.357 57.297 57.315 57.276 57.329 57.212 57.254 57.158 57.238 57.139 57.246 58.385 63.744 64.039 64.281 64.523 64.628 64.934 65.018 65.214 65.393 65.702 65.849 66.085 66.29 66.481 66.797 66.902 67.347 67.469 67.719 67.839 63.861 57.298 57.147 57.155 57.28 58.966 59.424 58.059 58.073 58.145 58.104 58.187 58.397 58.557 58.611 58.654 58.735 58.706 58.553 57.928 57.972 57.877 57.857 57.792 57.73 57.675 58.24 57.831 61.091 60.405 66.531 67.752 68.037 68.388 68.532 69.08 67.656 68.193 68.333 68.813 68.837 61.226 61.735 60.947 63.61 62.089 60.931 61.178 60.951 60.952 60.99 61.028 61.025 61.074 61.121 61.14 61.163 61.146 61.129 61.183 61.151 61.138 61.095 61.123 61.132 61.139 61.195 61.142 61.192 61.228 61.282 61.33 61.242 61.312 61.368 61.521 61.519 61.705 61.779 61.831 62.001 61.883 62.032 62.09 63.46 67.072 64.034 66.299 68.861 68.603 63.125 62.561 62.532 62.545 62.53 62.54 62.461 62.556 68.194 69.458 68.672 67.852 64.506 63.295 62.468 65.549 67.256 62.857 64.167 64.987 68.544 68.309 65.751 61.956 61.847 61.722 61.842 61.832 61.845 61.805 63.467 61.518 64.002 64.203 61.22 61.043 60.913 60.893 63.021 65.672 64.302 61.355 60.266 60.348 60.065 59.987 59.8 59.754 59.639 59.452 59.344 59.199 59.035 58.993 58.814 59.368 58.727 58.627 58.433 58.463 58.278 58.183 58.163 58.083 58.068 57.956 57.93 57.802 57.847 57.666 57.624 57.586 57.477 57.437 57.366 57.341 57.178 57.143 57.043 57.01 56.941 56.804 56.835 56.689 56.681 56.587 56.532 56.413 56.327 56.35 57.175 57.483 62.413 60.138 63.556 62.198 56.493 55.734 55.62 55.632 55.511 55.624 55.567 55.585 55.712 55.778 55.909 56.941 57.401 57.022 54.964 54.622 54.451 54.424 54.251 54.112 54.014 53.922 53.822 53.736 53.609 53.491 53.358 53.321 53.215 53.139 53.042 52.919 52.823 52.731 52.645 53.353 58.437 62.637 62.677 62.643 62.657 64.119 65.848 65.75 65.623 65.519 63.37 65.437 66.059 66.13 66.034 65.872 65.722 65.461 65.583 65.753 65.178 64.669 63.225 52.115 54.074 54.934 55.422 55.617 55.638 55.516 55.425 54.786 52.822 56.354 56.371 54.051 51.896
72.587 74.78 75.415 75.55 75.561 74.972 74.571 73.415 72.847 63.713 63.343 63.21 63.139 63.174 63.127 63.118 63.168 63.129 63.087 63.037 62.93 62.92 62.896 62.797 62.701 62.656 62.634 62.721 62.786 62.781 62.802 62.839 62.918 62.941 63.062 63.116 63.202 63.225 63.307 63.475 63.562 63.682 64.004 64.183 66.413 65.407 65.375 64.573 63.522 62.396 62.374 62.401 62.34 62.315 62.225 62.183 62.17 62.255 62.212 62.25 62.507 71.514 74.889 74.847 73.213 70.526 68.395 62.664 62.361 62.272 62.214 62.126 62.033 62.054 62.062 62.056 62.025 62.061 62.108 62.131 62.105 62.092 62.057 62.06 62.161 62.15 62.204 62.136 62.394 62.175 62.176 62.95 62.121 62.455 61.931 64.563 64.549 64.495 64.414 64.402 64.435 64.42 64.278 64.07 61.552 60.355 64.049 64.128 64.076 64.03 63.902 61.292 60.533 60.135 61.595 61.344 60.761 60.821 60.943 60.404 60.258 60.253 60.216 60.139 60.057 60.011 60.021 59.942 60.174 61.518 61.929 60.029 59.919 59.854 59.745 59.687 59.579 60.571 60.291 61.05 61.474 60.383 59.026 57.412 57.279 57.377 57.344 57.28 57.221 57.218 57.254 57.148 57.177 57.16 57.209 57.151 62.759 64.277 64.626 64.811 64.933 65.263 65.401 66.511 66.463 65.966 66.243 66.488 66.638 66.89 67.048 67.327 67.511 67.857 68.068 68.109 67.678 58.292 57.17 57.272 59.352 59.733 59.781 59.353 59.212 58.256 58.256 58.436 58.557 58.562 58.968 58.662 58.734 59.234 58.811 58.597 58.12 58.034 58.034 57.881 57.851 57.698 57.759 62.873 67.649 67.812 68.205 68.569 69.085 69.073 68.802 67.672 68.868 68.333 68.136 67.369 64.018 61.485 60.864 60.849 60.862 60.891 60.936 60.962 60.984 60.997 60.978 61.069 61.058 61.12 61.106 61.105 61.154 61.153 61.089 61.069 61.08 61.178 61.102 61.097 61.136 61.103 61.177 61.246 61.328 61.335 61.44 61.493 61.653 61.541 61.763 61.822 61.849 62.035 62.091 62.257 62.314 62.307 62.433 62.55 65.228 66.248 69.706 69.401 68.854 68.946 63.245 62.945 62.924 62.814 62.819 62.716 62.819 62.774 68.399 69.262 68.16 65.877 62.81 64.814 62.792 67.151 64.989 64.42 64.051 67.546 69.065 68.687 62.884 62.332 63.61 62.765 62.089 62.169 62.147 66.416 66.461 65.544 66.766 67.728 62.491 61.302 63.599 65.012 66.588 64.426 67.918 63.486 60.541 60.517 60.403 60.342 60.253 60.101 60.068 59.808 59.775 59.404 59.361 59.188 59.21 59.11 58.972 58.795 58.642 58.519 58.43 58.37 58.216 58.206 57.974 57.998 57.831 57.761 57.741 57.633 57.634 57.513 57.424 57.374 57.322 57.285 57.199 57.227 57.08 57.088 56.983 56.974 56.815 56.746 56.697 56.659 56.57 56.484 56.475 56.294 56.253 56.176 56.176 56.042 56.021 57.224 55.764 55.746 55.621 55.532 56.092 55.57 55.429 55.468 55.574 55.806 56.262 56.563 55.929 54.939 54.828 54.61 54.496 54.345 54.278 54.125 54.024 53.927 53.825 53.734 53.665 53.563 53.428 53.352 53.295 53.182 53.109 53.013 52.941 52.87 52.688 52.661 54.995 62.046 62.695 62.691 62.638 62.677 62.67 63.294 65.447 65.445 63.523 66.015 66.154 66.107 65.912 64.857 65.657 65.592 65.701 65.886 65.971 65.935 53.988 53.677 55.34 55.207 55.493 55.689 55.771 55.669 55.592 55.455 54.423 55.47 54.582 54.446 52.228
66.557 72.734 74.154 74.721 75.204 75.466 75.638 75.301 74.759 68.506 64.256 63.264 63.206 63.109 63.073 63.044 62.991 63.045 62.992 63.056 63.003 62.946 62.892 62.822 62.767 62.759 62.7 62.561 62.582 62.669 62.585 62.673 62.722 62.777 62.776 62.842 62.999 63.061 63.117 63.288 63.417 63.64 63.845 63.884 63.944 64.84 64.414 64.059 64.231 62.479 62.353 62.326 62.303 62.238 62.232 62.179 62.164 62.125 62.193 62.255 69.002 73.208 75.338 74.812 74.847 73.689 73.881 73.886 71.134 67.641 62.384 62.128 62.108 62.075 62.029 62.066 62.055 62.087 62.035 62.065 62.104 62.09 62.09 62.098 62.117 62.119 62.163 62.235 62.316 62.477 62.153 62.114 62.278 62.003 61.637 64.285 64.437 64.417 64.416 64.377 64.064 62.174 61.048 60.644 60.337 60.171 61.879 64.075 64.02 63.851 60.271 60.182 60.328 61.272 60.795 60.855 60.923 60.59 61.041 60.715 60.197 60.173 60.138 60.103 60.014 60.111 61.156 61.243 61.413 62.497 60.436 60.032 59.954 59.876 59.803 59.671 59.61 59.484 59.472 60.068 60.479 59.276 57.577 57.433 57.384 57.355 57.316 57.3 57.258 57.243 57.164 57.182 57.112 57.19 57.102 57.233 57.678 64.529 64.9 65.031 65.189 65.505 65.719 66.052 66.259 66.247 66.618 66.842 67.021 67.28 67.446 67.746 67.883 68.128 67.885 67.777 67.52 66.7 59.042 59.158 59.593 59.517 59.783 61.509 60.644 58.367 58.437 58.521 58.986 58.598 58.572 58.751 58.789 58.911 58.848 59.266 58.365 58.242 58.136 58.113 58.002 58.041 60.653 66.106 68.332 68.929 69.934 69.338 68.741 68.5 68.029 67.615 67.435 63.848 62.537 62.647 60.907 60.849 60.84 60.874 60.943 60.953 60.985 60.966 61.037 61.024 61.047 61.048 61.018 61.103 61.083 61.096 61.095 61.059 61.054 61.031 61.02 61.077 61.155 61.189 61.21 61.283 61.294 61.464 61.443 61.763 61.873 61.846 61.972 62.001 62.029 61.982 62.18 65.381 62.464 62.615 62.531 62.689 62.795 63.903 68.476 69.385 69.767 67.268 68.227 66.61 63.425 63.233 63.2 63.166 65.245 63.797 63.092 66.927 67.366 67.974 64.537 64.534 66.466 64.683 66.186 65.12 66.687 67.3 66.656 64.397 64.678 63.897 62.704 62.669 65.683 62.82 62.412 62.401 62.476 66.632 68.17 66.283 66.93 66.527 64.19 62.24 65.074 67.761 68.778 63.281 68.275 66.941 60.916 60.864 60.725 60.667 60.377 60.337 60.242 60.135 60.081 59.836 59.696 59.531 59.488 59.365 59.301 59.119 58.992 58.708 58.692 58.638 58.523 58.426 58.267 58.073 57.959 57.868 57.796 57.702 57.578 57.566 57.461 57.359 57.323 57.252 57.176 57.093 57.068 56.976 56.974 56.895 56.811 56.798 56.673 56.62 56.526 56.502 56.421 56.378 56.32 56.197 56.122 56.034 55.912 55.861 55.748 55.697 55.652 55.505 55.939 55.587 55.382 55.461 55.752 55.86 55.779 55.777 55.13 54.957 54.833 54.666 54.582 54.389 54.361 54.19 54.104 53.984 53.899 53.81 53.744 53.638 53.529 53.456 53.333 53.264 53.205 53.081 52.995 52.917 52.824 52.778 53.995 52.936 55.951 62.36 62.679 62.653 62.644 62.665 63.274 65.706 63.079 66.069 66.099 65.97 63.011 65.64 65.507 65.649 65.813 65.938 65.822 53.681 52.369 55.218 55.157 55.437 55.614 55.78 55.974 55.875 55.788 55.608 55.514 55.398 54.965 54.201 52.735
63.425 63.474 63.679 72.999 72.258 74.699 74.847 75.556 75.56 73.158 63.653 63.312 63.33 63.211 63.107 63.03 62.978 62.97 62.993 62.944 62.874 62.853 62.855 62.922 62.813 62.762 62.627 62.609 62.564 62.546 62.491 62.462 62.549 65.459 62.715 62.665 62.591 62.714 62.81 62.985 63.177 63.47 63.534 63.532 63.611 66.53 63.933 64.645 63.233 62.411 62.263 62.219 62.268 62.226 62.181 62.112 62.108 62.132 62.208 62.434 73.164 74.253 75.283 73.429 74.92 75.287 74.782 74.211 73.579 72.876 72.331 71.65 62.469 62.218 62.122 62.078 62.116 62.053 62.067 62.136 62.093 62.073 62.034 62.036 62.103 62.135 62.145 62.166 62.208 62.152 62.186 62.129 62.053 63.036 62.768 61.284 64.337 64.338 62.266 61.992 60.434 60.314 60.264 60.321 60.358 60.192 60.512 61.186 61.139 61.248 60.419 60.536 61.415 60.667 60.369 61.166 61.459 60.363 60.536 60.814 60.206 60.146 60.117 60.086 60.027 61.173 60.101 63.19 60.363 60.961 60.091 59.984 59.963 59.899 59.824 59.709 59.592 59.506 59.816 60.776 61.573 58.468 57.48 57.41 57.443 57.33 57.409 57.333 57.236 57.211 57.151 57.236 57.081 57.152 57.167 57.217 57.23 61.891 65.121 65.344 65.062 65.766 66.046 66.259 66.538 66.708 66.998 67.073 67.441 67.516 67.897 68.047 68.084 67.846 67.568 67.339 67.155 66.718 57.477 58.356 59.629 59.755 61.597 62.556 63.005 59.718 58.607 58.565 58.669 58.71 58.815 58.833 59.009 58.969 59.133 58.948 58.435 58.352 58.276 58.246 58.222 62.042 63.161 65.47 69.566 68.794 68.4 68.217 67.841 67.465 66.922 62.57 62.159 60.898 60.86 60.784 60.91 60.93 60.91 60.926 60.97 60.967 60.993 61.047 61.018 60.987 61.065 61.016 61.018 61.071 61.017 61.043 60.99 60.978 61.073 61.08 61.109 61.167 61.196 61.238 61.936 62.252 62.286 62.45 62.222 62.225 62.26 62.32 62.221 62.263 62.311 62.381 66.242 67.677 68.887 63.34 62.862 63.015 63.079 63.268 64.476 65.601 68.096 63.885 63.513 63.508 63.476 63.473 63.433 63.523 67.187 67.166 63.502 67.968 66.002 63.35 63.369 63.324 63.369 63.334 65.509 65.144 63.555 66.694 67.308 64.888 63.106 63.071 63.057 62.892 63.467 62.608 62.661 62.814 62.831 63.737 65.791 63.46 65.016 66.349 66.635 62.575 65.397 65.297 69.491 69.352 68.023 69.818 65.61 65.285 66.511 64.759 61.487 60.621 60.413 60.409 60.182 60.037 59.89 59.792 59.734 59.611 59.507 59.448 59.266 59.144 59.015 58.95 58.876 58.729 58.652 58.43 58.257 61.45 59.685 57.921 57.734 57.664 57.556 57.485 57.341 57.327 57.211 57.098 57.046 56.93 56.899 56.859 56.751 56.737 56.627 56.644 56.55 56.534 56.437 56.417 56.307 56.187 56.116 56.099 55.935 55.886 55.78 55.683 55.618 55.551 55.515 55.405 55.41 56.322 55.815 55.783 55.752 55.737 55.197 55.005 54.811 54.748 54.553 54.44 54.304 54.223 54.227 54.048 54.039 53.912 53.794 53.692 53.592 53.501 53.429 53.351 53.218 53.174 53.045 52.996 52.937 53.172 54.663 54.395 53.012 54.902 61.617 62.662 62.667 62.608 62.647 62.707 63.664 66.052 65.928 57.86 65.101 65.571 65.641 65.491 65.914 66.03 57.083 52.471 54.84 55.398 55.406 55.567 55.761 55.928 56.148 56.043 55.964 55.784 55.68 55.593 55.499 55.139 52.638
63.444 63.391 63.424 63.619 69.513 71.681 73.679 74.202 74.418 64.958 63.529 63.362 63.304 63.227 63.147 63.247 63.211 63.143 63.001 62.88 62.833 62.807 62.79 62.775 62.723 62.756 62.729 62.692 62.628 62.598 62.539 62.44 62.436 63.434 62.421 62.412 62.471 62.536 62.542 62.611 62.745 62.968 63.207 63.266 63.434 63.503 63.538 63.914 64.232 62.74 62.223 62.197 62.152 62.102 62.112 62.151 62.098 62.14 62.109 62.485 75.834 75.521 74.616 72.739 74.809 74.44 74.807 75.086 75.322 74.723 74.29 73.598 72.635 71.54 69.405 67.77 73.827 66.506 62.133 62.147 62.077 62.099 62.097 62.11 62.073 62.076 62.113 62.167 62.19 62.17 62.133 62.099 62.054 62.401 62.406 60.502 61.702 63.105 60.682 60.388 60.607 60.247 60.276 60.371 60.441 60.472 60.43 61.344 60.796 60.453 60.676 60.223 60.009 59.987 60.03 59.984 59.944 59.923 60.209 61.066 60.193 60.105 60.123 60.043 60.036 60.134 64.36 63.671 62.196 60.378 60.192 60.053 60.015 59.93 59.876 59.805 59.612 59.865 64.548 64.392 64.228 60.461 57.528 57.451 57.467 57.371 57.351 57.271 57.274 57.198 58.014 58.646 57.357 57.126 57.956 58.632 59.055 67.18 65.117 65.741 65.897 66.077 66.288 66.709 66.777 67.022 67.368 67.478 67.795 67.953 68.072 67.895 67.697 67.486 67.281 67.007 66.744 64.745 57.932 57.881 58.738 59.919 59.966 63.099 63.096 61.503 58.879 58.696 61.755 59.062 58.802 58.786 59.101 59.104 60.204 59.213 58.575 58.457 58.426 58.356 58.379 59.59 68.121 68.494 68.47 68.079 67.592 67.159 65.467 62.433 60.734 60.769 60.79 60.797 60.86 60.906 60.894 60.918 60.949 60.942 60.99 60.951 61.001 61.005 61.032 60.951 60.972 61.011 61.037 60.974 60.999 60.991 61.078 61.081 61.156 61.166 61.206 61.962 62.214 62.647 62.835 62.9 62.833 62.77 62.749 62.698 62.623 62.643 62.545 62.611 62.701 62.96 66.378 66.38 68.595 65.526 63.386 63.401 63.48 63.595 63.654 63.761 63.811 63.766 63.742 63.745 63.821 63.835 63.8 63.719 64.536 64.651 63.578 64.389 63.809 63.562 63.62 63.68 63.613 63.626 63.593 63.595 63.558 63.5 63.703 63.394 63.384 63.429 63.282 63.286 63.382 64.477 63.069 65.531 64.245 62.945 62.697 62.58 62.452 64.474 65.557 62.481 63.04 66.171 69.251 68.918 69.897 69.949 63.937 66.417 67.846 64.074 60.942 60.702 60.682 60.576 60.426 60.25 60.076 59.97 59.83 59.757 59.671 59.569 59.445 59.394 59.245 59.263 59.121 59.023 58.859 58.694 62.294 65.2 63.655 58.733 58.103 57.998 57.898 57.813 57.687 57.532 57.408 57.313 57.129 57.069 56.961 56.92 56.84 56.657 56.581 56.507 56.506 56.433 56.402 56.364 56.294 56.257 56.113 56.071 56.035 55.884 55.854 55.776 55.637 55.631 55.519 55.432 55.352 55.311 55.396 55.339 55.397 55.11 55.039 54.902 54.845 54.796 54.598 54.53 54.408 54.588 55.231 54.3 54.208 54.142 53.897 53.763 53.679 53.564 53.506 53.382 53.318 53.214 53.113 53.086 52.993 52.963 54.225 53.937 52.959 52.964 53.309 58.63 62.459 62.674 62.714 62.652 62.665 62.705 64.442 62.946 65.621 65.625 65.691 64.384 66.031 65.927 53.717 52.261 53.788 55.33 55.576 55.685 55.862 56.101 56.291 56.111 56.105 55.942 55.862 55.736 55.629 55.513 54.679
63.423 63.419 63.422 68.494 73.806 75.72 71.671 67.92 69.557 64.434 63.719 63.347 63.358 63.297 63.299 63.194 63.189 63.195 64.929 64.707 63.129 62.879 62.744 62.687 62.693 62.707 62.602 62.671 62.609 62.573 62.583 62.525 62.455 62.386 62.317 62.316 62.339 62.363 62.392 62.349 62.402 62.47 62.655 62.693 62.944 63.232 65.971 63.516 64.469 63.878 62.162 62.093 62.114 62.105 62.098 62.017 62.066 62.078 62.179 69.948 74.054 75.805 73.952 73.607 74.584 73.704 73.173 73.362 74.331 75.023 75.196 74.899 74.348 73.778 74.122 73.101 80.379 70.825 62.432 62.355 62.168 62.097 62.135 62.076 62.106 62.088 62.111 62.162 62.12 62.167 62.161 62.109 62.023 66.057 67.478 67.913 67.374 64.863 62.632 60.558 60.132 60.069 60.046 60.076 59.944 59.914 59.785 59.591 59.456 59.5 59.468 59.508 59.537 59.453 59.461 59.492 59.508 59.537 60.245 60.331 60.12 60.176 60.287 60.262 60.312 61.123 67.72 68.104 67.324 60.413 60.133 60.04 59.957 59.96 59.906 59.785 59.7 61.867 65.11 65.762 65.587 59.731 57.399 57.517 57.477 57.482 57.321 57.375 57.241 57.126 57.49 57.361 57.49 57.257 57.385 59.366 68.542 69.489 66.465 66.112 66.209 66.551 66.684 67.04 67.203 67.455 67.674 67.979 68.041 68.012 67.785 67.614 67.327 67.146 66.914 66.556 66.4 66.205 61.265 57.795 57.799 58.331 57.662 62.182 63.274 63.601 63.228 62.964 64.022 59.904 58.893 59.138 59.191 59.005 58.895 58.708 58.708 58.592 58.589 58.494 58.63 64.277 67.039 67.61 67.372 66.844 63.222 60.904 61.906 61.395 60.785 60.823 60.826 60.908 60.897 60.924 60.87 60.99 60.957 60.924 60.953 60.921 60.948 60.961 60.938 60.958 60.938 60.956 60.965 61.048 61.073 61.099 61.116 61.227 62.137 62.414 62.575 62.812 62.903 62.974 63.049 63.144 63.143 63.109 63.034 62.946 63.042 63.047 63.057 62.999 62.952 63.157 68.941 70.8 66.355 67.87 68.649 63.992 63.84 63.991 64.019 64.097 64.018 64.13 64.138 64.073 64.182 64.138 64.083 64.176 64.088 64.014 64.042 63.889 63.841 63.975 63.921 64.026 64.023 63.991 64.084 63.914 63.979 63.879 63.863 63.827 63.747 63.833 63.74 63.719 63.751 66.952 63.726 64.115 67.34 66.867 63.623 62.782 62.718 62.572 62.729 62.32 62.156 63.694 66.188 62.762 67.818 64.09 61.577 66.538 67.486 68.929 65.166 62.047 60.88 60.688 60.602 60.412 60.317 60.166 60.122 59.999 59.914 59.77 59.694 59.534 59.491 59.36 59.27 59.163 59.018 58.93 63.451 66.232 64.626 58.948 60.954 59.545 59.189 58.049 57.978 57.852 57.77 57.687 57.556 57.417 57.268 57.164 56.939 56.886 56.716 56.637 56.562 56.419 56.294 56.234 56.221 56.186 56.1 56.101 56 55.989 55.852 55.833 55.71 55.579 55.541 55.48 55.4 55.365 55.249 55.218 55.181 55.067 54.985 54.967 54.872 54.794 54.803 54.822 56.242 54.792 54.686 54.702 57.947 57.908 55.747 53.789 53.694 53.599 53.535 53.422 53.371 53.273 53.202 53.129 53.022 52.946 53.379 52.912 52.907 52.925 52.95 52.986 54.969 62.692 62.697 62.654 62.665 62.74 62.727 63.692 65.31 65.719 65.725 65.956 65.808 53.833 52.212 54.192 52.825 55.441 55.636 55.882 56.026 56.201 55.202 55.081 56.263 56.1 56.02 55.937 55.796 55.723 55.532
63.437 63.381 70.905 75.487 78.594 78.443 76.726 71.918 63.744 63.681 63.571 63.422 63.393 63.356 63.276 63.342 63.26 63.253 69.147 71.791 71.147 66.614 63.107 62.779 62.642 62.608 62.523 62.58 62.593 62.563 62.505 62.505 62.504 62.458 62.395 62.287 62.261 62.205 62.172 62.214 62.218 62.181 62.242 62.331 62.447 62.708 63.082 63.882 63.023 64.7 62.221 62.086 62.036 62.077 62.008 62.045 62.077 62.097 62.318 71.197 74.744 75.038 73.093 73.975 74.584 71.815 71.512 72.011 72.564 73.325 74.003 74.305 75.001 75.29 74.813 74.276 73.54 72.659 70.929 66.046 68.587 62.428 62.129 62.084 62.074 62.016 62.055 62.097 62.123 62.13 62.07 62.035 66.375 69.449 69.121 70.289 70.206 70.245 69.054 63.564 59.487 59.523 59.387 59.506 59.511 59.478 59.492 59.606 59.513 59.545 59.541 59.607 59.566 59.529 59.545 59.595 59.536 59.578 59.847 60.507 60.19 60.277 60.364 60.365 61.428 60.911 70.766 69.874 63.319 60.257 60.18 60.125 60.078 59.981 59.908 59.807 62.098 64.124 64.661 65.682 65.352 59.9 57.492 57.485 57.458 57.46 57.362 57.303 57.242 57.241 57.271 57.367 57.522 57.923 64.208 68.751 70.02 69.956 69.555 67.229 66.727 66.832 67.172 67.39 67.618 67.83 68.074 68.038 67.916 67.583 67.401 67.196 67.011 66.765 66.498 66.246 66.338 66.611 66.747 60.696 61.125 58.438 65.664 66.096 64.064 63.997 64.845 65.367 65.654 65.244 58.98 59.311 59.144 59.036 58.9 58.887 58.806 58.775 59.927 59.136 59.268 65.8 66.631 63.672 62.424 60.695 60.667 60.758 61.239 60.91 60.82 60.856 60.922 60.916 60.96 60.919 60.934 60.945 60.923 60.915 60.914 60.869 60.876 60.884 60.888 60.902 61.239 61.49 62.537 61.235 61.137 61.822 62.398 62.671 62.754 62.924 62.975 63.059 63.206 63.319 63.385 63.367 63.309 63.439 63.473 63.34 63.415 63.472 63.451 63.574 66.512 71.151 72.544 68.672 65.906 68.912 64.402 64.964 64.212 64.238 64.475 64.517 64.499 64.509 64.497 64.651 64.639 64.597 64.683 64.632 64.774 64.531 64.563 64.453 64.418 64.574 64.59 64.816 64.621 64.629 64.482 64.468 64.573 64.498 64.482 64.247 64.4 64.451 64.357 64.21 64.813 66.839 63.568 63.821 64.304 64.517 63.495 63.299 63.156 62.918 62.899 62.559 62.493 62.304 62.219 62.092 61.937 61.94 66.19 67.324 68.838 70.373 69.1 64.763 61.172 60.893 60.749 60.654 60.547 60.434 60.361 60.192 60.073 59.956 59.877 59.718 59.75 61.686 60.207 59.285 59.186 59.07 58.95 62.496 62.561 62.159 64.509 65.408 62.411 58.326 58.172 58.091 57.991 57.885 57.833 57.64 57.616 57.474 57.324 57.188 57.022 56.836 56.66 56.606 56.435 56.38 56.332 56.132 56.064 55.974 55.947 55.914 55.823 55.759 55.704 55.687 55.556 55.571 55.425 55.311 55.293 55.206 55.163 55.069 54.993 54.922 54.873 54.837 54.838 55.264 56.454 55.159 54.922 54.756 56.739 58.285 55.155 53.9 53.754 53.646 53.586 53.471 53.429 53.343 53.226 53.143 53.105 52.98 52.953 52.895 52.884 52.895 53.003 52.988 52.993 53.033 55.781 62.378 62.667 62.651 62.655 64.074 63.264 64.497 65.46 66.104 58.945 52.272 53.985 54.387 55.4 55.577 55.757 55.973 56.178 55.357 52.008 52.053 54.047 55.424 56.208 56.059 55.968 55.889 55.732
63.434 69.967 75.444 74.014 77.907 79.126 77.144 70.547 64.33 63.608 63.607 63.477 63.432 63.408 63.316 63.302 63.327 63.384 69.199 71.919 74.094 72.047 69.67 63.12 63.152 62.714 62.556 62.455 62.46 62.431 62.5 62.447 62.481 62.43 62.379 62.381 62.311 62.325 62.19 62.12 62.112 62.034 62.144 62.16 62.175 62.168 62.236 62.341 62.806 63.614 62.159 62.041 61.979 61.999 61.991 62.004 61.996 62.122 69.033 72.722 74.869 74.779 73.102 74.949 74.745 74.309 73.244 72.569 73.853 73.529 72.598 72.964 73.574 74.258 74.967 75.144 75.173 74.739 74.535 73.506 71.072 71.43 64.685 63.602 62.175 62.019 62.016 62.029 62.058 62.099 62.094 62.029 66.642 68.444 69.519 74.237 67.168 73.947 66.629 71.196 59.596 59.545 59.539 59.563 59.578 59.546 59.614 59.618 59.633 59.623 59.583 59.609 59.646 59.631 59.614 59.591 59.532 59.469 59.89 61.31 60.144 60.298 60.407 60.449 60.402 65.979 69.536 65.82 67.198 60.489 60.212 60.162 60.107 60.028 59.941 59.865 63.072 63.277 66.281 66.194 64.804 63.496 57.544 57.48 57.475 57.447 57.396 57.309 57.331 57.315 57.343 57.597 59.749 60.909 62.96 69.949 69.989 70.087 69.984 69.504 67.71 67.232 67.527 67.645 67.96 68.071 67.999 67.714 67.563 67.308 67.147 66.767 66.621 66.384 66.204 66.56 66.67 67.02 67.236 66.816 62.497 64.413 66.396 66.62 66.569 66.267 65.895 65.963 65.229 64.349 59.42 59.273 59.18 59.111 59.038 59.054 58.992 59.572 61.936 62.952 60.979 62.254 61.929 60.678 60.657 60.722 60.734 60.799 60.862 60.885 60.871 60.919 60.91 60.912 60.911 60.877 60.857 60.913 60.877 60.859 60.85 60.824 60.883 60.882 60.979 60.966 67.376 71.845 69.797 68.207 62.767 62.702 62.879 63.005 63.047 63.224 63.24 63.358 63.493 63.583 63.59 63.697 63.652 63.834 63.89 64 64.147 64.009 64.225 64.299 64.313 68.847 71.292 71.563 66.317 69.289 68.65 65.663 64.625 64.787 65.065 65.078 65.186 65.178 65.303 65.171 65.231 65.346 65.387 65.413 65.315 65.425 65.424 65.327 65.35 65.269 65.386 65.316 65.361 65.317 65.321 65.358 65.24 65.3 65.26 65.007 65.078 65.018 64.979 64.87 64.552 64.322 63.936 64.032 64.282 64.335 63.99 63.952 63.679 63.528 63.356 63.075 62.948 62.794 62.688 62.498 62.412 62.136 64.583 65.919 66.998 67.893 68.709 64.766 61.708 61.133 60.93 60.818 60.685 60.645 60.494 60.383 60.269 60.132 60.055 59.934 62.652 64.735 60.289 59.416 59.357 59.198 59.112 61.555 65.665 59.151 64.039 64.675 62.249 58.465 58.265 58.21 58.164 58.046 58.007 57.898 57.781 57.682 57.607 57.426 57.368 57.298 57.029 56.951 56.738 56.556 56.427 56.319 56.143 56.065 55.985 55.84 55.827 55.7 55.733 55.599 55.552 55.48 55.463 55.394 55.339 55.292 55.199 55.098 55.032 54.939 54.912 54.83 54.769 54.803 54.87 55.23 54.928 54.934 54.807 54.942 54.291 54.027 54 53.705 53.714 53.636 53.422 53.35 53.267 53.855 53.566 53.137 52.97 52.937 52.934 52.883 52.898 52.882 52.982 53.039 53.075 55.282 62.606 62.722 62.782 64.821 63.736 62.682 56.946 58.456 52.338 52.316 52.152 54.75 55.483 55.722 55.885 56.061 56.167 51.965 51.912 51.941 51.923 52.079 53.229 56.097 56.131 55.997 55.891
65.928 74.864 77.951 76.954 76.447 78.151 73.562 68.542 63.599 63.624 63.624 63.476 63.414 63.399 63.383 64.696 63.556 63.997 69.255 71.779 73.54 72.102 69.433 64.43 63.216 62.849 62.59 62.575 62.476 62.378 62.38 62.338 62.374 62.403 62.409 62.334 62.322 62.324 62.203 62.225 62.12 62.089 61.974 62.005 62.036 62.021 62.097 62.127 62.087 62.012 61.976 62.081 62.256 61.941 61.947 62.038 62.054 62.081 69.155 73.897 75.653 73.726 73.33 75.41 76.609 76.114 75.301 76.165 76.254 75.55 74.988 73.941 72.616 72.658 72.934 73.838 74.438 75.13 75.28 74.917 76.078 73.857 75.456 72.167 65.643 61.967 61.884 62.004 62.029 62.029 62.062 61.967 62.017 73.466 74.21 77.515 78.407 76.108 73.748 71.106 62.996 59.625 59.634 59.619 59.65 59.636 59.613 59.651 59.615 59.705 59.683 59.697 59.668 59.63 59.623 59.626 59.58 59.489 59.821 60.515 60.378 60.379 60.499 60.558 60.544 60.784 62.919 60.459 60.417 60.291 60.246 60.23 60.146 60.07 59.931 60.196 62.809 63.469 62.577 66.146 67.388 60.786 57.464 57.468 57.474 57.425 57.417 57.345 57.324 57.321 59.591 60.576 61.325 66.94 69.081 70.305 70.111 70.152 70.123 70.056 69.167 67.637 67.797 68.091 67.991 67.913 67.58 67.39 67.127 66.96 66.714 66.543 66.306 66.37 66.728 66.986 67.092 67.451 67.616 67.971 67.071 65.513 65.288 67.199 67.484 68.03 66.98 65.685 61.486 59.428 59.391 59.281 59.297 59.236 59.315 62.999 61.828 60.971 61.731 61.758 60.891 60.657 61.676 60.921 60.782 60.801 60.856 60.833 60.813 60.848 60.831 60.886 60.882 60.846 60.818 60.802 60.835 60.843 60.812 60.829 60.806 60.933 60.939 60.94 60.987 65.835 70.306 71.376 68.273 64.388 62.959 63.119 63.284 63.343 63.372 63.543 63.596 63.649 63.752 63.705 63.891 63.942 64.031 64.219 64.56 64.684 64.751 64.895 64.987 65.238 65.259 66.113 67.134 66.169 66.139 67.036 65.817 65.222 65.096 65.334 65.775 65.851 65.988 65.934 66.103 66.119 66.1 66.145 66.087 66.331 66.288 66.349 66.203 66.278 66.216 66.012 66.125 66.129 66.231 66.229 66.142 66.144 65.913 66.054 65.843 65.894 65.878 65.752 65.658 65.432 65.251 64.574 64.233 64.08 64.674 64.984 64.805 64.537 64.531 64.287 64.112 63.888 63.759 63.606 63.44 63.239 62.993 62.725 62.642 62.778 62.448 62.168 66.252 63.201 61.818 61.602 61.398 61.169 61.048 61.014 60.771 60.549 60.44 60.291 60.21 63.441 62.883 63.158 62.352 60.451 59.719 59.406 59.264 59.149 59.475 58.941 58.853 58.76 58.68 58.604 58.424 58.411 58.286 58.215 58.09 58.055 58.037 57.907 57.823 57.699 57.538 57.444 57.354 57.15 57.049 56.999 56.744 56.616 56.405 56.319 56.105 55.961 55.842 55.782 55.74 55.58 55.575 55.418 55.467 55.373 55.289 55.253 55.217 55.143 55.064 55.134 55.884 54.959 54.809 54.742 54.674 55.813 54.733 54.751 54.921 54.815 54.73 54.557 54.503 59.821 59.819 55.108 53.488 53.399 53.349 54.522 58.122 53.946 53.002 52.97 52.99 52.915 52.944 52.885 52.888 52.944 53.028 53.017 53.284 60.948 64.37 65.167 64.339 57.979 55.035 52.967 52.784 52.962 54.087 55.407 55.623 55.801 56.055 56.247 53.142 51.883 51.886 51.895 51.908 51.887 51.908 52.075 55.372 56.208 56.061
69.905 74.712 77.12 78.163 77.988 75.774 70.299 63.551 63.552 63.56 63.562 63.551 63.464 63.453 63.42 63.402 63.588 63.62 68.581 71.801 72.741 72.065 70.658 63.05 63.085 62.822 62.692 62.535 62.469 62.44 62.496 62.498 62.324 62.325 62.242 62.241 62.325 62.23 62.195 62.236 62.111 62.095 62.099 62.007 61.973 61.851 61.816 61.973 61.956 61.938 61.919 61.912 61.865 61.932 62.281 61.997 61.982 61.994 63.857 65.984 75.381 73.306 75.538 75.612 76.497 76.811 77.063 78.69 77.909 76.979 76.226 76.044 75.135 74.824 73.95 72.115 72.382 73.294 74.248 74.988 75.176 74.818 75.62 73.174 65.934 61.915 61.852 61.901 61.946 61.899 62.005 61.98 62.195 67.05 74.768 77.043 76.695 78.768 69.462 64.712 65.445 59.975 59.686 59.661 59.646 59.661 59.653 59.708 59.7 59.682 59.706 59.655 59.681 59.7 59.629 59.606 59.632 59.608 59.755 61.149 60.626 60.377 60.502 60.614 63.518 62.854 65.174 60.586 60.456 60.34 60.264 60.22 60.211 60.104 60.018 60.013 62.154 64.369 65.132 65.771 64.174 60.098 58.051 57.47 57.46 57.491 57.4 57.382 58.199 57.702 57.427 61.6 69.031 69.993 70.053 70.044 70.112 70.062 70.073 70.089 69.991 68.404 68.091 67.922 67.743 67.527 67.283 67.088 66.772 66.634 66.273 66.352 66.619 66.835 67.094 67.259 67.541 67.703 68.083 68.012 67.887 66.682 67.267 67.87 68.155 68.124 67.215 62.508 59.528 59.563 59.461 59.441 59.424 59.358 63.248 65.031 65.022 61.497 61.019 60.747 60.714 60.712 60.775 60.714 60.771 60.825 60.833 60.803 60.831 60.812 60.884 60.831 60.79 60.799 60.769 60.765 60.815 60.828 60.846 60.878 60.907 60.996 61.766 62.282 62.19 63.822 69.891 71.501 66.981 63.199 63.382 63.498 63.658 63.698 63.747 63.776 63.811 63.934 63.965 64.08 64.162 64.224 64.532 64.795 64.957 65.394 65.459 65.664 65.845 65.87 66.084 66.091 66.124 66.422 66.211 66.415 66.226 65.676 65.44 65.938 66.468 66.639 66.709 66.792 66.818 66.926 67.073 67.043 67.122 67.284 67.15 67.169 67.016 67.092 66.914 67.062 67.029 66.96 67.015 66.824 67.011 66.809 66.782 66.747 66.697 66.529 66.499 66.582 66.4 66.331 65.574 65.05 64.531 64.403 69.733 71.162 65.691 65.512 65.402 65.202 64.799 64.706 64.423 64.424 64.092 64.091 63.865 67.555 67.794 66.142 63.037 62.872 62.96 62.631 62.589 62.196 62.074 61.694 61.709 61.354 61.332 61.144 60.889 60.827 64.191 66.281 65.527 61.104 64.819 66.024 64.536 59.771 59.593 59.426 59.254 59.049 59.017 58.843 58.724 58.72 59.628 58.582 58.429 58.351 58.258 58.209 58.097 58.061 57.925 57.81 57.701 57.603 57.537 57.364 57.303 57.136 57.018 56.792 56.72 56.621 56.402 56.331 56.085 55.979 55.814 55.746 55.563 55.512 55.339 55.285 55.296 55.203 55.208 55.137 55.1 55.038 55.08 55.487 54.841 54.791 54.754 54.681 54.515 54.522 54.468 54.559 54.841 54.981 58.644 61.579 61.672 59.316 54.212 57.752 56.676 56.635 58.431 54.402 53.034 53.019 52.989 52.976 52.939 52.918 52.883 52.91 52.907 52.925 52.938 53.142 57.099 63.422 63.195 61.659 57.163 53.596 53.228 53.062 52.253 54.432 55.721 55.973 56.14 54.014 51.897 51.877 51.858 51.863 51.839 51.844 51.876 51.905 51.901 55.011 56.254
71.226 74.946 75.473 76.347 76.064 75.491 63.63 63.545 63.555 63.567 63.567 63.522 63.515 63.443 63.413 63.437 63.861 63.778 68.525 71.587 72.775 72.097 70.669 64.56 63.527 63.023 62.822 62.635 62.611 62.523 62.71 72.488 69.64 63.954 62.362 62.182 62.163 62.141 62.147 62.21 62.111 62.091 62.12 62.09 62.014 61.975 61.889 61.851 61.707 61.767 61.802 61.855 61.906 61.825 61.86 61.967 61.919 62.192 61.939 61.884 62.125 74.888 79.414 78.003 74.207 75.122 75.173 77.513 78.37 78.724 80.399 77.821 77.066 76.352 75.861 72.713 71.502 71.8 74.688 74.422 72.744 75.173 74.539 72.552 64.798 61.838 61.726 61.82 61.932 61.954 61.982 61.899 74.366 77.656 73.837 79.803 78.158 79.619 73.117 64.943 63.003 66.059 59.655 59.674 59.698 59.698 59.713 59.697 59.664 59.71 59.73 59.687 59.673 59.686 59.642 59.662 59.64 59.611 59.587 60 60.197 60.318 62.807 61.887 61.44 60.594 60.572 60.646 60.474 60.364 60.351 60.286 60.202 60.117 60.074 59.946 60.17 63.612 65.015 63.562 63.894 60.425 57.461 57.472 57.488 57.479 57.459 57.454 57.728 57.477 64.223 70.034 70.101 70.149 70.13 70.042 70.107 70.082 70.064 70.016 70.057 69.581 67.766 60.724 67.085 66.953 66.97 66.704 66.433 66.411 66.434 66.782 66.85 67.143 67.353 67.615 67.982 68.073 67.822 67.701 67.398 67.218 68.379 68.241 67.968 67.224 62.557 59.79 59.715 59.7 59.619 59.634 59.603 59.518 61.362 63.756 61.94 60.681 60.691 60.679 60.744 60.74 60.745 60.766 60.782 60.835 60.798 60.859 60.785 60.776 60.813 60.798 60.742 60.777 60.752 60.785 60.88 60.867 60.949 61.666 61.907 62.448 62.767 62.828 62.95 63.005 64.104 67.603 64.176 67.604 64.98 63.892 64.033 64.008 64.191 64.222 64.198 64.29 64.189 64.427 64.623 64.847 65.162 65.543 65.767 66.044 66.204 66.346 66.452 66.548 66.67 66.735 66.869 66.982 66.986 66.957 66.741 66.297 65.963 66.285 66.867 67.391 67.317 67.539 67.661 67.794 68.017 67.853 68.011 68.029 67.934 67.864 67.911 67.989 67.823 68.067 67.906 67.761 67.873 67.659 67.681 67.626 67.627 67.576 67.451 67.35 67.297 67.267 67.17 66.79 66.031 65.527 64.831 68.27 71.416 73.314 69.344 66.184 66.129 65.83 65.684 65.508 65.39 65.262 65.115 64.871 65.438 69.222 70.013 67.596 63.914 63.784 63.683 63.553 63.249 63.105 62.79 62.534 62.345 62.193 62.066 61.701 61.649 61.244 63.825 65.991 65.32 61.716 64.882 65.901 65.099 60.871 59.9 59.837 59.516 59.279 59.157 59.044 59.014 63.534 64.921 64.328 59.603 58.402 58.288 58.276 58.176 58.168 58.021 58.001 57.848 57.763 57.587 57.51 57.353 57.276 57.218 57.035 56.939 56.725 56.646 56.471 56.375 56.182 56.156 56.07 55.879 55.653 55.533 55.4 55.304 55.273 55.101 55.037 55.041 54.966 54.964 54.858 54.851 54.774 54.755 54.637 54.579 54.573 54.469 54.431 54.327 54.326 56.832 58.949 60.449 58.413 54.814 57.515 58.538 54.077 54.317 53.211 53.131 53.063 53.038 53.017 52.99 52.982 52.975 52.95 52.902 52.932 53.348 53.069 53.57 55.292 53.538 57.001 53.758 53.276 53.236 53.243 52.02 51.94 52.6 55.267 56.132 52.391 51.859 51.805 51.868 51.849 51.843 51.827 51.832 51.846 51.864 51.902 52.828
70.949 74.8 74.783 73.713 67.876 72.198 63.614 63.581 63.555 63.561 63.574 63.461 63.491 63.529 63.471 63.493 63.965 63.825 69.596 71.663 72.612 74.104 70.789 63.362 63.899 63.069 63.228 62.737 62.612 62.571 68.497 74.372 75.997 75.511 72.311 64.114 62.23 62.221 62.099 62.032 62.016 62.088 62.079 62.073 61.992 61.974 61.997 61.901 61.907 61.838 61.7 61.667 61.695 61.734 61.724 61.752 61.83 61.832 61.81 61.892 62.005 68.447 77.105 74.825 65.415 73.139 74.597 75.686 77.557 76.861 78.498 78.208 78.307 78.27 75.641 74.481 73.869 73.344 75.154 73.517 74.041 75.158 74.236 67.075 61.879 61.81 61.822 61.861 61.902 61.927 61.92 62.218 78.504 77.266 79.676 77.074 70.836 75.489 70.505 73.195 75.087 59.831 59.594 59.722 59.712 59.725 59.699 59.732 59.745 59.747 59.732 59.733 59.688 59.731 59.683 59.678 59.65 59.565 59.592 60.675 60.279 60.322 60.614 61.209 61.011 60.67 60.697 60.726 60.488 60.452 60.401 60.318 60.221 60.159 60.112 60.094 60.185 63.393 64.237 63.715 62.078 57.841 57.412 57.446 57.427 57.47 57.489 57.479 57.89 68.689 69.993 70.09 70.012 70.083 70.071 70.083 69.968 70.082 70.036 69.973 66.579 61.499 66.219 58.175 62.915 64.682 65.948 66.41 67.007 66.747 66.913 67.213 67.278 67.545 67.732 68.055 67.945 67.734 67.503 67.2 66.983 66.777 67.607 67.666 63.416 60.291 60.341 59.865 59.939 59.939 59.842 59.828 59.803 60.517 60.807 60.695 60.633 60.758 60.746 60.713 60.807 60.743 60.822 60.786 60.78 60.768 60.749 60.777 60.733 60.709 60.742 60.688 60.766 60.844 60.824 60.913 60.957 61.255 62.423 62.583 62.838 62.993 62.999 63.136 63.302 63.466 63.59 63.638 63.881 64.722 64.192 64.467 66.816 64.648 64.637 64.586 64.682 64.64 64.613 65.006 65.042 65.651 66.119 66.281 66.514 66.549 66.583 66.633 66.703 66.863 66.912 67.079 67.212 67.285 67.392 67.337 67.05 66.686 66.649 66.935 67.425 67.878 68.069 68.259 68.331 68.527 68.591 68.742 68.758 68.79 68.794 68.751 68.767 68.742 68.708 68.627 68.486 68.614 68.476 68.512 68.435 68.358 68.249 68.097 68.096 67.971 68.019 67.881 67.725 67.31 66.654 66.16 65.267 64.849 65.326 70.029 67.212 66.825 66.778 66.652 66.45 66.282 66.407 65.93 66.01 65.713 65.596 66.631 69.331 67.015 64.699 64.683 64.414 64.416 63.947 63.883 63.59 63.426 63.16 62.979 62.684 62.546 62.286 62.115 62.428 62.7 62.103 61.254 61.26 62.921 61.234 60.635 60.534 60.31 59.917 59.781 59.483 59.492 59.295 64.507 64.55 60.835 58.751 58.659 58.587 58.378 58.379 58.257 58.192 58.003 57.894 57.879 57.707 57.545 57.454 57.4 57.251 57.169 56.996 57.011 56.839 56.688 56.582 56.429 56.286 56.207 56.099 55.873 55.77 55.737 55.497 55.344 55.195 55.14 54.991 54.905 54.841 54.826 54.849 54.706 54.687 54.702 54.61 54.56 54.448 54.369 54.299 54.221 54.178 54.686 54.886 54.283 54.463 55.171 56.521 57.557 54.588 53.394 53.236 53.151 53.125 53.039 53.065 53.026 53.009 52.96 52.977 52.962 53.53 53.173 52.908 52.917 53.583 54.516 54.65 53.407 53.254 52.386 52.088 52.02 51.959 51.874 51.834 51.804 51.779 51.762 51.791 51.802 51.82 51.816 51.789 51.817 51.842 51.934 54.889
65.186 69.869 65.57 66.947 63.45 63.51 63.555 63.551 63.542 63.61 63.553 63.529 63.493 63.531 63.525 63.495 63.892 63.72 68.629 71.503 72.576 72.11 70.805 65.15 63.462 63.022 62.821 62.764 62.782 62.662 62.89 74.466 75.732 76.859 78.01 77.229 70.503 63.178 62.3 62.141 62.064 61.99 61.995 61.987 61.963 61.927 61.955 61.897 61.837 61.816 61.788 61.749 61.729 61.661 61.62 61.637 61.648 61.83 61.711 61.705 61.719 61.753 61.946 61.834 61.734 61.755 70.71 75.959 76.977 75.675 76.098 77.216 77.51 78.064 77.123 76.404 75.673 74.588 74.486 73.307 74.721 75.912 75.097 63.335 61.891 61.842 61.825 61.796 61.842 61.933 61.923 61.867 74.447 80.943 81.955 75.533 83.496 80.27 78.272 66.33 63.876 60.284 59.625 59.717 59.676 59.742 59.751 59.755 59.759 59.745 59.798 59.772 59.791 59.726 59.674 59.701 59.657 59.601 59.93 60.082 60.516 60.323 60.622 60.852 60.881 60.749 60.799 60.841 60.537 60.445 60.438 60.373 60.301 60.249 60.147 60.154 60.273 60.789 63.095 62.854 58.541 57.36 57.454 57.462 57.483 57.479 57.523 57.523 64.363 68.787 70.055 70.105 70.11 70.085 70.065 70.031 70.024 70.011 69.747 61.576 57.857 57.917 58.086 61.015 65.588 64.875 66.499 68.822 68.842 67.302 67.711 67.559 67.778 67.845 68.117 67.822 67.601 67.314 67.14 66.872 66.671 66.372 64.541 63.903 61.126 59.943 60.05 60.079 60.129 60.121 60.113 60.346 60.778 60.686 60.674 60.7 60.655 60.782 60.782 60.767 60.759 60.751 60.755 60.767 60.79 60.734 60.785 60.751 60.663 60.718 60.759 60.796 60.857 60.959 60.974 62.378 62.525 62.796 62.989 63.088 63.297 63.403 63.397 63.438 63.547 63.797 64.094 64.219 64.371 64.6 64.718 64.927 66.147 65.19 65.293 65.229 65.309 65.158 65.382 65.734 65.741 66.49 66.609 66.549 66.587 66.558 66.599 66.658 66.661 66.794 66.789 66.977 67.085 67.174 67.361 67.348 67.261 67.002 67.006 67.404 67.829 68.178 68.452 68.572 68.734 68.876 68.919 69.091 69.129 69.293 69.322 69.207 69.246 69.199 69.305 69.305 69.236 69.183 69.043 69.048 68.862 68.916 68.761 68.685 68.582 68.537 68.372 68.159 67.967 67.515 67.146 66.612 65.724 65.192 65.409 66.218 67.046 67.256 67.276 67.26 67.105 67.126 66.925 66.95 66.624 66.498 66.462 66.086 66.064 65.634 65.448 65.342 65.257 65.105 64.933 64.699 64.288 64.236 63.882 63.661 63.317 63.335 63.196 62.927 62.756 62.601 62.335 62.173 61.969 61.677 61.589 61.358 61.177 60.813 60.614 60.399 60.234 60.01 59.901 60.466 60.911 59.668 59.2 59.122 58.999 58.885 58.678 58.582 58.392 58.269 58.087 57.993 57.838 57.712 57.589 57.508 57.36 58.159 61.868 60.465 56.993 56.771 56.659 56.607 56.406 56.295 56.22 56.066 55.921 55.819 55.685 55.406 55.339 55.313 55.097 55.037 54.868 54.815 54.756 54.756 54.626 54.64 54.632 54.547 54.565 54.394 54.323 54.276 54.225 54.139 54.079 54.004 54.001 55.023 59.054 59.62 54.871 53.848 53.53 53.287 53.178 53.105 53.078 53.078 53.058 53.056 53.03 53.054 52.968 53.126 53.092 53.583 54.048 56.982 56.9 53.636 53.052 52.322 52.199 52.129 52.063 52.004 51.963 51.858 51.788 51.776 51.767 51.757 51.802 51.776 51.792 51.799 51.807 51.838 51.859
