ncols 440
nrows 28
xllcorner    427070
yllcorner    439360
cellsize     2
NODATA_value -9999
140.464 140.456 138.396 138.245 138.189 138.181 138.134 138.098 138.063 138.003 137.975 140.202 141.13 138.961 137.746 137.629 137.632 137.565 137.599 139.39 143.908 144.969 144.373 143.253 141.313 137.908 137.373 137.269 138.043 141.036 141.796 141.682 142.58 138.351 141.702 140.19 141.224 136.566 136.322 136.331 136.282 136.288 136.215 136.206 136.203 136.174 136.144 136.107 136.069 136.056 136.049 136.041 136 135.967 135.933 135.907 135.878 135.848 135.873 135.855 135.878 135.822 135.793 135.793 135.764 135.749 135.743 135.74 135.735 135.734 135.704 135.714 135.684 135.694 135.722 135.68 135.662 135.763 135.794 135.764 135.784 135.789 135.815 135.818 135.827 135.828 135.874 135.898 135.874 135.845 135.839 135.837 135.842 135.84 135.853 135.883 135.903 135.903 135.917 135.912 135.897 135.908 135.925 135.931 135.909 135.922 135.957 135.976 135.957 135.999 136.025 136.057 136.071 136.099 136.147 136.18 136.176 136.18 136.202 136.224 136.245 136.328 136.367 136.427 136.464 136.484 136.496 136.517 136.575 136.629 136.657 136.705 136.707 136.688 136.678 136.65 136.617 136.604 136.576 136.587 136.585 136.588 136.595 136.581 136.563 136.559 136.545 136.542 136.534 136.516 136.498 136.506 136.5 136.535 136.501 136.5 136.477 136.48 136.476 136.487 136.497 136.507 136.477 136.467 136.449 136.454 136.451 136.437 136.666 145.073 148.443 150.893 151.689 145.354 153.546 153.724 152.794 148.264 136.882 136.755 136.711 136.722 136.72 136.773 136.976 137.18 136.938 137.561 138.6 137.833 139.267 139.165 138.897 138.641 138.631 137.634 137.57 138.061 137.666 137.223 137.282 137.253 137.332 137.377 138.288 137.678 137.682 143.411 143.679 144.289 143.502 138.559 137.417 137.763 137.489 137.452 137.462 137.42 137.462 137.479 137.758 146.582 148.585 149.989 150.86 150.74 149.317 138.381 138.052 138.443 138.721 143.682 145.487 144.744 144.039 139.344 141.476 139.235 140.558 138.892 140.953 144.542 145.714 150.415 151.358 150.056 151.945 151.971 151.569 145.626 152.041 146.294 145.159 140.35 140.414 140.29 140.315 140.363 140.352 142.512 149.714 148.742 146.355 141.162 140.61 143.11 146.931 147.571 144.918 140.96 141.937 142.064 141.816 141.127 140.697 140.641 140.616 140.594 140.515 140.538 140.602 140.989 140.734 140.744 140.816 143.33 144.555 144.771 145.518 144.865 145.321 144.469 141.074 142.951 144.64 141.1 140.849 140.644 140.552 140.455 141.448 142.726 140.669 141.456 144.543 145.521 146.059 143.883 140.569 140.554 140.561 140.861 140.863 148.13 153.009 152.364 151.487 146.658 141.556 144.986 146.908 146.994 145.836 143.381 147.449 150.984 150.028 142.711 139.411 139.229 139.221 139.428 143.288 140.273 139.605 142.471 142.473 142.85 142.768 142.635 142.728 141.582 138.804 138.863 138.438 141.289 141.655 139.403 139.934 139.082 139.055 138.257 137.987 137.651 137.623 -9999 -9999 -9999 -9999 -9999 -9999 -9999 -9999 -9999 -9999 -9999 -9999 -9999 -9999 -9999 -9999 -9999 -9999 -9999 -9999 -9999 -9999 -9999 -9999 -9999 -9999 -9999 -9999 -9999 -9999 -9999 -9999 -9999 -9999 -9999 -9999 -9999 -9999 -9999 -9999 -9999 -9999 -9999 -9999 -9999 -9999 -9999 -9999 -9999 -9999 -9999 -9999 -9999 -9999 -9999 -9999 -9999 -9999 -9999 -9999 -9999 -9999 -9999 -9999 -9999 -9999 -9999 -9999 -9999 -9999 -9999 -9999 -9999 -9999 -9999 -9999 -9999 -9999 -9999 -9999 -9999 -9999 -9999 -9999 -9999
138.375 138.402 138.923 138.204 138.212 138.108 138.094 138.053 138.018 138.011 137.953 138.867 140.428 138.518 137.68 137.627 137.608 137.577 137.517 137.853 142.965 144.688 144.709 144.052 143.355 138.961 139.108 139.551 139.266 141.517 141.736 142.431 142.111 139.789 142.068 141.218 141.829 137.32 136.284 136.285 136.298 136.297 136.245 136.209 136.187 136.161 136.13 136.092 136.075 136.04 136.038 135.994 135.961 135.939 135.905 135.849 135.852 135.809 135.802 135.788 135.803 135.777 135.761 135.801 135.764 135.758 135.734 135.722 135.717 135.723 135.718 135.709 135.712 135.675 135.657 135.651 135.646 135.724 135.758 135.761 135.759 135.748 135.778 135.797 135.784 135.827 135.837 135.833 135.849 135.794 135.785 135.794 135.826 135.806 135.835 135.842 135.875 135.875 135.88 135.871 135.888 135.864 135.877 135.888 135.892 135.901 135.951 135.961 135.943 135.994 135.996 136.047 136.08 136.082 136.116 136.174 136.152 136.185 136.212 136.236 136.284 136.309 136.402 136.434 136.468 136.467 136.483 136.528 136.56 136.599 136.659 136.693 136.7 136.705 136.698 136.668 136.629 136.593 136.578 136.57 136.573 136.582 136.589 136.586 136.573 136.57 136.55 136.529 136.52 136.504 136.482 136.496 136.476 136.491 136.46 136.446 136.452 136.474 136.461 136.472 136.458 136.473 136.441 136.425 136.418 136.404 136.411 136.453 136.467 145.359 149.086 143.535 152.366 153.664 153.9 153.56 152.377 151.903 147.435 138.629 136.739 136.734 136.75 136.763 136.767 136.817 136.8 136.994 141.824 142.219 142.82 142.541 138.902 140.114 139.472 139.124 139.66 142.062 137.657 137.264 137.262 137.263 137.906 138.153 137.59 137.318 140.11 142.218 142.416 142.558 142.665 138.468 137.421 137.511 137.456 137.416 137.436 137.463 137.532 137.636 139.617 147.256 148.064 148.131 149.054 149.609 146.382 138.179 138.199 138.355 138.615 144.038 145.651 145.225 145.009 144.774 139.325 142.071 142.628 139.575 138.8 141.749 144.963 148.076 150.198 149.245 149.67 144.717 142.231 142.411 140.051 140.491 141.327 140.279 140.728 140.252 140.334 140.892 140.576 141.787 147.657 148.18 146.289 145.332 145.706 143.137 147.171 148.68 145.129 143.057 142.973 143.156 143.364 143.138 143.163 141.495 140.58 140.525 140.526 140.491 140.55 141.919 141.008 140.685 140.525 141.405 141.596 142.046 144.427 143.201 144.01 143.797 141.923 143.516 150.581 145.663 143.176 140.683 140.644 140.611 140.649 140.505 140.527 140.538 140.586 140.654 140.538 140.585 141.25 143.582 140.931 142.209 147.65 152.496 153.555 153.934 151.828 145.609 140.783 145.698 146.789 146.508 144.253 141.662 141.089 142.135 141.663 142.803 139.623 139.192 139.191 140.31 144.972 145.337 140.987 142.259 142.744 142.653 142.406 142.671 142.09 141.123 138.833 139.112 138.257 139.896 138.169 140.09 141.395 141.085 139.897 138.127 137.982 138.045 138.128 -9999 -9999 -9999 -9999 -9999 -9999 -9999 -9999 -9999 -9999 -9999 -9999 -9999 -9999 -9999 -9999 -9999 -9999 -9999 -9999 -9999 -9999 -9999 -9999 -9999 -9999 -9999 -9999 -9999 -9999 -9999 -9999 -9999 -9999 -9999 -9999 -9999 -9999 -9999 -9999 -9999 -9999 -9999 -9999 -9999 -9999 -9999 -9999 -9999 -9999 -9999 -9999 -9999 -9999 -9999 -9999 -9999 -9999 -9999 -9999 -9999 -9999 -9999 -9999 -9999 -9999 -9999 -9999 -9999 -9999 -9999 -9999 -9999 -9999 -9999 -9999 -9999 -9999 -9999 -9999 -9999 -9999 -9999 -9999 -9999
138.424 141.833 142.268 139.718 139.647 138.429 138.185 138.111 137.988 137.956 137.883 138.547 139.096 137.793 137.713 137.608 137.53 137.527 137.506 137.471 141.886 143.474 145.282 142.911 138.392 137.448 137.205 140.193 138.538 139.176 140.448 138.473 140.095 140.785 141.716 139.238 138.61 136.346 136.288 136.281 136.262 136.254 136.192 136.118 136.137 136.092 136.097 136.032 136.035 135.96 135.993 135.929 135.889 135.893 135.829 135.808 135.74 135.754 135.735 135.732 135.722 135.742 135.738 135.756 135.71 135.716 135.7 135.685 135.676 135.687 135.663 135.672 135.627 135.64 135.634 135.624 135.644 135.691 135.719 135.676 135.706 135.713 135.723 135.717 135.789 135.739 135.779 135.757 135.751 135.757 135.758 135.736 135.761 135.767 135.805 135.798 135.838 135.829 135.846 135.831 135.843 135.834 135.847 135.864 135.858 135.879 135.904 135.891 135.928 135.956 135.979 136.031 136.067 136.098 136.12 136.166 136.169 136.194 136.222 136.249 136.278 136.312 136.359 136.4 136.451 136.481 136.519 136.546 136.584 136.626 136.672 136.686 136.716 136.727 136.708 136.671 136.64 136.6 136.568 136.574 136.573 136.569 136.584 136.583 136.576 136.567 136.548 136.523 136.518 136.491 136.484 136.5 136.502 136.425 136.46 136.425 136.437 136.425 136.462 136.45 136.415 136.442 136.408 136.406 136.403 136.404 136.396 136.41 136.642 148.025 147.865 151.539 152.705 153.582 154.038 154.248 152.883 152.118 145.988 136.851 136.698 136.738 136.716 136.75 136.766 136.815 136.783 137.091 143.049 143.431 144.296 144.413 142.862 139.417 137.879 137.177 137.661 141.829 140.463 137.593 137.214 137.244 137.562 137.785 137.717 137.528 139.443 140.717 141.134 140.269 140.809 137.436 137.396 137.39 137.398 137.422 137.426 137.494 137.724 139.929 144.661 147.596 146.892 139.612 143.137 140.518 139.513 137.787 138.425 137.999 139.277 142.222 144.601 144.492 144.604 145.004 138.847 142.148 142.024 139.318 138.803 139.891 141.546 147.793 150.192 149.232 143.23 140.558 140.617 140.455 139.977 140.025 140.086 142.723 145.838 145.596 145.485 145.901 147.518 145.497 147.819 147.951 146.318 147.058 147.152 146.102 146.776 147.118 144.913 141.185 140.842 141.035 141.39 141.801 143.224 142.803 141.045 140.523 140.485 140.46 140.808 142.169 142.533 140.725 140.748 143.133 140.475 140.386 140.456 140.455 140.526 141.003 140.944 145.272 152.94 153.776 152.363 144.705 141.045 140.788 140.622 142.446 143.516 140.563 140.609 140.6 140.628 143.159 144.561 148.102 147.858 147.371 147.009 146.649 152.7 152.641 151.342 142.598 141.23 143.404 145.118 145.971 142.271 139.902 139.826 139.568 141.425 142.247 139.313 139.182 139.125 140.113 142.424 143.441 139.144 141.002 141.9 141.603 142.177 142.67 142.051 139.566 138.719 138.869 139.864 138.764 138.025 139.874 141.009 141.228 140.443 138.141 137.988 139.281 139.771 -9999 -9999 -9999 -9999 -9999 -9999 -9999 -9999 -9999 -9999 -9999 -9999 -9999 -9999 -9999 -9999 -9999 -9999 -9999 -9999 -9999 -9999 -9999 -9999 -9999 -9999 -9999 -9999 -9999 -9999 -9999 -9999 -9999 -9999 -9999 -9999 -9999 -9999 -9999 -9999 -9999 -9999 -9999 -9999 -9999 -9999 -9999 -9999 -9999 -9999 -9999 -9999 -9999 -9999 -9999 -9999 -9999 -9999 -9999 -9999 -9999 -9999 -9999 -9999 -9999 -9999 -9999 -9999 -9999 -9999 -9999 -9999 -9999 -9999 -9999 -9999 -9999 -9999 -9999 -9999 -9999 -9999 -9999 -9999 -9999
138.492 138.795 140.522 141.456 141.149 140.899 138.363 138.109 137.949 137.918 137.838 138.088 140.008 138.594 138.675 137.759 137.625 137.884 138.866 137.854 138.132 137.697 138.21 137.134 139.22 139.845 139.653 138.648 137.267 136.896 136.543 136.602 136.724 140.104 137.862 139.479 137.842 136.298 136.289 136.213 136.226 136.184 136.135 136.074 136.058 136.061 136.03 136.011 135.989 135.935 135.893 135.884 135.882 135.862 135.813 135.78 135.738 135.713 135.671 135.7 135.684 135.705 135.671 135.704 135.663 135.677 135.663 135.622 135.623 135.633 135.634 135.63 135.604 135.586 135.585 135.562 135.567 135.648 135.644 135.632 135.651 135.65 135.677 135.655 135.691 135.698 135.702 135.748 135.729 135.697 135.694 135.692 135.672 135.696 135.74 135.718 135.757 135.764 135.793 135.777 135.786 135.819 135.831 135.832 135.839 135.852 135.869 135.895 135.903 135.925 135.943 135.977 136.02 136.059 136.081 136.128 136.156 136.146 136.179 136.241 136.249 136.307 136.314 136.366 136.415 136.459 136.505 136.539 136.572 136.597 136.668 136.682 136.706 136.732 136.716 136.685 136.63 136.595 136.599 136.569 136.545 136.56 136.581 136.555 136.556 136.563 136.526 136.519 136.497 136.493 136.467 136.475 136.491 136.478 136.46 136.448 136.434 136.421 136.44 136.451 136.456 136.454 136.426 136.402 136.421 136.375 136.375 136.389 137.072 148.566 150.575 151.621 152.269 144.84 152.811 153.385 152.876 151.439 146.994 136.797 136.689 136.684 136.719 136.719 136.723 136.758 136.796 136.939 137.564 141.925 144.43 144.269 142.516 138.643 137.204 137.178 137.239 139.536 137.795 137.122 137.156 137.22 137.361 137.35 137.323 137.555 140.088 140.157 139.465 138.581 138.05 139.275 137.534 137.921 137.529 137.322 137.299 137.487 138.251 140.8 145.25 146.562 147.075 147.149 141.863 137.796 137.824 137.809 138.126 141.277 142.227 139.452 139.614 139.229 139.229 138.912 138.425 138.7 140.744 139.111 138.736 138.873 143.475 148.859 150.691 151.12 146.395 140.002 140.092 139.938 139.918 139.96 140.718 140.772 146.931 148.511 149.499 148.023 147.819 146.187 147.482 148.032 146.459 146.882 147.253 146.681 146.363 145.851 142.89 140.921 140.577 140.537 140.648 140.793 141.84 142.968 143.135 140.661 140.458 140.449 140.882 144.261 144.852 142.127 141.898 142.978 140.501 140.301 140.301 140.289 141.208 140.632 148.965 145.344 155.891 156.564 153.632 145.821 145.77 145.543 145.611 146.71 147.788 141.644 140.494 140.503 141.741 146.314 149.764 150.43 148.015 147.727 149.47 145.28 148.171 148.892 141.127 144.953 146.316 143.784 146.701 148.641 141.544 139.84 139.786 145.611 143.048 140.259 139.192 139.119 139.104 139.982 142.335 139.565 138.923 138.997 139.154 139.634 142.078 142.71 141.163 140.363 138.921 142.258 143.129 138.342 138.044 139.604 139.764 139.023 140.702 138.043 137.693 139.646 140.2 -9999 -9999 -9999 -9999 -9999 -9999 -9999 -9999 -9999 -9999 -9999 -9999 -9999 -9999 -9999 -9999 -9999 -9999 -9999 -9999 -9999 -9999 -9999 -9999 -9999 -9999 -9999 -9999 -9999 -9999 -9999 -9999 -9999 -9999 -9999 -9999 -9999 -9999 -9999 -9999 -9999 -9999 -9999 -9999 -9999 -9999 -9999 -9999 -9999 -9999 -9999 -9999 -9999 -9999 -9999 -9999 -9999 -9999 -9999 -9999 -9999 -9999 -9999 -9999 -9999 -9999 -9999 -9999 -9999 -9999 -9999 -9999 -9999 -9999 -9999 -9999 -9999 -9999 -9999 -9999 -9999 -9999 -9999 -9999 -9999
138.809 138.376 142.368 145.025 141.292 141.101 138.439 138.144 137.912 137.873 137.828 137.776 140.261 140.929 141.156 140.105 138.478 138.666 138.782 137.151 139.205 140.152 143.49 141.636 142.22 142.448 143.233 140.107 137.186 136.65 136.599 136.582 136.554 136.465 136.805 141.837 140.599 140.72 136.509 136.205 136.188 136.141 136.141 136.049 136.05 136.025 135.956 135.965 135.934 135.917 135.88 135.892 135.863 135.838 135.8 135.758 135.694 135.669 135.603 135.631 135.617 135.619 135.632 135.624 135.631 135.594 135.61 135.584 135.573 135.566 135.562 135.58 135.57 135.563 135.556 135.545 135.528 135.581 135.606 135.601 135.604 135.581 135.628 135.646 135.638 135.651 135.681 135.682 135.676 135.662 135.638 135.643 135.622 135.664 135.704 135.72 135.712 135.749 135.737 135.744 135.788 135.815 135.809 135.817 135.827 135.862 135.871 135.881 135.841 135.9 135.925 135.951 135.977 136.014 136.035 136.051 136.1 136.098 136.167 136.185 136.206 136.266 136.3 136.341 136.363 136.394 136.469 136.51 136.559 136.601 136.617 136.652 136.692 136.698 136.693 136.656 136.628 136.572 136.561 136.554 136.53 136.535 136.525 136.538 136.501 136.508 136.511 136.497 136.467 136.458 136.448 136.417 136.422 136.437 136.44 136.428 136.404 136.392 136.399 136.375 136.36 136.381 136.375 136.36 136.369 136.329 136.349 136.358 136.591 148.066 150.259 150.338 144.852 149.541 152.997 153.131 152.254 150.341 146.813 138.681 136.72 136.673 136.682 136.702 136.723 136.743 137.2 137.334 139.842 143.278 144.5 143.725 141.578 137.177 138.813 137.185 137.225 138.294 137.411 137.146 137.153 137.22 137.463 137.349 137.506 138.903 140.233 140.242 140.195 140.204 140.215 138.73 138.168 138.896 138.241 138.301 138.495 137.417 137.496 141.537 144.251 145.568 146.689 146.178 142.121 137.826 137.831 137.94 137.951 142.152 144.377 143.183 142.841 140.35 139.055 138.159 138.253 139.81 139.729 138.85 138.727 138.754 143.025 149.066 151.299 151.59 148.645 140.464 140.859 139.893 139.962 140.008 141.69 140.358 145.961 148.273 148.308 147.884 148.074 147.871 147.782 149.409 149.714 148.088 148.224 148.26 146.701 141.471 140.54 140.525 140.478 140.508 140.492 140.594 141.27 142.215 142.938 143.068 140.533 140.41 140.791 142.853 144.002 141.354 140.833 143.394 141.75 140.288 140.251 140.431 141.05 142.065 147.15 152.288 156.175 156.341 153.965 146.194 146.708 147.466 148.37 149.255 148.483 145.863 140.837 140.263 141.439 150.848 152.479 152.801 149.398 150.306 143.056 140.004 140.415 147.377 151.207 152.917 153.576 152.558 151.415 151.687 147.71 139.973 142.844 149.485 145.991 139.865 139.073 139.109 139.078 139.275 140.918 140.066 139.113 139.677 140.065 139.432 141.055 141.813 139.135 139.528 140.155 142.229 145.408 140.422 138.143 138.168 138.223 138.288 139.704 138.124 137.89 139.723 138.67 138.822 -9999 -9999 -9999 -9999 -9999 -9999 -9999 -9999 -9999 -9999 -9999 -9999 -9999 -9999 -9999 -9999 -9999 -9999 -9999 -9999 -9999 -9999 -9999 -9999 -9999 -9999 -9999 -9999 -9999 -9999 -9999 -9999 -9999 -9999 -9999 -9999 -9999 -9999 -9999 -9999 -9999 -9999 -9999 -9999 -9999 -9999 -9999 -9999 -9999 -9999 -9999 -9999 -9999 -9999 -9999 -9999 -9999 -9999 -9999 -9999 -9999 -9999 -9999 -9999 -9999 -9999 -9999 -9999 -9999 -9999 -9999 -9999 -9999 -9999 -9999 -9999 -9999 -9999 -9999 -9999 -9999 -9999 -9999 -9999
140.17 141.969 146.188 145.777 143.253 140.363 138.383 138.077 137.89 137.852 137.779 137.759 139.258 140.251 140.639 140.283 138.187 138.078 138.228 137.601 142.839 145.816 145.934 146.157 146.251 146.038 145.553 141.366 137.758 136.599 136.579 136.515 136.509 136.44 136.603 140.136 141.911 140.457 136.344 136.188 136.128 136.139 136.08 136.056 135.991 135.987 135.94 135.929 135.895 135.862 135.808 135.819 135.812 135.795 135.721 135.66 135.602 135.637 135.599 135.553 135.573 135.534 135.595 135.57 135.573 135.548 135.566 135.549 135.537 135.523 135.529 135.51 135.527 135.505 135.502 135.485 135.474 135.533 135.549 135.565 135.554 135.569 135.577 135.602 135.564 135.596 135.611 135.66 135.625 135.595 135.572 135.596 135.625 135.616 135.638 135.678 135.662 135.669 135.704 135.711 135.729 135.748 135.781 135.758 135.737 135.76 135.819 135.843 135.82 135.851 135.875 135.943 135.964 135.984 136.021 136.063 136.09 136.099 136.136 136.167 136.193 136.249 136.29 136.325 136.37 136.405 136.45 136.485 136.543 136.574 136.613 136.613 136.661 136.676 136.675 136.641 136.6 136.563 136.545 136.533 136.51 136.518 136.512 136.522 136.479 136.508 136.477 136.47 136.436 136.439 136.405 136.41 136.383 136.395 136.395 136.393 136.392 136.379 136.383 136.402 136.395 136.347 136.347 136.329 136.351 136.355 136.33 136.376 136.383 136.577 147.982 149.672 150.802 150.866 151.116 151.719 148.313 149.849 149.746 145.987 143.109 144.005 138.593 137.166 136.7 136.926 137.552 138.188 137.098 140.375 141.21 141.619 138.664 137.601 139.59 137.198 137.226 137.314 137.074 137.099 137.083 137.481 139.707 137.548 138.576 138.079 142.773 143.926 140.39 140.331 140.421 137.425 137.263 137.338 139.287 138.755 137.721 138.201 138.445 142.4 147.917 148.7 146.201 138.444 137.774 137.824 137.803 137.978 138.085 143.837 144.904 144.435 143.076 141.294 139.257 138.065 138.773 139.173 138.927 138.915 138.71 138.727 138.863 143.757 145.242 145.5 147.467 140.277 140.265 140.136 140.862 141.889 140.542 140.822 146.596 148.442 149.297 148.249 148.393 148.16 148.173 148.078 146.904 147.219 147.178 146.794 145.358 141.254 140.483 140.474 140.611 140.749 144.894 143.948 141.585 141.717 142.245 145.176 146.076 141.163 140.475 140.995 140.864 140.367 140.354 140.301 140.285 140.247 140.243 141.172 146.794 145.271 153.842 154.913 156.427 155.906 156.974 146.821 149 149.264 148.316 148.508 147.544 140.77 140.932 140.005 141.761 147.525 154.059 153.315 149.618 149.404 139.923 139.803 142.307 151.198 152.981 150.802 152.685 146.186 148.083 149.538 146.059 142.709 145.959 148.154 147.766 140.792 139.123 139.094 139.063 139.23 141.105 142.324 139.255 141.113 140.025 138.861 140.225 141.972 141.583 140.232 140.383 142.558 143.771 140.543 138.579 138.328 140.338 143.766 142.149 138.52 138.526 138.228 138.201 -9999 -9999 -9999 -9999 -9999 -9999 -9999 -9999 -9999 -9999 -9999 -9999 -9999 -9999 -9999 -9999 -9999 -9999 -9999 -9999 -9999 -9999 -9999 -9999 -9999 -9999 -9999 -9999 -9999 -9999 -9999 -9999 -9999 -9999 -9999 -9999 -9999 -9999 -9999 -9999 -9999 -9999 -9999 -9999 -9999 -9999 -9999 -9999 -9999 -9999 -9999 -9999 -9999 -9999 -9999 -9999 -9999 -9999 -9999 -9999 -9999 -9999 -9999 -9999 -9999 -9999 -9999 -9999 -9999 -9999 -9999 -9999 -9999 -9999 -9999 -9999 -9999 -9999 -9999 -9999 -9999 -9999 -9999 -9999 -9999
143.424 144.497 145.321 145.291 142.548 138.242 137.95 138.77 137.827 137.795 137.787 137.732 138.309 138.058 138.847 137.618 137.411 137.274 137.534 138.104 144.973 145.381 145.685 145.823 146.267 144.127 143.067 142.037 137.537 136.766 136.483 136.522 136.463 136.424 136.373 136.521 140.957 137.771 136.129 136.125 136.081 136.086 136.039 135.994 135.913 135.915 135.855 135.856 135.838 135.813 135.757 135.774 135.755 135.746 135.704 135.648 135.626 135.604 135.565 135.511 135.51 135.497 135.55 135.492 135.527 135.518 135.504 135.487 135.501 135.487 135.463 135.468 135.466 135.444 135.439 135.469 135.437 135.472 135.465 135.496 135.48 135.479 135.503 135.551 135.55 135.546 135.588 135.598 135.569 135.576 135.532 135.549 135.561 135.585 135.565 135.63 135.65 135.668 135.677 135.662 135.735 135.703 135.72 135.69 135.703 135.716 135.79 135.815 135.833 135.853 135.892 135.912 135.948 135.974 136.003 136.016 136.037 136.067 136.113 136.15 136.191 136.232 136.27 136.32 136.347 136.375 136.442 136.415 136.515 136.529 136.572 136.596 136.629 136.646 136.644 136.632 136.596 136.562 136.533 136.516 136.511 136.511 136.516 136.498 136.477 136.474 136.452 136.452 136.415 136.407 136.371 136.376 136.37 136.367 136.364 136.354 136.365 136.308 136.359 136.33 136.362 136.321 136.314 136.315 136.322 136.32 136.334 136.365 136.355 136.379 136.522 147.685 147.896 142.328 148.464 148.766 149.163 149.585 149.822 147.38 145.963 147.713 146.388 141.544 138.419 141.49 140.646 139.289 137.761 139.095 139.626 139.49 137.009 137.043 137.46 137.124 137.186 137.261 137.031 137.06 137.136 140.768 138.702 137.308 137.612 138.07 143.847 145.085 143.753 142.741 142.016 138.604 137.334 137.248 137.851 137.843 137.257 137.286 140.981 145.021 149.192 149.426 146.865 142.896 137.802 137.753 137.97 138.015 138.897 139.811 143.727 144.511 144.594 144.179 140.816 137.966 138.085 138.281 138.541 138.688 138.785 138.737 138.698 139.026 139.601 140.622 139.392 141.221 141.889 141.157 139.985 141.066 140.221 140.563 147.862 148.665 148.94 148.409 146.853 146.031 147.003 147.752 146.013 142.451 142.206 142.415 142.09 140.701 140.572 140.434 143.308 144.423 149.574 149.707 143.327 142.641 141.096 145.713 148.135 147.295 143.969 143.502 141.13 140.369 140.773 140.744 140.297 140.279 140.269 140.459 149.104 153.736 154.376 155.5 155.947 156.252 156.092 149.056 151.266 152.084 151.207 149.34 145.031 140.089 140.148 141.14 140.383 142.978 143.862 147.548 147.342 146.456 141.594 140.523 143.036 151.226 152.538 150.565 149.294 148.141 142.204 139.579 139.456 139.552 141.226 141.52 139.501 139.199 139.142 139.03 138.986 138.96 139.032 139.02 138.85 138.885 139.6 138.598 139.782 142.106 141.883 140.383 138.605 140.013 140.88 140.499 141.217 143.624 144.194 144.661 144.713 139.664 139.691 139.329 138.273 -9999 -9999 -9999 -9999 -9999 -9999 -9999 -9999 -9999 -9999 -9999 -9999 -9999 -9999 -9999 -9999 -9999 -9999 -9999 -9999 -9999 -9999 -9999 -9999 -9999 -9999 -9999 -9999 -9999 -9999 -9999 -9999 -9999 -9999 -9999 -9999 -9999 -9999 -9999 -9999 -9999 -9999 -9999 -9999 -9999 -9999 -9999 -9999 -9999 -9999 -9999 -9999 -9999 -9999 -9999 -9999 -9999 -9999 -9999 -9999 -9999 -9999 -9999 -9999 -9999 -9999 -9999 -9999 -9999 -9999 -9999 -9999 -9999 -9999 -9999 -9999 -9999 -9999 -9999 -9999 -9999 -9999 -9999 -9999 -9999
140.713 144.683 145.75 145.979 141.008 138.446 142.52 140.882 142.844 138.019 137.706 137.655 137.63 137.639 137.598 137.47 137.427 137.293 137.263 137.186 137.841 137.379 138.704 145.357 145.229 144.49 140.256 138.02 137.385 136.837 136.534 136.446 136.451 136.396 136.303 136.573 137.803 136.583 136.148 136.093 136.058 136.049 136.001 135.967 135.917 135.871 135.833 135.823 135.828 135.786 135.745 135.722 135.733 135.691 135.676 135.599 135.592 135.54 135.528 135.487 135.49 135.472 135.459 135.472 135.459 135.477 135.468 135.45 135.461 135.457 135.397 135.41 135.437 135.436 135.413 135.45 135.385 135.433 135.417 135.443 135.464 135.455 135.456 135.502 135.517 135.547 135.537 135.562 135.528 135.505 135.528 135.507 135.545 135.558 135.572 135.591 135.598 135.631 135.66 135.661 135.694 135.699 135.715 135.707 135.715 135.716 135.736 135.785 135.817 135.842 135.869 135.886 135.922 135.965 135.992 136.017 136.064 136.089 136.129 136.091 136.194 136.246 136.316 136.328 136.317 136.379 136.434 136.47 136.485 136.54 136.572 136.575 136.616 136.677 136.639 136.618 136.604 136.547 136.554 136.498 136.493 136.479 136.477 136.482 136.461 136.473 136.433 136.421 136.397 136.376 136.357 136.374 136.352 136.326 136.343 136.301 136.321 136.322 136.334 136.31 136.309 136.327 136.276 136.265 136.275 136.254 136.266 136.305 136.38 136.38 136.411 138.49 139.72 140.128 139.833 139.638 144.976 148.446 147.264 144.011 143.835 145.777 144.877 142.046 141.719 142.454 142.606 141.691 140.592 138.698 139.166 139.354 137.073 137.075 137.159 139.262 137.208 137.031 136.981 137.14 140.878 141.378 139.895 137.333 139.741 142.445 143.987 144.972 143.305 142.693 139.044 139.723 137.993 137.17 137.211 137.373 137.431 137.755 143.518 148.461 148.601 148.263 146.245 142.588 138.376 138.912 138.222 138.02 138.073 138.225 143.308 145.024 145.209 143.94 141.28 138.033 138.124 138.847 138.672 141.356 140.91 138.947 138.705 138.869 138.942 139.096 139.948 142.885 142.986 141.553 139.867 139.933 140.201 140.206 145.972 147.151 147.647 148.388 145.875 141.494 142.547 141.244 140.719 140.538 140.456 140.464 141.061 140.424 140.427 140.777 144.172 147.267 148.564 148.879 142.261 143.832 144.738 146.337 147.486 144.9 143.162 143.051 142.531 141.076 142.644 143.255 141.296 140.396 140.853 140.697 146.153 154.208 155.21 155.479 155.079 155.621 153.685 149.449 150.648 152.681 151.05 149.381 145.181 142.111 144.333 147.895 144.314 144.427 142.816 144.133 148.26 147.531 147.19 143.484 145.533 145.427 147.947 147.818 147.535 141.171 140.483 140.865 139.724 139.541 139.258 139.128 139.394 139.067 139.109 138.988 138.939 138.848 138.926 139.404 138.894 138.924 139.503 138.592 138.672 141.675 141.802 140.354 138.49 138.863 140.199 140.725 140.806 144.648 144.762 144.459 144.385 141.308 139.595 137.904 137.783 -9999 -9999 -9999 -9999 -9999 -9999 -9999 -9999 -9999 -9999 -9999 -9999 -9999 -9999 -9999 -9999 -9999 -9999 -9999 -9999 -9999 -9999 -9999 -9999 -9999 -9999 -9999 -9999 -9999 -9999 -9999 -9999 -9999 -9999 -9999 -9999 -9999 -9999 -9999 -9999 -9999 -9999 -9999 -9999 -9999 -9999 -9999 -9999 -9999 -9999 -9999 -9999 -9999 -9999 -9999 -9999 -9999 -9999 -9999 -9999 -9999 -9999 -9999 -9999 -9999 -9999 -9999 -9999 -9999 -9999 -9999 -9999 -9999 -9999 -9999 -9999 -9999 -9999 -9999 -9999 -9999 -9999 -9999 -9999 -9999
138.682 143.685 147.816 149.07 146.926 142.536 143.054 143.413 140.222 139.704 137.679 137.635 137.647 138.316 137.669 137.533 137.655 137.436 137.272 137.213 137.148 137.041 137.05 143.246 143.219 142.958 142.449 137.629 136.827 136.761 136.735 136.403 136.317 136.452 137.901 137.803 138.548 137.819 136.119 136.042 136.028 136.021 135.989 135.928 135.874 135.835 135.846 135.799 135.808 135.734 135.735 135.714 135.697 135.669 135.631 135.59 135.547 135.538 135.502 135.455 135.42 135.417 135.401 135.43 135.402 135.401 135.384 135.374 135.376 135.402 135.33 135.368 135.321 135.366 135.333 135.37 135.307 135.383 135.361 135.403 135.405 135.404 135.429 135.462 135.452 135.478 135.479 135.498 135.478 135.517 135.485 135.488 135.504 135.55 135.538 135.561 135.573 135.618 135.602 135.644 135.66 135.685 135.711 135.729 135.69 135.741 135.749 135.769 135.797 135.826 135.85 135.88 135.914 135.949 136.028 136.019 136.08 136.087 136.127 136.108 136.161 136.199 136.264 136.3 136.337 136.381 136.398 136.4 136.487 136.489 136.529 136.545 136.626 136.657 136.661 136.633 136.61 136.545 136.557 136.541 136.477 136.495 136.47 136.459 136.466 136.474 136.414 136.394 136.365 136.353 136.344 136.346 136.312 136.325 136.329 136.301 136.307 136.298 136.314 136.288 136.285 136.24 136.256 136.257 136.264 136.254 136.276 136.282 136.337 136.358 136.442 138.552 137.906 137.052 136.77 137.078 136.958 137.938 136.646 137.406 136.865 140.748 139.105 136.69 138.237 141.537 139.932 141.543 140.922 139.099 138.11 138.815 138.795 139.74 140.684 143.873 143.364 137.168 136.978 137.029 139.199 140.459 138.279 137.287 140.167 142.584 144.411 144.829 143.957 143.489 139.113 137.562 137.561 137.203 137.132 137.216 137.515 138.027 145.197 148.27 148.559 147.351 141.235 137.609 137.607 137.9 138.368 137.864 138.705 138.483 143.449 143.905 144.539 143.758 141.129 138.558 138.33 138.376 138.511 140.588 139.848 139.423 138.725 138.746 138.795 139.006 139.699 142.583 142.768 140.973 139.902 140.202 140.291 140.391 144.43 142.352 142.828 146.996 145.048 140.495 140.497 140.356 141.206 140.534 140.589 140.429 140.297 140.319 140.357 140.458 144.594 146.715 147.287 146.888 141.994 140.857 144.039 147.61 147.896 140.22 140.416 140.703 140.734 140.577 142.451 143.315 142.392 140.084 139.896 139.967 147.981 153.861 154.63 154.659 154.891 152.584 145.84 145.85 150.277 151.906 150.905 148.84 143.569 142.391 143.572 146.428 143.098 142.828 142.431 142.781 147.068 148.066 143.442 147.693 143.372 143.892 146.229 142.91 143.409 142.528 144.589 146.833 147.966 146.896 145.296 141.916 140.345 138.97 139.023 138.91 138.852 138.809 139.032 140.568 139.074 138.728 138.895 138.886 140.422 143.035 142.156 141.777 138.599 138.509 139.451 140.185 139.954 143.88 144.395 144.101 143.574 141.928 139.279 137.91 137.813 137.77 -9999 -9999 -9999 -9999 -9999 -9999 -9999 -9999 -9999 -9999 -9999 -9999 -9999 -9999 -9999 -9999 -9999 -9999 -9999 -9999 -9999 -9999 -9999 -9999 -9999 -9999 -9999 -9999 -9999 -9999 -9999 -9999 -9999 -9999 -9999 -9999 -9999 -9999 -9999 -9999 -9999 -9999 -9999 -9999 -9999 -9999 -9999 -9999 -9999 -9999 -9999 -9999 -9999 -9999 -9999 -9999 -9999 -9999 -9999 -9999 -9999 -9999 -9999 -9999 -9999 -9999 -9999 -9999 -9999 -9999 -9999 -9999 -9999 -9999 -9999 -9999 -9999 -9999 -9999 -9999 -9999 -9999 -9999 -9999
138.5 143.115 146.792 148.846 147.472 149.265 150.22 145.063 142.546 139.733 137.777 137.601 137.832 139.234 137.719 137.591 137.541 138.127 137.281 137.238 137.172 137.082 136.946 141.788 142.983 141.389 138.182 137.478 136.748 137.026 138.215 137.806 137.05 137.397 138.495 138.14 137.792 136.795 136.067 136.043 135.997 135.951 135.942 135.9 135.853 135.779 135.757 135.713 135.732 135.707 135.686 135.659 135.643 135.623 135.568 135.571 135.478 135.472 135.44 135.423 135.362 135.401 135.361 135.395 135.355 135.363 135.345 135.349 135.311 135.307 135.289 135.3 135.289 135.297 135.265 135.297 135.296 135.323 135.353 135.367 135.349 135.331 135.373 135.393 135.394 135.394 135.431 135.451 135.44 135.421 135.436 135.452 135.474 135.467 135.457 135.507 135.55 135.586 135.588 135.592 135.65 135.666 135.695 135.722 135.727 135.714 135.75 135.753 135.781 135.828 135.842 135.874 135.922 135.961 136.009 136.024 136.052 136.045 136.125 136.116 136.131 136.201 136.246 136.317 136.325 136.37 136.368 136.416 136.48 136.492 136.537 136.57 136.616 136.674 136.656 136.65 136.627 136.613 136.563 136.57 136.536 136.509 136.474 136.485 136.49 136.439 136.419 136.394 136.364 136.341 136.331 136.331 136.277 136.312 136.307 136.283 136.272 136.262 136.271 136.254 136.286 136.274 136.243 136.244 136.269 136.274 136.274 136.33 136.344 136.338 136.637 138.822 142.235 146.283 145.279 142.045 136.835 136.637 136.632 136.597 139.404 140.938 140.815 137.724 136.654 137.077 136.698 140.922 143.242 143.042 141.813 141.436 138.143 139.813 138.923 142.35 143.373 138.808 136.977 136.957 137.028 137.708 138.825 138.583 138.449 138.847 139.352 139.371 142.004 142.77 137.284 139.819 137.207 137.121 137.128 137.137 137.307 138.179 143.817 146.13 148.318 147.061 138.669 137.579 137.613 137.705 137.94 139.795 141.568 140.936 138.757 138.061 139.887 142.169 139.985 138.681 138.238 138.345 138.826 139.498 140.498 140.611 139.2 138.716 138.747 139.291 139.628 142.608 142.712 142.728 142.176 139.32 140.201 140.148 140.326 140.157 140.301 140.862 140.734 140.512 140.075 140.162 142.459 140.802 140.107 140.072 140.081 140.153 140.191 140.764 145.304 146.92 147.046 143.124 140.264 140.267 144.943 144.06 140.729 139.691 142.671 143.94 142.955 143.445 143.292 141.031 140.202 139.789 139.758 139.967 141.606 150.911 144.543 151.263 151.318 148.479 140.214 140.829 149.161 145.365 147.654 146.138 143.278 140.538 140.724 141.579 144.665 145.055 142.586 144.887 144.888 146.429 148.168 146.105 143.107 144.789 144.856 144.588 145.024 147.534 148.695 145.893 146.77 146.848 147.065 143.744 141.134 139.047 138.977 138.879 138.857 138.829 138.805 139.849 138.797 138.642 139.315 143.949 144.977 144.567 144.22 143.966 140.793 138.481 139.003 138.745 140.325 142.646 143.606 142.198 138.7 138.139 138.884 138.196 137.87 137.892 -9999 -9999 -9999 -9999 -9999 -9999 -9999 -9999 -9999 -9999 -9999 -9999 -9999 -9999 -9999 -9999 -9999 -9999 -9999 -9999 -9999 -9999 -9999 -9999 -9999 -9999 -9999 -9999 -9999 -9999 -9999 -9999 -9999 -9999 -9999 -9999 -9999 -9999 -9999 -9999 -9999 -9999 -9999 -9999 -9999 -9999 -9999 -9999 -9999 -9999 -9999 -9999 -9999 -9999 -9999 -9999 -9999 -9999 -9999 -9999 -9999 -9999 -9999 -9999 -9999 -9999 -9999 -9999 -9999 -9999 -9999 -9999 -9999 -9999 -9999 -9999 -9999 -9999 -9999 -9999 -9999 -9999 -9999 -9999
138.747 142.613 146.311 147.437 147.676 149.362 149.156 147.095 148.142 143.888 137.85 137.54 137.619 138.357 137.805 137.581 137.523 137.395 137.312 137.258 137.152 137.069 136.945 138.205 139.323 138.159 137.784 137.871 137.15 137.225 138.754 138.621 137.068 136.761 137.626 136.344 137.538 136.699 136.08 136.006 135.93 135.9 135.89 135.854 135.833 135.75 135.749 135.71 135.696 135.662 135.644 135.602 135.6 135.556 135.533 135.531 135.451 135.426 135.381 135.368 135.321 135.315 135.353 135.336 135.303 135.263 135.318 135.28 135.296 135.254 135.283 135.262 135.251 135.211 135.224 135.202 135.271 135.244 135.252 135.262 135.306 135.294 135.311 135.352 135.39 135.369 135.41 135.433 135.4 135.414 135.405 135.432 135.464 135.48 135.448 135.496 135.528 135.538 135.537 135.579 135.624 135.634 135.638 135.697 135.662 135.73 135.752 135.781 135.819 135.823 135.829 135.877 135.926 135.983 135.994 136.037 136.059 136.073 136.119 136.156 136.166 136.223 136.261 136.299 136.366 136.388 136.401 136.431 136.491 136.512 136.559 136.588 136.643 136.671 136.686 136.675 136.652 136.647 136.623 136.614 136.568 136.582 136.496 136.541 136.511 136.471 136.446 136.435 136.371 136.363 136.347 136.345 136.319 136.279 136.297 136.269 136.248 136.274 136.227 136.232 136.266 136.279 136.251 136.257 136.241 136.248 136.243 136.262 136.317 136.356 136.547 142.692 148.331 149.462 148.967 147.539 139.036 136.653 136.601 136.566 136.677 139.844 140.421 137.462 136.678 136.711 136.722 140.939 143.983 144.265 144.048 143.601 137.921 136.942 137.021 139.913 140.443 137.028 136.964 136.872 137.013 137.039 137.461 138.219 138.684 137.743 137.387 138.617 138.77 138.426 142.168 141.538 137.291 137.191 137.198 137.146 137.365 140.686 142.994 144.983 144.056 139.25 137.988 137.539 137.549 137.58 137.732 142.656 143.504 141.937 140.523 137.679 138.135 139.512 138.443 138.136 138.181 138.31 138.454 139.814 141.607 142.316 139.393 138.702 138.684 139.094 139.321 144.342 145.055 145.166 144.519 139.626 141.327 140.423 140.462 140.735 140.746 140.312 140.312 140.479 140.089 139.958 140.922 140.548 139.95 139.983 140.029 140.378 140.501 140.363 143.228 144.951 143.894 143.349 142.603 140.806 141.896 141.332 139.678 139.777 142.482 146.436 146.327 146.195 144.639 140.287 139.673 139.675 139.669 139.755 140.306 140.082 144.566 146.424 146.921 145.51 139.905 139.833 139.851 139.861 140.044 143.149 142.34 139.559 139.458 140.264 145.161 146.232 146.076 145.26 142.963 142.412 139.762 142.301 141.302 140.73 142.639 143.414 144.964 145.166 143.005 142.958 140.753 140.928 141.578 141.059 139.249 139.052 138.966 138.882 138.721 138.749 138.766 140.123 139.088 138.638 139.466 144.172 144.916 144.773 144.069 143.449 140.477 138.476 139.102 139.079 139.176 139.186 139.167 138.954 137.989 137.865 137.859 138.813 138.562 137.902 -9999 -9999 -9999 -9999 -9999 -9999 -9999 -9999 -9999 -9999 -9999 -9999 -9999 -9999 -9999 -9999 -9999 -9999 -9999 -9999 -9999 -9999 -9999 -9999 -9999 -9999 -9999 -9999 -9999 -9999 -9999 -9999 -9999 -9999 -9999 -9999 -9999 -9999 -9999 -9999 -9999 -9999 -9999 -9999 -9999 -9999 -9999 -9999 -9999 -9999 -9999 -9999 -9999 -9999 -9999 -9999 -9999 -9999 -9999 -9999 -9999 -9999 -9999 -9999 -9999 -9999 -9999 -9999 -9999 -9999 -9999 -9999 -9999 -9999 -9999 -9999 -9999 -9999 -9999 -9999 -9999 -9999 -9999 -9999
139.609 141.818 146.641 147.225 147.502 147.902 148.514 146.754 148.191 144.802 139.751 137.489 137.448 138.141 137.548 137.785 139.288 138.258 138.89 137.84 139.506 138.926 139.248 139.805 138.665 138.907 137.744 138.4 137.22 136.86 137.414 136.459 136.537 136.402 136.254 136.191 137.312 136.734 136.041 135.975 135.9 135.867 135.857 135.843 135.754 135.737 135.689 135.649 135.666 135.643 135.6 135.558 135.55 135.524 135.481 135.485 135.457 135.409 135.352 135.309 135.29 135.28 135.265 135.246 135.243 135.224 135.251 135.221 135.237 135.196 135.195 135.179 135.173 135.16 135.153 135.101 135.157 135.138 135.166 135.19 135.201 135.238 135.251 135.3 135.318 135.324 135.349 135.4 135.342 135.376 135.351 135.389 135.377 135.432 135.425 135.468 135.526 135.527 135.555 135.557 135.61 135.63 135.657 135.657 135.685 135.717 135.746 135.784 135.837 135.834 135.896 135.911 135.946 135.962 136.026 136.077 136.088 136.108 136.153 136.155 136.193 136.244 136.322 136.342 136.372 136.404 136.425 136.452 136.492 136.53 136.553 136.62 136.654 136.674 136.688 136.674 136.657 136.654 136.631 136.606 136.575 136.562 136.532 136.511 136.477 136.476 136.448 136.384 136.381 136.353 136.33 136.331 136.304 136.267 136.291 136.235 136.26 136.247 136.252 136.227 136.232 136.257 136.257 136.221 136.213 136.196 136.211 136.264 136.288 136.271 141.775 145.711 148.571 143.027 149.144 146.453 141.905 139.338 138.551 139.23 137.467 139.477 138.267 136.651 136.683 136.72 136.896 141.619 143.181 143.325 143.496 142.391 137.54 137.012 137.362 140.569 140.518 137.274 136.938 136.912 137.799 138.021 137.917 138.064 139.219 139.891 139.345 139.05 138.85 140.912 143.452 143.692 142.29 139.59 139.192 139.439 138.985 142.821 146.682 146.25 144.877 139.065 137.528 137.512 137.531 140.031 141.237 143.437 144.75 144.402 142.275 137.676 137.723 137.862 139.92 138.435 138.18 138.478 146.624 141.806 139.074 139.478 138.822 138.638 138.699 139.057 141.762 145.057 146.251 145.828 144.659 140.818 140.57 139.924 140.023 140.032 139.87 140.098 140.038 141.114 140.435 139.89 140.44 140.389 139.959 140.034 140.254 140.752 140.724 141.254 142.744 143.457 141.26 142.925 142.209 140.08 141.347 140.307 140.267 142.098 143.394 146.525 147.508 146.31 143.998 140.305 139.615 139.606 139.598 139.618 139.735 144.867 145.875 146.388 146.627 145.525 140.217 139.777 139.802 139.882 140.462 141.457 139.703 139.561 139.499 140.997 145.23 146.795 146.886 145.291 142.493 139.358 139.233 139.512 139.777 139.302 142.297 143.498 144.37 145.88 145.493 145.501 145.658 145.304 142.013 139.533 139.142 139.022 139.012 138.863 138.672 138.686 138.594 139.13 139.458 138.676 139.149 143.419 144.687 145.067 144.441 142.319 138.498 139.164 142.503 139.424 138.442 138.879 138.166 138.037 137.878 137.678 137.715 137.712 137.387 137.324 -9999 -9999 -9999 -9999 -9999 -9999 -9999 -9999 -9999 -9999 -9999 -9999 -9999 -9999 -9999 -9999 -9999 -9999 -9999 -9999 -9999 -9999 -9999 -9999 -9999 -9999 -9999 -9999 -9999 -9999 -9999 -9999 -9999 -9999 -9999 -9999 -9999 -9999 -9999 -9999 -9999 -9999 -9999 -9999 -9999 -9999 -9999 -9999 -9999 -9999 -9999 -9999 -9999 -9999 -9999 -9999 -9999 -9999 -9999 -9999 -9999 -9999 -9999 -9999 -9999 -9999 -9999 -9999 -9999 -9999 -9999 -9999 -9999 -9999 -9999 -9999 -9999 -9999 -9999 -9999 -9999 -9999 -9999 -9999
139.015 138.58 138.604 143.233 144.388 143.186 144.418 142.785 142.737 139.427 137.483 137.483 137.435 138.269 137.747 137.731 140.231 140.28 141.144 141.37 139.689 140.893 140.83 140.835 138.653 136.788 137.625 137.78 136.538 136.458 136.37 136.33 136.359 136.607 136.269 136.152 137.399 137.928 136.113 135.959 135.894 135.868 135.801 135.81 135.728 135.685 135.64 135.608 135.56 135.607 135.537 135.51 135.47 135.487 135.481 135.426 135.385 135.33 135.306 135.279 135.252 135.215 135.222 135.232 135.193 135.178 135.185 135.166 135.166 135.154 135.154 135.103 135.085 135.075 135.072 135.062 135.072 135.1 135.106 135.089 135.134 135.16 135.202 135.235 135.307 135.276 135.312 135.315 135.315 135.301 135.306 135.337 135.35 135.396 135.374 135.439 135.462 135.493 135.518 135.535 135.569 135.607 135.651 135.68 135.686 135.714 135.768 135.795 135.83 135.865 135.893 135.911 135.945 135.984 136.056 136.097 136.133 136.168 136.186 136.192 136.241 136.291 136.331 136.365 136.373 136.41 136.455 136.504 136.499 136.579 136.6 136.624 136.659 136.675 136.688 136.689 136.663 136.646 136.614 136.593 136.589 136.536 136.511 136.509 136.481 136.462 136.414 136.405 136.37 136.316 136.315 136.308 136.311 136.28 136.26 136.222 136.154 136.252 136.21 136.21 136.231 136.217 136.211 136.211 136.218 136.16 136.213 136.253 142.866 147.482 149.125 149.095 150.626 149.784 148.925 141.407 140.044 140.366 140.368 144.15 142.631 142.327 142.629 140.1 137.761 136.776 136.941 140.02 140.402 141.681 141.872 142.21 136.876 137.075 136.96 140.476 138.82 136.866 136.891 136.927 138.363 139.122 137.305 137.402 142.099 142.451 141.903 141.423 140.06 137.696 142.576 143.228 141.142 140.657 138.777 140.482 143.291 142.781 146.51 147.527 145.967 139.156 137.6 137.54 137.503 142.819 143.889 144.088 144.693 143.998 140.101 137.681 137.868 138.482 137.899 138.57 138.916 148.953 151.77 150.813 142.853 139.22 138.735 138.587 138.626 139.897 139.72 144.767 146.354 146.272 145.021 139.503 139.958 139.966 139.78 139.768 139.715 139.656 140.47 140.98 140.399 139.823 140.533 140.928 139.852 139.931 140.047 140.486 140.481 141.03 143.323 143.715 142.82 140.46 140.377 140.432 141.568 141.795 141.382 142.228 144.299 145.963 146.237 146.075 143.797 139.661 139.555 139.585 139.593 139.564 139.58 145.599 146.954 146.911 146.802 145.49 140.109 139.818 139.787 141.357 142.627 141.582 141.044 139.61 140.828 139.868 143.643 145.635 145.803 145.297 139.63 139.211 139.177 139.177 139.22 139.301 141.166 141.956 143.827 146.189 146.484 146.326 146.433 146.557 141.993 139.436 139.077 138.989 138.977 138.918 138.592 138.594 138.556 138.792 140.055 138.678 138.571 141.156 144.068 144.521 142.291 140.547 139.012 142.611 143.721 139.333 138.585 140.858 139.21 138.123 137.632 137.538 137.473 137.486 137.449 137.356 -9999 -9999 -9999 -9999 -9999 -9999 -9999 -9999 -9999 -9999 -9999 -9999 -9999 -9999 -9999 -9999 -9999 -9999 -9999 -9999 -9999 -9999 -9999 -9999 -9999 -9999 -9999 -9999 -9999 -9999 -9999 -9999 -9999 -9999 -9999 -9999 -9999 -9999 -9999 -9999 -9999 -9999 -9999 -9999 -9999 -9999 -9999 -9999 -9999 -9999 -9999 -9999 -9999 -9999 -9999 -9999 -9999 -9999 -9999 -9999 -9999 -9999 -9999 -9999 -9999 -9999 -9999 -9999 -9999 -9999 -9999 -9999 -9999 -9999 -9999 -9999 -9999 -9999 -9999 -9999 -9999 -9999 -9999 -9999
138.034 137.866 137.862 138.06 138.117 137.658 137.603 140.533 137.881 137.508 137.408 137.422 137.377 137.493 137.836 138.276 140.077 141.692 141.724 139.325 138.808 140.631 139.08 139.748 139.368 140.613 140.547 141.536 136.618 136.446 136.369 136.31 136.25 136.276 136.236 136.184 136.625 136.998 136.052 135.917 135.84 135.805 135.708 135.676 135.641 135.6 135.557 135.55 135.547 135.494 135.478 135.445 135.412 135.411 135.391 135.375 135.327 135.269 135.265 135.196 135.194 135.19 135.141 135.154 135.14 135.157 135.173 135.154 135.11 135.084 135.06 135.065 135.015 134.985 135.006 135.043 135.05 135.034 135.027 135.048 135.054 135.054 135.119 135.185 135.195 135.193 135.217 135.197 135.248 135.262 135.226 135.245 135.273 135.325 135.33 135.369 135.413 135.444 135.483 135.48 135.539 135.593 135.616 135.681 135.672 135.732 135.778 135.809 135.832 135.848 135.915 135.919 135.977 135.99 136.062 136.095 136.156 136.189 136.176 136.215 136.262 136.309 136.333 136.406 136.37 136.46 136.487 136.527 136.529 136.518 136.584 136.597 136.668 136.691 136.694 136.679 136.648 136.636 136.618 136.584 136.584 136.516 136.516 136.511 136.501 136.47 136.406 136.39 136.376 136.293 136.316 136.282 136.288 136.263 136.251 136.2 136.233 136.22 136.199 136.195 136.184 136.193 136.196 136.199 136.171 136.154 136.205 137.065 149.014 150.491 150.417 151.181 152.824 152.59 149.735 145.782 136.813 137.143 139.191 144.83 142.861 143.014 144.287 144.019 142.083 141.182 141.733 137.394 137.825 139.152 139.291 137.63 136.803 136.928 137.777 139.502 140.611 136.856 136.831 136.917 137.359 137.107 137.13 137.184 143.321 144.15 144.025 143.496 142.609 137.212 137.866 139.192 137.796 137.532 137.092 140.278 140.526 143.01 144.974 142.75 140.727 138.685 138.762 138.72 138.152 143.764 144.358 144.81 144.635 143.361 139.007 137.596 137.694 138.025 138 138.054 144.719 150.037 150.959 145.493 149.117 145.026 138.946 138.59 138.691 139.302 139.193 144.35 145.604 145.691 144.749 139.446 140.674 139.927 139.726 139.669 139.772 139.957 139.758 140.662 139.886 139.809 140.816 140.501 139.803 139.857 139.909 140.021 140.132 141.579 141.996 142.598 142.997 140.695 139.994 140.968 142.124 142.683 142.706 140.653 141.076 144.169 143.802 144.11 140.3 139.63 139.497 139.544 139.554 139.524 139.619 144.158 145.545 146.042 146.513 144.652 139.819 139.817 139.86 142.589 142.797 141.63 142.651 142.566 142.436 139.72 142.818 143.731 144.335 143.078 139.407 139.168 139.131 139.168 139.189 139.233 139.833 139.393 141.115 143.792 144.986 145.45 145.176 145.505 143.101 139.547 139.02 139.003 138.908 138.839 138.638 138.545 138.538 138.616 139.639 138.719 138.567 139.608 140.564 140.202 139.939 138.749 138.426 141.767 143.811 143.955 142.964 140.017 138.331 137.649 137.604 137.632 137.57 137.503 137.435 137.393 -9999 -9999 -9999 -9999 -9999 -9999 -9999 -9999 -9999 -9999 -9999 -9999 -9999 -9999 -9999 -9999 -9999 -9999 -9999 -9999 -9999 -9999 -9999 -9999 -9999 -9999 -9999 -9999 -9999 -9999 -9999 -9999 -9999 -9999 -9999 -9999 -9999 -9999 -9999 -9999 -9999 -9999 -9999 -9999 -9999 -9999 -9999 -9999 -9999 -9999 -9999 -9999 -9999 -9999 -9999 -9999 -9999 -9999 -9999 -9999 -9999 -9999 -9999 -9999 -9999 -9999 -9999 -9999 -9999 -9999 -9999 -9999 -9999 -9999 -9999 -9999 -9999 -9999 -9999 -9999 -9999 -9999 -9999 -9999
138.003 137.969 137.848 138.16 138.905 137.718 137.65 137.66 137.576 137.593 137.418 137.345 137.304 137.361 137.707 137.222 139.244 139.882 140.899 139.681 138.1 140.173 140.003 139.939 143.296 143.794 143.364 143.493 136.771 136.44 136.389 136.329 136.3 136.269 136.235 136.211 137.155 137.554 135.931 135.879 135.824 135.773 135.717 135.673 135.64 135.567 135.549 135.51 135.492 135.488 135.467 135.429 135.392 135.351 135.357 135.348 135.29 135.218 135.214 135.16 135.151 135.158 135.131 135.111 135.103 135.108 135.106 135.118 135.086 135.073 135.043 135.045 134.993 134.969 134.989 135 135.04 135.032 135.038 135.034 135.034 135.087 135.108 135.139 135.191 135.181 135.195 135.182 135.209 135.169 135.194 135.207 135.256 135.3 135.323 135.358 135.406 135.402 135.452 135.503 135.545 135.562 135.592 135.65 135.652 135.71 135.745 135.799 135.814 135.888 135.922 135.955 136.002 136.034 136.088 136.141 136.192 136.245 136.283 136.264 136.337 136.406 136.403 136.428 136.468 136.493 136.522 136.545 136.574 136.59 136.594 136.649 136.662 136.685 136.679 136.668 136.633 136.633 136.605 136.588 136.575 136.543 136.521 136.529 136.5 136.478 136.435 136.398 136.369 136.352 136.323 136.337 136.291 136.289 136.272 136.254 136.257 136.256 136.218 136.199 136.177 136.216 136.187 136.192 136.127 136.159 136.189 144.8 150.167 152.32 153.198 153.872 153.954 153.123 150.934 146.377 136.856 136.549 141.033 142.885 140.541 142.691 144.743 143.962 141.979 141.412 139.954 137.966 137.73 139.512 138.469 138.099 136.936 138.071 138.26 140.826 136.896 136.796 136.801 136.945 137.318 137.08 137.102 140.747 143.799 144.415 144.682 143.324 139.523 137.136 137.066 137.122 137.443 137.433 137.052 137.059 138.055 142.773 144.764 144.052 138.067 137.896 138.075 137.927 138.7 142.604 143.573 144.819 144.16 142.389 137.924 137.641 137.768 137.906 138.067 138.339 140.285 143.775 148.574 153.239 145.459 140.588 138.547 138.603 141.956 141.562 140.8 142.816 144.107 141.124 140.13 139.645 141.464 140.318 139.644 139.637 139.766 139.696 140.078 140.963 139.98 140.712 141.21 140.418 139.714 139.773 139.851 139.883 139.988 143.124 143.567 145.235 143.367 139.862 139.811 140.397 143.502 144.063 143.919 141.128 141.984 143.588 143.394 142.033 139.618 139.51 139.46 139.493 139.515 139.461 139.791 141.102 141.742 143.269 144.087 141.743 139.726 139.928 141.638 142.498 142.825 141.527 141.546 141.407 141.336 139.497 142.074 144.976 144.323 143.022 139.859 139.158 139.18 139.171 139.166 139.164 140.54 139.758 139.924 139.401 139.583 140.422 141.64 139.953 143.113 142.845 138.875 138.958 138.885 138.785 138.627 138.489 138.465 138.416 138.805 139.15 138.588 138.656 138.818 138.523 138.448 138.391 138.366 138.97 141.366 142.251 138.283 137.714 137.696 137.688 137.669 137.667 137.589 137.507 137.365 137.293 137.333 -9999 -9999 -9999 -9999 -9999 -9999 -9999 -9999 -9999 -9999 -9999 -9999 -9999 -9999 -9999 -9999 -9999 -9999 -9999 -9999 -9999 -9999 -9999 -9999 -9999 -9999 -9999 -9999 -9999 -9999 -9999 -9999 -9999 -9999 -9999 -9999 -9999 -9999 -9999 -9999 -9999 -9999 -9999 -9999 -9999 -9999 -9999 -9999 -9999 -9999 -9999 -9999 -9999 -9999 -9999 -9999 -9999 -9999 -9999 -9999 -9999 -9999 -9999 -9999 -9999 -9999 -9999 -9999 -9999 -9999 -9999 -9999 -9999 -9999 -9999 -9999 -9999 -9999 -9999 -9999 -9999 -9999 -9999
138.054 137.979 137.923 137.949 139.287 137.725 137.66 137.605 137.534 137.556 137.41 137.31 137.31 137.292 137.252 137.19 137.155 137.102 138.239 138.434 137.853 138.978 139.891 143.592 144.795 144.87 144.369 144.112 138.357 136.446 136.394 136.359 136.294 136.247 136.158 136.153 136.058 137.734 139.851 136.036 135.808 135.772 135.695 135.645 135.625 135.55 135.54 135.489 135.46 135.459 135.469 135.42 135.378 135.352 135.332 135.303 135.26 135.198 135.18 135.166 135.13 135.132 135.1 135.089 135.018 135.036 135.053 135.047 135.001 135.003 134.961 135.028 134.931 134.957 134.96 134.953 134.986 135.011 134.969 134.985 135.007 135.017 135.087 135.096 135.155 135.143 135.144 135.16 135.152 135.191 135.176 135.189 135.217 135.248 135.26 135.313 135.362 135.412 135.452 135.471 135.504 135.533 135.613 135.609 135.632 135.669 135.73 135.821 135.871 135.895 135.928 135.981 136.024 136.079 136.161 136.196 136.248 136.305 136.341 136.327 136.372 136.43 136.448 136.491 136.516 136.529 136.54 136.581 136.591 136.599 136.619 136.658 136.662 136.683 136.67 136.667 136.597 136.573 136.57 136.542 136.545 136.499 136.476 136.465 136.46 136.422 136.372 136.409 136.341 136.302 136.32 136.281 136.252 136.258 136.271 136.204 136.24 136.238 136.189 136.189 136.161 136.118 136.167 136.15 136.116 136.126 136.298 147.812 149.892 152.563 153.76 154.245 154.332 153.875 152.441 146.196 137.749 136.454 138.938 137.067 136.557 139.672 141.109 138.81 137.251 139.065 141.223 140.917 141.448 137.803 139.043 138.754 138.837 141.033 141.405 141.059 137.586 136.764 136.758 137.137 138.553 137.274 137.099 137.124 139.763 143.915 142.874 143.376 138.086 137.348 137.05 137.163 138.572 137.474 137.115 137.077 139.463 140.881 142.615 141.95 137.488 137.449 137.729 141.319 142.84 139.369 139.171 140.5 143.643 138.979 137.634 138.188 138.028 139.405 138.067 146.454 151.513 146.072 143.537 148.371 142.213 138.726 138.538 141.318 144.775 144.114 142.943 141.775 141.863 139.466 139.073 139.485 140.151 139.721 139.556 139.55 139.678 139.71 139.7 140.805 141.701 141.518 141.773 141.693 139.673 139.722 139.784 139.794 139.837 141.787 144.667 148.088 146.79 139.835 140.854 141.74 141.755 143.193 143.331 140.655 140.695 143.513 143.262 141.884 139.561 139.465 139.402 139.432 139.467 139.384 139.607 140.41 140.699 143.867 146.82 145.191 140.046 140.612 141.928 141.935 142.062 141.497 140.27 139.51 139.105 138.884 139.885 145.147 145.823 144.786 139.334 139.163 139.129 139.147 139.173 139.136 139.246 139.948 139.353 139.52 139.596 139.33 139.403 139.867 142.281 139.714 138.943 138.961 138.884 138.761 138.602 138.432 138.372 138.373 138.494 138.871 138.555 138.555 138.55 138.475 138.398 138.221 138.35 138.956 137.96 137.768 137.789 137.784 137.792 137.729 137.691 137.621 137.552 137.483 137.455 137.411 137.424 -9999 -9999 -9999 -9999 -9999 -9999 -9999 -9999 -9999 -9999 -9999 -9999 -9999 -9999 -9999 -9999 -9999 -9999 -9999 -9999 -9999 -9999 -9999 -9999 -9999 -9999 -9999 -9999 -9999 -9999 -9999 -9999 -9999 -9999 -9999 -9999 -9999 -9999 -9999 -9999 -9999 -9999 -9999 -9999 -9999 -9999 -9999 -9999 -9999 -9999 -9999 -9999 -9999 -9999 -9999 -9999 -9999 -9999 -9999 -9999 -9999 -9999 -9999 -9999 -9999 -9999 -9999 -9999 -9999 -9999 -9999 -9999 -9999 -9999 -9999 -9999 -9999 -9999 -9999 -9999 -9999 -9999 -9999
138.06 138.583 137.983 137.817 139.024 137.992 138.346 140.216 137.484 137.473 137.438 137.322 137.267 137.221 137.288 137.244 137.127 137.034 137.017 137.059 136.874 136.871 138.391 144.211 143.914 144.39 143.739 143.649 138.957 136.487 136.487 136.415 136.286 136.22 136.126 136.124 136.581 137.018 137.559 135.843 135.762 135.689 135.657 135.555 135.57 135.52 135.464 135.415 135.429 135.396 135.387 135.363 135.302 135.292 135.254 135.218 135.186 135.154 135.103 135.128 135.087 135.063 135.035 135.012 135.019 135.013 134.997 134.955 134.978 134.938 134.893 134.909 134.831 134.843 134.848 134.852 134.881 134.9 134.94 134.94 134.923 134.967 134.976 135.01 135.036 135.088 135.083 135.07 135.082 135.114 135.105 135.114 135.164 135.185 135.234 135.267 135.331 135.374 135.416 135.449 135.541 135.55 135.604 135.639 135.648 135.7 135.737 135.828 135.869 135.907 135.962 135.999 136.068 136.115 136.201 136.255 136.277 136.33 136.354 136.372 136.387 136.427 136.459 136.485 136.508 136.531 136.597 136.607 136.604 136.616 136.631 136.654 136.662 136.679 136.663 136.675 136.659 136.602 136.58 136.564 136.539 136.474 136.471 136.427 136.43 136.433 136.414 136.381 136.345 136.33 136.311 136.301 136.281 136.287 136.249 136.199 136.215 136.212 136.171 136.146 136.141 136.162 136.148 136.134 136.106 136.117 136.337 146.894 150.21 152.023 152.753 153.975 153.785 154.274 153.124 141.865 136.496 136.46 136.464 136.497 136.482 136.561 137.676 136.647 138.555 139.904 142.583 143.341 143.182 142.971 142.377 138.183 138.088 138.234 141.291 138.473 137.224 136.736 136.723 137.679 138.845 137.77 137.912 137.08 138.202 138.453 137.474 140.181 138.873 137.322 137.209 137.091 137.12 138.404 138.446 137.101 139.75 141.447 137.413 137.427 137.503 137.51 139.162 143.059 144.444 143.328 142.519 141.883 137.795 139.632 139.618 138.281 143.223 145.99 146.172 149.478 151.471 151.266 146.214 138.317 138.412 138.411 138.364 141.316 144.817 143.479 142.244 140.964 139.189 139.182 139.167 139.416 139.838 139.9 139.503 139.573 139.609 139.681 139.841 140.708 140.05 140.087 142.461 140.443 139.611 139.614 139.72 139.837 140.266 140.429 144.076 148.577 147.659 139.807 140.722 140.896 141.251 140.343 140.362 143.201 145.64 146.21 144.744 142.167 139.694 139.461 139.359 139.39 139.345 139.425 139.478 139.423 139.642 144.829 146.558 145.833 143.151 139.839 139.655 139.659 140.085 140.124 140.302 139.339 139.293 140.696 142.261 145.009 145.867 144.711 140.93 139.187 139.126 139.115 139.126 139.132 139.235 139.428 139.23 139.434 139.76 139.337 139.752 139.626 140.641 139.523 138.911 138.905 138.835 138.733 138.596 138.422 138.342 138.301 138.295 138.632 139.74 138.551 138.665 138.322 138.473 138.051 137.929 137.887 137.889 137.823 137.819 137.788 137.775 137.647 137.633 137.603 137.67 137.62 138.102 137.907 137.998 -9999 -9999 -9999 -9999 -9999 -9999 -9999 -9999 -9999 -9999 -9999 -9999 -9999 -9999 -9999 -9999 -9999 -9999 -9999 -9999 -9999 -9999 -9999 -9999 -9999 -9999 -9999 -9999 -9999 -9999 -9999 -9999 -9999 -9999 -9999 -9999 -9999 -9999 -9999 -9999 -9999 -9999 -9999 -9999 -9999 -9999 -9999 -9999 -9999 -9999 -9999 -9999 -9999 -9999 -9999 -9999 -9999 -9999 -9999 -9999 -9999 -9999 -9999 -9999 -9999 -9999 -9999 -9999 -9999 -9999 -9999 -9999 -9999 -9999 -9999 -9999 -9999 -9999 -9999 -9999 -9999 -9999 -9999
138.044 138.079 137.916 137.785 138.791 138.068 137.473 137.452 137.394 137.445 137.426 137.233 137.271 137.209 137.897 137.852 137.051 136.958 136.94 136.888 136.821 136.788 136.718 142.409 143.533 144.154 143.316 142.544 139.935 136.926 136.559 136.397 136.381 136.175 136.198 136.297 143.134 143.807 141.187 139.716 135.869 135.643 135.617 135.565 135.516 135.472 135.432 135.392 135.376 135.345 135.338 135.316 135.287 135.245 135.21 135.185 135.17 135.137 135.118 135.07 135.066 135.019 135.02 135.018 135.002 134.994 134.95 134.961 134.955 134.927 134.885 134.884 134.827 134.82 134.804 134.858 134.89 134.899 134.94 134.953 134.946 134.931 134.946 135.001 135.012 135.065 135.07 135.082 135.067 135.105 135.082 135.099 135.129 135.204 135.283 135.27 135.324 135.387 135.427 135.465 135.526 135.555 135.591 135.629 135.653 135.711 135.783 135.828 135.855 135.928 136.021 136.054 136.124 136.162 136.241 136.299 136.326 136.379 136.39 136.401 136.441 136.432 136.486 136.49 136.549 136.536 136.572 136.621 136.639 136.672 136.659 136.678 136.67 136.696 136.678 136.677 136.649 136.629 136.586 136.567 136.544 136.517 136.496 136.445 136.455 136.444 136.425 136.398 136.359 136.358 136.34 136.314 136.285 136.302 136.271 136.256 136.256 136.247 136.204 136.179 136.168 136.182 136.187 136.123 136.126 136.107 147.938 149.838 151.598 152.989 153.43 153.935 154.267 153.872 151.006 141.71 136.501 136.442 136.45 136.456 136.51 136.553 136.574 136.656 137.112 137.312 142.687 144.013 144.244 143.449 143.401 136.859 136.821 136.833 137.136 137.015 136.716 136.685 136.679 136.833 137.158 136.997 137.556 140.286 137.047 137.684 137.08 139.87 140.515 139.312 138.324 140.982 139.234 142.705 140.778 139.39 140.146 139.381 137.437 137.468 137.492 137.466 139.536 143.601 144.696 143.899 143.812 140.361 137.522 137.632 137.828 139.554 137.977 139.548 146.312 149.087 151.476 151.08 146.154 138.333 138.352 138.354 138.747 140.082 141.362 141.398 143.098 142.746 139.492 139.243 139.29 140.153 139.586 139.911 139.563 139.744 140.782 141.761 140.283 145.539 148.857 141.248 145.336 144.375 140.944 139.609 139.605 139.678 139.86 140.376 142.613 143.153 140.593 139.717 141.504 142.51 139.607 139.532 139.851 141.289 146.52 146.401 144.984 141.039 139.579 139.4 139.305 139.303 139.282 139.493 139.382 139.861 142.356 144.992 146.372 145.552 142.883 139.521 139.569 139.583 139.962 140.2 139.557 139.244 139.011 140.931 142.222 145.078 145.582 144.12 141.58 139.302 139.09 139.101 139.24 140.526 139.424 140.065 139.273 139.444 139.355 139.391 141.301 143.487 142.169 138.941 138.859 138.863 138.78 138.639 138.54 138.469 138.303 138.232 138.214 138.234 138.601 138.686 139.09 138.267 139.692 138.027 137.878 137.904 137.889 137.9 137.828 137.765 137.713 137.717 137.764 138.345 138.88 137.958 139.25 139.939 -9999 -9999 -9999 -9999 -9999 -9999 -9999 -9999 -9999 -9999 -9999 -9999 -9999 -9999 -9999 -9999 -9999 -9999 -9999 -9999 -9999 -9999 -9999 -9999 -9999 -9999 -9999 -9999 -9999 -9999 -9999 -9999 -9999 -9999 -9999 -9999 -9999 -9999 -9999 -9999 -9999 -9999 -9999 -9999 -9999 -9999 -9999 -9999 -9999 -9999 -9999 -9999 -9999 -9999 -9999 -9999 -9999 -9999 -9999 -9999 -9999 -9999 -9999 -9999 -9999 -9999 -9999 -9999 -9999 -9999 -9999 -9999 -9999 -9999 -9999 -9999 -9999 -9999 -9999 -9999 -9999 -9999 -9999 -9999
138.53 139.406 138.097 139.13 138.569 139.992 137.593 137.444 137.422 137.414 137.339 137.214 137.232 137.171 137.221 138.111 136.93 137.045 137.396 137.142 136.8 136.728 136.689 141.667 143.271 144.108 143.567 140.901 139.489 137.217 136.645 136.616 137.663 137.949 136.542 137.899 139.303 141.124 141.863 139.215 137.67 135.674 135.617 135.567 135.519 135.487 135.44 135.387 135.371 135.349 135.309 135.307 135.29 135.234 135.209 135.185 135.163 135.139 135.058 135.086 135.029 135.007 135.002 135.004 134.983 134.963 134.939 134.966 134.977 134.93 134.885 134.815 134.804 134.792 134.764 134.83 134.837 134.903 134.919 134.941 134.954 134.931 134.943 134.998 135.019 135.026 135.054 135.063 135.036 135.042 135.056 135.084 135.111 135.168 135.19 135.235 135.276 135.336 135.404 135.44 135.502 135.565 135.598 135.618 135.664 135.709 135.784 135.829 135.903 135.934 136.028 136.075 136.149 136.19 136.267 136.314 136.363 136.393 136.392 136.419 136.449 136.472 136.488 136.508 136.539 136.551 136.553 136.631 136.67 137.057 136.756 136.734 136.604 136.652 136.636 136.614 136.603 136.617 136.598 136.585 136.577 136.517 136.471 136.493 136.425 136.433 136.412 136.409 136.325 136.343 136.322 136.286 136.309 136.288 136.288 136.284 136.264 136.238 136.184 136.211 136.186 136.207 136.189 136.166 136.138 136.685 148.26 152.281 153.358 153.675 154.019 153.912 152.922 153.177 151.438 138.457 136.499 136.471 136.459 136.453 136.511 136.535 136.609 136.627 137.27 139.89 142.66 143.095 143.388 142.824 142.13 136.797 136.803 136.818 137.882 137.046 136.862 136.659 136.746 137.337 136.924 136.862 136.946 141.27 141.71 141.421 140.332 138.105 139.607 137.715 139.482 142.539 143.131 142.942 143.33 141.693 138.077 137.349 137.423 137.472 137.518 139.445 142.349 143.89 144.498 143.421 143.554 138.748 137.565 137.637 137.728 137.869 140.19 142.866 147.111 149.327 148.88 147.447 142.145 138.329 138.275 139.607 140.814 139.097 139.369 140.727 142.637 142.827 139.477 139.218 140.528 140.952 140.134 139.863 139.543 139.75 142.019 148.023 151.535 152.279 152.588 153.058 152.686 152.819 144.349 139.569 139.562 139.621 140.918 143.168 143.965 142.791 140.086 139.983 140.677 142.012 139.521 139.499 139.616 142.743 146.483 146.374 143.657 140.032 140.055 140.77 139.275 139.264 139.216 139.298 139.328 139.467 142.371 145.025 146.387 145.451 140.299 139.517 139.557 139.552 140.125 140.056 139.458 138.926 138.887 138.941 140.422 145.232 145.613 143.9 140.717 139.195 139.048 139.083 141.48 141.858 140.818 139.478 140.692 141.327 139.913 141.496 144.645 145.323 143.71 138.875 138.837 138.801 138.746 138.652 138.51 138.423 138.33 138.177 138.181 138.188 138.13 138.137 138.101 138.055 137.956 137.914 137.924 137.935 137.917 137.84 137.781 137.836 137.891 137.891 138.057 138.764 141.777 139.236 139.171 139.525 -9999 -9999 -9999 -9999 -9999 -9999 -9999 -9999 -9999 -9999 -9999 -9999 -9999 -9999 -9999 -9999 -9999 -9999 -9999 -9999 -9999 -9999 -9999 -9999 -9999 -9999 -9999 -9999 -9999 -9999 -9999 -9999 -9999 -9999 -9999 -9999 -9999 -9999 -9999 -9999 -9999 -9999 -9999 -9999 -9999 -9999 -9999 -9999 -9999 -9999 -9999 -9999 -9999 -9999 -9999 -9999 -9999 -9999 -9999 -9999 -9999 -9999 -9999 -9999 -9999 -9999 -9999 -9999 -9999 -9999 -9999 -9999 -9999 -9999 -9999 -9999 -9999 -9999 -9999 -9999 -9999 -9999 -9999 -9999
138.79 139.209 138.161 138.767 137.788 138.459 137.475 137.438 137.353 137.355 137.303 137.201 137.14 137.115 137.27 140.405 141.032 138.436 137.906 137.127 136.772 136.768 136.682 138.523 143.263 144.074 142.002 137.11 138.438 137.085 136.722 138.111 140.717 143.488 138.05 137.068 137.631 141.768 141.209 137.995 135.722 135.683 135.549 135.533 135.462 135.469 135.417 135.372 135.352 135.347 135.284 135.291 135.266 135.182 135.181 135.161 135.128 135.09 135.055 135.061 135.019 134.965 134.954 134.952 134.95 134.945 134.893 134.922 134.922 134.898 134.868 134.838 134.782 134.809 134.755 134.763 134.82 134.847 134.868 134.918 134.918 134.902 134.923 134.935 135.006 135.002 135.006 134.988 134.993 134.978 135.007 135.023 135.042 135.055 135.098 135.159 135.231 135.272 135.333 135.398 135.455 135.474 135.544 135.618 135.633 135.716 135.756 135.844 135.903 135.94 136.018 136.049 136.119 136.166 136.231 136.296 136.36 136.382 136.384 136.409 136.439 136.453 136.485 136.48 136.474 136.511 136.576 136.598 137.152 138.976 139.002 139.3 138.702 138.811 138.586 137.25 137.163 136.69 136.585 136.61 136.571 136.517 138.122 139.03 138.53 138.195 136.462 136.384 136.36 136.317 136.324 136.282 136.3 136.262 136.308 136.27 136.262 136.222 136.172 136.238 136.186 136.2 136.183 136.172 136.149 141.852 151.212 153.169 153.981 153.67 154.169 154.029 151.789 152.754 143.605 138.094 138.229 139.414 139.651 136.506 136.824 136.645 136.6 136.831 137.397 139.912 141.607 141.787 142.126 142.275 137.763 136.71 136.718 136.801 137.492 137.481 136.883 136.64 137.197 141.175 137.001 137.24 137.02 142.835 142.774 142.529 142.147 139.254 136.953 136.96 136.987 138.297 141.463 142.308 145.039 145.947 137.519 137.333 137.404 137.463 137.511 140.285 142.848 144.445 143.953 141.557 140.991 137.627 137.584 137.673 137.818 137.877 137.993 142.844 145.269 148.342 145.673 138.58 138.233 138.222 139.239 139.959 139.049 138.803 140.291 139.631 143.27 143.831 139.84 139.322 144.613 141.458 140.628 139.577 139.377 139.42 140.678 150.635 152.518 153.459 154.526 154.827 154.046 152.658 149.94 140.534 139.729 139.654 141.149 142.989 145.579 143.104 143.3 139.842 140.608 139.819 139.523 139.551 139.738 143.936 146.512 146.224 144.755 139.893 140.082 142.346 139.301 139.223 139.232 139.342 139.385 139.437 140.741 145.237 146.542 145.511 141.062 139.604 139.491 139.584 140.747 141.242 141.685 141.205 141.455 139.328 141.91 145.187 145.152 142.256 138.966 139.037 139.048 139.064 139.25 140.909 139.378 142.402 141.724 141.354 140.702 140.799 143.894 145.378 142.247 138.893 138.804 138.754 138.713 138.641 138.402 138.406 138.25 138.16 138.13 138.148 138.135 138.07 138.011 138.021 137.993 137.989 137.951 137.904 137.906 137.892 138.345 137.921 137.991 138.087 138.072 138.374 140.617 137.77 138.366 137.484 137.179 -9999 -9999 -9999 -9999 -9999 -9999 -9999 -9999 -9999 -9999 -9999 -9999 -9999 -9999 -9999 -9999 -9999 -9999 -9999 -9999 -9999 -9999 -9999 -9999 -9999 -9999 -9999 -9999 -9999 -9999 -9999 -9999 -9999 -9999 -9999 -9999 -9999 -9999 -9999 -9999 -9999 -9999 -9999 -9999 -9999 -9999 -9999 -9999 -9999 -9999 -9999 -9999 -9999 -9999 -9999 -9999 -9999 -9999 -9999 -9999 -9999 -9999 -9999 -9999 -9999 -9999 -9999 -9999 -9999 -9999 -9999 -9999 -9999 -9999 -9999 -9999 -9999 -9999 -9999 -9999 -9999 -9999 -9999
138.236 138.287 137.741 137.638 137.559 137.813 137.529 137.427 137.387 137.345 137.325 137.236 137.129 137.067 142.25 143.82 142.22 138.596 138.241 136.825 136.753 136.751 136.726 136.567 140.223 137.511 137.407 138.369 139.878 137.334 136.854 138.597 139.754 139.474 138.9 135.859 137.82 138.792 137.479 136.872 135.626 135.636 135.495 135.505 135.438 135.386 135.39 135.344 135.311 135.266 135.247 135.252 135.211 135.113 135.127 135.107 135.099 135.056 135.056 134.996 134.975 134.927 134.959 134.953 134.923 134.873 134.884 134.844 134.842 134.765 134.788 134.773 134.708 134.727 134.719 134.749 134.747 134.749 134.796 134.853 134.848 134.875 134.876 134.883 134.895 134.938 134.938 134.901 134.93 134.931 134.918 134.943 134.961 134.999 135.07 135.108 135.16 135.216 135.276 135.339 135.418 135.463 135.501 135.547 135.605 135.67 135.749 135.828 135.879 135.93 135.962 136.025 136.104 136.127 136.174 136.225 136.295 136.337 136.334 136.364 136.398 136.412 136.44 136.449 136.478 136.479 136.536 136.562 137.891 137.633 136.825 137.048 137.994 138.718 138.781 139.114 139.319 139.397 138.992 138.137 137.248 136.847 137.006 138.871 138.974 138.463 137.503 136.515 136.442 136.39 136.288 136.286 136.288 136.283 136.279 136.248 136.279 136.285 136.22 136.217 136.187 136.222 136.211 136.208 136.188 136.413 151.037 152.506 153.882 154.409 154.348 153.739 152.762 152.497 152.064 137.566 136.8 138.394 142.882 141.88 139.86 142.111 138.073 138.295 136.978 138.636 139.52 141.218 141.594 140.963 137.481 136.701 136.71 136.725 136.743 136.754 136.706 136.582 137.079 137.706 136.917 137.482 142.858 143.632 144.356 144.036 143.143 138.652 136.98 136.946 136.963 136.931 138.436 141.074 143.762 147.865 143.358 137.401 137.49 137.509 138.88 140.768 143.414 144.678 143.562 140.903 137.744 137.518 137.632 137.74 137.841 137.866 137.965 138.153 140.403 139.136 138.069 138.167 138.151 139.576 140.037 138.996 138.566 138.917 138.827 140.845 143.209 144.161 152.059 152.544 144.139 139.971 139.398 139.839 139.306 139.361 141.18 147.63 150.678 153.391 153.693 155.679 155.065 153.892 152.211 146.603 144.213 144.591 142.394 142.847 145.711 144.878 143.541 141.574 142.169 141.006 140.389 140.006 140.077 143.27 146.616 146.234 144.503 139.911 140.313 141.046 139.19 139.176 139.13 139.259 139.314 139.379 139.741 145.055 145.962 143.932 139.569 139.477 141.36 142.043 141.046 141.221 142.887 142.939 142.941 139.4 143.076 145.203 145.015 142.154 138.948 139.034 139.055 139.033 139.096 139.656 140.954 142.924 143.803 141.78 140.611 139.819 138.996 139.15 142.224 138.933 138.758 138.707 138.646 138.555 138.484 138.417 138.255 138.158 138.093 138.116 138.115 138.039 138.024 138.025 138.005 138.013 137.931 137.916 138 138.087 140.215 142.016 142.947 138.114 137.97 137.445 137.393 137.337 137.275 137.2 137.098 -9999 -9999 -9999 -9999 -9999 -9999 -9999 -9999 -9999 -9999 -9999 -9999 -9999 -9999 -9999 -9999 -9999 -9999 -9999 -9999 -9999 -9999 -9999 -9999 -9999 -9999 -9999 -9999 -9999 -9999 -9999 -9999 -9999 -9999 -9999 -9999 -9999 -9999 -9999 -9999 -9999 -9999 -9999 -9999 -9999 -9999 -9999 -9999 -9999 -9999 -9999 -9999 -9999 -9999 -9999 -9999 -9999 -9999 -9999 -9999 -9999 -9999 -9999 -9999 -9999 -9999 -9999 -9999 -9999 -9999 -9999 -9999 -9999 -9999 -9999 -9999 -9999 -9999 -9999 -9999 -9999 -9999 -9999
139.29 137.909 137.717 137.588 137.714 139.926 138.041 137.381 137.419 137.396 137.286 137.25 137.063 136.944 142.064 144.471 145.297 144.638 138.52 137.722 137.142 137.741 136.683 137.731 137.912 140.3 138.702 139.142 138.302 136.313 135.922 136.156 136.139 137.252 138.806 136.019 135.784 135.777 136.199 137.196 135.643 135.541 135.519 135.471 135.434 135.42 135.351 135.313 135.289 135.243 135.247 135.178 135.168 135.14 135.079 135.078 135.095 135.044 135.014 134.992 134.981 134.935 134.931 134.928 134.871 134.83 134.807 134.81 134.803 134.785 134.758 134.734 134.71 134.739 134.692 134.73 134.705 134.75 134.759 134.807 134.851 134.809 134.839 134.834 134.87 134.926 134.941 134.892 134.878 134.897 134.895 134.919 134.94 134.987 135.04 135.057 135.138 135.199 135.238 135.342 135.402 135.447 135.5 135.531 135.609 135.66 135.767 135.83 135.874 135.91 135.955 136.023 136.105 136.178 136.204 136.227 136.316 136.354 136.343 136.369 136.408 136.431 136.429 136.457 136.461 136.471 136.509 136.568 137.932 138.427 136.871 136.597 136.877 136.818 136.831 136.827 138.074 138.698 138.735 138.762 138.922 139.214 138.883 138.418 138.691 137.014 137.925 138.379 136.947 136.613 136.41 136.343 136.287 136.292 136.294 136.274 136.298 136.302 136.273 136.221 136.238 136.268 136.236 136.216 136.21 136.558 148.739 151.359 153.623 153.474 153.799 152.625 152.443 151.202 151.031 141.234 136.564 137.35 138.126 137.567 142.292 139.505 137.228 137.227 138.365 137.74 137.733 137.58 137.191 137.813 136.69 136.679 136.685 136.717 136.624 136.535 136.592 136.598 137.295 138.015 137.114 137.196 143.167 143.311 143.743 143.903 142.945 139.863 136.99 136.899 136.927 136.924 139.994 141.869 147.311 147.311 148.651 141.98 140.539 139.713 139.693 140.238 139.814 144.028 142.959 137.893 137.465 137.529 137.72 137.798 137.859 138 140.15 138.178 138.041 137.973 138.02 138.134 138.77 140.401 139.721 139.652 138.472 138.506 138.529 138.591 141.793 143.74 152.749 153.295 142.072 147.645 139.902 139.379 140.228 139.43 139.342 148.341 151.04 153.66 154.024 155.621 155.506 155.362 152.477 142.122 141.529 145.729 144.048 142.038 143.557 143.396 143.498 141.026 140.295 142.648 142.719 142.1 139.888 141.183 145.705 145.819 144.049 139.408 139.468 139.257 139.104 139.121 139.077 139.209 139.406 139.28 139.401 145.128 145.477 142.822 139.44 140.002 143.458 143.44 143.121 141.896 142.425 142.575 141.923 139.703 143.438 145.51 144.915 139.625 138.961 139.009 139.023 139.027 139.058 139.073 140.687 143.856 145.07 145.175 144.874 145.286 143.791 139.178 139.867 139.083 138.723 138.683 138.625 138.557 138.476 138.426 138.302 138.13 138.019 138.068 138.055 138.045 138.031 138.022 137.979 137.951 137.971 137.964 138.264 141.36 145.031 144.438 146.085 140.042 137.519 137.651 137.534 139.085 138.262 137.531 137.252 -9999 -9999 -9999 -9999 -9999 -9999 -9999 -9999 -9999 -9999 -9999 -9999 -9999 -9999 -9999 -9999 -9999 -9999 -9999 -9999 -9999 -9999 -9999 -9999 -9999 -9999 -9999 -9999 -9999 -9999 -9999 -9999 -9999 -9999 -9999 -9999 -9999 -9999 -9999 -9999 -9999 -9999 -9999 -9999 -9999 -9999 -9999 -9999 -9999 -9999 -9999 -9999 -9999 -9999 -9999 -9999 -9999 -9999 -9999 -9999 -9999 -9999 -9999 -9999 -9999 -9999 -9999 -9999 -9999 -9999 -9999 -9999 -9999 -9999 -9999 -9999 -9999 -9999 -9999 -9999 -9999 -9999 -9999
140.149 138.351 137.671 137.602 140.692 141.948 141.262 140.007 137.553 137.421 137.28 137.226 137.087 137.013 138.59 144.063 143.795 141.138 138.126 138.578 139.693 138.013 138.565 138.38 142.563 142.952 142.905 140.842 139.377 136.467 136.018 135.968 135.889 135.929 136.023 135.895 136.596 136.249 135.944 136.283 135.66 135.512 135.534 135.472 135.483 135.42 135.394 135.319 135.278 135.233 135.257 135.18 135.169 135.109 135.073 135.089 135.051 135.069 135.017 134.996 134.993 134.95 134.925 134.892 134.853 134.789 134.787 134.736 134.721 134.725 134.698 134.654 134.677 134.671 134.659 134.686 134.708 134.694 134.694 134.731 134.741 134.782 134.771 134.801 134.824 134.846 134.854 134.816 134.808 134.817 134.872 134.881 134.858 134.932 135.008 135.03 135.108 135.163 135.242 135.289 135.343 135.431 135.479 135.542 135.57 135.66 135.766 135.793 135.857 135.909 135.937 136.046 136.075 136.131 136.203 136.243 136.29 136.331 136.365 136.36 136.408 136.396 136.415 136.442 136.445 136.489 136.51 136.556 136.713 137.01 136.562 136.717 136.872 136.851 136.818 136.77 136.797 137.619 137.479 136.796 136.794 137.014 137.16 138.661 137.242 138.984 139.239 139.123 138.911 138.267 138.324 136.55 137.769 136.406 136.297 136.37 136.293 136.273 136.307 136.281 136.296 136.292 136.285 136.301 136.259 136.255 144.375 151.711 152.849 153.191 153.065 152.871 152.002 145.663 141.938 136.432 136.44 136.517 136.484 136.54 136.503 136.597 138.487 139.214 137.534 138.085 138.578 137.609 138.34 137.222 136.805 136.672 136.745 136.769 136.626 136.551 136.538 136.565 137.554 138.206 137.388 138.496 138.58 138.944 137.444 142.261 142.231 139.601 137.012 136.971 136.947 139.343 141.206 143.498 148.326 150.401 150.308 146.733 139.938 140.474 140.568 140.469 137.425 137.388 137.445 137.638 140.252 140.774 139.559 137.805 137.862 139.738 141.439 140.737 137.926 138.001 137.992 138.081 138.68 140.406 139.509 138.562 138.33 138.336 138.405 138.523 141.533 149.903 155.423 155.952 154.643 149.423 139.793 141.581 141.46 141.456 140.185 147.727 152.8 154.942 155.882 155.861 155.296 154.43 150.327 143.739 142.819 142.031 145.785 141.518 142.587 142.58 143.214 140.767 140.474 142.441 142.043 142.244 139.604 140.75 144.869 146.444 145.411 140.871 140.296 139.094 139.047 139.07 139.072 139.343 140.188 139.097 139.704 145.597 145.061 142.579 139.745 141.092 143.033 143.172 143.307 141.632 140.196 140.833 139.217 139.804 144.416 146.018 145.068 140.044 138.973 138.976 138.957 138.96 139.421 139.184 140.729 143.491 145.957 145.767 146.107 145.836 146.652 140.523 139.723 138.686 138.67 138.673 138.603 138.507 138.441 138.377 138.23 138.113 138.044 138.017 138.04 138.053 138.058 137.981 137.977 138.04 138.217 138.85 138.134 140.899 141.766 148.138 147.439 142.507 137.319 139.746 139.557 143.24 143.491 142.396 -9999 -9999 -9999 -9999 -9999 -9999 -9999 -9999 -9999 -9999 -9999 -9999 -9999 -9999 -9999 -9999 -9999 -9999 -9999 -9999 -9999 -9999 -9999 -9999 -9999 -9999 -9999 -9999 -9999 -9999 -9999 -9999 -9999 -9999 -9999 -9999 -9999 -9999 -9999 -9999 -9999 -9999 -9999 -9999 -9999 -9999 -9999 -9999 -9999 -9999 -9999 -9999 -9999 -9999 -9999 -9999 -9999 -9999 -9999 -9999 -9999 -9999 -9999 -9999 -9999 -9999 -9999 -9999 -9999 -9999 -9999 -9999 -9999 -9999 -9999 -9999 -9999 -9999 -9999 -9999 -9999 -9999 -9999 -9999
142.627 137.981 137.83 137.504 137.88 139.658 140.636 137.546 137.349 137.29 137.254 137.112 137.034 136.982 136.975 138.008 138.928 138.516 137.228 137.707 137.278 136.894 137.219 141.153 142.74 144.358 143.454 141.488 138.687 136.489 136.04 136.007 135.97 135.929 135.912 136.047 137.073 136.077 135.672 137.539 137.45 138.245 135.563 135.428 135.41 135.375 135.363 135.321 135.224 135.2 135.181 135.149 135.104 135.105 134.986 135.023 135.032 135.031 135.021 135 134.949 134.927 134.875 134.862 134.808 134.783 134.759 134.718 134.691 134.704 134.706 134.686 134.676 134.669 134.688 134.659 134.697 134.714 134.711 134.722 134.773 134.814 134.827 134.826 134.846 134.871 134.871 134.84 134.835 134.833 134.829 134.845 134.894 134.917 134.997 135.084 135.112 135.217 135.282 135.332 135.395 135.447 135.5 135.55 135.575 135.652 135.74 135.843 135.87 135.927 135.985 136.047 136.091 136.183 136.227 136.246 136.344 136.353 136.404 136.411 136.43 136.43 136.456 136.477 136.489 136.501 136.511 136.55 138.274 137.895 140.957 137.742 137.574 139.368 137.231 136.705 136.673 137.693 137.171 136.735 137.018 136.842 136.668 136.701 136.727 136.834 137.703 138.119 137.893 138.386 138.827 139.054 139.004 137.02 138.311 137.582 136.835 136.571 136.699 136.392 136.367 136.362 136.363 136.348 136.33 136.269 138.23 149.08 151.314 153.08 153.526 152.603 151.263 140.149 136.409 136.443 136.469 136.689 136.528 136.505 136.522 136.545 137.125 139.715 141.095 144.544 144.846 143.707 141.619 136.787 137.309 137.497 139.507 139.826 136.767 136.501 136.499 136.53 136.73 137.383 137.063 138.879 138.246 138.047 137.043 136.996 139.02 137.347 137.735 137.206 138.728 137.182 142.142 142.916 149.764 150.371 150.356 148.704 139.591 137.352 138.187 140.823 138.218 137.538 137.382 137.637 142.227 143.525 140.764 137.81 137.847 138.389 140.429 138.366 137.88 137.9 137.963 138.85 139.073 138.388 140.002 138.815 138.396 138.275 138.305 138.633 144.313 145.985 152.647 155.918 153.411 150.833 142.636 142.345 142.158 142.714 141.951 148.315 152.257 154.5 155.133 155.123 153.715 152.342 147.643 144.74 142.545 143.5 145.027 142.217 141.269 141.391 141.356 141.336 139.712 140.511 142.224 140.444 139.605 139.665 143.382 146.683 145.862 143.667 140.243 139.061 139.001 139.047 139.066 139.195 139.904 142.469 145.641 146.55 145.342 142.301 140.263 139.695 141.766 141.769 141.627 142.029 139.126 138.941 138.947 140.371 145.033 145.982 145.113 141.945 139.465 138.907 138.922 138.927 141.957 142.903 140.21 141.128 144.162 144.202 144.791 144.797 144.277 139.28 139.498 138.688 138.706 138.639 138.594 138.495 138.396 138.323 138.249 138.102 138.013 138.015 138.055 138.01 137.99 137.952 138.1 138.327 138.762 138.052 138.117 142.783 144.108 140.616 143.194 137.359 137.118 140.113 142.53 143.385 143.589 142.788 142.779 -9999 -9999 -9999 -9999 -9999 -9999 -9999 -9999 -9999 -9999 -9999 -9999 -9999 -9999 -9999 -9999 -9999 -9999 -9999 -9999 -9999 -9999 -9999 -9999 -9999 -9999 -9999 -9999 -9999 -9999 -9999 -9999 -9999 -9999 -9999 -9999 -9999 -9999 -9999 -9999 -9999 -9999 -9999 -9999 -9999 -9999 -9999 -9999 -9999 -9999 -9999 -9999 -9999 -9999 -9999 -9999 -9999 -9999 -9999 -9999 -9999 -9999 -9999 -9999 -9999 -9999 -9999 -9999 -9999 -9999 -9999 -9999 -9999 -9999 -9999 -9999 -9999 -9999 -9999 -9999 -9999 -9999 -9999
138.325 137.674 137.652 137.498 137.689 138.377 139.034 137.31 137.352 137.257 137.137 137.055 137.017 136.953 136.941 136.911 138.179 137.874 136.588 137.209 137.249 136.462 136.619 141.024 143.237 145.257 144.236 142.26 138.541 136.554 136.153 135.95 135.923 135.908 135.864 135.819 135.996 135.678 135.655 137.56 140.365 138.405 136.064 135.383 135.389 135.353 135.304 135.247 135.198 135.168 135.121 135.071 135.014 135.022 134.947 134.923 134.926 134.955 134.966 134.996 135.01 134.925 134.865 134.808 134.795 134.742 134.727 134.671 134.655 134.648 134.683 134.684 134.659 134.659 134.663 134.668 134.673 134.692 134.738 134.741 134.782 134.828 134.812 134.772 134.839 134.843 134.828 134.862 134.822 134.848 134.845 134.864 134.898 134.937 135.022 135.035 135.116 135.177 135.234 135.348 135.388 135.456 135.521 135.556 135.593 135.681 135.792 135.845 135.898 135.942 136.006 136.063 136.137 136.165 136.249 136.284 136.328 136.437 136.426 136.437 136.451 136.495 136.494 136.479 136.495 136.512 136.537 136.783 138.616 138.719 142.662 142.632 142.429 142.343 139.101 138.448 138.707 138.36 136.968 137.132 136.966 137.017 136.576 136.538 136.573 136.777 136.663 137.102 136.529 136.56 136.56 137.042 138.716 139.095 139.074 137.461 137.186 137.963 138.061 138.052 137.652 136.806 136.634 136.534 136.607 136.613 136.53 137.237 147.135 149.978 151.003 146.934 141.338 138.846 136.427 136.48 136.487 136.516 136.532 136.57 136.583 138.396 139.694 139.901 141.777 143.934 144.79 143.684 141.607 137.087 136.574 136.586 137.391 136.669 136.532 136.489 136.469 136.544 136.661 136.951 136.782 139.544 142.656 142.521 142.034 141.083 140.635 138.907 138.872 137.605 139.616 144.193 145.813 143.804 149.532 150.553 151.462 150.321 140.623 137.201 137.361 141.328 144.27 142.784 138.473 137.423 138.203 139.624 138.25 137.966 137.915 137.845 138.07 137.831 137.776 137.841 137.954 138.548 140.054 138.725 141.778 143.387 143.141 142.413 138.672 138.338 140.64 144.336 154.533 154.445 144.86 140.53 139.967 139.141 139.447 139.905 140.409 141.202 143.593 144.913 150.614 150.192 151.239 143.24 139.465 139.815 140.869 141.87 139.51 140.09 140.067 139.624 139.755 139.505 140.958 141.207 141.63 139.387 140.152 142.133 144.749 146.652 145.949 143.575 140.248 139.03 138.959 138.97 138.995 139.134 139.721 143.765 145.926 146.314 145.2 141.825 140.495 139.445 139.365 139.339 139.96 140.593 139.024 138.952 141.164 142.373 145.197 145.977 144.774 141.917 138.959 138.901 138.914 138.916 142.058 143.361 142.209 140.608 139.107 141.38 141.35 141.096 139.445 139.871 139.341 138.607 138.661 138.637 138.574 138.461 138.341 138.273 138.201 138.011 138 138.033 138.117 138.348 137.994 138.137 138.283 138.408 138.412 138.438 138.783 141.338 142.938 141.126 137.996 137.286 138.712 138.232 142.476 143.368 143.518 142.755 142.776 -9999 -9999 -9999 -9999 -9999 -9999 -9999 -9999 -9999 -9999 -9999 -9999 -9999 -9999 -9999 -9999 -9999 -9999 -9999 -9999 -9999 -9999 -9999 -9999 -9999 -9999 -9999 -9999 -9999 -9999 -9999 -9999 -9999 -9999 -9999 -9999 -9999 -9999 -9999 -9999 -9999 -9999 -9999 -9999 -9999 -9999 -9999 -9999 -9999 -9999 -9999 -9999 -9999 -9999 -9999 -9999 -9999 -9999 -9999 -9999 -9999 -9999 -9999 -9999 -9999 -9999 -9999 -9999 -9999 -9999 -9999 -9999 -9999 -9999 -9999 -9999 -9999 -9999 -9999 -9999 -9999 -9999 -9999
139.095 138.479 137.726 138.865 139.684 140.1 140.968 139.404 137.357 137.194 137.053 137.021 136.951 136.902 136.873 136.806 136.812 136.887 139.141 140.392 140.48 136.649 136.444 140.211 143.038 144.192 144.456 142.509 139.717 136.559 136.155 135.908 135.924 135.863 135.831 135.885 136.512 135.707 135.577 136.25 139.818 138.827 135.505 135.381 135.371 135.336 135.302 135.214 135.182 135.135 135.084 135.033 134.987 134.973 134.947 134.928 134.985 134.963 134.997 134.961 134.914 134.89 134.816 134.766 134.715 134.675 134.668 134.635 134.644 134.608 134.626 134.622 134.593 134.593 134.576 134.608 134.623 134.665 134.71 134.684 134.731 134.748 134.762 134.75 134.785 134.804 134.809 134.798 134.78 134.799 134.805 134.839 134.859 134.9 134.96 135.017 135.059 135.165 135.198 135.291 135.349 135.435 135.509 135.551 135.594 135.654 135.739 135.851 135.911 135.963 135.989 136.052 136.093 136.176 136.24 136.286 136.306 136.338 136.369 136.403 136.4 136.425 136.442 136.449 136.45 136.464 136.499 137.455 138.859 141.54 143.376 143.271 143.305 143.153 138.307 138.288 139.014 138.066 139.254 141.888 141.266 140.677 137.815 136.674 136.952 138.087 137.945 136.821 136.51 136.512 136.522 136.415 138.656 139.122 139.098 137.286 136.529 136.572 136.536 136.696 136.533 136.817 137.832 137.657 138.264 137.835 137.582 139.852 138.162 139.959 141.644 138.557 136.449 136.466 136.462 136.464 136.477 136.531 136.534 136.562 136.555 137.224 139.541 139.961 143.562 144.611 144.381 143.412 138.76 136.799 136.608 136.586 136.58 136.552 136.453 136.472 136.43 136.577 136.652 136.666 136.721 141.282 143.118 143.964 144.014 143.371 142.033 137.746 137.042 136.899 139.466 141.345 144.711 144.966 150.063 150.401 151.845 149.25 138.662 137.296 137.355 141.846 144.279 143.642 138.372 137.453 137.626 137.756 137.791 137.886 139.857 137.859 137.765 137.727 137.773 137.774 138.185 139.228 139.418 140.39 142.434 144.943 145.055 144.551 143.907 142.271 140.089 141.82 146.584 152.405 142.299 138.756 139.173 139.594 138.869 139.035 139.199 139.126 138.942 145.025 145.817 144.886 142.09 139.374 139.3 139.266 140.074 139.931 139.495 139.128 139.015 139.014 138.993 139.02 139.041 139.313 141.35 139.382 139.891 142.352 144.781 146.729 145.869 143.203 139.671 139.405 138.953 138.892 139.006 139.103 139.318 142.571 145.856 146.252 145 141.867 140.171 139.487 139.423 139.354 140.61 140.843 139.021 138.92 139.396 139.834 144.954 146.036 144.813 140.62 139.611 138.891 138.899 138.87 138.919 138.997 139.527 141.133 139.228 140.536 140.35 139.081 140.144 139.621 139.439 138.581 138.646 138.635 138.543 138.376 138.26 138.144 138.074 138.023 138.037 138.016 137.942 139.633 138.205 138.446 138.487 138.206 137.938 138.577 141.969 139.232 139.063 137.485 138.105 137.037 137.018 137.614 142.037 143.431 143.419 143.051 -9999 -9999 -9999 -9999 -9999 -9999 -9999 -9999 -9999 -9999 -9999 -9999 -9999 -9999 -9999 -9999 -9999 -9999 -9999 -9999 -9999 -9999 -9999 -9999 -9999 -9999 -9999 -9999 -9999 -9999 -9999 -9999 -9999 -9999 -9999 -9999 -9999 -9999 -9999 -9999 -9999 -9999 -9999 -9999 -9999 -9999 -9999 -9999 -9999 -9999 -9999 -9999 -9999 -9999 -9999 -9999 -9999 -9999 -9999 -9999 -9999 -9999 -9999 -9999 -9999 -9999 -9999 -9999 -9999 -9999 -9999 -9999 -9999 -9999 -9999 -9999 -9999 -9999 -9999 -9999 -9999 -9999 -9999 -9999
137.934 137.885 137.492 137.449 137.589 138.806 140.671 138.613 137.137 137.101 137.052 136.964 136.88 136.852 136.843 136.757 137.213 138.408 139.733 141.112 141.053 137.524 136.408 139.287 142.374 143.863 144.714 142.734 139.631 138.272 136.576 135.954 135.896 135.999 135.81 136.374 136.317 136.016 137.919 135.805 137.504 135.669 135.413 135.365 135.35 135.318 135.233 135.176 135.119 135.087 135.057 135.02 134.973 134.949 134.906 134.866 134.923 134.907 134.895 134.936 134.811 134.819 134.755 134.686 134.631 134.597 134.632 134.592 134.591 134.569 134.562 134.557 134.585 134.564 134.563 134.555 134.587 134.588 134.62 134.666 134.711 134.72 134.74 134.742 134.726 134.759 134.775 134.772 134.751 134.777 134.77 134.817 134.819 134.892 134.932 134.994 135.046 135.134 135.193 135.278 135.325 135.421 135.484 135.563 135.565 135.645 135.745 135.851 135.886 135.951 135.979 136.013 136.082 136.153 136.229 136.26 136.312 136.307 136.355 136.382 136.403 136.418 136.432 136.397 136.43 136.445 136.466 136.938 138.762 140.754 142.634 142.691 142.853 142.714 136.897 139.008 139.032 138.21 141.051 142.836 142.702 142.404 142.137 137.144 138.836 138.771 137.723 137.568 140.123 136.899 136.678 138.237 138.862 139.156 137.672 136.793 136.475 136.469 136.495 136.47 136.443 137.985 138.757 138.18 138.351 137.399 136.957 141.056 141.334 141.45 139.648 137.495 136.475 136.511 136.498 136.512 136.505 136.556 136.556 136.571 136.597 136.57 138.061 139.917 143.549 144.273 144.7 142.84 140.543 137.121 136.85 136.568 136.66 136.561 136.394 136.416 136.369 136.91 136.735 137.605 136.984 141.546 143.502 144.017 143.395 142.973 140.745 137.753 136.891 136.845 136.841 137.524 142.284 146.43 150.649 148.947 146.927 143.098 137.141 137.327 140.224 143.474 144.438 143.293 138.964 137.513 137.668 137.761 137.685 137.751 138.538 137.762 137.644 137.669 137.705 137.778 138.333 138.332 139.052 140.292 141.372 145.098 145.318 145.598 145.492 144.606 141.979 141.748 142.291 138.765 138.556 138.449 138.929 140.421 138.776 138.856 139.165 138.771 138.815 139.817 140.479 139.656 139.568 139.094 139.128 139.082 139.13 139.241 139.044 139.455 138.995 142.058 143.698 139.253 138.836 139.242 141.274 140.733 140.011 140.17 145.054 146.77 145.795 142.536 139.287 138.961 138.85 138.84 139.054 139.189 139.164 142.6 145.818 146.339 144.982 140.89 140.186 139.412 139.547 139.455 140.353 140.097 139.089 138.948 139.645 140.982 144.92 145.692 144.828 139.501 139.019 138.833 138.839 138.818 138.841 138.862 139.617 140.943 139.033 138.861 138.778 139.715 141.427 140.654 139.637 138.529 138.617 138.622 138.421 138.275 138.161 138.068 137.98 137.988 138.008 138 138.022 138.195 138.423 138.574 138.314 137.977 137.706 137.696 137.826 137.566 140.321 138.364 138.09 137.406 136.987 137.83 142.189 143.376 143.519 143.252 -9999 -9999 -9999 -9999 -9999 -9999 -9999 -9999 -9999 -9999 -9999 -9999 -9999 -9999 -9999 -9999 -9999 -9999 -9999 -9999 -9999 -9999 -9999 -9999 -9999 -9999 -9999 -9999 -9999 -9999 -9999 -9999 -9999 -9999 -9999 -9999 -9999 -9999 -9999 -9999 -9999 -9999 -9999 -9999 -9999 -9999 -9999 -9999 -9999 -9999 -9999 -9999 -9999 -9999 -9999 -9999 -9999 -9999 -9999 -9999 -9999 -9999 -9999 -9999 -9999 -9999 -9999 -9999 -9999 -9999 -9999 -9999 -9999 -9999 -9999 -9999 -9999 -9999 -9999 -9999 -9999 -9999 -9999 -9999
143.359 138.318 137.826 137.38 137.463 137.666 142.241 139.582 137.108 137.122 137.135 137.057 136.989 136.833 136.803 136.743 136.945 138.608 138.548 140.234 140.146 136.557 136.4 138.491 141.858 143.466 144.717 143.089 139.404 139.311 137.128 136.202 137.237 137.752 138.338 137.433 138.206 138.393 139.15 138.535 137.51 135.993 135.348 135.327 135.304 135.267 135.182 135.112 135.037 135.035 135.003 134.956 134.899 134.856 134.861 134.795 134.792 134.784 134.791 134.824 134.764 134.731 134.694 134.643 134.604 134.518 134.532 134.555 134.525 134.485 134.515 134.533 134.523 134.517 134.526 134.534 134.556 134.553 134.6 134.658 134.674 134.649 134.658 134.684 134.719 134.732 134.722 134.741 134.749 134.731 134.75 134.783 134.809 134.882 134.936 134.981 135.074 135.141 135.206 135.3 135.37 135.435 135.496 135.557 135.606 135.664 135.762 135.826 135.881 135.934 135.99 136.029 136.094 136.145 136.204 136.232 136.265 136.297 136.34 136.346 136.389 136.397 136.367 136.375 136.365 136.418 136.449 138.278 138.716 137.455 140.479 141.503 141.997 141.734 137.171 137.389 138.903 139.025 142.238 142.675 142.979 142.996 139.237 138.596 138.848 138.546 136.552 142.08 142.348 142.181 142.112 140.403 139.15 139.165 138.416 136.583 136.509 136.345 136.413 136.406 136.424 138.031 138.823 138.801 138.791 136.367 136.929 139.21 140.635 140.957 138.253 137.735 136.753 136.705 136.563 136.551 136.519 136.466 136.612 136.599 136.62 136.58 138.405 139.603 143.951 144.654 144.002 142.719 140.86 137.837 137.216 136.765 136.954 136.824 136.332 136.371 136.415 136.625 136.706 137.429 137.227 141.672 143.505 143.804 142.555 142.365 140.336 137.985 136.877 136.83 136.814 136.809 141.741 145.327 149.589 150.267 148.244 140.686 137.759 137.946 141.391 143.896 144.146 142.531 138.498 137.582 137.733 137.737 137.625 137.621 137.648 137.618 137.674 137.713 137.708 137.698 137.98 138.01 138.146 139.083 139.543 143.603 143.988 144.471 144.996 140.976 142.408 144.552 144.895 144.48 143.079 142.306 139.262 140.645 139.214 139.185 138.624 138.678 138.638 139.519 138.889 138.893 138.963 138.941 139.127 138.939 139.15 140.016 139.307 138.887 138.914 143.091 145.428 144.396 141.739 141.523 140.222 141.469 140.554 139.59 142.82 146.149 143.293 139.989 139.394 138.984 138.811 138.811 139.165 140.581 141.098 141.026 145.864 146.315 144.62 141.947 141.451 141.628 141.217 139.484 139.184 139.58 139.776 138.855 139.123 139.389 143.507 145.736 144.731 139.55 138.846 138.818 138.799 138.777 138.794 138.858 139.581 141.027 139.402 138.766 138.732 138.687 138.792 140.109 139.749 138.502 138.552 138.496 138.365 138.203 138.11 137.988 137.993 137.958 137.969 138.001 138.204 138.533 138.632 138.234 137.956 137.733 137.568 137.529 137.486 137.401 137.419 137.474 137.571 138.047 137.374 138.411 141.972 143.38 143.675 -9999 -9999 -9999 -9999 -9999 -9999 -9999 -9999 -9999 -9999 -9999 -9999 -9999 -9999 -9999 -9999 -9999 -9999 -9999 -9999 -9999 -9999 -9999 -9999 -9999 -9999 -9999 -9999 -9999 -9999 -9999 -9999 -9999 -9999 -9999 -9999 -9999 -9999 -9999 -9999 -9999 -9999 -9999 -9999 -9999 -9999 -9999 -9999 -9999 -9999 -9999 -9999 -9999 -9999 -9999 -9999 -9999 -9999 -9999 -9999 -9999 -9999 -9999 -9999 -9999 -9999 -9999 -9999 -9999 -9999 -9999 -9999 -9999 -9999 -9999 -9999 -9999 -9999 -9999 -9999 -9999 -9999 -9999 -9999 -9999
