ncols 427
nrows 31
xllcorner    427122
yllcorner    436820
cellsize     2
NODATA_value -9999
103.822 105.743 107.253 108.408 114.561 114.84 108.166 111.561 114.136 104.459 111.79 112.618 106.233 110.251 103.01 102.581 102.812 103.54 103.47 103.052 103.03 103.472 102.903 102.869 104.92 102.853 105.803 103.108 102.97 103.012 102.642 102.724 102.359 101.714 101.608 101.469 101.37 102.166 107.915 104.658 105.828 106.51 104.166 111.522 105.312 103.279 106.911 104.693 103.849 105.024 102.704 100.544 99.776 99.852 100.612 99.896 101.764 104.098 101.397 102.657 101.896 102.403 102.54 103.997 111.213 103.204 113.871 105.946 99.01 98.253 99.61 102.819 99.867 98.041 97.197 96.859 96.972 96.673 96.351 96.258 96.235 95.946 95.882 95.755 97.316 99.26 97.708 97.353 96.787 95.227 94.744 94.653 94.488 94.297 94.231 94.022 94.176 93.845 93.635 93.746 93.809 95.177 97.63 100.797 104.412 107.543 109.524 110.02 105.79 100.911 97.103 94.848 92.885 92.798 92.57 92.044 91.816 92.848 96.396 98.604 98.662 97.766 94.594 91.557 90.682 90.579 90.557 90.468 90.402 90.49 90.406 90.329 89.982 89.107 88.841 88.67 88.722 88.515 88.301 88.04 87.894 87.895 87.836 87.732 87.651 87.483 87.391 87.346 87.202 87.19 87.094 87.057 87.042 87.023 86.976 86.915 86.881 86.848 86.821 86.833 86.829 86.786 86.721 86.712 86.769 86.701 86.707 86.763 86.711 86.703 86.632 86.568 86.42 86.163 86.146 86.137 86.105 86.093 86.135 86.06 86.086 86.048 86.077 86.201 86.264 87.638 88.6 88.505 88.637 90.768 87.702 86.712 87.311 90.993 93.759 96.663 91.921 88.953 85.319 85.065 85.272 85.962 85.588 85.675 86.479 86.754 87.165 86.337 85.57 85.755 85.044 84.898 85.004 85.145 85.164 85.094 84.999 84.644 84.693 84.578 84.689 84.862 84.725 84.662 84.684 84.788 84.851 84.789 84.739 84.733 84.919 85.46 87.367 89.782 93.388 91.875 89.374 -9999 91.502 93.483 91.917 87.722 85.141 85.048 85.834 87.639 88.371 88.546 89.793 90.582 90.292 90.334 90.076 87.55 87.944 88.327 87.232 87.884 87.485 88.813 90.353 90.954 91.43 90.289 88.488 86.3 87.303 90.067 90.352 89.742 88.976 86.052 86.299 84.795 85.715 90.118 89.949 85.881 86.007 85.176 83.704 83.052 83.174 83.573 83.156 82.771 83.759 83.456 82.536 82.501 83.569 86.129 87.366 87.871 87.994 88.566 82.826 85.039 83.884 84.769 84.606 87.334 86.084 85.171 83.374 82.524 82.421 88.101 88.819 86.799 82.494 82.529 84.464 84.084 83.714 83.606 83.711 83.639 83.844 84.516 83.649 83.604 83.614 84.074 87.991 84.406 84.339 84.266 84.244 84.414 84.986 84.781 84.524 84.501 84.379 84.729 86.211 85.639 84.201 84.004 84.019 84.169 84.274 84.356 84.401 84.466 84.566 85.861 87.214 84.966 84.889 84.776 84.771 84.781 84.751 84.726 84.714 84.689 84.639 84.624 84.584 84.531 84.474 84.414 84.469 84.399 84.561 84.426 84.531 84.606 85.801 88.979 90.929 88.401 84.759 84.844 84.751 85.669 84.671 84.754 84.806 84.906 85.056 85.106 85.239 85.374 89.429 91.439 92.096 92.026 87.901 85.894 85.269 85.259 85.299 86.956 90.081 86.894 84.944 91.559 92.989 93.374 89.584 85.214 85.259 85.271 85.251 85.579 85.379 85.186 85.269 85.306 85.271 85.399 85.566 85.609 85.554 85.611 91.729 93.221 94.006 93.849 88.169 85.761 85.781 86.526 85.334
104.278 112.961 113.458 110.366 109.656 108.332 112.859 110.731 114.831 105.941 105.954 116.341 110.43 110.039 104.338 102.57 102.724 102.648 102.634 102.511 102.572 103.368 104.163 103.007 102.305 102.495 102.83 102.811 103.12 104.199 103.873 104.063 104.276 102.203 101.415 101.381 101.301 102.353 107.142 104.325 102.166 103.293 105.69 106.64 100.814 100.891 101.709 102.473 100.887 102.682 102.185 100.092 99.955 99.956 99.737 99.755 99.529 99.606 101.795 103.551 104.889 104.069 106.655 114.254 116.551 115.921 111.79 99.523 100.647 99.443 100.688 101.173 99.793 97.194 97.01 96.851 96.685 96.53 96.486 96.473 96.395 96.013 95.833 95.729 95.6 96.697 95.861 95.186 95.122 94.806 94.699 94.511 94.396 94.173 94.167 94.035 94.326 93.846 93.692 93.715 93.742 93.745 94.457 97.157 100.689 106.649 108.826 109.591 107.377 99.604 94.547 92.766 92.578 92.416 92.175 91.877 91.788 93.987 97.061 96.882 95.915 96.615 94.617 90.873 90.51 90.449 90.503 90.418 90.371 90.35 90.382 90.604 90.773 89.697 88.732 88.718 88.565 88.492 88.255 88.067 88.032 87.996 87.883 87.782 87.668 87.612 87.489 87.406 87.292 87.241 87.188 87.102 87.092 87.064 86.945 86.952 86.969 86.865 86.832 86.788 86.808 86.774 86.685 86.618 86.641 86.615 86.607 86.668 86.645 86.605 86.559 86.52 86.491 86.33 86.238 86.113 86.156 86.175 86.146 86.11 86.129 86.059 86.087 86.069 86.391 87.983 88.535 88.544 89.056 94.927 90.562 88.015 87.02 89.77 94.324 92.53 90.349 88.716 86.464 86.357 86.647 86.702 86.828 86.613 87.067 87.299 87.104 86.408 85.062 85.01 84.983 84.858 85.023 85.132 85.087 85.046 84.805 84.689 84.606 84.608 84.606 84.686 84.637 84.589 84.665 84.737 84.787 84.9 84.994 85.127 86.532 -9999 -9999 89.538 91.853 90.395 87.787 86.499 87.946 88.334 87.497 85.854 85.217 85.327 87.567 88.789 90.394 89.906 88.596 88.334 88.351 87.242 86.318 85.297 85.208 85.134 86.106 89.041 89.627 91.108 91.716 91.257 91.212 90.401 88.297 86.112 84.845 88.217 86.829 84.874 85.224 84.108 84.345 84.042 84.604 89.336 89.094 84.867 83.213 83.392 83.004 82.87 82.954 82.601 82.996 82.589 82.546 82.519 82.459 82.421 86.119 89.369 89.451 89.544 89.644 89.724 82.696 86.239 86.561 87.649 88.244 88.624 88.699 88.766 88.606 84.994 82.341 87.034 88.169 86.629 83.279 82.576 85.369 85.406 83.884 83.641 83.561 83.604 83.611 84.236 83.501 83.429 83.434 84.106 86.324 84.546 84.541 84.246 84.211 84.534 84.604 84.424 84.621 85.611 86.216 85.294 84.091 83.609 83.684 83.831 83.999 84.099 84.171 84.184 84.221 84.391 85.844 89.881 85.499 85.364 84.771 85.114 84.811 84.706 84.689 84.676 84.649 84.636 84.624 84.586 84.546 84.519 84.489 84.449 84.379 84.296 84.266 84.274 84.589 84.489 85.044 84.654 84.801 84.564 85.209 84.644 84.954 84.689 84.559 84.624 84.654 84.844 85.646 85.514 84.764 84.634 85.084 85.571 88.849 91.256 85.211 85.201 85.166 85.294 85.486 88.566 87.631 84.936 85.309 92.214 93.739 93.134 92.711 91.744 88.491 85.271 85.216 85.224 85.129 85.039 85.156 85.166 85.144 85.299 85.456 85.539 90.799 91.576 92.419 93.926 93.034 91.551 85.979 85.746 85.721 86.276 84.984
105.05 109.53 119.288 108.912 112.475 109.066 109.61 113.903 107.318 109.088 113.235 107.528 106.507 104.616 102.533 102.535 102.419 102.374 102.48 102.751 102.91 109.937 109.609 105.634 102.163 102.227 102.014 102.336 102.678 103.617 103.431 104.007 104.525 103.556 101.831 101.364 102.664 104.024 104.389 102.769 101.715 101.476 101.974 104.545 102.761 102.258 100.947 101.095 100.85 103.783 100.271 100.197 99.98 99.896 99.734 99.641 99.506 100.448 103.29 103.846 104.084 105.935 106.156 115.073 118.2 118.146 116.017 108.355 105.684 107.023 104.579 102.101 97.619 97.291 97.059 96.803 96.66 96.611 96.638 96.267 96.222 96.049 95.905 95.705 95.466 95.352 95.285 95.146 94.813 94.831 94.692 94.519 94.416 94.33 94.149 93.979 93.872 93.679 93.694 93.74 93.813 93.675 93.975 95.514 99.38 104.406 103.429 107.531 105.678 96.413 92.577 92.351 92.303 92.182 92.036 92.044 92.166 92.777 92.399 92.544 94.658 94.465 92.238 90.448 90.428 90.641 90.636 90.421 90.421 90.451 90.437 91.093 91.911 89.9 88.978 88.668 88.542 88.491 88.346 88.14 88.089 87.972 87.855 87.74 87.727 87.609 87.545 87.475 87.39 87.276 87.134 87.109 87.101 87.076 87.012 87.011 86.901 86.843 86.859 86.783 86.644 86.708 86.693 86.548 86.51 86.571 86.622 86.569 86.516 86.511 86.528 86.511 86.479 86.416 86.263 86.124 86.131 86.154 86.169 86.117 86.087 86.021 86.125 86.142 86.653 87.76 87.751 87.562 88.01 92.1 93.06 89.646 88.179 87.698 91.967 88.89 88.398 89.095 88.641 87.743 87.042 86.466 86.681 85.585 85.47 85.499 84.998 84.945 84.808 84.71 85.084 84.982 85.004 85.093 84.989 84.88 84.821 84.792 84.793 84.685 84.714 84.684 84.624 84.602 84.657 84.705 84.735 85.203 86.042 87.513 90.008 89.358 86.696 86.728 87.295 86.729 86.02 85.467 85.508 85.535 85.344 85.066 85.313 85.012 86.164 86.742 87.402 86.047 85.241 85.103 84.919 84.751 84.767 84.945 84.562 84.773 85.85 88.932 89.37 90.339 90.554 89.691 89.053 87.926 86.378 86.038 85.151 86.151 84.336 84.204 84.256 84.063 84.221 84.056 84.197 86.49 86.136 85.352 83.081 82.964 82.982 82.729 82.651 82.688 82.812 82.516 83.331 84.516 85.694 83.924 87.884 90.514 90.614 90.699 90.779 90.871 82.606 88.259 89.486 90.191 89.646 90.074 89.776 90.241 89.956 88.304 82.239 85.849 88.081 86.889 83.851 82.759 84.629 84.041 83.351 83.379 83.456 83.639 83.264 83.481 83.324 83.249 83.289 84.414 88.224 84.834 84.764 84.176 84.109 84.171 85.016 84.544 85.474 84.544 83.406 83.384 83.466 83.581 83.706 83.831 83.904 83.926 83.956 84.119 84.251 84.406 85.606 84.796 84.684 84.679 84.634 84.664 84.701 85.164 84.724 84.624 84.579 84.579 84.574 84.559 84.531 84.506 84.469 84.441 84.404 84.344 85.099 85.071 84.249 84.256 85.009 86.456 84.444 84.544 84.574 84.534 84.979 84.359 84.444 84.486 84.571 84.706 85.771 84.596 88.179 89.634 84.979 84.641 85.129 85.256 85.266 85.261 85.136 85.124 87.494 88.129 86.791 85.501 91.241 92.939 93.401 92.139 92.779 93.141 86.834 85.161 87.229 85.021 84.901 84.991 85.059 84.999 85.076 85.434 85.334 85.976 91.966 92.734 93.114 93.791 92.304 88.014 85.441 88.304 86.426 85.126 84.894
105.491 114.142 111.085 106.969 112.095 110.516 110.739 105.419 109.974 108.848 110.704 105.504 112.18 103.82 102.51 103.117 103.916 102.25 102.56 107.716 109.175 108.401 106.835 102.928 102.081 102.186 101.986 101.894 102.439 103.842 104.262 102.844 103.222 103.196 101.897 101.531 104.709 108.108 107.56 107.084 106.458 105.734 103.193 102.819 104.962 106.193 101.349 100.575 101.086 105.844 101.265 100.077 100.107 99.891 99.644 99.579 100.091 101.847 104.328 105.993 106.062 106.426 104.355 114.182 111.664 110.439 114.222 108.335 103.93 105.84 100.732 98.926 97.524 97.199 97.011 96.905 96.716 96.637 96.481 96.203 96.187 96.014 95.902 95.66 95.419 95.39 95.925 95.357 95.064 94.851 94.77 94.599 95.136 94.588 94.1 94.007 93.787 93.698 93.749 93.742 93.651 93.577 93.554 93.629 93.916 94.526 95.062 96.448 95.053 92.586 92.616 92.295 92.401 92.13 92.202 93.287 93.055 91.128 90.613 90.549 91.055 91.157 90.441 90.398 90.339 90.348 90.433 90.422 90.481 90.571 90.688 91.593 93.097 89.681 88.877 88.74 88.65 88.526 88.46 88.425 88.131 88.01 87.946 87.871 87.725 87.655 87.636 87.512 87.403 87.276 87.221 87.124 87.125 86.985 86.985 86.946 86.918 86.875 86.876 86.843 86.715 86.628 86.77 86.534 86.559 86.585 86.556 86.551 86.481 86.427 86.543 86.498 86.419 86.354 86.306 86.299 86.066 86.063 86.131 86.055 86.143 86.1 86.133 86.163 86.064 86.283 86.505 86.636 86.683 87.373 87.447 87.46 92.074 87.124 88.376 87.071 87.777 87.947 89.151 87.519 87.399 85.709 85.229 84.927 84.959 84.913 84.789 84.819 84.788 84.752 84.92 84.821 84.819 85.026 85.021 84.922 84.925 84.951 84.702 84.516 84.597 84.569 84.621 84.596 84.62 84.685 84.65 85.735 86.389 91.26 92.621 88.97 86.023 85.127 85.108 85.397 85.677 85.4 85.35 84.979 84.836 84.844 84.876 84.642 84.651 84.723 84.942 85.093 84.815 84.831 84.795 84.674 84.949 84.963 84.95 84.791 84.975 85.515 87.258 89.092 87.491 86.148 85.977 85.622 84.814 86.014 84.803 84.341 84.332 84.106 84.17 84.287 84.438 84.294 84.031 85.667 86.622 86.912 83.038 82.812 82.837 82.998 83.94 84.017 83.171 82.693 88.676 89.111 89.196 89.306 89.604 90.964 90.884 90.771 90.694 90.586 82.854 88.314 90.391 90.374 90.344 90.569 90.181 90.399 90.024 87.729 82.151 82.141 82.079 82.199 82.174 82.054 82.569 85.531 83.169 83.326 83.314 83.231 83.164 83.789 83.489 83.654 83.919 85.996 86.134 85.166 85.044 85.376 84.739 84.221 84.339 83.456 83.136 83.139 83.254 83.374 83.459 83.534 85.379 85.676 83.989 83.884 83.939 84.854 84.291 84.291 85.019 84.971 84.709 84.654 84.691 84.619 84.636 84.654 85.714 85.106 84.641 84.524 84.494 84.496 84.481 84.459 84.441 84.409 84.369 84.346 84.299 84.246 84.679 85.114 84.114 84.134 84.151 84.159 84.196 85.424 84.214 84.269 84.314 84.311 84.464 84.856 84.539 84.574 90.416 91.626 91.024 90.281 85.866 85.749 85.364 85.271 85.171 85.136 85.866 86.876 86.971 85.339 85.739 92.311 92.709 91.256 91.309 91.866 85.311 85.449 87.196 84.826 84.761 84.896 84.926 84.896 84.969 85.546 85.009 85.399 86.914 91.466 91.974 92.591 91.566 90.124 85.041 84.941 85.899 85.609 88.541
105.562 111.887 106.074 107.635 112.144 106.248 113.081 107.094 103.864 103.189 104.547 103.465 104.456 107.056 102.779 102.779 102.824 103.338 107.524 112.501 117.057 109.963 102.957 101.923 101.905 101.891 101.786 102.159 105.402 106.722 103.574 104.358 102.95 103.448 101.595 101.642 105.395 110.169 111.368 111.27 109.551 107.084 104.874 107.104 102.802 102.812 101.321 100.23 99.995 100.388 100.164 102.01 101.205 99.861 101.367 99.952 99.313 99.65 103.2 107.403 108.094 106.111 103.417 112.424 106.593 107.423 102.826 104.271 102.699 100.986 100.948 98.448 97.941 97.628 97.121 96.796 96.617 96.556 96.479 96.256 96.085 95.946 95.789 95.636 95.441 95.92 97.192 99.582 97.625 94.815 94.742 94.913 96.891 94.59 94.063 93.9 93.797 93.715 93.742 93.656 93.632 93.533 93.46 93.382 93.235 93.068 92.985 92.672 92.61 92.6 95.173 93.88 93.275 92.836 92.809 91.948 91.846 91.142 90.565 90.439 90.37 90.432 90.52 90.542 90.387 90.314 90.397 90.512 90.505 90.555 90.653 91.286 91.704 90.099 88.933 88.696 88.675 88.635 88.485 88.362 88.236 88.175 88.04 87.896 87.756 87.655 87.735 87.495 87.343 87.343 87.243 87.139 87.044 86.951 86.966 86.831 86.908 86.855 86.829 86.688 86.675 86.698 86.731 86.603 86.587 86.579 86.604 86.512 86.516 86.456 86.545 86.508 86.412 86.344 86.311 86.183 86.209 86.137 86.063 86.012 86.063 86.052 86.097 86.365 86.327 86.266 86.526 86.986 86.836 86.44 85.444 85.553 85.499 85.386 86.188 87.147 86.308 85.607 85.513 85.582 85.601 85.038 84.761 84.904 84.99 84.892 84.893 84.792 84.87 84.691 84.549 84.604 84.604 84.717 84.987 85.032 84.898 84.89 84.655 84.576 84.604 84.663 84.603 84.581 84.556 -9999 -9999 85.487 84.975 85.513 88.872 86.172 84.904 85.248 84.996 85.057 85.068 84.989 84.934 84.723 84.667 84.863 84.956 84.426 84.323 84.552 84.739 84.646 84.638 84.803 85.149 85.155 85.621 86.003 85.36 85.038 84.74 85.104 85.648 86.957 86.502 85.164 84.867 84.916 84.728 85.647 86.163 85.598 84.208 84.614 85.335 84.446 84.428 84.352 84.149 85.754 88.263 88.662 86.869 85.072 83.216 85.037 85.175 84.452 83.563 82.753 88.521 89.684 89.401 89.334 89.231 89.829 89.706 89.634 89.511 89.434 83.081 87.446 89.351 89.604 89.206 89.109 89.024 88.944 88.879 86.959 82.106 83.244 85.999 86.314 86.491 86.566 86.641 85.069 83.516 83.014 85.681 85.816 82.961 83.639 82.936 82.811 84.636 88.159 86.334 85.336 84.919 85.096 83.914 82.979 82.934 82.939 83.061 83.159 83.234 83.296 83.324 83.351 83.599 83.841 84.314 84.119 83.939 84.021 84.374 84.264 84.279 84.621 84.864 84.626 84.551 90.984 91.576 84.886 84.706 84.894 85.276 84.924 84.411 84.441 84.406 84.404 84.394 84.366 84.331 84.321 84.279 84.249 84.204 84.151 84.091 83.991 83.951 83.981 83.996 84.041 84.104 84.146 84.174 84.159 84.309 85.146 84.379 88.186 91.371 92.459 92.284 91.169 87.251 84.621 84.561 84.941 85.029 85.389 84.939 86.651 86.826 86.584 84.749 85.151 85.064 88.871 88.941 84.951 84.899 86.859 85.041 84.671 84.714 84.786 84.756 84.874 84.884 84.801 85.556 84.524 85.999 87.064 88.599 89.804 91.021 85.956 84.969 84.941 84.806 84.869 84.714
106.493 107.233 110.075 114.928 110.118 114.032 109.624 110.662 111.067 103.485 104.84 103.381 103.279 103.253 102.372 102.34 102.399 104.838 113.631 105.38 103.732 102.545 102.13 101.847 102.267 102.341 101.88 102.139 103.083 103.72 102.686 107.468 101.957 103.111 101.643 101.234 106.919 111.23 110.756 109.71 107.105 107.425 109.083 108.139 105.774 104.133 100.768 100.089 100.093 100.098 100.686 107.715 106.182 102.498 105.344 100.505 100.347 99.692 100.509 104.716 106.361 104.053 103.851 105.096 109.257 108.536 99.709 106.732 101.717 104.701 107.553 99.926 99.951 98.666 97.483 96.887 96.628 96.555 96.46 96.27 96.071 95.894 95.849 95.696 95.524 95.311 95.959 96.032 95.566 94.816 94.707 94.668 94.421 94.271 94.067 93.793 93.629 93.926 96.58 94.184 93.509 93.4 93.422 93.349 93.218 92.929 92.777 92.651 92.569 93.115 96.914 98.191 94.689 92.42 91.976 91.585 91.358 91.08 90.613 90.591 90.497 90.43 90.51 90.489 90.415 90.431 90.46 90.589 90.365 90.472 90.444 90.317 90.319 89.92 89.169 88.821 88.636 88.492 88.499 88.497 88.346 88.246 88.057 87.952 87.799 87.679 87.694 87.514 87.356 87.332 87.206 87.07 86.99 86.949 86.926 86.951 86.918 86.778 86.754 86.712 86.628 86.656 86.621 86.6 86.644 86.592 86.526 86.469 86.471 86.496 86.561 86.494 86.446 86.311 86.218 86.18 86.106 86.091 86.082 86.167 86.258 86.296 86.411 86.761 86.314 85.902 85.843 86.01 85.224 85.181 85.083 84.945 84.787 84.881 85.717 88.332 90.774 88.601 85.11 84.82 84.783 84.725 84.764 84.867 85.036 84.851 84.796 84.936 84.885 84.701 84.61 84.636 84.696 85.063 85.073 84.848 84.884 84.835 84.739 84.66 84.553 84.492 84.537 84.55 84.512 84.475 -9999 85.214 84.781 84.674 85.209 84.773 84.368 85.642 85.224 84.929 84.587 84.881 84.686 84.509 84.655 85.279 85.169 84.671 84.583 84.742 85.144 84.494 84.504 84.652 85.201 85.267 85.282 85.127 85.179 85.069 85.346 85.537 85.283 85.758 85.357 84.957 84.695 84.709 85.355 86.739 87.198 86.447 84.895 84.341 85.495 84.465 84.663 84.841 84.13 85.581 88.574 88.106 83.444 83.552 84.001 84.799 88.057 85.481 83.949 83.758 88.52 89.599 89.071 87.846 87.636 88.651 88.559 88.456 88.371 88.211 82.571 85.464 87.209 87.009 86.774 85.849 84.894 84.379 83.529 82.846 82.071 83.846 87.204 87.256 87.316 87.336 87.396 83.449 83.074 82.844 85.344 83.889 82.881 83.289 82.809 82.689 84.331 85.144 84.109 84.844 84.291 82.834 82.679 82.756 82.864 82.961 83.024 83.389 83.096 83.149 83.231 84.769 84.304 84.069 84.046 85.459 83.981 83.981 84.914 85.276 84.306 84.244 84.329 89.441 95.071 94.474 93.379 87.371 84.579 84.529 84.504 84.426 84.704 85.611 84.479 84.356 84.309 84.306 84.289 84.276 84.254 84.226 84.194 84.154 84.131 84.066 83.994 83.914 83.884 83.914 83.941 83.989 84.019 84.011 84.139 84.461 84.231 90.466 91.616 92.316 91.866 90.534 84.954 84.516 84.496 84.494 84.726 85.731 84.541 84.654 84.989 84.676 85.766 84.416 84.586 85.114 85.076 84.909 84.824 86.236 84.564 84.486 84.604 84.644 84.659 84.794 84.704 84.649 84.519 90.956 86.101 84.479 85.316 85.509 85.426 85.129 85.079 87.121 84.714 84.694 84.801
104.821 108.906 111.849 113.611 118.696 112.268 106.241 108.145 110.834 103.908 108.507 110.949 105.734 104.004 102.259 102.213 102.258 103.242 113.555 110.011 113.293 108.007 102.454 102.078 103.994 104.061 102.099 101.72 101.639 101.626 101.554 101.502 103.259 109.39 101.676 102.034 106.955 109.603 109.199 106.264 105.008 106.133 108.089 108.67 107.222 103.537 101.234 100.357 100.97 107.95 113.958 115.272 114.626 101.687 102.939 101.322 101.215 103.657 99.981 102.589 103.657 102.7 104.821 104.532 110.704 103.029 101.467 112.309 100.943 110.395 108.051 107.663 105.724 102.299 98.249 97.415 96.908 96.564 96.374 96.208 96.067 95.902 95.788 95.714 96.337 98.584 96.937 97.574 95.125 94.755 94.54 94.53 94.38 94.296 94.124 93.821 93.752 93.875 94.33 93.829 93.46 93.309 93.341 93.176 92.968 92.848 92.65 92.533 92.502 92.718 94.379 93.547 94.37 91.873 91.709 91.714 91.438 91.099 90.512 90.395 90.339 90.543 90.452 90.474 90.582 90.489 90.489 90.529 90.452 90.348 90.389 90.348 90.403 89.848 89.162 88.891 88.671 88.524 88.478 88.462 88.28 88.186 88.094 87.985 87.885 87.768 87.686 87.607 87.51 87.391 87.188 87.069 87.026 87.027 86.924 86.96 86.954 86.782 86.723 86.714 86.706 86.695 86.665 86.665 86.664 86.603 86.573 86.528 86.468 86.473 86.451 86.467 86.399 86.259 86.175 86.114 86.101 86.309 86.612 86.691 87.658 87.944 87.469 85.542 85.356 85.331 86.165 85.954 85.124 85.075 85.015 84.911 84.821 84.87 85.101 86.525 88.076 90.79 86.006 84.765 84.759 84.745 84.752 84.812 84.75 84.978 84.799 85.875 86.361 85.52 84.797 84.719 84.726 84.975 85.182 84.878 84.831 84.846 84.803 84.582 84.439 84.273 84.407 84.493 84.444 -9999 84.32 84.29 84.339 84.189 84.281 84.224 84.51 84.915 84.499 85.002 84.882 85.107 84.812 84.482 84.521 84.467 84.544 84.638 85.081 85.33 84.982 84.669 84.603 84.662 85.343 85.252 85.045 85.16 85.185 85.596 91.967 86.076 85.739 85.229 84.88 84.811 84.752 84.689 86.7 87.386 86.493 84.222 84.469 84.403 85.215 84.719 84.684 84.437 85.386 87.504 88.579 85.275 83.766 83.257 86.024 85.969 86.486 86.064 84.631 83.981 88.048 89.384 89.126 83.889 82.491 83.399 82.931 83.711 82.656 82.559 82.494 83.309 82.491 82.479 82.574 82.584 82.561 82.564 82.369 82.461 82.089 83.234 88.086 88.146 88.214 88.279 88.489 83.036 82.836 82.851 82.681 83.324 83.421 83.106 82.956 82.796 82.629 83.659 82.944 82.511 82.461 82.564 82.691 82.754 82.814 82.859 84.194 83.256 83.686 83.996 83.601 83.184 84.006 84.126 84.114 84.281 87.691 84.146 87.161 84.334 85.404 84.216 84.949 93.291 94.446 95.091 94.024 92.156 84.661 84.441 84.431 84.419 84.524 84.451 85.091 85.061 84.281 84.201 84.201 84.234 84.216 84.199 84.176 84.146 84.126 84.091 84.041 83.986 83.911 83.846 83.796 83.829 83.846 83.854 83.966 85.014 84.096 86.026 90.266 90.976 91.186 86.869 85.956 86.551 84.574 84.464 84.449 84.719 84.489 84.421 84.384 86.694 90.816 89.974 85.564 84.369 84.509 84.989 84.891 84.486 84.396 84.419 84.494 84.456 84.576 84.644 84.591 84.519 89.701 91.594 92.959 92.021 85.424 85.056 85.084 87.061 85.359 85.839 84.649 84.679 90.034
108.141 112.388 113.665 116.799 116.511 110.599 109.366 105.181 106.664 109.028 105.192 106.078 106.944 108.368 103.611 102.428 102.63 103.146 110.219 114.673 114.342 107.77 102.903 103.85 104.945 105.086 105.905 103.158 101.564 101.47 101.424 101.395 101.38 103.28 101.616 102.597 107.022 105.013 101.781 101.189 101.824 104.781 107.808 107.343 106.832 101.61 105.882 107.321 102.108 111.13 114.51 106.643 110.329 111.569 107.435 106.984 104.721 104.124 101.428 101.966 103.14 104.954 102.897 102.555 103.617 101.442 99.496 108.531 106.173 109.398 106.952 103.787 109.522 102.464 99.736 98.208 97.176 96.433 96.393 96.303 96.06 95.888 95.705 95.766 96.177 98 96.916 97.041 94.966 94.722 94.562 94.567 94.424 94.247 94.086 93.911 93.808 93.642 93.529 93.446 93.332 93.233 93.234 92.919 92.733 92.777 93.556 92.688 93.278 92.789 92.459 91.948 91.915 91.822 91.748 91.604 91.243 91.335 90.725 90.449 90.483 90.461 90.468 90.386 90.46 90.411 90.35 90.471 90.458 90.375 90.462 90.413 90.477 90.368 89.375 88.894 88.648 88.629 88.587 88.481 88.307 88.163 88.139 87.966 87.95 87.811 87.688 87.666 87.574 87.305 87.203 87.168 87.043 87.004 86.968 86.94 86.915 86.833 86.748 86.712 86.673 86.717 86.685 86.626 86.647 86.637 86.606 86.575 86.525 86.483 86.324 86.209 86.226 86.175 86.013 85.947 85.883 86.1 86.276 85.806 86.32 87.048 85.49 85.852 86.433 85.875 85.93 85.722 85.171 85.09 85.01 84.88 84.911 84.924 85.043 87.225 87.529 86.445 85.016 84.754 84.835 84.961 84.802 84.875 85.062 86.364 87.719 88.571 90.29 87.687 85.45 84.806 84.659 84.659 84.858 84.825 85.211 86.406 85.553 84.563 84.375 84.314 84.319 84.277 84.308 84.282 84.211 84.195 84.171 84.101 84.182 84.4 85.056 84.724 84.395 84.361 84.402 84.224 84.271 84.344 84.281 84.25 84.335 84.433 84.869 85.164 84.946 85.22 85.826 86.669 86.407 85.514 86.677 86.01 85.235 85.866 92.4 86.455 85.607 84.964 84.867 85.131 84.803 84.544 86.231 87.655 85.183 84.047 84.481 85.261 85.401 86.62 86.797 88.352 88.465 88.091 87.778 85.284 84.568 85.076 87.327 86.82 85.855 86.011 84.724 83.873 88.12 89.073 89.184 84.981 82.511 82.734 83.291 82.849 82.831 82.866 82.629 83.806 82.171 82.394 82.564 82.541 82.566 82.556 82.166 82.686 82.114 83.116 88.021 87.974 87.956 87.891 87.819 82.976 82.769 82.691 82.654 83.201 88.854 85.234 84.484 83.671 82.339 82.306 82.346 82.434 82.531 82.599 82.634 82.664 82.719 82.846 83.584 88.171 89.261 83.396 83.101 83.179 88.856 86.381 88.891 91.201 91.621 90.474 90.909 90.989 84.341 84.746 85.511 92.336 93.779 94.936 94.656 93.524 93.549 87.049 84.376 84.464 84.444 84.336 84.764 87.214 84.299 84.199 84.179 84.151 84.141 84.159 84.141 84.119 84.111 84.071 84.041 83.969 83.934 83.891 83.831 83.739 83.699 83.724 83.771 83.879 84.206 84.104 84.166 87.811 90.231 84.281 84.229 84.189 86.341 85.576 84.954 86.339 84.529 84.374 84.334 90.361 91.776 91.579 90.944 90.119 84.299 84.299 84.274 84.269 84.191 84.326 84.351 84.339 85.756 85.059 85.379 86.009 90.884 92.271 92.921 91.531 89.329 84.376 84.359 84.286 85.376 85.604 84.546 85.066 90.631
108.697 111.191 109.758 111.074 113.484 111.701 106.609 104.02 109.785 112.006 103.624 103.055 103.517 103.816 103.084 107.521 104.41 102.432 105.617 108.607 103.722 102.338 104.368 107.281 110.483 112.524 108.42 103.914 101.922 101.806 101.417 101.34 101.443 101.456 103.642 103.122 103.487 109.329 104.735 103.584 105.854 108.418 107.702 106.643 106.638 107.753 113.911 113.711 105.774 106.057 105.907 106.806 116.912 113.202 113.174 109.506 106.579 106.168 100.566 100.699 100.922 101.35 100.141 99.685 98.778 98.483 99.494 102.042 99.718 98.365 99.333 99.81 99.25 98.991 99.961 97.532 96.82 96.411 96.404 96.327 96.277 96.671 98.469 99.15 95.764 95.767 95.71 95.329 94.976 94.703 94.569 94.478 94.384 94.079 93.964 93.904 94.679 94.867 94.04 95.796 94.625 98.615 93.82 92.799 92.868 94.592 95.806 92.826 92.954 92.435 91.982 91.994 92.02 91.926 91.809 91.528 91.342 91.205 90.813 90.507 90.615 90.505 90.405 90.464 90.533 90.535 90.378 90.295 90.425 90.57 90.467 90.407 90.496 90.491 89.901 88.997 88.779 88.767 88.69 88.458 88.398 88.197 88.059 87.964 87.923 87.752 87.705 87.686 87.556 87.335 87.206 87.077 87.057 87.081 87.078 87.034 86.979 86.892 86.801 86.757 86.724 86.616 86.647 86.613 86.58 86.648 86.652 86.543 86.403 86.248 85.977 85.867 85.791 85.792 85.725 85.659 85.549 86.2 86.865 85.715 85.526 85.525 85.421 86.614 87.555 86.275 85.388 85.386 85.337 85.098 84.993 84.793 84.851 84.985 85.247 87.58 87.491 86.287 85.001 84.783 84.803 84.836 84.75 84.835 85.402 88.805 91.94 92.23 92.407 90.697 88.449 85.673 85.327 84.952 84.654 84.666 85.087 88.538 85.963 84.736 84.535 84.294 84.271 84.259 84.24 84.178 84.168 84.142 84.083 84.014 84.079 84.262 84.348 84.365 84.322 84.249 84.226 84.13 84.208 84.339 84.267 84.293 84.311 84.284 84.325 84.605 -9999 86.466 87.209 87.497 86.747 85.115 86.229 86.691 85.902 86.25 86.426 86.635 85.974 85.378 84.733 84.923 84.73 84.907 84.857 87.638 87.126 85.345 83.936 85.357 85.265 86.89 89.142 89.424 88.264 87.797 87.456 84.907 84.007 84.382 86.397 87.197 85.621 85.695 84.341 82.529 86.583 88.561 87.799 85.199 82.504 82.571 82.564 82.596 82.654 82.861 82.791 83.579 82.004 81.894 82.046 82.219 82.104 82.291 82.051 82.131 82.396 81.904 84.019 83.491 85.229 82.434 82.269 82.984 82.814 83.076 84.794 84.329 87.631 87.204 87.199 82.141 82.211 82.314 82.376 82.481 83.041 83.109 82.559 82.729 85.484 88.966 89.394 89.794 89.669 87.979 83.096 85.821 91.009 91.364 91.699 92.206 92.616 93.486 91.104 90.656 84.829 90.194 91.396 91.424 93.179 94.299 95.179 94.301 94.911 93.304 84.449 84.359 84.231 84.244 85.286 85.954 83.979 84.036 85.389 86.471 84.251 84.126 84.069 84.351 84.064 84.029 84.016 83.979 83.949 83.899 83.861 83.811 83.729 83.651 83.601 83.706 83.826 84.536 83.974 84.024 84.179 84.076 84.036 84.161 84.104 84.639 85.001 83.671 84.336 84.456 86.234 91.051 92.464 92.306 90.939 87.984 84.281 84.291 84.119 84.039 84.124 84.199 84.154 84.381 84.786 84.459 84.416 88.094 91.546 92.931 92.229 90.839 85.374 84.329 84.324 84.331 86.354 85.949 85.959 83.924 84.354
106.36 106.249 105.275 106.804 107.276 104.786 102.559 102.586 103.201 102.639 102.355 102.405 102.845 104.193 103.609 104.646 105.543 104.094 102.039 102.463 102.536 103.382 107.335 112.36 106.609 104.001 101.879 101.733 102.667 104.142 101.73 101.308 101.43 101.659 108.019 106.107 114.639 106.107 112.862 106.564 104.468 107.362 107.278 105.965 106.503 109.627 111.375 110.71 110.854 107.08 102.443 113.014 119.846 119.5 117.003 107.352 108.585 103.262 100.275 99.809 99.429 99.207 98.885 98.759 98.505 98.435 99.221 100.336 105.529 109.03 101.671 97.863 97.956 97.822 97.669 97.38 97.543 98.56 99.247 96.726 99.239 100.048 101.357 102.402 101.463 100.231 95.512 96.425 95.571 99.512 96.112 100.514 97.464 96.686 95.396 95.64 100.01 102.185 99.451 102.185 103.212 97.335 93.739 93.202 93.821 96.918 96.243 93.281 92.457 92.205 92.079 92.045 91.997 91.824 91.612 91.451 91.433 91.129 90.812 90.563 90.552 90.502 90.434 90.552 90.591 90.589 90.558 90.384 90.417 90.461 90.54 90.526 90.427 90.302 89.844 89.141 88.854 88.687 88.612 88.486 88.381 88.24 88.026 87.918 87.93 87.774 87.583 87.582 87.502 87.397 87.162 87.073 87.019 87.103 87.095 86.964 86.9 86.883 87.215 87.206 86.612 86.527 86.768 86.66 86.59 86.805 86.839 86.437 86.084 85.904 85.928 85.852 85.701 85.667 85.592 85.603 85.53 86.28 87.009 86.089 87.076 85.489 86.997 90.443 87.717 87.028 87.076 86.242 86.823 85.339 85.099 84.958 84.847 85.281 85.433 85.211 86.133 87.445 85.625 84.69 84.677 84.699 84.608 84.682 86.459 90.675 92.036 92.877 93.222 92.181 90.667 88.988 85.954 85.245 84.518 84.509 84.837 84.73 84.868 84.605 84.492 84.377 84.098 84.156 84.175 84.102 84.107 84.111 -9999 83.881 83.92 83.88 84.273 84.335 84.246 84.303 84.283 84.284 84.188 84.357 84.216 84.283 84.281 84.254 84.182 84.806 86.378 87.512 87.641 87.696 87.05 84.882 84.898 85.395 85.871 86.202 86.812 86.81 86.889 85.649 85.025 84.757 84.9 84.759 85.38 86.304 86.831 86.543 84.449 88.055 85.54 84.307 85.022 87.985 87.205 87.247 86.698 84.86 83.478 84.966 85.543 86.598 83.897 83.867 83.288 83.709 82.601 82.547 82.73 82.572 82.469 82.671 82.511 82.501 82.516 82.634 82.781 83.341 81.916 81.801 82.099 82.089 81.924 82.061 81.956 81.941 81.974 81.796 83.021 82.356 81.874 81.904 82.134 83.824 82.806 82.954 83.656 82.101 92.499 84.244 87.019 82.529 82.229 82.286 82.329 82.449 82.526 82.739 86.739 89.094 89.454 89.844 89.719 89.241 88.316 83.339 83.686 89.419 91.981 92.386 92.811 92.929 92.559 92.139 90.341 90.181 89.904 85.306 91.379 91.381 93.754 93.646 94.736 95.006 94.171 93.449 84.266 83.981 83.894 84.921 84.206 83.794 83.809 84.621 84.906 84.884 84.831 87.506 84.176 84.294 85.381 84.001 83.966 83.936 83.921 83.874 83.851 83.806 83.774 83.719 83.654 83.566 83.579 83.684 84.304 83.776 84.029 84.021 84.014 84.051 84.061 84.556 83.619 83.756 84.061 84.161 90.369 92.091 92.864 91.576 90.224 84.909 84.329 84.529 83.996 83.899 84.029 84.044 84.041 84.921 84.581 84.416 85.771 90.846 92.239 93.596 91.539 89.841 84.341 84.311 84.269 85.981 85.991 84.071 85.516 83.549 83.321
106.349 105.868 106.207 108.778 107.428 102.99 102.529 102.28 102.518 102.358 102.3 102.235 102.235 104.065 104.164 103.003 112.935 103.226 102.083 102.254 103.92 106.848 109.642 104.586 103.353 102.04 101.604 101.357 101.419 102.726 101.424 101.241 101.237 101.166 103.13 104.066 108.684 106.561 106.255 107.558 108.454 108.672 109.63 107.452 102.261 103.379 105.998 103.772 102.593 108.133 111.402 118.363 112.812 113.055 110.075 115.497 105.869 100.3 113.377 107.971 101.25 100.331 102.136 99.878 98.528 98.378 98.28 99.376 103.989 104.39 105.945 106.021 101.542 98.262 102.143 98.078 99.741 105.246 114.65 102.535 104.043 102.203 101.311 100.362 102.682 101.986 99.154 105.431 106.777 108.633 103.35 113.831 106.211 105.596 100.78 103.787 108.549 105.861 104.085 103.457 108.177 104.512 97.144 97.408 96.272 98.985 94.499 92.838 92.562 92.891 92.407 92.06 91.856 91.677 91.481 92.179 92.826 91.228 90.996 90.622 90.59 90.611 90.538 90.498 90.43 90.41 90.573 90.489 90.42 90.54 90.473 90.594 90.527 90.461 90.054 89.313 88.9 88.622 88.576 88.457 88.357 88.252 88.176 88.044 87.941 87.771 87.614 87.671 87.568 87.373 87.343 87.161 87.128 87.249 87.041 87.144 87.116 87.043 90.308 93.24 89.61 86.757 86.704 86.719 86.569 86.567 86.448 86.062 85.907 85.889 86.009 85.751 85.728 85.644 85.617 85.678 85.912 86.584 86.53 86.525 87.535 86.038 87.877 91.906 91.314 90.562 89.294 88.961 87.473 85.416 85.543 86.231 86.146 86.362 85.404 84.9 85.19 86.575 85.408 84.81 84.675 84.567 84.537 84.867 85.78 88.796 90.953 92.232 92.974 92.438 90.15 86.724 84.836 84.461 84.425 84.58 84.599 84.541 84.571 84.285 84.171 84.09 84.023 84.062 84.08 83.943 83.994 84.067 -9999 84.091 84.025 83.948 85.114 84.526 84.636 84.507 84.307 84.365 84.082 84.034 84.173 84.22 84.215 84.37 84.356 85.721 87.16 87.668 87.577 87.539 87.298 86.356 84.825 85.16 85.201 85.812 86.436 87.178 87.303 86.008 84.987 84.853 85.28 85.598 88.028 85.591 86.364 87.723 83.89 88.715 88.905 85.917 83.646 83.421 83.928 85.63 83.861 84.939 83.939 84.445 84.714 84.163 85.961 87.929 89.495 82.72 83.662 83.09 83.522 82.5 82.385 82.436 82.821 82.701 82.511 82.409 82.909 82.381 82.044 81.711 82.391 81.844 81.786 81.831 81.786 81.864 82.766 81.734 81.781 81.836 81.809 81.909 82.234 83.466 82.741 81.989 81.839 82.876 81.949 83.551 85.281 83.944 82.136 82.164 82.224 84.441 87.676 89.219 89.619 89.864 89.524 89.139 88.599 87.304 85.811 89.046 90.381 90.766 94.529 92.819 92.389 91.979 91.589 91.504 90.424 86.506 84.301 85.259 89.776 91.394 89.069 93.031 94.131 94.856 89.946 84.376 83.626 83.621 83.671 83.884 83.751 83.619 83.691 84.904 85.186 85.169 84.954 85.304 85.334 85.704 84.084 83.956 84.069 87.926 83.879 83.859 83.819 83.789 83.754 83.729 83.681 83.621 83.574 83.519 83.544 83.581 84.659 85.359 83.944 83.701 83.776 83.549 83.514 84.506 85.554 87.066 90.979 92.396 92.426 90.936 88.861 84.314 84.849 83.906 83.829 83.844 83.926 83.836 83.986 84.281 84.431 84.411 89.386 91.506 92.861 92.244 90.896 86.361 84.484 84.304 84.789 85.984 83.414 83.356 85.336 86.949 86.354
107.556 107.169 107.249 110.249 109.868 105.774 102.779 102.299 102.543 102.297 102.263 102.202 102.211 102.806 103.43 102.688 103.8 102.017 102.446 104.483 105.041 102.992 101.951 101.991 102.258 101.812 102.073 101.727 101.657 101.734 101.252 101.159 101.139 104.349 102.771 103.556 102.562 102.048 104.36 106.914 107.551 104.661 105.358 103.89 102.025 103.186 103.552 110.669 107.269 114.537 117.38 118.014 115.268 117.422 115.766 110.547 101.797 101.256 109.61 111.913 103.995 112.245 107.564 99.751 98.307 98.311 98.273 98.106 97.96 99.695 104.117 101.538 99.927 97.776 101.605 101.82 103.913 108.253 107.902 106.81 99.584 100.589 98.159 96.332 97.333 98.651 101.844 103.69 106.518 110.388 110.851 114.666 112.939 107.152 105.758 109.647 100.024 101.383 100.226 108.557 107.334 108.678 104.949 101.411 95.174 93.267 93.399 93.676 94.42 94.984 93.041 92.135 91.838 91.664 91.731 92.822 92.756 91.503 90.837 90.543 90.513 90.57 90.535 90.4 90.444 90.48 90.392 90.483 90.57 90.467 90.407 90.486 90.46 90.463 90.34 89.563 88.824 88.679 88.632 88.553 88.317 88.258 88.107 88.165 87.938 87.718 87.618 87.65 87.428 87.314 87.284 87.172 87.782 91.464 88.488 88.145 89.101 88.869 90.921 94.301 90.676 87.888 86.408 86.437 86.207 86.024 86.058 85.924 85.877 85.891 85.753 85.663 85.611 86.037 87.545 86.47 85.705 86.398 86.162 86.367 87.62 86.353 88.099 92.468 93.305 93.236 92.273 91.171 88.173 85.921 86.177 87.747 87.353 86.973 85.778 85 84.886 85.099 85.457 85.023 84.597 84.586 84.558 84.771 84.88 86.146 89.537 91.966 93.114 92.459 -9999 85.507 84.569 84.488 84.471 84.443 84.223 84.14 84.259 84.04 83.982 83.959 83.953 83.98 84.049 84.078 84.083 84.084 -9999 83.902 83.991 83.994 84.63 85.183 84.552 84.534 -9999 85.966 85.267 84.371 84.185 84.154 84.139 85.162 85.079 86.687 87.207 87.424 87.394 87.221 87.057 86.346 84.996 85.467 85.116 85.668 86.362 92.468 87.668 86.618 85.588 85.755 86.556 87.415 87.707 87.944 84.996 86.121 85.42 86.193 87.699 85.357 84.847 83.483 83.279 83.366 85.134 86.033 82.758 82.43 82.404 82.468 88.349 89.282 91.516 88.686 84.703 82.804 83.197 82.461 82.297 82.27 82.241 82.239 82.589 82.441 82.266 82.294 81.781 81.796 81.756 81.694 81.629 81.814 81.701 81.759 83.464 81.639 81.784 81.854 81.881 82.599 82.164 81.739 81.661 81.729 81.821 81.876 81.909 81.934 83.094 82.511 82.154 83.181 82.331 87.634 89.496 89.876 89.404 88.976 87.644 84.256 85.536 86.761 86.956 90.111 91.259 91.009 90.744 91.819 91.389 90.966 90.961 91.419 88.824 84.764 84.311 86.011 84.564 85.861 84.419 89.094 90.279 84.004 83.511 83.514 83.524 83.566 83.594 84.046 83.479 83.506 83.951 84.364 83.856 83.919 83.511 84.209 84.006 85.571 85.409 85.811 87.699 83.876 83.781 83.819 83.781 83.749 83.734 83.709 83.664 83.626 83.589 83.559 83.499 83.426 83.434 83.471 84.529 83.409 84.026 83.521 83.414 83.881 86.049 90.319 91.666 92.859 91.594 90.229 84.651 85.456 84.074 83.714 83.621 83.764 83.774 83.739 83.919 84.099 84.311 84.439 90.816 92.214 92.964 91.594 89.954 84.739 85.936 84.566 85.381 84.271 83.416 83.369 86.814 88.021 87.911
109.91 109.223 109.376 110.071 109.91 105.804 102.458 102.255 102.289 102.241 102.208 102.103 102.237 102.392 102.53 103.064 102.234 102.475 102.794 106.608 103.614 102.168 101.75 101.542 101.621 101.902 106.952 105.629 101.717 101.316 101.467 101.734 102.718 110.206 103.133 101.5 101.109 101.182 102.065 103.011 106.44 103.777 101.16 106.38 111.47 110.205 101.823 106.528 108.28 110.679 107.789 109.666 106.222 115.348 106.787 106.335 100.796 101.977 109.999 118.369 112.123 104.427 98.783 98.71 98.312 98.304 98.254 98.087 98.28 98.142 97.976 97.512 97.347 97.162 100.534 115.698 114.216 109.856 100.317 104.082 102.071 102.635 98.724 95.877 98.65 103.643 103.899 104.907 102.947 111.833 116.498 108.852 115.617 107.092 100.206 101.634 106.379 113.584 104.058 106.822 109.224 110.218 105.295 102.478 94.026 92.733 93.5 94.782 95.984 95.652 94.64 94.088 92.463 91.642 91.68 92.612 92.25 91.34 91.093 90.606 90.499 90.553 90.527 90.528 90.498 90.452 90.43 90.569 90.382 90.458 90.575 90.51 90.566 90.507 90.373 89.88 88.998 88.759 88.647 88.47 88.389 88.344 88.29 88.13 88.003 87.875 88.169 88.143 87.438 87.347 87.494 87.633 89.992 92.022 89.017 87.891 89.427 89.538 90.064 91.153 89.83 87.125 86.224 86.074 85.992 86.078 85.92 85.854 85.801 85.743 85.618 85.624 85.553 86.39 90.229 89.675 89.457 87.845 86.175 86.034 87.083 88.774 92.826 93.561 93.772 94.033 94.244 92.797 88.889 86.54 86.95 87.573 87.463 87.216 85.23 84.849 85.05 85.688 86.22 86.581 85.071 84.658 84.909 85.101 85.634 85.525 88.471 91.665 91.896 -9999 85.622 84.558 84.604 84.509 84.373 84.257 84.105 84.045 84.148 84.003 84 84.086 83.98 84.013 84.011 84.145 84.147 84.12 -9999 -9999 83.996 84.006 84.126 84.327 84.286 84.297 86.501 88.768 88.787 85.737 84.515 84.237 85.076 86.438 85.388 85.081 86.552 87.138 86.978 86.854 86.491 85.718 84.909 85.2 84.997 85.401 86.496 87.205 92.003 87.313 85.765 86.581 88.02 88.393 85.068 85.407 86.65 85.501 85.906 84.664 85.806 86.029 86.305 84.419 84.216 83.732 86.266 86.956 85.227 82.358 82.32 82.89 89.186 93.843 94.852 85.35 85.783 84.595 82.63 82.323 82.189 82.158 82.134 82.069 81.989 82.546 82.061 82.249 81.869 81.674 81.689 81.644 81.529 81.736 81.606 82.426 85.179 81.496 82.544 82.984 81.774 81.576 81.546 81.624 81.701 81.751 81.796 81.779 81.801 81.906 82.114 86.021 87.054 87.419 82.429 83.211 89.041 88.709 85.464 83.371 82.591 82.589 85.451 86.459 87.124 87.029 90.521 90.069 89.359 90.676 86.969 84.536 87.464 87.646 84.164 84.196 84.231 84.189 85.371 85.184 83.749 83.541 83.501 83.469 83.521 83.466 83.516 83.554 83.991 83.564 83.399 83.421 83.461 84.299 83.666 83.961 83.419 84.629 84.726 86.081 84.251 88.251 84.554 85.001 83.871 83.729 83.689 83.701 83.686 83.676 83.641 83.621 83.581 83.544 83.501 83.466 83.406 83.334 83.334 83.359 83.271 83.286 85.179 84.264 86.354 90.871 91.681 92.234 90.909 88.734 84.166 84.161 83.646 83.554 83.576 83.636 83.579 83.694 83.864 84.806 84.316 84.419 90.406 92.889 92.266 90.904 85.186 84.136 83.751 84.899 84.014 86.036 86.066 85.216 87.429 88.671 88.871
110.509 110.346 109.568 110.411 109.62 106.466 102.356 102.306 102.192 102.184 102.081 101.979 102.069 102.254 105.774 104.346 103.034 102.025 101.812 102.161 103.357 108.096 104.079 102.815 102.708 101.711 103.264 102.928 101.37 101.438 104.219 105.516 102.106 101.492 100.988 100.787 101.129 102.43 102.252 105.952 108.713 106.476 101.832 103.559 104.892 111.924 109.874 102.512 103.368 106.374 106.529 114.824 115.377 112.33 102.709 102.191 100.978 104.916 114.495 111.436 106.116 100.386 100.002 98.791 98.532 100.245 99.283 98.052 97.891 97.728 97.682 97.487 99.61 100.495 109.748 107.119 109.736 106.81 104.845 103.245 106.133 105.612 97.643 95.879 100.448 109.072 102.957 102.398 102.532 112.013 114.293 107.21 110.235 112.295 103.684 105.427 110.378 106.805 98.226 105.447 111.653 113.088 105.034 94.689 93.111 92.7 92.823 94.536 95.244 95.951 96.07 95.252 95.011 92.266 92.016 92.24 93.354 91.618 90.929 90.63 90.477 90.506 90.571 90.471 90.519 90.497 90.395 90.475 90.558 90.319 90.469 90.512 90.495 90.515 90.41 89.8 89.2 88.806 88.724 88.544 88.421 88.324 88.196 88.229 88.537 88.654 90.171 90.981 89.012 88.796 89.307 89.03 88.639 87.804 88.156 88.358 88.971 87.648 89.21 93.574 91.03 87.627 86.377 86.105 85.931 85.897 85.896 85.836 85.761 85.676 85.562 85.644 85.643 86.294 89.896 92.176 92.777 88.761 86.301 85.283 85.634 87.929 92.063 92.649 93.2 93.645 93.468 93.659 89.946 86.024 87.237 87.029 85.904 85.54 84.734 84.714 85.469 86.667 86.326 87.118 86.41 85.007 85.435 85.497 85.306 84.953 88.587 92.513 88.753 86.35 84.525 84.565 84.509 84.38 84.478 84.328 84.218 84.323 84.516 84.038 83.914 84.028 84.002 83.909 84.074 84.183 84.154 -9999 -9999 -9999 -9999 83.985 84.009 84.116 84.098 84.268 86.475 90.236 91.149 87.075 85.129 84.911 86.133 88.795 86.668 85.832 86.709 86.547 86.201 85.879 85.018 84.738 85.319 85.185 84.755 84.869 86.649 87.613 88.783 87.192 85.474 85.439 89.05 88.82 86.963 87.995 88.509 84.203 83.727 83.033 84.95 85.563 86.393 86.838 86.646 83.933 83.719 84.786 83.157 81.888 84.643 87.085 88.798 88.743 88.73 87.519 84.053 82.866 82.071 82.218 82.102 82.063 82 81.936 81.861 82.246 81.914 81.924 82.139 81.624 82.119 81.534 81.441 81.699 81.504 82.384 84.171 81.369 81.564 81.371 81.441 81.514 81.564 81.616 81.659 81.664 81.629 81.689 81.761 82.476 86.794 87.439 87.401 87.171 85.766 82.506 85.501 82.744 82.704 82.631 82.584 82.594 84.489 86.191 86.986 87.311 87.219 87.669 85.321 83.891 84.036 83.989 83.951 84.174 84.361 83.934 84.301 83.906 83.966 85.059 83.629 83.496 83.456 83.426 83.426 83.466 83.506 83.781 83.779 83.319 83.319 83.316 83.341 83.341 83.574 83.551 83.299 83.296 84.046 86.101 85.734 83.959 83.819 83.811 83.856 84.116 83.609 83.586 83.599 83.614 83.604 83.581 83.566 83.534 83.494 83.461 83.414 83.379 83.309 83.226 83.166 83.194 83.284 84.366 84.486 89.184 90.334 90.961 90.269 84.244 84.134 83.741 83.431 83.346 83.469 83.491 83.471 83.626 85.246 83.714 84.071 85.296 84.454 85.179 89.574 89.754 84.379 84.651 83.671 85.216 84.766 86.049 86.076 86.804 88.049 89.216 88.821
110.451 110.657 110.779 110.583 109.825 103.866 102.654 102.508 102.201 102.182 102.096 102.023 102.291 102.378 103.302 105.879 104.184 102.295 101.648 101.608 102.763 108.086 106.36 107.62 110.086 103.768 107.645 103.507 102.283 105.299 103.153 108.69 103.283 101.271 101.694 100.609 100.749 101.337 101.403 104.628 107.148 108.253 101.54 101.351 103.138 108.638 103.99 101.116 100.843 105.475 113.762 114.922 108.952 113.081 107.821 105.746 107.199 105.553 101.713 100.35 105.805 101.187 104.302 101.084 99.87 102.793 100.251 98.078 97.722 97.595 97.398 99.286 107.078 113.92 108.558 100.028 115.837 108.614 99.683 108.563 104.733 102.596 100.84 99.385 99.617 103.881 105.97 106.719 113.092 108.677 106.764 105.48 95.482 101.617 108.536 106.021 102.412 105.512 103.827 107.465 110.135 106.354 97.278 93.526 93.044 92.817 92.699 92.801 93.668 94.969 95.736 95.512 95.443 94.839 92.904 91.582 92.784 91.33 90.942 90.769 90.506 90.471 90.564 90.459 90.479 90.449 90.461 90.422 90.498 90.43 90.492 90.484 90.412 90.608 90.589 89.825 89.426 88.852 88.649 88.582 88.45 88.441 88.835 88.999 91.397 92.167 92.676 91.855 90.939 89.873 88.416 87.83 87.205 87.058 87.392 90.951 87.564 86.846 88.664 90.027 89.432 91.02 88.076 86.409 85.964 85.808 85.806 85.821 85.751 85.773 86.192 86.462 85.834 89.228 92.932 94.097 94.143 91.607 85.487 85.204 85.182 85.349 89.009 90.509 91.537 92.514 92.545 92.877 90.739 86.656 87.082 85.621 85.156 85.864 87.039 85.232 85.255 86.315 85.416 86.86 86.702 85.575 84.946 84.739 84.587 84.625 87.109 88.607 85.475 84.652 84.381 84.605 84.547 84.373 84.307 84.214 84.273 84.482 85.167 84.314 83.908 83.984 84.052 83.936 84.025 84.062 84.145 84.072 83.904 83.801 83.834 83.914 83.851 84.231 84.433 84.778 86.219 89.146 90.416 89.529 87.723 85.875 85.779 85.707 85.29 84.846 85.123 85.301 84.978 84.139 84.273 84.821 85.589 85.667 85.4 84.779 86.773 88.494 89.738 89.209 85.821 86.084 87.333 88.015 87.2 87.94 88.789 86.499 83.385 82.964 83.393 85.055 86.737 87.24 86.591 84.753 82.639 82.977 84.834 88.293 91.629 87.183 84.501 85.506 85.822 82.728 82.055 82.421 81.952 82.079 82.059 81.933 81.857 81.784 81.724 81.989 82.059 81.839 82.049 81.426 82.914 81.469 81.471 81.976 81.496 81.466 81.356 81.284 81.356 81.446 81.484 81.496 81.536 81.556 81.616 81.729 82.504 81.714 81.756 81.781 85.216 85.979 85.156 86.416 85.719 83.111 82.561 83.611 82.661 82.634 82.594 82.586 83.441 86.409 84.859 83.771 85.384 83.631 83.689 83.814 83.839 83.881 83.966 84.139 83.786 83.244 83.174 83.211 83.579 84.594 83.669 83.499 83.451 83.436 83.424 84.061 84.294 84.279 83.291 83.191 83.204 83.196 83.206 83.194 83.169 83.144 83.151 83.146 83.836 86.099 83.511 85.939 83.669 83.659 83.754 83.606 83.664 84.759 83.709 83.554 83.501 83.521 83.524 83.506 83.481 83.451 83.409 84.084 84.081 83.261 83.209 83.131 83.126 83.156 83.191 84.251 84.029 88.016 88.114 84.094 83.894 83.286 83.256 83.259 83.336 83.306 83.416 83.579 83.991 83.579 85.911 87.971 87.589 85.689 84.331 84.286 84.731 83.484 83.466 86.464 85.819 86.056 86.219 87.419 88.659 89.196 88.826
110.153 109.869 109.944 110.151 109.405 106.603 103.322 102.243 102.357 102.006 102.046 102.021 102.188 102.144 103.075 104.746 103.536 102.798 101.898 101.448 101.312 102.834 104.693 105.708 111.747 108.388 102.137 108.159 102.19 112.002 105.027 106.278 105.066 107.378 104.116 101.201 100.708 100.713 100.607 101.209 102.522 102.236 100.929 100.384 101.386 102.408 100.577 100.015 100.304 100.594 101.186 101.7 101.307 101.965 103.192 105.813 108.627 103.835 105.133 99.244 99.118 100.607 106.605 105.224 99.245 98.737 98.58 98.387 101.962 98.974 97.254 103.755 112.576 114.419 111.81 110.848 102.362 97.677 103.539 105.226 99.354 97.561 96.918 97.136 98.309 97.605 96.668 106.812 116.152 112.479 96.1 95.489 94.96 94.415 96.148 103.948 106.346 96.96 98.064 102.305 96.726 96.494 93.531 93.532 93.626 94.45 93.576 94.484 92.26 92.796 93.711 94.552 95.474 95.608 93.395 92.124 91.352 90.993 90.979 90.62 90.489 90.492 90.62 90.54 90.55 90.434 90.546 90.499 90.5 90.43 90.552 90.518 90.456 90.456 90.295 89.927 89.557 88.954 88.884 88.743 89.432 89.317 89.519 89.218 90.571 91.825 92.035 90.438 89.217 89.44 88.785 87.566 87.07 87.234 88.447 88.535 86.872 87.188 88.227 90.056 93.487 93.424 88.435 86.699 86.074 85.837 85.775 85.829 85.703 85.878 87.772 88.376 88.334 92.243 93.924 94.114 93.873 92.185 88.411 85.732 85.097 85.201 85.279 85.909 87.594 90.902 90.294 89.962 88.813 86.8 86.245 84.868 86.466 89.678 90.611 86.635 84.997 85.456 86.313 85.169 85.253 85.715 84.798 84.657 84.612 84.54 84.901 84.641 84.553 84.517 84.595 84.644 85.149 84.694 84.366 84.267 84.245 84.519 84.983 84.772 84.185 84.225 84.191 83.96 83.97 84.08 84.215 83.983 83.796 83.771 83.804 83.878 83.883 83.986 84.225 86.272 86.777 89.212 90.691 90.597 89.761 85.69 84.562 84.637 84.18 84.038 83.957 84.035 83.994 83.898 84.23 84.847 85.577 85.54 85.368 84.816 85.885 89.002 91.451 90.657 88.691 86.589 86.281 86.115 86.345 87.183 84.351 84.13 84.388 85.633 82.942 86.185 86.553 85.885 85.14 83.148 83.83 84.799 86.463 90.018 91.593 89.865 85.092 83.254 82.642 82.742 81.5 82.013 81.833 81.927 82.316 81.803 81.688 81.62 81.564 81.739 81.514 81.884 82.264 81.474 81.701 81.534 81.914 81.254 81.241 81.266 81.319 81.366 81.406 81.451 81.449 81.456 82.136 82.089 81.934 81.979 81.729 81.761 81.786 81.821 81.816 81.839 82.029 84.571 86.224 87.121 82.591 82.581 83.601 83.904 84.174 84.159 83.774 83.719 83.711 83.979 83.749 83.764 83.526 83.689 84.019 84.194 84.106 83.149 83.289 83.134 83.124 83.136 84.041 83.504 84.821 83.489 83.434 83.491 83.654 83.574 83.559 83.231 85.024 83.064 83.061 83.079 83.046 83.026 83.009 82.999 82.994 82.981 82.996 83.011 83.454 85.301 83.486 83.951 88.336 84.014 83.336 83.354 83.291 85.936 83.781 83.471 83.411 83.436 83.419 83.416 84.101 83.501 83.311 83.269 83.221 83.174 83.129 84.149 83.519 83.039 83.034 84.294 84.059 84.524 83.514 83.106 83.051 83.151 83.191 83.174 83.324 84.091 83.504 85.249 87.694 88.761 89.579 88.396 87.326 84.711 87.561 84.749 84.874 84.621 83.271 83.304 86.511 87.171 87.976 88.359 87.546
107.7 104.848 104.604 106.448 105.413 104.021 102.812 102.208 102.179 101.967 102.139 101.993 102.131 102.95 104.114 103.875 102.831 102.121 101.862 101.512 101.808 101.75 102.824 105.029 105.1 102.809 101.752 102.457 101.525 102.065 101.374 101.774 102.291 105.29 103.008 101.313 100.963 100.926 100.584 100.401 100.93 100.648 100.017 100.561 103.486 102.377 99.957 99.883 101.23 101.074 103.806 106.529 100.208 99.463 100.93 103.008 104.33 102.446 102.423 98.759 99.379 100.257 100.307 99.51 98.542 98.246 97.964 98.449 99.923 98.248 97.84 101.605 103.418 111.8 107.61 111.032 98.348 100.104 97.406 97.147 103.392 99.582 96.323 95.897 95.828 95.678 95.68 100.959 106.483 98.167 95.04 94.748 94.408 94.424 94.513 94.744 94.827 94.426 95.081 96.147 94.736 95.387 93.712 93.731 93.442 95.039 107.336 95.546 93.285 92.328 92.376 92.563 94.04 94.829 94.445 93.574 91.085 90.94 90.928 90.751 90.515 90.56 90.593 90.517 90.472 90.381 90.472 90.494 90.44 90.399 90.448 90.629 91.207 90.048 89.629 90.035 89.603 89.426 89.536 89.045 89.374 89.292 88.394 87.887 88.13 89.994 90.439 90.275 89.687 89.844 89.22 88.052 87.116 86.949 86.918 86.71 86.665 87.197 87.449 89.152 93.736 94.416 91.605 86.444 86.557 86.028 85.818 85.71 86.136 86.546 86.726 88.698 91.274 93.051 93.982 93.702 93.15 91.451 89.151 85.877 85.679 85.129 85.09 85.359 85.788 87.098 85.872 87.387 86.224 85.492 85.821 86.916 89.622 91.461 88.565 85.187 84.83 84.878 85.173 84.807 84.809 85.123 84.74 84.654 84.629 84.575 84.514 84.409 84.631 84.732 84.733 85.721 86.798 86.476 85.691 84.399 84.207 84.254 84.562 85.556 84.352 84.371 84.25 84.043 84.016 84.046 84.039 83.858 83.738 83.744 83.809 83.934 83.818 83.771 84.166 86.421 87.493 89.14 91.307 91.37 89.028 85.451 84.826 86.267 84.894 84.346 84.082 83.998 84.048 84.139 84.245 84.589 85.615 85.367 84.951 84.704 85.612 89.391 92.274 91.547 89.586 86.145 85.569 85.711 86.534 84.665 85.693 84.404 84.488 86.465 85.353 85.943 86.56 84.673 83.423 82.677 85.696 87.679 87.515 88.685 91.328 90.995 84.566 81.881 81.669 82.573 81.449 81.76 81.717 81.75 81.75 82.197 82.282 81.647 81.42 81.346 81.446 81.641 82.821 82.941 82.544 81.186 81.176 81.219 81.276 81.341 81.356 81.369 81.381 81.381 81.509 82.024 83.656 84.361 81.784 81.781 81.796 81.811 81.839 81.846 82.809 84.921 87.901 87.879 88.319 88.549 83.781 82.609 82.626 82.619 82.644 82.721 83.614 83.686 83.681 84.439 84.479 83.339 83.456 84.324 83.606 83.251 83.124 83.144 83.151 83.149 83.124 83.116 83.119 83.246 85.364 83.566 83.486 83.361 84.986 84.639 83.006 84.051 84.854 82.929 82.931 82.936 82.914 82.874 82.864 82.854 82.836 82.876 82.846 82.869 82.976 83.176 83.169 85.099 90.479 83.531 83.181 83.314 83.221 83.154 83.904 86.056 84.161 83.391 83.321 83.339 83.434 84.086 83.299 83.261 83.221 83.179 83.124 83.071 83.011 83.461 83.586 82.926 82.911 84.214 82.959 82.941 82.951 83.011 83.004 83.106 83.231 84.201 83.489 87.001 88.521 89.829 90.034 89.004 86.564 83.381 84.689 86.454 84.956 85.954 83.094 83.586 85.976 86.056 86.551 87.166 86.694
102.419 102.529 102.591 102.322 102.299 102.477 102.41 102.282 102.342 102.091 102.295 102.555 103.28 104.286 104.608 104.077 102.123 101.736 101.603 102.32 101.89 102.505 103.029 106.535 104.848 101.327 103.227 107.68 101.68 100.935 100.99 101.657 102.918 105.956 103.984 104.542 101.061 101.128 100.802 101.061 101.879 101.864 100.455 100.225 100.932 100.418 99.744 100.075 104.135 109.02 105.687 104.688 99.69 99.374 99.588 101.709 102.371 100.401 99.253 99.084 100.025 100.943 105.154 101.314 99.93 98.229 97.885 97.826 97.797 97.639 97.797 99.509 110.907 115.752 115.399 102.396 105.758 106.219 97.719 105.813 100.037 101.493 99.667 97.054 96.393 97.955 95.946 95.35 96.09 95.746 94.832 94.554 97.403 94.99 98.724 96.68 94.759 95.764 96.447 95.548 96.531 95.928 93.645 93.065 93.901 97.867 109.753 104.159 95.506 93.815 92.948 92.103 92.403 93.294 91.651 91.18 91.199 90.967 90.979 90.871 90.668 90.627 90.542 90.482 90.44 90.413 90.496 90.345 90.435 90.229 90.072 89.816 90.433 89.722 89.045 89.167 90.081 89.795 88.631 88.453 88.333 88.324 88.145 87.797 87.711 88.196 89.763 90.21 89.941 89.789 89.429 88.902 87.789 87.726 86.759 86.708 86.729 87.944 86.961 87.059 90.807 93.101 91.562 86.62 86.275 86.818 86.062 85.987 86.496 86.468 85.994 87.798 92.192 93.686 93.827 93.072 92.14 89.717 86.75 85.28 85.222 85.104 85.019 85.094 85.33 85.118 85.328 86.397 86.814 85.363 86.629 90.436 92.905 91.833 90.107 85.971 84.869 84.807 84.703 84.679 84.7 85.301 86.199 85.562 84.865 84.675 84.526 84.65 85.096 85.998 86.588 88.426 88.136 87.823 87.456 84.954 84.223 84.192 84.453 84.808 85.319 84.843 84.497 84.09 83.993 83.944 83.772 83.693 83.68 83.705 83.744 84.009 83.824 83.743 84.223 87.026 88.121 89.641 91.698 91.476 90.3 87.744 85.526 85.296 84.532 84.844 84.552 84.334 84.257 84.568 84.85 85.275 86.915 87.624 85.39 84.679 84.77 88.631 90.405 90.896 90.413 88.316 84.786 85.035 86.467 87.154 87.562 85.078 85.588 85.526 83.6 84.184 84.014 84.093 83.529 86.777 87.058 87.703 88.108 87.158 90.755 91.478 87.52 80.939 81.625 82.449 81.424 81.617 81.726 81.601 81.611 81.63 81.656 82.207 81.247 81.199 81.539 82.331 81.599 81.111 81.119 81.179 81.246 81.271 81.291 81.316 82.229 81.566 81.431 82.664 83.244 87.416 90.209 85.394 81.826 90.166 82.139 82.081 82.659 85.794 89.241 89.639 89.244 88.316 87.849 87.396 84.674 82.659 82.626 82.651 82.701 82.704 82.794 82.864 82.919 82.904 83.386 83.476 83.259 83.156 83.121 83.129 83.129 83.119 83.094 83.104 83.136 83.116 83.094 83.134 83.299 84.079 83.271 83.056 84.566 85.229 82.999 84.121 82.901 82.799 82.824 82.819 83.294 84.026 83.774 83.834 84.374 84.474 84.911 84.946 83.111 83.021 83.119 83.106 83.111 83.159 83.194 82.921 82.966 82.934 82.971 82.776 83.844 85.781 84.746 83.499 83.231 83.259 83.241 83.234 83.201 83.176 83.126 83.061 83.016 82.966 83.881 85.084 82.784 82.809 82.789 82.751 82.814 82.851 82.864 82.989 83.596 83.454 85.079 87.599 88.329 90.474 89.299 87.734 83.121 82.979 82.961 85.164 85.894 82.874 82.916 83.899 85.994 85.756 85.754 85.924 84.956
103.938 102.533 102.33 102.352 102.498 102.232 102.473 102.443 102.327 102.148 102.102 102.383 102.878 109.653 108.477 103.122 101.7 102.022 103.874 108.216 104.726 110.181 110.254 106.347 101.634 101.089 100.958 103.506 101.323 101.023 101.231 101.622 103.642 106.679 103.166 106.566 100.864 100.735 100.51 101.313 103.363 103.864 101.423 99.872 100.054 99.692 99.741 101.137 110.588 107.94 103.301 100.647 99.382 99.243 99.447 99.701 99.902 99.46 98.969 99.778 100.481 101.723 103.695 101.144 106.719 100.121 98.092 98.149 97.736 97.567 97.711 102.333 111.184 107.398 116.76 113.823 107.978 100.509 99.007 106.602 99.356 102.694 99.552 97.566 96.913 97 95.813 96.085 95.671 95.174 96.117 102.212 104.87 100.223 108.179 96.461 94.693 95.069 97.364 96.14 97.815 97.974 96.227 100.959 102.848 104.477 106.418 105.063 101.97 97.587 94.481 91.671 91.902 93.218 91.512 91.582 91.768 91.408 92.769 91.776 90.638 90.545 90.606 90.437 90.298 90.465 90.661 89.844 89.896 90.481 91.084 90.736 90.425 90.153 89.084 88.632 88.74 88.487 88.48 88.313 88.284 88.869 88.321 87.856 87.766 88.176 89.4 89.24 89.465 89.556 89.549 90.118 89.33 88.108 86.71 86.79 87.148 86.671 86.419 86.513 89.256 90.23 88.182 86.778 86.503 86.634 86.448 87.652 87.339 86.434 85.694 87.298 90.133 93.565 92.957 92.401 92.009 90.098 86.791 85.024 84.897 85.369 85.091 84.899 85.018 85.043 86.201 87.303 86.666 85.714 86.762 91.49 93.146 92.979 91.099 87.309 86.954 86.162 85.235 84.9 84.645 85.565 86.47 85.477 84.951 84.948 84.954 85.105 86.076 87.333 88.786 92.496 91.978 90.6 88.516 86.3 85.074 84.487 84.696 84.961 86.03 85.612 85.489 84.329 83.911 83.743 83.662 83.583 83.553 83.658 83.725 83.774 83.708 83.577 83.6 86.054 89.1 89.901 91.847 92.118 91.164 89.078 86.054 84.639 84.418 84.846 84.774 84.583 84.467 85.058 85.929 86.604 88.087 88.765 90.42 86.773 85.021 87.58 89.797 90.18 90.309 89.824 86.291 84.863 86.898 87.456 86.879 85.816 86.456 83.596 82.623 82.36 82.359 87.283 87.786 88.226 88.616 88.978 89.128 89.364 90.374 91.617 89.02 81.177 81.895 83.053 81.566 81.398 81.603 81.468 81.543 81.523 81.486 81.447 81.346 81.064 81.039 81.049 81.061 81.109 81.149 81.189 81.211 81.219 81.184 81.236 84.856 82.416 81.659 81.181 81.446 91.154 91.944 82.041 82.361 82.191 81.789 88.799 89.389 89.799 90.239 90.534 89.626 87.806 84.036 82.104 82.696 83.861 82.676 82.669 84.601 83.004 82.771 82.846 82.879 82.906 82.904 82.876 83.094 83.116 83.116 83.114 83.099 83.119 83.064 83.451 83.131 83.094 83.061 83.066 83.154 83.534 83.491 83.074 82.854 82.761 82.686 82.649 82.681 82.706 82.739 82.731 84.856 85.386 85.396 85.481 85.446 85.504 85.899 85.366 83.006 83.924 87.761 85.896 82.871 82.839 82.811 82.766 82.791 82.756 82.684 82.664 82.699 83.114 84.096 86.034 84.804 83.206 84.949 84.289 83.154 83.136 83.116 83.069 83.006 82.954 82.909 82.854 82.776 82.691 82.626 82.631 82.689 82.709 82.754 82.844 84.141 83.314 85.679 88.266 89.809 90.069 89.454 86.786 82.994 82.994 83.074 83.074 82.719 82.759 82.881 82.816 83.951 85.744 85.746 85.729 82.521
105.679 102.888 102.391 102.609 103.058 103.114 102.782 102.285 102.519 102.601 102.393 102.806 105.587 107.864 104.009 105.215 103.727 104.816 109.556 113.768 104.296 103.609 108.175 105.879 102.74 101.081 101.416 102.297 101.044 101.086 102.092 102.624 102.627 102.872 101.41 101.269 101.541 101.853 101.43 101.354 103.752 104.474 101.817 100.155 100.043 99.748 99.82 99.812 102.077 100.667 99.473 99.343 99.291 99.782 101.541 99.312 99.456 98.879 98.877 99.227 98.946 100.216 102.867 105.417 101.442 100.133 98.355 98.616 97.741 97.505 97.362 102.144 107.715 113.757 114.495 102.172 106.234 111.213 99.82 100.03 106.57 104.953 97.862 96.459 95.918 95.876 96.094 95.949 95.134 95.068 98.294 99.891 107.746 104.822 98.931 94.187 103.685 94.306 95.018 95.083 99.79 96.595 108.84 106.545 104.148 105.346 109.699 98.668 94.389 93.759 93.234 91.82 91.489 91.92 93.061 94.636 94.589 93.999 95.122 94.396 90.99 90.784 90.236 90.051 89.865 89.839 89.702 89.601 89.686 89.861 91.411 90.593 90.431 90.246 88.863 88.759 88.521 88.399 88.728 88.752 88.307 88.628 88.45 88.574 90.114 89.601 88.44 87.646 88.083 88.542 89.37 89.385 88.205 87.293 86.602 86.871 86.969 86.372 86.349 86.534 87.259 86.425 86.875 86.84 87.839 87.584 86.934 88.429 88.483 88.142 86.734 86.085 86.742 89.005 89.468 89.358 88.047 87.272 85.738 84.825 84.908 85.322 85.167 85.089 85.084 84.96 85.547 86.024 85.457 84.988 86.048 90.032 92.917 93.049 91.664 88.846 87.857 87.506 86.33 85.185 84.705 84.762 84.964 84.672 85.444 86.551 86.143 85.489 86.818 88.71 90.95 92.313 93.154 91.902 89.873 88.401 85.003 84.814 84.536 84.279 84.6 85.762 86.67 83.76 83.688 83.653 83.512 83.533 83.544 83.607 83.68 83.702 83.649 83.59 83.716 84.744 87.392 90.375 92.913 92.434 91.878 89.016 85.593 84.342 84.261 84.382 84.417 84.961 84.853 85.545 85.13 86.893 89.438 92.287 91.193 86.227 84.891 87.644 88.994 90.153 90.486 90.644 86.988 85.689 85.414 85.121 82.938 85.189 83.897 83.393 82.638 82.243 82.849 85.085 89.348 89.265 89.115 89.154 88.825 88.383 87.873 87.421 81.5 81.169 81.692 84.82 82.649 81.471 82.331 81.505 81.503 81.473 81.789 81.481 81.053 80.979 81.03 81.085 81.094 81.106 81.544 81.139 81.111 81.191 86.094 88.814 89.341 87.921 81.081 81.056 81.336 87.534 87.756 89.301 85.174 86.739 81.896 89.099 89.841 90.764 91.179 91.009 90.009 89.439 82.374 82.129 82.181 82.399 82.951 82.796 82.704 85.134 82.729 82.824 82.841 82.849 82.864 82.866 83.504 83.116 83.134 83.094 83.084 83.109 83.084 83.101 83.116 84.606 83.076 83.059 83.201 83.421 83.406 83.386 82.766 82.689 82.641 82.626 82.646 82.626 82.669 82.669 84.414 85.379 86.759 86.751 86.749 86.734 86.746 85.354 83.549 82.789 83.271 82.649 83.749 82.611 82.589 82.601 82.574 82.586 82.556 82.549 82.614 82.489 84.206 84.151 86.544 85.781 83.206 83.089 83.024 83.686 83.189 83.016 82.986 82.949 82.891 82.836 82.784 82.731 82.684 82.609 82.546 82.546 82.611 83.331 83.216 84.661 87.806 88.376 88.646 89.289 87.749 83.444 82.981 83.081 85.201 82.611 82.594 82.731 82.514 82.996 85.749 85.749 85.754 83.474 82.321
104.802 103.291 102.363 102.411 102.813 102.775 102.204 102.429 102.779 102.543 102.11 102.373 102.718 102.796 102.364 102.725 103.435 110.417 110.774 108.207 102.642 101.33 106.159 103.889 101.197 101.386 106.691 105.276 102.433 101.019 103.972 107.843 102.361 101.365 106.203 100.811 100.482 101.101 105.627 101.774 100.913 101.44 100.32 100.031 99.867 99.932 99.809 99.502 99.497 99.481 99.454 99.327 100.059 103.985 101.378 99.085 101.875 99.237 98.72 98.576 98.512 98.879 98.586 100.922 98.602 98.241 98.06 98.221 97.532 97.509 98.096 101.798 102.756 109.59 104.73 99.172 104.456 105.241 99.994 103.697 102.125 96.755 95.988 96.377 99.026 100.833 95.394 94.923 94.783 95.084 96.346 102.423 110.798 107.178 100.864 105.242 104.746 94.997 94.009 94.166 102.996 104.842 108.143 105.928 111.823 113.392 102.206 98.445 92.242 92.497 91.751 91.601 91.663 92.294 95.287 96.697 96.312 96.508 94.981 92.386 91.821 91.537 91.005 89.974 89.839 89.505 89.459 89.445 89.362 89.354 90.394 91.398 91.414 90.192 89.667 90.07 88.872 88.621 88.438 90.508 89.13 88.581 88.677 88.721 91.147 92.558 88.184 87.801 87.753 88.114 90.449 91.662 89.518 87.688 87.332 88.187 87.46 86.412 86.257 86.679 86.515 86.281 86.733 86.87 88.051 88.54 87.947 88.613 88.679 87.743 86.203 86.153 85.468 85.603 88.142 86.378 85.358 85.357 85.226 85.123 85.707 87.906 87.262 86.145 85.688 85.115 85.33 85.234 84.729 84.841 84.895 88.116 91.513 92.054 90.453 88.121 87.933 87.789 84.993 85.12 84.644 85.169 86.376 85.988 86.827 86.549 86.035 84.757 86.352 89.955 90.716 91.821 93.185 92.627 91.141 89.052 85.467 84.875 84.123 84.166 84.182 84.362 84.181 83.745 83.605 83.523 83.419 83.519 83.512 83.54 83.634 83.613 83.543 83.559 83.81 84.736 87.301 89.04 92.093 92.427 92.073 89.174 85.009 84.452 84.246 84.237 85.191 85.221 86.156 86.931 88.152 88.625 88.869 89.733 89.584 86.221 86.383 85.176 87.115 85.627 83.774 83.316 84.134 85.137 82.88 82.617 82.517 82.587 82.97 82.834 82.965 82.645 83.034 83.575 88.873 88.502 87.911 86.065 86.181 84.921 83.165 82.119 81.599 81.644 82.381 88.463 84.292 85.361 81.516 81.312 81.478 81.214 81.056 80.967 80.999 81.03 81.033 81.039 81.041 81.624 82.056 84.671 87.581 88.719 89.476 90.134 90.704 91.226 85.049 81.251 81.126 81.291 85.446 81.709 84.074 84.196 81.649 85.879 89.414 90.516 90.536 90.169 89.781 89.319 83.361 81.984 81.926 82.121 82.844 83.184 83.291 83.809 82.751 82.794 82.829 82.829 82.866 82.884 82.896 83.011 83.056 83.104 83.094 83.089 83.061 85.059 83.989 83.254 85.004 83.564 83.599 83.364 82.964 82.896 82.684 82.661 82.666 85.944 83.294 82.644 82.621 82.636 84.086 85.404 86.771 86.761 86.739 86.754 86.769 85.376 85.146 82.621 82.456 82.414 82.381 82.734 87.859 87.219 83.704 82.414 82.409 82.381 88.611 83.296 83.566 83.389 82.836 83.006 85.844 85.796 83.556 83.001 84.071 82.924 82.921 82.894 82.869 82.821 82.769 82.726 82.669 82.626 82.584 82.509 82.444 82.464 82.436 82.981 86.121 86.831 87.604 88.319 87.319 82.374 82.641 83.734 84.496 82.514 82.536 82.654 82.311 82.304 82.696 85.596 85.739 82.231 82.279
104.929 102.982 102.097 102.017 102.038 101.914 101.964 102.048 101.908 101.795 101.714 101.629 101.546 101.667 101.641 101.587 101.981 102.505 103.598 101.379 101.362 101.911 101.397 101.228 101.018 105.38 107.603 104.114 101.515 102.039 108.272 111.231 107.167 101.327 102.889 100.74 100.108 100.097 100.665 100.587 100.411 101.007 100.97 100.021 99.984 101.53 101.99 99.825 99.42 99.382 99.376 99.39 99.342 99.948 99.184 99.728 105.182 99.688 98.928 98.694 100.741 98.659 99.524 106.128 100.437 98.562 99.112 102.333 101.085 97.986 101.432 104.139 107.002 98.621 101.238 107.087 98.186 101.734 107.562 100.692 96.479 96.162 96.022 97.49 107.038 102.823 95.221 94.799 94.794 95.177 96.616 101.541 107.647 109.535 111.802 106.199 100.234 104.017 94.839 93.477 95.284 100.372 99.632 101.396 113.292 110.112 100.468 96.321 92.694 92.087 91.506 91.507 91.631 92.299 93.697 92.793 92.071 92.731 92.961 92.22 91.888 91.74 91.999 90.635 90.026 89.493 89.376 89.332 89.291 89.171 89.264 90.251 90.501 89.341 90.199 91.191 89.122 88.455 89.373 93.035 91.069 89.946 90.019 91.073 93.149 94.418 92.217 88.336 87.753 88.474 91.685 95.492 93.309 89.721 88.151 88.137 86.913 86.438 87.33 87.047 86.292 86.256 86.65 88.112 88.23 88.126 87.676 87.839 87.787 87.579 86.228 85.9 85.498 85.387 85.544 85.667 85.473 85.316 85.096 85.16 89.445 91.225 89.772 88.98 88.336 86.112 87.422 86.955 85.133 84.769 84.958 85.979 89.209 90.243 87.907 87.587 86.554 85.159 84.757 84.607 84.687 85.179 86.217 86.579 85.761 85.976 84.526 84.821 84.992 85.641 88.878 91.505 92.645 92.355 91.667 88.431 84.589 84.41 84.165 84.116 84.038 84.013 84.09 83.77 83.608 83.414 83.288 83.354 83.383 83.397 83.48 83.491 83.511 83.445 83.839 84.073 86.334 88.149 91.203 93.166 92.011 89.201 85.422 84.811 84.495 84.82 85.112 86.315 87.171 88.015 87.531 88.341 89.134 89.789 88.596 87.881 86.7 83.511 82.45 82.638 82.629 82.636 82.9 83.703 82.477 82.525 82.484 83.26 85.562 88.258 89.217 83.41 83.243 83.94 87.888 83.716 82.112 82.195 82.693 83.814 83.726 86.019 87.107 81.96 84.516 86.304 90.429 84.043 81.504 81.04 81.056 80.903 80.952 80.972 80.983 80.974 80.954 80.934 80.944 81.454 83.136 89.244 89.701 90.366 90.919 91.276 90.694 89.906 86.909 85.631 83.069 80.991 81.291 82.926 83.354 84.441 81.661 82.736 89.949 89.861 89.544 89.174 88.724 85.916 81.864 82.001 81.951 81.931 81.876 83.569 83.269 82.791 82.756 82.769 83.359 83.666 83.044 82.834 82.826 83.334 83.039 83.066 83.089 83.069 83.084 83.579 83.746 83.629 84.156 83.691 82.771 82.634 82.539 82.599 82.624 82.614 84.869 90.744 90.734 82.686 83.374 83.629 84.771 85.379 86.759 86.754 86.736 86.739 86.746 85.374 84.436 82.266 82.224 82.221 82.189 83.644 88.999 89.459 88.436 82.571 84.029 82.406 82.716 82.136 82.181 82.356 82.164 82.916 89.381 87.259 87.686 85.529 83.194 82.874 82.784 82.986 82.784 82.771 82.749 82.699 82.654 82.611 82.571 82.521 82.451 82.341 82.294 82.314 82.291 83.129 85.856 86.951 83.849 82.844 82.231 82.924 82.491 82.431 82.579 82.314 82.274 82.261 82.249 82.224 82.196 82.229 82.639
103.216 102.021 101.987 101.899 101.975 101.872 101.771 101.716 101.779 101.651 101.501 101.555 101.563 101.51 101.361 101.371 101.266 101.308 101.684 103.32 101.977 103.198 107.663 103.373 101.957 106.99 108.253 102.964 103.83 104.164 107.871 111.485 107.811 110.64 100.898 100.301 100.268 100.207 100.141 100.364 100.666 100.352 99.99 99.91 101.488 101.318 107.825 100.1 99.41 99.39 99.425 99.565 99.659 100.499 99.372 99.242 99.465 98.67 98.803 99.06 104.457 111.551 108.342 105.237 100.06 100.699 105.53 107.2 104.108 97.972 108.432 104.904 99.03 96.824 103.644 99.491 97.356 105.937 97.598 95.849 95.928 96.22 96.773 100.582 97.946 95.913 95.624 95.04 94.933 94.934 97.15 97.305 105.017 111.933 101.168 103.266 104.57 96.38 93.874 94.331 95.446 104.553 104.136 101.863 107.466 99.585 94.996 92.138 92.014 91.709 91.624 91.683 91.29 91.579 92.894 92.673 92.885 92.308 90.959 90.601 91.639 91.825 90.813 89.878 90.061 89.548 89.281 89.206 89.465 91.446 90.804 90.723 90.005 89.061 89.304 90.2 88.732 88.471 90.96 93.862 94.043 93.624 93.582 95.01 94.705 94.509 90.759 88.606 88.038 88.801 92.069 95.532 94.857 93.543 90.68 87.962 86.369 86.875 87.979 86.808 86.171 88.622 88.046 86.814 86.486 86.395 86.651 86.798 87.978 89.246 87.933 87.016 87.3 86.859 86.203 85.975 85.951 85.379 84.894 84.973 87.849 89.55 89.684 88.947 87.491 86.876 87.979 88.08 86.277 84.788 84.56 84.708 87.348 89.537 86.63 85.904 85.115 84.606 84.71 84.926 85.507 85.057 85.345 87.577 88.277 89.322 86.91 86.022 87.054 84.967 85.737 88.668 91.757 91.251 89.17 85.563 84.275 84.189 84.102 84.061 84.112 84.946 84.48 83.812 83.576 83.416 83.249 83.343 83.347 83.206 83.304 83.373 83.638 83.473 84.488 86.013 85.555 88.722 90.454 92.024 91.865 -9999 85.206 85.039 86.324 86.255 85.475 86.616 87.142 88.559 89.414 88.913 87.672 87.461 87.286 87.418 87.242 83.445 82.345 82.426 82.478 82.485 83.235 85.978 86.247 87.693 87.877 89.357 89.906 90.201 90.497 88.81 86.99 89.593 89.621 87.693 86.04 82.259 83.993 82.647 92.059 82.82 81.579 82.205 82.82 82.194 87.379 85.117 81.063 80.931 80.936 80.94 80.955 80.928 80.901 80.836 80.864 80.861 80.945 82.354 81.094 89.139 91.431 91.454 91.299 90.126 89.024 88.604 88.289 86.961 82.594 80.966 81.196 82.219 84.541 83.749 82.584 81.544 89.581 88.969 87.156 82.716 82.094 81.684 81.761 81.591 81.526 81.516 81.914 82.894 84.769 82.689 82.736 82.761 83.239 83.649 83.009 82.761 82.786 82.766 83.014 83.059 83.079 83.094 83.201 83.541 83.411 82.546 82.394 82.551 82.484 82.326 82.354 82.436 82.451 82.696 91.066 91.081 91.109 90.539 91.079 85.369 85.366 85.396 86.366 85.906 86.084 85.891 85.706 85.381 84.004 81.974 81.954 81.991 81.981 82.166 89.239 89.709 87.961 84.834 85.579 85.311 85.249 81.971 82.001 82.419 89.501 92.236 92.249 91.199 91.901 89.304 87.146 84.004 82.859 82.736 83.754 83.109 82.661 82.629 82.614 83.236 82.546 82.511 82.451 82.384 82.301 82.201 82.464 82.171 82.144 82.626 82.214 82.929 86.494 87.779 82.439 82.421 82.429 82.244 82.231 82.214 82.211 82.176 82.169 82.161 82.279
101.941 101.875 101.723 101.751 101.828 101.595 101.432 101.579 101.629 101.435 101.492 101.517 101.261 101.18 101.331 101.236 101.109 101.301 102.168 102.499 107.664 103.913 105.535 103.658 107.253 106.322 103.259 106.948 108.205 104.414 103.025 103.303 104.173 102.381 100.449 101.29 103.168 101.005 100.626 100.457 103.064 100.627 99.752 100.246 110.056 107.004 102.598 99.589 99.305 99.336 99.296 99.291 99.39 99.745 99.099 98.957 98.715 98.538 98.59 103.559 109.404 113.149 114.916 104.745 112.488 112.413 107.105 103.015 98.859 98.034 97.753 97.217 101.783 97.03 96.756 96.624 96.807 96.961 96.41 96.059 95.747 95.639 95.959 95.915 95.377 95.354 95.364 95.038 94.924 94.899 94.999 95.352 101.913 106.933 97.027 95.482 96.999 93.742 94.44 99.047 94.539 97.768 96.53 103.872 104.362 100.698 92.981 92.183 91.929 91.792 91.481 91.545 91.429 91.431 91.951 92.399 93.506 92.903 91.179 90.183 90.476 90.197 89.782 89.664 89.605 90.035 89.534 89.224 89.704 93.619 94.743 95.209 93.228 90.621 88.95 88.786 88.731 88.755 90.285 93.75 94.739 95.053 96.705 96.904 95.711 94.743 93.275 89.15 88.256 -9999 -9999 95.094 95.54 95.915 94.333 90.241 87.867 87.244 86.696 86.461 86.669 88.224 87.883 87.222 85.982 85.745 85.822 86.011 88.824 91.326 91.157 89.556 88.785 88.658 87.247 85.814 85.784 85.386 85.099 85.11 86.103 -9999 -9999 88.161 87.118 87.024 87.563 86.935 85.076 84.613 84.55 84.702 86.764 88.816 85.212 84.596 84.492 84.53 85.09 84.757 85.531 84.67 84.987 89.718 91.233 91.131 89.408 87.841 88.582 85.805 85.591 86.942 86.952 85.927 85.002 84.349 84.281 84.179 84.155 84.317 84.163 84.618 84.398 83.666 83.634 84.066 83.785 83.456 83.191 83.099 83.187 -9999 83.895 83.879 84.264 89.245 84.002 85.446 87.787 90.088 91.154 89.095 85.812 84.103 85.898 86.85 85.36 85.917 87.686 89.345 90.246 89.13 88.853 87.823 87.086 87.331 87.526 85.738 82.405 82.32 82.378 82.463 82.469 86.479 89.461 89.818 90.281 90.818 90.697 91.125 91.55 90.994 89.648 91.873 92.06 89.764 84.441 81.889 82.055 82.106 83.639 84.851 83.058 83.09 82.41 81.566 82.477 81.034 80.969 80.926 81.001 81.155 81.582 80.867 80.82 80.796 80.812 80.818 80.767 82.089 81.046 85.469 90.471 89.884 90.651 90.894 89.489 88.056 87.414 84.879 80.491 80.826 80.799 84.316 83.696 89.626 88.266 82.869 83.234 83.174 81.816 81.564 81.551 81.709 81.414 81.154 81.154 81.239 81.294 82.869 82.746 82.646 82.694 82.731 82.729 82.739 82.704 82.701 82.731 82.731 83.396 83.049 83.136 83.181 83.064 82.761 82.531 82.536 83.021 83.004 82.056 82.006 82.094 82.186 82.206 82.449 90.506 91.086 91.106 91.091 91.069 85.386 85.371 85.399 85.404 86.104 86.561 85.519 86.231 86.094 85.659 84.249 86.226 85.941 87.286 84.034 83.991 86.466 83.861 84.979 86.874 84.249 84.484 82.034 81.954 83.274 91.766 92.529 92.381 91.979 91.491 89.529 89.101 84.519 84.669 85.019 82.739 82.551 82.499 82.539 82.559 82.761 83.174 82.486 82.424 82.371 82.296 82.224 82.506 83.459 81.996 81.994 81.929 82.011 83.114 83.689 82.506 82.446 82.316 82.224 82.196 82.166 82.144 82.129 82.101 82.391 81.859
101.406 101.457 101.574 101.521 101.061 101.093 101.253 101.396 101.091 101.056 101.121 100.968 101.011 100.926 101.034 101.182 101.141 101.499 103.39 105.801 111.57 105.081 103.918 101.834 106.934 106.615 103.474 107.181 103.474 101.575 101.278 100.306 100.261 100.471 100.53 101.151 105.028 101.293 100.78 100.466 100.7 100.522 99.585 100.279 108.932 101.255 99.542 100.117 99.341 99.231 99.387 99.083 98.946 99.159 98.933 98.926 98.566 99.043 100.186 104.303 106.754 108.112 116.951 113.91 119.526 119.305 113.882 98.458 97.766 97.651 98.587 106.243 109.799 96.9 96.841 96.685 97.909 96.87 96.14 95.989 95.868 95.513 95.48 96.375 96.778 95.317 94.96 94.908 94.721 94.748 95.028 94.485 95.092 106.259 95.984 93.883 95.329 99.508 94.725 94.758 94.295 94.044 98.48 102.756 94.077 92.448 92.383 92.159 91.986 91.8 91.859 91.808 91.497 91.558 92.453 94.574 95.04 94.7 93.122 91.423 90.095 89.885 89.733 89.586 89.713 89.825 89.446 89.196 89.447 90.495 94.603 95.681 95.955 93.144 89.088 88.574 88.279 88.542 88.566 92.145 95.516 96.51 96.813 96.651 96.187 95.178 90.165 87.766 87.699 87.789 89.534 94.474 95.925 95.892 95.137 92.276 90.144 90.007 88.231 87.524 88.005 87.894 86.552 86.773 85.957 85.801 85.678 85.982 88.921 91.876 92.379 92.403 92.217 91.532 89.957 86.318 85.532 85.313 85.252 85.061 84.93 84.669 84.608 -9999 87.357 87.405 87.388 86.949 85.018 84.52 84.51 84.586 85.722 85.705 84.797 84.558 84.61 84.682 84.673 84.397 84.459 84.406 84.726 88.998 91.287 90.394 87.215 84.586 84.458 84.905 86.584 87.233 85.81 84.634 84.521 84.438 84.18 84.075 84.313 85.099 84.864 84.163 84.068 83.961 83.784 84.409 84.303 83.438 83.108 83.294 83.227 -9999 84.289 84.094 84.262 84.934 83.775 85.869 86.648 87.738 90.914 89.669 86.485 83.887 83.891 84.043 84.638 87.451 87.603 89.162 89.869 89.408 89.206 88.127 87.458 87.093 87.706 86.876 84.137 82.277 82.312 82.326 82.35 84.21 90.055 90.987 91.821 91.883 91.578 91.256 91.124 90.754 90.428 92.371 92.802 91.736 88.692 82.51 83.359 85.179 86.586 84.38 82.111 81.824 81.074 80.994 80.978 80.974 81.057 81.449 81.256 81.151 81.574 84.476 81.405 81.646 80.743 80.751 81.309 80.778 81.937 81.159 88.534 90.019 90.046 91.229 90.216 88.844 84.306 80.289 80.406 81.024 81.029 80.864 89.439 84.206 89.251 82.369 82.579 81.546 81.674 81.499 81.254 81.196 81.089 81.131 81.109 81.151 81.191 81.271 81.614 82.636 82.634 82.659 82.669 82.664 82.651 82.786 82.636 82.659 82.911 83.924 82.471 82.054 89.329 83.741 85.241 82.206 84.856 83.459 81.846 81.914 82.096 82.039 81.991 81.979 90.216 91.084 91.116 91.094 91.079 85.174 85.539 88.116 88.139 88.144 88.159 88.176 88.186 88.199 88.234 88.244 88.261 88.271 88.289 82.851 81.951 81.971 81.951 83.001 83.586 85.244 83.746 82.559 81.929 82.839 89.814 91.911 91.156 89.561 89.234 89.574 89.989 89.621 88.129 86.311 84.039 82.291 82.289 82.379 82.439 82.524 82.519 82.446 82.396 82.344 82.284 82.206 82.154 82.086 82.011 81.914 81.819 81.831 81.846 83.116 82.791 82.379 82.261 82.206 82.146 82.116 82.109 82.121 82.141 82.239 81.779
101.172 101.193 101.438 101.41 101.057 101.056 101.207 101.227 101.048 101.041 101.01 100.934 100.976 100.993 101.128 101.17 101.034 101.236 102.16 107.159 102.729 102.266 112.314 102.395 102.159 109.904 107.224 102.259 101.258 101.771 101.057 100.348 100.216 101.157 101.251 100.751 101.578 100.162 100.022 106.768 103.504 100.11 99.688 99.903 99.705 105.167 103.351 104.168 99.725 99.52 99.168 98.96 98.925 98.834 98.684 98.906 99.336 102.405 105.193 108.9 108.614 107.193 113.892 115.794 118.017 114.118 105.006 106.176 99.181 98.614 98.207 97.368 103.588 105.018 101.104 100.823 98.119 96.51 96.043 95.873 95.672 95.357 97.476 105.553 98.495 97.935 96.887 94.948 94.91 94.66 94.587 95.744 95.64 96.225 94.168 93.927 95.291 99.427 94.548 93.341 93.296 93.931 93.996 93.553 92.666 92.458 92.426 92.424 92.502 91.859 91.893 91.722 91.382 91.653 93.405 93.41 94.309 94.279 93.78 92.74 90.605 89.831 89.721 89.641 89.853 90.274 89.62 89.465 89.852 90.192 93.585 95.631 97.078 97.189 94.663 88.833 88.57 88.649 88.673 90.032 93.656 96.11 96.297 95.576 95.396 94.938 92.964 88.908 87.499 87.587 88.678 91.779 95.719 95.268 93.612 91.294 90.652 91.734 89.963 88.989 89.093 88.275 87.235 87.634 86.275 85.833 85.69 86.938 89.898 91.001 92.371 93.377 93.067 92.382 90.481 85.853 85.245 85.244 85.259 85.533 85.02 84.51 84.561 84.751 86.502 87.507 87.624 87.119 85.948 84.503 84.475 84.589 85.189 85.326 85.134 84.775 84.66 84.547 84.457 84.435 84.461 84.426 84.526 85.84 88.47 85.961 84.459 84.333 84.368 84.962 86.328 86.856 85.291 84.432 84.864 85.079 84.396 84.087 84.144 84.536 84.331 84.056 83.998 84.032 84.047 84.7 83.972 83.306 83.347 83.296 83.235 -9999 -9999 84.126 83.753 83.395 83.107 83.849 85.481 86.624 89.524 89.937 88.898 86.226 83.635 83.923 84.763 85.916 88.133 89.3 90.482 90.56 89.446 88.635 87.283 86.943 87.313 87.525 85.873 82.408 82.223 82.257 82.336 82.518 90.797 91.525 91.794 91.247 90.622 90.424 90.04 89.696 89.47 91.553 92.962 92.46 88.594 86.249 83.003 87.443 86.627 85.499 84.04 81.085 81.029 81.009 81.022 81.172 81.815 81.438 81.982 84.692 87.404 87.35 85.118 80.822 81.295 80.676 80.861 81.228 82.111 85.224 87.534 87.841 89.321 90.539 91.016 88.099 81.346 80.246 80.134 80.801 86.859 82.114 85.751 89.871 87.659 83.641 87.876 81.319 81.324 81.061 81.084 81.099 81.111 81.104 81.109 81.099 81.136 81.134 81.176 82.359 82.581 82.809 82.614 82.599 82.579 82.556 82.696 83.316 81.876 81.814 83.821 81.719 81.916 81.804 81.931 81.831 81.694 81.656 81.711 82.304 82.391 82.036 81.906 81.796 89.636 91.079 91.104 91.091 91.084 86.531 85.501 88.469 88.481 88.496 88.506 88.519 88.534 88.549 88.579 88.589 88.616 88.621 88.646 82.494 81.991 82.019 82.006 81.986 82.421 82.101 82.124 82.236 81.956 81.894 84.104 88.929 90.006 89.874 91.056 90.139 89.774 89.386 88.109 88.159 84.989 82.104 82.146 82.689 82.551 82.434 82.324 82.494 82.441 82.296 82.259 82.196 82.139 82.081 82.016 81.949 81.876 81.776 81.724 81.734 81.714 82.339 82.394 82.186 82.161 82.106 82.126 82.676 83.866 81.654 81.699
101.19 101.259 101.338 101.221 101.104 101.046 -9999 101.128 101.101 101.002 100.989 101.038 101.07 101.095 101.108 101.082 101.065 101.143 101.323 101.469 101.877 103.64 105.675 101.524 101.257 103.34 107.15 102.932 101.667 106.133 100.912 100.356 100.253 100.733 101.328 100.199 100.049 106.322 100.717 100.708 104.49 101.116 99.708 99.99 100.583 106.376 105.579 106.897 115.583 103.589 98.769 98.782 98.726 98.822 98.786 98.695 98.868 105.217 114.013 112.581 107.904 110.502 110.97 112.861 118.294 118.525 113.492 108.333 98.999 99.079 97.955 97.861 98.184 98.06 100.95 105.68 103.006 96.25 96.032 95.705 95.561 95.471 95.819 99.537 109.576 107.022 95.864 95.205 94.792 94.474 94.683 95.048 95.262 95.078 94.262 94.431 93.869 93.483 94.117 93.776 93.748 92.814 92.674 92.585 92.532 92.587 92.386 92.171 92.008 92.059 91.905 91.768 91.407 91.385 91.338 91.338 94.253 92.071 91.807 92.412 92.264 90.933 89.952 89.771 89.882 90.792 90.403 89.562 90.319 92.257 94.974 96.831 97.802 97.53 95.6 93.093 89.669 88.408 88.327 90.852 94.198 95.045 94.854 94.517 94.52 92.418 91.01 87.82 87.769 87.488 87.693 88.682 92.17 92.102 90.247 88.064 88.541 89.731 89.919 89.175 88.879 87.518 86.214 86.375 86.325 85.796 85.657 85.805 86.36 88.117 90.13 93.346 93.353 91.917 91.392 87.008 85.178 85.139 85.869 88.406 87.527 84.829 84.569 84.709 -9999 86.789 87.247 86.794 85.277 84.414 84.556 84.59 85.73 86.588 86.694 85.676 85.044 86.009 84.618 84.411 84.445 84.395 84.393 85.153 85.842 86.579 84.812 84.745 85.222 84.774 84.756 85.471 85.029 84.967 85.13 86.872 87.971 86.24 84.69 84.079 83.975 84.026 83.985 84.313 85.001 85.717 84.38 83.613 83.301 83.196 83.101 83.069 -9999 83.108 83.095 83.092 83.055 83.038 83.213 84.111 88.115 89.82 90.477 88.637 85.593 84.566 86.307 88.105 87.53 88.77 89.684 90.319 89.866 89.133 88.011 87.226 87.127 87.443 85.959 82.708 82.17 82.179 82.408 83.096 89.536 90.686 90.204 90.023 89.642 89.413 87.767 87.122 86.554 91.222 91.773 92.224 89.471 85.33 83.836 83.954 86.252 82.504 81.931 81.027 81.036 81.025 80.927 81.163 81.78 84.75 87.456 87.74 88.551 88.252 86.905 81.214 80.553 80.542 80.579 80.778 85.929 91.651 86.001 87.306 88.446 89.739 85.871 80.131 80.174 81.271 80.096 84.111 83.311 90.809 81.336 91.964 83.286 95.784 81.946 81.066 81.214 81.069 81.079 81.089 81.101 81.091 81.096 81.096 81.079 81.076 81.081 81.391 83.551 82.789 82.529 82.614 83.034 82.851 81.704 82.326 83.209 81.471 81.491 81.426 81.476 81.449 81.406 81.386 81.446 81.524 81.636 82.376 83.679 81.821 81.869 81.689 88.586 91.076 91.134 91.091 91.084 82.991 85.581 88.819 88.839 88.849 88.864 88.871 88.886 88.906 88.931 88.944 88.944 88.934 88.964 84.451 83.489 83.599 84.241 84.506 84.814 84.709 85.061 84.939 85.091 81.914 83.209 86.816 89.501 90.229 89.686 89.311 88.869 88.574 89.326 88.139 81.941 81.984 82.081 82.391 83.519 86.681 87.791 86.261 82.209 82.384 82.206 82.159 82.119 82.064 82.001 81.941 81.884 81.821 81.744 81.636 81.574 81.601 81.596 82.316 82.426 83.021 82.079 82.306 84.001 81.514 81.399
-9999 -9999 101.252 101.104 101.062 101.041 101.134 101.137 101.124 101.083 101.059 101.091 101.229 101.116 101.038 101.067 101.018 101.01 100.731 100.573 101.285 101.353 101.503 100.861 100.476 102.591 108.42 103.632 100.674 102.525 101.952 100.792 100.63 100.493 100.61 100.471 102.661 108.147 99.941 99.736 100.63 100.285 99.392 105.723 100.209 102.022 108.107 110.238 107.573 106.896 99.821 98.591 98.685 99.01 99.011 98.5 99.151 102.591 108.445 103.914 117.474 117.609 108.341 113.834 118.497 119.947 114.543 99.81 103.909 98.348 97.414 97.269 96.839 97.314 105.318 100.414 96.733 96.034 96.004 95.993 95.907 95.604 95.238 97.007 99.987 97.291 96.925 101.938 95.668 94.724 94.79 94.127 94.024 94.394 94.807 95.046 95.992 94.386 93.568 93.578 99.802 93.692 93.789 92.556 92.574 92.456 92.17 92.064 92.292 92.26 92.447 92.484 92.711 91.831 90.949 91.977 94.854 96.012 90.885 93.71 94.998 93.257 93.412 90.556 89.645 89.943 90.084 90.769 92.42 94.633 95.973 97.807 97.407 96.717 95.633 90.867 88.806 88.241 88.125 89.909 92.288 91.895 93.54 93.696 90.389 93.112 88.103 87.936 87.619 87.106 87.051 86.961 88.509 88.793 87.583 86.89 88.107 89.675 90.117 88.552 87.037 86.023 85.828 85.849 86.376 85.845 85.646 85.461 85.305 85.67 86.7 87.951 87.908 89.3 90.727 87.872 85.24 85.196 84.928 86.904 85.953 84.994 84.544 84.555 85.053 85.421 85.068 85.059 84.755 84.839 85.368 85.245 86.572 88.573 88.663 87.321 88.846 88.941 85.3 84.419 84.471 84.523 84.749 85.944 87.584 90.104 87.416 86.021 87.111 85.613 84.681 86.034 88.238 89.048 87.008 92.229 91.74 89.139 86.465 84.22 84.168 84.169 84.136 86.123 86.704 85.383 83.999 83.439 83.262 83.04 83.024 83.019 83.044 83.077 83.112 83.12 83.031 83.043 82.801 83.069 84.868 89.804 91.193 89.262 85.848 85.542 88.277 89.136 88.407 87.8 89.15 90.213 90.367 89.551 88.52 87.494 87.189 87.485 87.088 83.532 82.193 82.847 83.583 87.898 88.313 89.47 89.082 87.671 83.688 82.733 82.257 82.31 81.715 83.528 88.189 83.515 82.601 81.306 81.173 81.486 81.871 81.034 81.186 82.225 81.198 82.357 82.301 86.063 87.632 87.936 88.352 88.759 88.769 88.619 87.717 84.734 80.641 80.759 80.508 80.678 82.448 88.481 91.655 89.251 86.744 81.564 80.119 82.341 86.321 87.239 85.774 86.409 87.076 86.694 81.931 80.351 83.051 84.839 82.959 80.914 81.071 81.041 81.091 81.074 81.654 81.074 81.201 81.041 81.039 81.031 81.014 82.711 83.194 82.499 82.674 81.599 82.554 81.344 81.284 81.281 81.234 81.214 81.286 81.256 81.176 81.161 81.149 81.164 81.214 88.249 81.496 81.786 82.141 81.596 82.026 81.651 88.556 91.061 92.269 92.919 93.324 83.174 85.511 88.839 88.811 88.806 88.779 88.754 88.736 88.701 88.689 88.686 88.651 88.641 88.621 86.946 85.256 85.269 85.299 85.301 85.319 85.324 85.336 85.339 85.354 81.911 82.391 82.674 89.051 90.124 89.601 88.614 88.816 89.229 88.689 83.659 81.864 82.064 81.929 87.646 87.719 88.266 88.451 87.951 86.081 82.171 82.101 82.089 82.059 82.009 81.979 81.924 81.866 81.811 81.754 81.679 81.606 81.494 81.439 81.474 81.466 82.036 82.304 82.419 81.399 81.346 81.316
101.097 -9999 101.115 101.048 101.034 101.039 101.103 101.141 101.155 101.109 101.044 100.978 101.087 101.064 101.03 101.019 100.986 100.93 100.72 100.474 100.754 101.634 100.884 100.471 100.371 101.494 103.961 102.468 100.722 100.576 100.271 100.353 100.464 100.027 100.109 100.291 100.748 100.271 99.66 99.562 99.697 100.142 108.022 101.794 99.347 99.573 103.223 100.785 111.442 108.12 99.438 98.693 98.652 99.101 99.175 98.478 100.128 104.408 115.017 110.343 108.061 108.551 120.642 119.189 115.898 114.817 115.142 108.53 98.592 97.327 96.995 96.813 96.767 96.648 96.69 101.009 98.472 95.966 95.902 95.844 95.947 96.448 95.564 95.128 95.154 94.916 96.381 96.78 95.322 95.268 94.852 94.629 95.318 94.971 93.785 95.597 97.497 96.111 94.092 93.911 94.326 94.257 97.539 92.798 92.592 92.359 92.252 92.241 92.497 92.509 93.066 94.945 96.581 92.05 91.379 97.545 96.191 96.327 94.834 94.269 96.209 96.19 95.912 92.342 90.014 89.896 90.124 90.848 91.85 95.162 97.092 97.539 96.754 95.606 95.035 89.757 88.414 88.257 88.148 88.317 88.641 88.559 88.469 88.691 88.005 87.945 87.854 88.585 87.771 86.873 86.835 86.837 86.791 86.672 86.639 88.6 88.078 91.101 90.732 86.774 86.033 85.931 85.779 85.753 86.875 87.009 85.801 85.526 85.358 85.494 85.539 85.436 86.343 89.506 90.604 87.812 85.123 84.84 84.782 84.871 84.815 84.972 84.991 84.686 84.505 84.614 84.548 84.518 84.538 84.64 85.214 85.894 88.675 90.953 92.416 92.037 91.747 89.974 85.759 84.735 84.586 84.795 85.686 85.484 85.85 86.162 86.364 85.617 86.072 85.461 85.665 88.181 89.956 90.544 90.83 92.326 92.323 90.446 88.027 86.134 85.093 85.706 84.457 85.779 86.368 85.945 83.682 83.27 83.081 82.953 83.011 83.014 83.031 83.052 83.097 83.125 82.974 82.837 82.804 82.788 -9999 89.188 90.583 88.995 85.556 84.965 87.576 88.178 87.519 87.463 88.647 89.74 90.287 89.705 88.937 88.021 88.109 87.699 87.549 85.518 82.072 82.053 87.13 88.414 88.416 84.534 81.97 82.194 83.405 81.815 81.877 82.112 81.907 81.195 81.243 81.108 81.176 81.173 81.128 81.09 81.027 80.956 81.186 82.453 83.964 87.274 87.725 88.296 88.924 88.751 88.65 88.47 88.297 88.799 88.183 87.082 81.17 80.656 80.434 80.441 80.908 86.165 89.546 83.611 80.566 80.916 85.436 89.391 88.894 87.861 87.004 87.514 87.344 84.916 83.064 80.549 80.856 82.589 81.331 80.884 80.906 81.049 81.344 85.494 87.931 86.026 84.319 82.546 81.074 82.239 85.011 84.636 85.021 83.961 84.941 81.959 81.431 81.196 81.056 81.061 81.059 81.034 81.044 81.064 81.044 80.981 80.966 80.979 81.129 81.386 85.704 81.681 81.816 81.349 81.996 81.619 86.951 91.059 92.099 93.739 93.749 87.914 85.421 88.486 88.474 88.451 88.431 88.396 88.381 88.359 88.351 88.311 88.314 88.284 88.291 86.906 85.521 85.524 85.539 85.196 85.156 85.124 85.104 85.071 85.054 83.146 81.884 84.416 87.716 89.466 90.054 89.814 89.209 88.749 86.524 81.864 81.851 83.064 86.919 87.511 88.194 87.581 86.981 85.111 81.861 81.854 82.239 82.054 81.951 81.956 81.934 81.889 81.826 81.781 81.719 81.674 81.624 81.559 81.479 81.366 81.301 81.331 81.309 81.644 81.246 81.159 81.219
101.032 101.07 -9999 101.05 101.03 -9999 101.139 101.148 101.135 101.078 101.041 101.024 101.034 101.031 101.045 101.002 100.907 100.841 100.531 100.327 100.48 100.736 100.878 101.355 100.833 100.33 101.799 106.318 100.977 100.362 101.374 100.289 100.069 99.752 99.831 99.967 99.768 99.701 99.703 99.667 99.65 99.441 99.705 99.428 99.245 99.229 99.134 101.037 108.152 99.674 107.464 99.998 98.602 98.536 98.514 98.527 100.586 100.879 108.14 112.342 105.055 104.511 116.458 117.846 113.25 108.672 103.462 100.345 98.096 96.955 97.092 97.127 97.04 96.635 96.502 97.493 96.723 95.799 95.707 95.638 95.5 103.041 96.431 95.151 95.183 94.876 94.558 94.533 94.49 94.469 94.44 95.777 96.032 94.994 94.2 94.622 96.373 96.069 93.852 95.632 98.712 96.951 93.018 92.497 92.416 92.278 92.218 92.195 92.193 92.395 92.472 97.81 97.28 92.46 91.126 96.132 100.471 92.496 92.613 94.664 95.022 95.316 94 93.983 94.828 91.987 89.567 89.602 89.836 94.953 97.304 96.391 96.187 95.525 93.078 89.298 88.345 88.316 88.159 87.92 87.923 87.972 87.758 87.61 87.886 87.569 87.447 87.881 87.377 86.86 86.69 86.839 86.771 86.574 86.747 90.936 93.309 93.247 91.725 86.742 86.027 85.847 85.73 85.794 85.705 85.822 85.629 85.757 85.805 86.228 86.219 85.979 85.21 86.442 89.181 88.298 87.263 86.615 85.312 84.901 86.425 85.944 85.558 84.843 84.498 84.408 84.325 84.282 84.416 84.44 84.474 84.535 88.386 90.788 92.229 92.916 91.883 90.098 87.463 85.309 85.265 84.615 84.698 84.925 85.727 85.395 85.504 85.305 84.932 84.332 84.462 87.065 89.805 90.186 91.1 92.114 92.839 91.778 90.136 87.148 85.602 85.627 84.925 87.049 85.232 85.932 83.882 83.054 82.991 82.864 82.966 82.89 82.946 83.043 83.03 82.961 82.856 82.762 82.748 82.839 83.779 87.991 90.076 89.638 85.968 84.345 85.102 85.463 86.406 87.136 88.389 89.475 90.291 90.164 89.106 88.457 88.309 87.932 88.909 87.429 84.137 82.202 86.51 88.195 88.675 87.057 81.946 81.852 83.287 82.439 81.575 81.421 81.213 81.206 81.163 81.209 81.22 81.545 81.631 81.758 81.099 82.532 83.77 87.37 87.931 88.332 88.778 88.868 88.601 88.228 88.007 87.529 87.669 88.131 88.55 87.637 82.719 80.351 80.545 80.396 80.314 80.357 81.636 80.222 80.219 86.059 87.821 88.836 89.449 88.469 87.621 86.909 86.306 84.921 80.239 80.169 81.854 81.864 80.599 80.859 80.936 80.944 81.109 86.871 89.214 88.926 88.744 84.206 83.114 83.204 83.834 83.954 84.391 85.526 84.106 82.424 80.766 80.871 80.866 80.829 80.954 80.986 81.119 80.881 80.786 80.779 80.744 80.816 85.889 86.756 84.521 84.781 84.819 83.159 81.499 81.596 86.821 91.051 92.479 93.751 94.221 86.776 85.389 88.134 88.101 88.096 88.089 88.051 88.041 88.014 87.996 87.986 87.961 87.961 87.686 86.889 85.564 85.564 85.571 85.564 85.511 85.501 85.051 85.034 83.654 81.889 81.696 82.216 88.811 89.481 90.119 89.549 88.519 81.829 81.704 81.791 85.756 87.669 87.951 87.386 87.736 87.531 86.621 84.731 82.501 80.794 80.771 82.574 82.309 81.916 81.819 81.804 81.774 81.714 81.681 81.639 81.594 81.541 81.479 81.421 81.331 81.221 81.159 81.181 81.079 81.061 81.061
101.046 101.051 -9999 -9999 -9999 -9999 101.126 101.154 101.109 100.955 101.082 101.074 100.986 100.993 101.12 100.978 100.943 100.755 100.521 100.476 100.445 100.643 104.395 103.866 100.603 100.323 101.184 100.541 100.028 100.162 100.512 100.055 99.889 99.774 99.716 99.713 100.025 100.993 100.438 101.299 99.395 99.374 99.364 99.11 99.42 100.01 98.888 99.407 101.129 106.929 105.436 99.039 98.541 98.902 99.167 100.44 103.932 101.958 99.242 111.791 109.424 106.506 109.829 111.56 98.324 101.685 99.942 97.315 97.797 97.489 97.47 97.368 96.941 96.771 96.412 95.882 95.994 95.901 95.616 95.421 95.795 97.988 95.979 95.187 96.167 95.304 94.577 94.835 95.017 95.67 94.269 94.131 93.949 93.931 93.816 93.703 93.727 93.538 93.457 93.754 93.378 93.278 92.909 92.537 92.395 92.365 92.454 92.22 92.253 92.411 93.318 96.238 98.49 94.853 91.982 91.956 96.571 96.882 96.781 93.396 92.355 91.879 91.121 93.709 92.786 92.056 90.432 89.228 89.173 90.003 92.244 93.737 95.092 91.552 89.309 89.079 88.502 88.44 88.143 87.849 87.996 88.114 87.614 87.419 87.555 87.729 87.544 87.5 87.322 86.83 86.838 86.97 86.635 86.699 87.227 92.899 94.429 94.568 92.843 88.859 86.172 85.807 85.744 85.681 85.766 87.369 86.601 86.463 86.06 86.028 85.343 85.745 85.791 86.877 88.237 88.518 88.276 89.402 86.767 85.088 85.589 85.645 85.445 84.625 84.466 84.377 84.322 84.302 84.361 84.491 84.398 84.315 87.031 90.977 91.497 92.645 92.542 90.212 87.818 85.421 84.618 84.604 84.386 84.682 86.223 85.857 84.885 85.023 84.502 84.243 84.029 84.75 86.415 88.596 90.378 91.535 92.553 92.154 90.985 89.341 86.836 84.498 84.164 84.913 85.806 84.765 83.021 82.948 82.926 82.775 82.839 82.781 82.79 82.856 82.889 82.812 82.78 82.713 82.699 83.207 84.699 86.401 90.096 90.807 85.753 83.1 82.669 83.173 85.493 87.92 88.323 88.975 90.21 90.526 89.413 88.54 88.319 88.328 88.686 87.998 83.101 86.979 86.858 88.278 88.762 87.973 82.275 81.658 82.434 81.512 81.278 81.282 81.245 81.28 81.186 81.475 81.643 82.042 81.804 85.783 84.645 87.372 87.955 88.091 88.492 88.833 88.508 88.669 87.879 87.409 86.674 82.589 80.989 83.016 87.912 87.928 86.667 80.485 81.418 80.391 80.273 80.21 80.152 80.234 80.241 83.224 87.986 88.924 89.406 89.019 88.006 86.811 84.129 82.591 80.009 80.644 80.006 80.079 80.789 80.764 80.781 80.794 80.799 83.181 87.596 89.311 88.134 83.351 83.496 82.654 80.641 80.626 82.036 83.124 80.916 80.841 80.501 80.574 80.699 80.866 81.329 81.366 81.324 80.656 80.631 80.644 80.616 80.671 88.611 89.849 91.049 85.799 85.176 81.224 81.651 81.664 84.914 91.056 91.841 93.146 92.584 88.751 88.109 84.014 83.674 82.794 82.931 82.516 82.556 82.351 82.354 85.536 85.521 85.536 85.549 85.531 85.521 85.536 85.546 85.536 85.516 85.484 83.589 81.899 81.881 81.796 81.559 81.391 85.844 88.491 89.259 88.694 87.056 81.939 81.644 81.714 82.186 87.109 85.776 82.691 85.444 87.279 87.376 85.586 82.631 80.636 80.686 80.734 80.779 81.674 81.879 81.781 81.666 81.656 81.626 82.749 81.534 81.509 81.449 81.399 81.339 81.254 81.174 81.071 80.966 80.936 80.911
