ncols 434
nrows 31
xllcorner    427082
yllcorner    432458
cellsize     2
NODATA_value -9999
81.259 81.763 81.442 80.801 80.635 80.473 80.367 80.244 80.302 80.031 79.98 81.602 80.106 80.857 79.398 79.673 79.407 79.627 79.869 78.624 78.614 80.821 81.569 79.57 80.03 84.549 85.598 84.603 83.526 77.382 77.024 76.922 76.87 76.765 76.697 76.627 76.624 76.49 76.371 76.33 76.226 76.13 76.013 75.901 75.81 75.758 75.782 75.878 79.146 80.321 80.3 80.275 80.264 79.706 76.776 75.662 75.486 75.595 75.898 75.693 76.745 75.953 77.201 77.76 78.344 78.785 78.401 77.749 77.339 78.187 78.014 74.058 74.136 73.789 73.718 73.749 73.555 73.843 75.238 74.868 74.387 74.073 73.863 74.175 74.81 73.821 74.645 75.434 73.185 72.881 73.733 75.473 72.753 71.706 71.668 72.096 72.026 72.133 72.973 77.354 79.439 79.9 78.823 77.166 75.369 74.973 72.683 71.715 71.668 71.617 71.526 71.485 71.443 71.73 73.311 71.871 72.307 73.16 72.209 71.427 72.375 71.339 70.874 70.652 70.651 70.632 70.458 70.386 70.368 70.54 70.393 70.298 70.322 70.411 70.313 70.215 70.144 69.93 69.872 69.78 69.72 69.664 69.608 69.628 71.051 70.169 69.754 71.504 71.652 71.391 71.006 68.708 68.426 68.542 68.516 68.264 67.868 69.14 75.967 77.582 77.822 77.38 76.074 68.655 67.925 67.698 67.615 67.484 67.25 67.146 67.015 66.839 66.676 66.632 66.603 66.573 66.532 66.524 66.58 66.592 66.54 66.587 66.518 67.43 67.517 67.948 67.91 67.656 67.735 67.354 67.505 66.792 68.281 67.212 66.748 66.809 67.148 67.478 71.535 74.404 74.843 72.624 67.474 67.509 67.601 67.722 67.676 67.671 67.776 67.772 68.709 67.97 68.859 68.746 71.76 76.822 78.22 77.919 76.961 73.607 68.502 68.172 67.972 68.011 68.058 68.037 67.985 68.609 69.137 68.844 68.693 68.745 73.532 75.182 76.33 75.779 74.716 69.393 68.897 68.914 71.569 72.787 71.427 71.089 70.993 70.247 69.69 68.767 68.771 69.112 68.578 68.523 68.662 68.966 68.94 69.095 68.605 69.597 68.802 68.517 68.398 68.29 68.163 68.021 67.995 67.861 67.692 68.046 68.186 67.414 67.332 67.369 67.356 67.38 67.366 67.326 67.402 67.37 67.364 67.474 67.648 69.54 69.238 67.398 67.66 68.05 68.077 68.415 68.228 68.116 68.114 68.063 67.989 67.921 67.85 67.811 67.6 67.422 67.297 67.141 66.954 66.886 66.827 67.285 69.122 70.113 73.13 74.215 72.155 67.206 66.463 66.571 79.552 80.935 81.529 79.373 83.059 80.282 76.218 72.6 70.242 69.37 67.148 66.184 69.257 70.988 72.19 69.756 70.226 67.134 65.11 65.925 69.154 69.471 68.697 68.76 67.017 64.852 64.852 64.71 64.553 65.829 65.148 65.107 70.088 64.207 63.594 63.425 63.358 63.238 63.17 63.107 63.015 62.891 62.852 62.767 62.678 62.648 62.531 62.481 62.362 62.257 62.202 62.118 62.071 62.042 61.918 61.904 61.852 61.781 61.679 61.636 61.484 61.209 61.171 61.105 61.087 61.147 61.157 61.2 61.15 61.16 61.128 61.088 61.078 61.055 61.035 61.043 61.014 60.976 60.98 60.908 60.943 60.826 60.7 60.615 60.446 60.326 60.191 60.099 59.95 59.79 59.686 59.597 59.515 59.396 59.396 59.329 59.199 59.101 59.034 59.002 58.922 58.874 58.79 58.769 58.686 58.678 58.701 58.709 58.776 58.821 58.922 58.963 59.11 59.198 59.353 59.362 59.207 58.974 59.047 61.095 60.218 57.249
81.253 81.376 81.344 80.962 80.729 80.617 80.574 80.6 80.44 80.173 80.633 81.162 82.047 79.769 79.821 79.576 79.418 79.359 79.508 79.394 80.969 81.685 81.614 80.886 81.085 82.264 84.264 83.987 79.203 77.279 77.131 77.033 77.032 76.928 76.797 76.68 76.653 76.555 76.543 76.516 76.387 76.267 76.063 75.957 75.978 76.664 75.889 76.44 76.38 80.183 80.308 80.341 80.304 79.632 75.915 75.743 75.789 76.074 76.185 76.777 76.193 76.072 76.682 77.712 78.194 78.637 78.466 78.041 77.411 77.563 75.033 74.051 74.298 73.978 73.807 75.15 75.034 74.751 75.401 74.395 73.921 73.66 73.61 76.743 78.887 79.778 79.757 79.626 76.177 72.654 72.799 75.981 72.379 71.82 71.765 72.173 72.167 72.071 72.649 76.791 78.37 78.688 78.222 77.072 75.315 74.945 73.263 72.047 71.839 71.928 73.135 72.727 72.32 71.466 71.438 71.358 71.565 72.185 71.939 71.321 70.881 70.852 70.723 70.682 70.658 70.586 70.755 70.565 70.626 71.915 70.981 70.349 70.467 70.59 70.465 70.238 70.169 70.11 69.977 69.909 69.874 69.826 70.836 69.907 69.788 69.789 69.613 71.261 72.011 71.145 71.562 68.802 68.524 68.598 68.729 68.452 68.106 67.903 74.559 77.061 78.252 77.454 73.24 68.841 67.914 67.793 67.637 67.48 67.351 67.216 67.06 66.896 66.772 66.713 66.675 66.639 66.614 66.643 66.674 66.721 66.689 66.661 66.628 68.275 68.505 68.111 67.638 67.151 66.887 66.862 66.707 66.697 67.34 66.818 66.893 67.082 67.436 67.999 71.622 74.28 74.906 73.931 67.706 67.544 67.629 68.204 68.026 67.875 67.916 67.96 68.152 68.218 68.763 68.526 68.848 76.812 78.316 78.797 77.531 74.391 69.394 68.517 68.385 68.272 68.273 68.248 68.198 68.513 68.52 68.52 69.075 68.918 72.484 74.777 75.828 76.199 75.066 71.042 68.865 68.963 71.216 73.051 70.307 68.992 68.985 69.181 70.064 71.255 69.677 69.233 69.413 68.911 68.794 68.906 68.689 68.784 68.546 68.454 68.326 68.242 68.251 68.136 68.031 67.965 68.01 68.151 67.959 68.27 67.95 67.465 67.471 67.438 67.495 67.547 67.466 67.52 67.487 67.534 67.48 69.161 70.714 69.699 68.921 68.385 68.579 68.421 68.36 68.349 68.296 68.253 68.193 68.16 68.012 67.882 67.724 67.561 67.399 67.278 67.133 67.079 66.987 66.892 66.841 71.1 73.146 73.169 73.994 74.869 73.381 67.614 66.638 70.601 77.481 79.138 82.72 83.661 74.81 83.096 79.555 66.253 65.765 65.733 65.664 65.588 69.248 72.039 71.64 72.415 67.397 65.449 65.6 68.838 69.867 69.692 69.4 69.635 68.531 66.07 64.926 64.828 64.9 65.399 64.996 73.325 68.529 73.032 73.447 70.748 63.673 63.258 63.173 63.107 63.043 62.975 62.891 62.829 62.763 62.722 62.617 62.542 62.466 62.344 62.214 62.14 62.07 61.911 61.824 61.734 61.686 61.687 61.56 61.521 61.399 61.191 61.177 61.129 61.176 61.102 61.209 61.225 61.162 61.188 61.154 61.124 61.094 61.075 61.077 61.025 61.055 60.999 60.967 60.986 60.967 60.942 60.79 60.666 60.568 60.401 60.261 60.149 60.016 59.896 59.781 59.637 59.538 59.457 59.427 59.366 59.277 59.195 59.111 59.008 58.926 58.917 58.869 58.823 58.735 58.7 58.684 58.726 58.771 58.843 58.902 58.965 59.084 59.179 59.302 59.42 59.416 59.159 58.972 59.685 61.208 62.207
82.34 81.317 81.769 81.586 80.91 80.83 80.821 81.37 80.777 80.604 80.358 80.858 80.954 80.258 79.655 79.917 79.655 84.738 81.009 81.94 83.84 81.581 79.382 78.571 80.584 81.083 83.051 78.301 77.466 77.374 77.239 77.163 77.051 77.056 76.888 76.813 76.744 76.704 76.788 76.628 76.648 76.23 75.971 75.933 75.97 78.541 76.81 76.719 76.57 77.218 80.257 80.338 80.032 77.27 76.353 76.54 76.816 76.085 76.804 76.776 75.99 76.016 76.196 77.65 78.07 78.642 78.722 78.093 77.603 77.145 75.132 74.392 74.347 74.348 74.36 74.373 75.472 74.001 74.307 74.338 74.155 74.19 76.857 77.578 80.056 81.066 81.11 80.138 77.214 74.412 74.232 73.38 72.269 71.884 71.907 72.056 72.185 72.041 72.047 73.974 76.762 76.769 73.487 72.439 72.03 72.475 73.171 74.177 74.295 74.127 73.272 71.96 71.553 71.53 71.459 71.52 72.248 72.143 72.087 71.588 70.973 70.832 70.684 70.626 70.76 70.941 70.718 70.754 71.03 71.204 71.411 70.463 70.515 70.657 70.642 70.381 70.232 70.47 70.289 70.004 69.953 69.946 70.247 69.789 69.814 69.687 69.738 69.95 70.688 70.763 71.746 69.441 68.657 68.656 68.886 68.625 68.33 68.187 72.266 76.962 78.212 77.963 73.533 68.167 67.89 67.816 67.683 67.575 67.558 67.697 67.468 66.982 66.845 66.758 66.79 66.709 66.725 66.762 66.739 66.798 66.817 66.74 66.772 66.864 67.074 66.838 66.877 66.818 66.806 66.765 66.729 66.712 66.813 67.742 67.833 68.169 67.727 67.54 67.711 73.692 75.179 74.218 69.352 67.701 67.853 68.266 68.379 67.982 68.117 68.143 68.156 68.177 68.631 68.894 69.503 76.863 78.764 79.065 77.984 76.265 70.644 68.64 68.432 69.163 68.43 68.42 68.413 68.463 68.535 68.753 68.807 68.845 70.191 74.673 75.607 72.313 70.693 70.766 69.003 69.062 69.223 69.901 70.06 69.262 69.257 69.506 69.982 71.548 69.151 69.104 68.929 68.835 68.757 68.704 68.865 68.905 68.668 68.524 68.471 68.417 68.249 68.224 68.06 68.014 67.887 67.757 67.733 67.666 67.636 67.629 67.631 67.602 67.626 67.691 67.616 67.569 67.587 67.658 67.658 71.039 71.491 71.48 68.775 68.642 68.687 69.542 68.469 68.329 68.333 68.266 68.205 68.021 67.866 67.67 67.58 67.464 67.341 67.264 67.118 67.078 67.064 67.035 69.784 72.144 73.767 74.08 73.104 73.704 71.65 69.992 66.817 72.179 76.163 72.705 80.142 82.91 84.803 83.233 75.357 72.808 65.847 65.834 65.791 65.758 68.056 71.128 68.855 71.543 69.707 65.747 65.222 68.367 70.169 70.527 69.113 70.211 68.638 65.671 64.957 64.951 64.904 65.013 65.983 75.948 76.51 77.379 77.307 75.491 66.433 63.293 63.196 63.103 63.071 62.985 62.892 62.836 62.777 62.718 62.626 62.547 62.458 62.358 62.27 62.191 62.117 61.997 61.956 61.871 61.743 61.571 61.422 61.359 61.28 61.184 61.184 61.193 61.236 61.166 61.195 61.223 61.22 61.219 61.181 61.168 61.188 61.106 61.084 61.085 61.094 60.981 61.02 60.968 60.982 60.995 60.808 60.718 60.636 60.498 60.38 60.226 60.048 59.918 59.815 59.741 59.601 59.524 59.461 59.419 59.368 59.265 59.19 59.103 59.056 58.968 58.917 58.829 58.804 58.771 58.725 58.768 58.815 58.869 58.942 58.982 59.044 59.182 59.332 59.415 59.454 59.314 59.127 59.153 62.358 58.532
83.75 81.819 82.396 82.536 80.997 80.828 81.012 80.902 81.361 81.525 80.613 80.489 80.207 80.45 79.906 83.109 85.336 86.363 87.011 84.504 84.243 79.717 78.417 79 78.823 78.95 78.06 77.633 77.536 77.454 77.361 77.205 77.113 77.045 77.039 76.986 76.895 76.915 76.855 76.878 77.514 76.234 75.982 75.946 78.517 79.156 79.338 76.998 77.848 77.381 79.604 78.002 77.169 77.108 77.2 76.492 76.227 77.214 76.659 75.953 76.415 78.587 78.017 79.391 79.638 82.763 78.427 75.544 74.85 74.502 74.87 75.332 74.209 74.226 74.184 74.133 74.27 74.399 74.263 74.429 74.317 73.866 74.487 74.264 79.797 81.196 81.658 80.13 78.385 73.619 73.83 73.253 72.414 72.012 71.968 72.059 72.202 72.324 72.977 71.962 72.076 72.313 72.582 72.385 72.33 72.347 73.514 74.448 74.291 74.083 72.13 71.616 71.554 71.932 71.719 72.027 71.834 71.86 71.769 71.256 70.877 70.768 70.74 70.742 70.791 70.796 70.821 70.9 71.216 71.234 70.894 70.558 70.58 70.947 70.684 70.417 70.31 70.265 70.482 70.57 70.055 70.058 69.966 70.026 69.846 69.734 69.656 69.546 69.481 69.646 71.678 69.39 68.761 68.712 68.943 68.786 68.57 68.34 68.388 76.513 77.919 77.917 76.522 68.836 67.926 67.904 67.835 67.764 67.975 67.883 67.435 67.035 66.88 66.81 66.791 66.787 66.775 66.806 66.828 66.894 66.91 66.889 67.003 66.918 66.936 66.876 66.892 66.856 66.925 66.847 67.714 67.203 67.467 68.64 67.226 67.213 67.253 67.536 67.569 72.429 74.984 77.064 73.138 68.462 67.913 67.974 68.45 68.232 68.309 68.299 68.318 68.338 68.537 68.764 69.818 77.427 79.057 78.875 79.794 77.701 73.156 68.928 68.827 68.584 68.57 68.584 68.571 68.735 68.854 68.953 69.063 68.973 68.964 70.561 69.125 70.102 69.652 70.076 69.629 69.755 69.701 70.264 70.026 69.394 69.318 69.319 69.165 69.119 70.055 69.588 69.023 68.987 68.919 68.829 68.827 68.691 68.677 68.654 68.522 68.437 68.39 68.239 68.173 68.035 67.959 67.905 67.841 67.778 67.721 67.708 67.771 67.764 67.779 67.797 67.822 67.765 67.812 67.879 67.805 68.464 68.906 69.088 68.716 68.61 70.609 71.123 68.768 68.298 68.231 68.153 68.064 67.933 67.742 67.62 67.593 67.452 67.403 67.342 67.274 67.264 67.305 67.314 67.907 71.365 73.193 71.951 68.241 70.017 67.608 67.27 66.882 66.848 73.046 78.037 80.989 84.687 84.923 84.353 82.144 78.036 66.309 65.919 65.877 65.762 66.585 70.261 69.727 67.963 68.633 66.088 65.366 69.374 70.092 69.687 69.623 69.613 68.118 65.898 64.954 64.938 64.979 64.987 69.194 76.133 76.34 77.553 77.927 75.365 63.763 63.333 63.227 63.138 63.078 63.019 62.953 62.894 62.803 62.694 62.623 62.52 62.445 62.352 62.217 62.099 62.054 61.989 61.971 61.859 61.872 61.844 61.683 61.537 61.332 61.221 61.183 61.189 61.236 61.19 61.233 61.227 61.264 61.238 61.215 61.165 61.197 61.18 61.098 61.044 61.062 61.095 61.024 61.015 60.955 61.003 60.886 60.719 60.656 60.57 60.451 60.32 60.181 60.05 59.914 59.787 59.689 59.575 59.494 59.447 59.42 59.339 59.238 59.153 59.112 59.039 58.941 58.913 58.866 58.822 58.778 58.816 58.854 58.917 58.947 59.005 59.081 59.166 59.266 59.39 59.495 59.414 59.215 59.086 61.496 62.966
83.702 82.107 81.394 81.556 82.293 82.404 81.404 81.081 81.122 80.877 80.549 80.477 80.317 80.363 82.814 85.917 86.568 87.343 87.204 85.415 80.507 78.773 78.46 78.526 78.335 78.021 77.851 77.751 77.66 77.546 77.423 77.262 77.185 77.134 77.117 77.101 77.058 77.124 77.047 77.738 77.509 76.076 75.975 76.016 78.838 79.154 79.23 79.265 79.311 78.572 76.963 76.674 77.128 77.321 78.263 77.893 82.293 85.244 86.907 84.458 78.093 83.408 88.136 87.732 86.865 85.163 77.543 78.682 79.134 80.128 79.266 79.925 76.917 74.299 74.178 74.469 77.452 77.979 76.225 76.66 76.883 74.274 74.541 74.985 78.609 80.756 80.232 80.087 79.147 73.949 73.134 72.609 72.207 72.059 72.063 72.078 72.58 73.228 72.518 72.376 72.306 75.163 76.479 77.11 75.829 74.76 72.178 71.912 74.719 73.184 72.335 72.278 73.053 72.641 71.815 71.658 71.597 71.424 71.444 71.811 71.182 70.833 70.74 70.844 70.854 70.904 71.074 70.844 70.763 70.611 70.541 70.474 70.48 70.678 70.449 70.422 70.346 70.639 70.276 70.411 71.701 71.165 69.942 69.917 69.93 69.709 69.715 69.586 69.557 70.074 71.864 69.902 68.859 68.835 69.185 68.951 68.719 68.413 68.43 76.464 77.736 77.989 72.55 71.028 68.876 72.464 70.427 75.331 75.913 69.521 67.89 67.084 66.867 66.933 66.918 66.992 66.957 67.006 66.962 67.019 67.017 67.002 67.08 66.977 67.044 67.943 67.917 67.679 67.353 67.458 67.213 67.219 67.228 67.873 67.527 67.353 68.486 69.081 69.568 72.614 75.249 75.495 73.655 68.021 68.003 68.131 68.283 68.301 68.406 68.47 68.498 68.575 68.754 69.148 70.698 74.111 77.729 79.272 79.185 78.088 74.313 69.993 68.998 68.776 68.764 68.718 68.767 68.815 69.095 69.159 69.213 69.295 69.243 69.271 69.245 69.447 69.523 69.551 69.84 69.914 69.652 69.364 69.382 69.328 69.273 69.224 69.224 69.219 69.22 69.137 69.09 69.03 68.96 68.974 68.879 68.808 68.901 70.084 68.935 69.134 69.188 68.362 68.305 68.174 68.033 67.935 67.97 67.92 67.874 68.746 68.031 72.137 69.85 70.098 73.942 71.202 69.519 69.596 68.196 67.964 68.072 68.512 68.679 68.668 69.054 69.183 68.59 68.22 68.186 68.082 67.92 67.854 67.764 67.71 67.644 67.629 67.569 67.566 67.542 67.508 67.559 67.569 67.481 67.895 68.331 67.582 67.272 67.205 67.135 67.098 67.067 70.37 67.781 72.319 80.875 84.306 84.65 83.432 79.015 69.699 69.814 70.074 66.11 65.861 65.833 66.885 68.419 69.53 67.039 65.476 65.43 65.39 67.486 67.436 66.224 66.107 65.643 65.12 65.795 65.341 64.972 65.013 68.895 75.359 75.08 76.763 77.244 75.334 65.352 63.354 63.236 63.153 63.105 63.076 62.956 62.885 62.792 62.726 62.585 62.529 62.418 62.293 62.198 62.108 62.074 62.002 61.986 61.916 61.903 61.896 61.798 61.661 61.386 61.222 61.219 61.243 61.231 61.28 61.256 61.254 61.268 61.281 61.243 61.208 61.183 61.127 61.14 61.118 61.069 61.079 61.03 61.008 60.975 61.056 60.937 60.828 60.714 60.598 60.446 60.345 60.207 60.081 59.992 59.911 59.763 59.677 59.605 59.51 59.497 59.411 59.278 59.237 59.154 59.096 59.005 58.951 58.926 58.872 58.889 58.888 58.891 58.931 58.959 59.016 59.072 59.189 59.322 59.405 59.522 59.518 59.352 59.178 61.581 59.222
82.507 81.758 81.444 81.432 81.683 83.695 81.58 81.017 80.984 80.959 80.613 80.592 81.688 83.612 86.241 86.922 87.499 87.095 86.683 85.533 80.631 79.605 78.757 78.952 78.133 78.051 77.926 77.864 77.749 77.63 77.489 77.554 78.011 77.321 77.269 77.27 77.241 77.315 77.407 77.362 77.498 76.235 75.96 78.482 79.136 79.227 79.284 79.273 79.165 79.16 77.363 77.523 77.661 78.779 79.041 79.033 81.122 86.957 86.916 86.336 88.085 89.419 89.225 89.125 88.419 87.974 81.848 81.427 82.067 82.323 80.794 77.8 74.592 75.466 74.573 74.724 76.775 76.596 74.534 74.227 74.108 73.874 74.672 77.108 79.057 79.261 78.335 75.177 74.235 73.213 73.015 72.773 72.333 72.154 72.205 72.165 74.447 73.49 72.527 72.335 77.192 78.138 78.772 78.906 77.011 72.793 72.523 72.447 75.935 76.306 74.282 74.073 72.317 71.651 71.699 71.76 71.717 71.512 71.57 73.074 71.468 70.901 70.824 70.816 70.882 70.793 70.824 70.887 71.134 70.794 70.598 70.701 70.577 70.681 70.551 70.433 70.408 70.55 70.348 72.193 71.295 70.703 69.959 69.855 69.734 69.761 69.687 69.626 69.618 69.603 71.478 72.116 69.016 68.971 69.246 69.15 68.831 68.604 68.239 74.778 77.439 78.272 77.218 75.597 76.85 77.161 77.421 77.512 77.624 69.887 67.98 67.353 67.553 68.548 67.881 68.46 68.126 68.144 67.291 67.158 67.139 67.109 67.171 67.176 67.412 67.461 67.708 67.335 67.362 67.339 67.374 67.375 68.333 67.847 68.405 68.287 68.414 67.924 68.004 69.271 74.833 75.66 74.838 69.389 68.356 68.372 68.527 68.749 68.506 68.66 68.71 68.787 69.518 72.271 71.016 73.2 77.581 78.759 79.545 78.399 76.41 69.706 69.333 68.946 68.978 68.985 68.962 69.083 69.268 69.356 69.439 69.519 69.566 69.604 69.58 69.596 69.582 69.552 69.494 69.448 69.4 69.392 69.442 69.42 69.394 69.34 69.319 69.257 69.239 69.325 72.618 69.264 69.269 69.079 69.07 69.053 68.92 69.15 68.86 68.769 68.651 68.945 68.921 69.28 68.306 68.109 68.112 68.055 68.745 68.203 74.463 75.525 76.395 77.492 76.787 74.35 69.666 68.663 68.484 68.211 68.156 68.299 68.667 68.703 68.675 68.466 68.301 68.142 68.109 67.988 67.946 67.928 67.934 67.979 67.996 67.995 67.902 67.896 67.85 67.787 67.764 67.673 67.634 67.549 67.518 67.447 67.338 67.261 67.196 67.168 67.113 68.682 67.553 67.299 70.735 79.019 82.069 74.852 73.782 72.895 73.963 69.948 68.385 65.923 65.854 65.754 65.729 65.693 65.639 65.523 65.472 65.458 65.439 65.373 65.2 65.214 65.216 65.975 65.579 65.993 65.29 65.069 68.124 70.74 73.745 76.055 77.269 72.737 71.192 63.669 63.253 63.202 63.115 63.06 62.967 62.891 62.819 62.705 62.554 62.485 62.409 62.321 62.197 62.126 62.089 62.045 61.977 61.962 61.944 61.939 61.899 61.744 61.408 61.231 61.26 61.283 61.254 61.262 61.304 61.264 61.242 61.274 61.255 61.23 61.253 61.149 61.136 61.054 61.061 61.042 60.996 61.022 60.984 61.058 60.996 60.848 60.735 60.616 60.466 60.373 60.237 60.075 60.029 59.954 59.854 59.795 59.681 59.614 59.535 59.458 59.324 59.249 59.189 59.143 59.11 59.055 58.998 58.98 58.936 58.924 58.912 58.948 58.982 59.011 59.08 59.159 59.317 59.435 59.532 59.641 59.481 59.233 60.285 61.36
82.059 81.704 81.579 81.818 81.557 82.103 81.312 81.32 81.079 81.094 80.874 80.683 84.998 87.24 88.13 88.224 87.017 86.472 85.327 80.668 79.109 79.203 78.953 78.374 78.239 78.25 78.09 77.98 77.763 77.671 77.631 77.612 77.617 77.463 77.418 77.428 77.36 77.492 77.515 77.678 77.349 76.157 76.378 78.904 79.15 79.259 79.224 79.228 79.2 79.144 77.459 77.47 77.413 77.87 79.123 83.248 81.847 86.962 87.16 86.515 88.695 88.757 88.026 89.95 84.839 87.548 85.212 82.227 88.853 85.572 84.26 78.786 76.626 76.092 75.115 75.91 75.218 74.57 74.46 74.418 74.699 74.806 73.878 75.48 74.291 73.529 73.549 73.707 73.684 73.355 73.172 72.937 72.569 72.345 72.258 74.705 72.463 76.513 73.064 72.765 77.457 78.914 79.97 79.23 75.296 73.204 72.495 72.093 75.089 75.727 75.346 72.673 71.803 71.757 71.855 72.547 71.729 71.643 71.618 72.402 71.684 71.042 70.967 70.913 70.882 70.88 70.811 70.812 70.996 71.193 70.977 70.809 70.708 70.536 70.632 70.472 70.751 70.787 70.538 70.404 70.269 70.222 70.09 70.94 71.175 69.851 69.954 69.896 69.781 69.832 70.267 72.166 69.6 69.086 70.081 69.269 68.948 68.665 68.382 74.086 77.427 78.256 77.646 77.795 78.042 78.406 78.671 78.671 78.444 78.175 68.114 67.972 68.107 70.257 68.507 68.357 71.361 68.305 68.012 67.314 67.232 67.262 67.29 67.437 67.664 67.842 67.619 67.535 67.523 68.232 68.587 68.267 67.892 67.862 68.074 67.852 67.956 67.911 68.109 68.603 74.593 75.877 75.127 70.204 68.55 68.605 68.667 69.001 68.77 68.804 68.901 68.909 70.327 69.64 69.687 69.988 75.651 78.423 79.502 79.208 76.404 72.302 69.895 69.365 69.113 69.125 69.192 69.218 69.355 69.542 69.625 69.702 69.653 69.597 69.603 69.497 69.563 69.507 69.54 69.49 69.536 69.507 69.457 69.463 69.425 69.397 69.325 69.307 69.275 76.012 76.687 78.564 71.64 69.323 70.515 69.492 69.546 69.241 69.773 72.836 72.418 72.813 72.908 71.169 68.869 68.301 68.223 68.224 68.992 68.312 69.63 74.075 77.35 77.509 76.697 75.863 70.978 69.874 69.005 68.642 68.45 68.421 68.395 68.506 68.43 68.286 68.207 68.136 68.162 68.114 68.205 68.215 68.313 68.288 68.275 68.296 68.322 68.136 68.047 67.975 67.878 67.795 67.728 67.641 67.591 67.524 67.431 67.356 67.281 67.262 67.218 67.105 67.244 67.087 80.5 81.043 84.255 83.876 82.702 82.084 78.174 74.953 68.162 66.036 65.927 65.849 65.806 65.76 65.664 65.61 65.584 65.579 65.507 65.351 65.275 65.287 66.16 65.619 65.596 65.499 66.04 65.138 65.097 65.216 73.425 77.118 78.017 76.672 76.588 66.059 63.443 63.205 63.16 63.067 63.023 62.865 62.776 62.682 62.579 62.513 62.427 62.349 62.231 62.143 62.078 62.05 62.024 61.968 61.911 61.946 61.884 61.827 61.464 61.255 61.303 61.276 61.322 61.29 61.257 61.235 61.229 61.247 61.224 61.235 61.211 61.142 61.116 61.087 61.077 61.019 61.035 60.939 60.994 61.041 61.023 60.899 60.757 60.64 60.504 60.37 60.263 60.129 60.056 59.996 59.945 59.82 59.747 59.698 59.619 59.559 59.458 59.32 59.22 59.232 59.222 59.136 59.116 59.03 58.971 58.971 58.966 58.972 59.006 59.066 59.137 59.18 59.32 59.436 59.598 59.701 59.538 59.403 59.374 63.577
82.226 81.925 82.51 82.888 82.116 81.507 81.356 81.294 81.101 81.478 81.976 86.05 87.43 88.047 88.153 87.397 86.188 85.205 80.326 79.694 79.422 79.022 78.524 78.408 78.343 79.361 78.211 78.042 77.956 77.899 77.773 77.724 78.449 77.638 77.577 77.589 77.561 77.611 77.72 78.009 77.99 78.029 77.17 79.024 79.187 78.97 80.053 80.275 80.221 80.249 77.619 76.968 76.877 76.798 76.879 82.467 80.754 84.478 86.775 87.224 88.493 88.612 90.711 84.349 89.349 90.165 86.26 87.352 88.326 86.977 87.61 82.259 75.498 74.96 74.703 75.741 75.579 74.618 74.572 75.668 75.922 76.106 74.25 74.838 74.135 74.709 75.34 74.451 74.922 73.619 73.588 73.209 74.149 73.245 72.372 72.341 73.153 75.02 72.833 72.891 76.163 78.99 79.714 80.884 78.31 73.15 72.526 72.289 72.935 73.714 74.033 72.456 71.841 71.829 72.778 72.172 72.244 71.942 72.044 72.905 71.427 72.624 71.576 71.009 70.96 70.863 70.878 70.854 71.946 71.876 70.765 70.651 70.621 70.616 70.659 70.672 70.482 70.433 70.834 70.442 70.269 70.507 70.357 70.761 71.757 70.029 69.818 69.793 69.869 69.781 69.938 72.06 69.644 69.118 69.885 69.333 69.112 68.815 68.467 75.076 78.45 78.461 78.65 78.589 78.326 77.962 77.757 77.731 77.401 75.402 68.177 68.103 68.105 72.697 74.564 75.262 71.357 68.367 68.211 67.465 67.36 67.395 67.387 67.547 67.847 68.301 68.223 68.097 69.54 69.942 69.58 68.125 68.173 67.842 68.772 69.095 69.368 69.101 68.875 68.98 73.038 75.645 75.485 74.208 68.747 68.632 68.748 68.955 68.923 68.907 69.081 69.113 69.785 70.367 73.388 70.555 75.977 78.579 79.672 79.583 79.14 73.573 69.686 69.46 69.324 69.269 69.354 69.395 69.354 69.489 69.56 69.539 69.618 69.617 69.603 69.683 69.635 69.642 69.647 69.621 69.617 69.575 69.541 69.504 69.453 69.424 69.38 69.414 69.315 74.174 76.054 80.465 78.192 69.788 74.499 75.155 75.679 75.387 75.928 76.047 76.037 76.019 76.111 76.052 69.215 68.475 68.376 68.394 68.442 68.479 68.928 73.828 76.892 77.917 78.05 76.453 71.066 69.066 69.188 69.128 68.751 68.596 68.582 68.522 68.405 68.334 68.318 68.362 68.374 68.532 68.554 68.608 68.654 68.656 68.628 68.632 68.539 68.276 68.088 68.04 67.934 67.868 67.789 67.759 67.666 67.55 67.501 67.41 67.332 67.279 67.213 67.216 67.339 77.842 80.902 82.642 84.1 83.986 84.469 83.839 81.766 68.823 66.96 66.154 66.024 65.96 65.9 65.831 65.779 65.685 65.635 65.603 65.51 65.389 65.384 66.346 65.8 65.758 65.693 65.546 65.478 65.416 65.143 67.451 74.894 77.588 77.77 77.778 77.595 72.888 64.598 63.208 63.162 63.081 63.017 62.908 62.774 62.735 62.616 62.526 62.423 62.377 62.286 62.15 62.07 62.025 62.027 61.976 61.909 61.933 61.893 61.846 61.672 61.279 61.288 61.263 61.311 61.305 61.326 61.266 61.258 61.233 61.241 61.279 61.193 61.177 61.117 61.103 61.111 61.05 61.028 60.942 60.886 60.918 61.007 60.925 60.778 60.644 60.521 60.422 60.331 60.194 60.112 60.086 60.002 59.929 59.793 59.754 59.669 59.637 59.533 59.409 59.37 59.332 59.304 59.246 59.194 59.104 59.039 59.041 59.014 59.032 58.999 59.086 59.189 59.204 59.315 59.472 59.654 59.806 59.762 59.543 61.189 62.41
82.47 82.39 82.054 81.974 81.663 81.657 81.523 81.436 82.806 84.844 87.587 88.136 88.196 87.985 89.007 86.44 84.846 80.17 79.44 79.765 79.263 78.69 78.571 78.524 78.435 78.312 78.223 78.107 78.089 78.067 77.941 77.917 77.863 77.741 77.703 77.704 77.666 77.795 77.908 78.026 78.3 78.428 78.508 78.448 79.304 79.126 78.961 80.533 80.47 80.424 78.657 76.945 76.815 76.764 77.689 78.118 81.295 82.99 84.977 87.32 85.405 86.752 80.824 89.69 90.524 89.348 85.766 90.472 91.349 90.836 87.728 85.285 75.59 75.15 74.887 76.385 76.431 74.95 75.69 76.498 76.443 76.609 76.399 75.091 74.345 75.714 79.511 79.843 80.065 79.043 74.35 73.698 73.555 73.217 72.465 72.495 73.585 73.558 72.774 72.945 73.594 78.124 78.998 78.726 78.064 76.408 75.896 72.331 73.944 74.566 74.535 75.016 74.165 73.181 72.397 72.005 71.822 71.767 72.074 72.254 71.525 72.148 71.271 71.083 70.969 70.958 70.933 70.921 70.875 71.782 70.902 70.763 70.809 70.86 70.611 70.755 70.578 70.39 70.348 70.264 70.177 70.26 70.154 71.484 71.791 70.058 69.959 69.901 69.806 69.814 69.785 71.713 70.505 69.198 69.186 69.303 69.275 68.904 68.502 68.453 77.845 78.026 77.692 77.4 77.328 76.716 76.579 76.069 76.21 71.907 68.14 68.783 69.528 74.381 75.49 75.616 74.297 68.956 68.227 67.734 67.464 67.499 67.521 67.581 67.786 67.759 67.778 68.267 70.009 68.807 68.829 68.587 69.092 69.35 68.846 68.371 68.371 68.246 68.269 68.472 72.3 75.055 75.561 73.126 70.018 68.895 68.991 69.001 69.092 69.109 69.198 69.238 69.431 72.346 71.925 70.058 73.906 78.306 79.41 79.889 79.261 77.952 70.194 69.962 69.482 69.513 69.614 69.597 69.595 69.632 69.591 69.735 69.725 69.809 69.74 69.729 69.737 69.696 69.691 69.696 69.601 69.605 69.538 69.537 69.597 69.631 69.652 69.697 69.692 69.752 75.351 77.175 73.687 69.939 73.186 76.956 77.386 77.327 77.32 76.99 77.052 77.302 76.792 74.948 71.49 68.989 68.575 68.583 68.508 68.536 71.86 74.467 76.654 77.853 77.561 76.186 71.232 68.876 69.248 69.23 68.836 68.765 68.764 68.721 68.749 68.724 68.765 68.88 68.805 68.866 68.928 68.934 68.879 68.811 68.768 68.699 68.612 68.356 68.227 68.129 68.04 67.941 67.858 67.755 67.701 67.682 67.532 67.505 67.443 67.338 67.309 67.277 67.089 75.115 80.829 83.219 83.867 83.987 79.274 77.796 77.831 68.347 67.566 70.448 69.815 66.15 65.987 65.873 65.831 65.797 65.737 65.664 65.545 65.461 65.455 66.829 66.086 65.854 65.67 65.581 65.55 65.853 65.148 70.075 75.167 76.789 78.113 77.204 76.39 74.565 67.683 63.21 63.173 63.09 63.001 62.917 62.795 62.711 62.644 62.513 62.453 62.33 62.285 62.169 62.1 62.042 62.026 61.973 61.924 61.893 61.877 61.873 61.778 61.409 61.279 61.29 61.307 61.297 61.303 61.272 61.26 61.264 61.261 61.228 61.222 61.148 61.102 61.105 61.068 61.059 60.937 60.871 60.818 60.759 60.768 60.778 60.801 60.716 60.597 60.47 60.396 60.298 60.189 60.126 60.059 60.026 59.863 59.795 59.73 59.704 59.637 59.565 59.524 59.456 59.437 59.346 59.281 59.238 59.151 59.111 59.113 59.089 59.096 59.114 59.185 59.268 59.329 59.501 59.718 59.904 59.816 59.69 59.821 62.998
83.014 82.156 82.102 81.845 81.777 81.748 81.541 81.639 86.549 87.741 88.607 88.868 87.727 87.082 86.333 82.167 80.152 79.68 79.404 79.065 78.855 78.772 78.663 78.627 78.487 78.398 78.33 78.374 78.464 78.44 78.366 78.214 77.959 77.921 77.857 77.818 77.735 77.915 78.128 78.321 78.656 82.388 82.479 82.367 81.579 79.383 79.279 78.987 80.277 80.698 79.488 77.359 76.788 76.726 77.586 76.415 76.395 78.251 78.354 79.908 77.722 84.124 82.386 91.565 91.846 90.156 90.301 88.997 90.543 89.588 88.195 87.696 84.776 80.744 77.595 77.267 75.532 75.567 75.296 75.495 76.286 75.538 76.146 75.311 77.484 79.05 80.692 81.108 81.155 79.408 73.567 74.252 74.168 73.27 72.587 72.582 73.327 73.192 72.775 72.733 73.764 76.573 76.775 74.534 76.39 72.541 72.335 73.024 72.937 73.714 74.779 73.596 72.031 71.893 71.891 71.834 72.048 71.785 71.909 72.136 71.629 71.362 72.443 71.22 71.186 71.035 70.928 70.89 70.974 71.069 71.234 70.847 70.816 70.7 70.615 70.672 70.657 70.536 70.314 70.275 70.16 70.188 70.165 70.184 70.148 70.218 70.021 69.907 69.897 69.906 69.894 71.548 72.384 69.335 69.257 69.339 69.507 69.071 68.7 68.321 75.674 76.569 72.798 71.866 74.35 69.7 70.268 68.229 68.26 68.208 68.153 68.557 68.636 74.186 75.4 75.673 74.492 70.003 68.216 67.835 67.633 67.583 67.662 67.628 67.815 67.841 67.893 68.282 69.089 68.669 68.927 68.638 68.479 68.348 68.376 68.436 68.284 68.325 69.564 68.511 68.757 71.052 71.24 68.893 68.933 68.962 69.051 69.236 69.31 69.281 69.392 69.442 69.504 69.539 69.681 69.97 71.503 78.086 79.302 79.658 76.182 70.635 69.833 69.635 69.71 69.725 69.748 69.793 69.781 69.824 69.817 69.842 69.9 69.817 69.827 69.87 69.748 69.756 69.778 69.787 69.804 69.68 69.819 69.88 69.974 70.002 69.958 70.073 70.129 70.144 70.16 70.156 70.242 70.282 74.863 77.209 76.77 76.381 77.999 76.18 75.939 75.509 72.458 74.833 70.276 68.814 68.779 68.761 68.68 68.697 73.069 75.275 75.083 77.302 75.915 74.97 69.522 68.947 69.552 69.394 69.189 68.959 69.003 69.031 69.026 69.066 69.115 69.141 69.176 69.151 69.124 69.025 68.98 68.915 68.818 68.736 68.708 68.472 68.326 68.229 68.135 68.023 67.924 67.848 67.763 67.686 67.62 67.536 67.479 67.445 67.393 67.308 67.266 76.647 79.01 81.172 82.164 74.43 84.252 82.666 80.813 76.139 75.383 72.971 70.238 66.323 69.69 65.963 65.909 65.896 65.82 65.731 65.625 66.65 66.478 66.537 66.452 66.027 65.693 65.629 65.569 65.651 65.522 66.238 72.909 74.316 77.608 77.619 75.979 74.456 67.479 63.323 63.216 63.125 62.994 62.909 62.79 62.711 62.626 62.505 62.44 62.38 62.32 62.233 62.126 62.06 62.011 61.951 61.928 61.881 61.871 61.851 61.824 61.622 61.314 61.268 61.284 61.281 61.298 61.264 61.256 61.231 61.269 61.201 61.22 61.138 61.172 61.117 61.081 61.441 60.947 60.876 60.868 60.958 60.814 60.644 60.647 60.635 60.647 60.571 60.462 60.318 60.218 60.147 60.133 60.083 59.975 59.893 59.826 59.779 59.854 59.659 59.634 59.582 59.542 59.487 59.429 59.347 59.321 59.203 59.165 59.146 59.161 59.187 59.225 59.33 59.405 59.583 59.753 60.005 60.022 59.91 60.985 62.601
83.355 82.153 82.136 82.008 81.884 83.523 82.492 86.258 88.054 88.756 88.954 88.418 87.359 85.185 81.264 81.114 80.307 79.602 79.261 78.994 78.924 78.848 78.864 78.659 78.57 78.47 78.504 78.642 78.661 78.678 78.584 78.46 78.134 78.042 78.057 77.994 77.984 78.196 78.274 78.537 81.217 84.424 85.136 84.891 84.7 83.407 81.073 78.348 78.256 79.511 77.215 76.929 76.825 76.77 77.793 76.667 76.596 76.517 76.387 76.837 87.215 91.055 84.001 89.303 91.647 89.61 91.134 89.9 91.155 90.793 89.454 89.487 87.835 86.999 76.563 75.282 75.418 76.627 78.678 78.704 76.61 74.622 74.535 74.751 76.479 75.677 80.505 81.78 81.59 80.068 75.523 73.973 73.54 73.298 72.833 72.656 72.59 72.967 72.884 72.582 72.532 72.995 73.003 72.568 72.837 72.644 72.754 75.008 73.077 74.122 73.311 72.238 72.076 71.938 71.911 71.935 71.847 72.691 72.353 72.634 72.368 71.395 72.346 71.211 71.04 70.982 70.959 70.922 70.904 70.893 70.945 70.852 70.894 70.752 70.649 70.838 70.65 70.497 70.584 70.243 70.188 70.165 70.17 71.642 70.334 70.212 70.188 69.878 69.873 69.896 70.012 71.343 72.52 70.028 69.323 69.41 70.263 69.259 68.779 68.418 71.937 69.596 68.93 68.182 68.045 68.041 68.094 68.229 68.285 68.227 68.219 68.583 68.637 73.942 75.41 76.019 74.924 73.222 68.27 68.109 67.808 67.665 67.733 67.731 67.957 68.901 69.774 69.995 68.462 68.289 68.337 68.472 68.495 68.558 68.393 69.604 69.227 70.411 69.387 69.033 68.828 68.998 69.04 73.069 69.786 69.643 70.329 70.483 69.53 69.507 69.486 69.631 69.729 69.735 70.242 70.611 70.82 72.136 70.764 70.095 69.818 69.833 69.785 69.803 69.825 69.907 69.952 69.948 69.965 69.963 69.914 69.952 69.951 69.985 69.864 69.913 69.979 70.006 70.042 70.044 70.017 70.141 70.872 70.232 70.282 70.306 70.394 70.444 70.52 70.488 70.453 70.437 70.467 70.47 72.196 75.571 74.545 72.287 73.705 70.63 70.523 71.361 70.168 69.88 70.195 69.038 68.896 68.92 68.906 68.858 70.664 69.161 69.575 69.068 69.353 69.101 69.238 69.247 69.603 69.417 69.421 69.294 69.286 69.295 69.288 69.294 69.288 69.259 69.223 69.235 69.222 69.119 69.079 68.999 68.902 68.835 68.748 68.616 68.412 68.288 68.196 68.085 67.969 67.916 67.83 67.748 67.717 67.614 67.563 67.545 67.479 67.406 67.376 67.397 78.331 78.228 80.285 80.465 82.348 83.219 82.054 79.805 76.958 75.01 70.877 66.653 66.673 68.584 69 68.761 65.853 65.731 66.485 69.522 67.175 65.646 66.322 67.015 65.767 65.672 65.631 65.562 66.063 65.229 65.755 68.268 72.293 74.858 75.41 74.017 64.621 63.37 63.22 63.127 63.031 62.924 62.808 62.704 62.667 62.57 62.485 62.395 62.325 62.271 62.205 62.119 61.99 61.969 61.933 61.893 61.87 61.851 61.879 61.816 61.397 61.241 61.225 61.323 61.278 61.311 61.235 61.225 61.208 61.213 61.179 61.123 61.163 61.065 61.053 60.962 60.892 61.002 61.019 60.935 60.885 60.803 60.695 60.648 60.538 60.535 60.489 60.449 60.347 60.233 60.169 60.085 60.047 59.983 59.965 62.938 60.777 61.013 59.719 59.682 59.625 59.619 59.564 59.528 59.459 59.372 59.303 59.233 59.285 59.291 59.327 59.324 59.494 59.63 59.847 60.066 60.387 60.097 59.909 60.152
82.973 82.93 82.227 82.275 81.991 84.98 84.497 82.773 88.686 88.721 89.048 87.403 83.051 80.97 80.574 80.682 80.036 79.551 79.182 79.103 79.042 78.964 78.836 78.754 78.728 78.739 78.758 78.823 78.882 78.871 78.754 78.508 78.237 78.194 78.193 78.154 78.698 78.67 78.435 79.007 78.76 84.542 86.107 85.952 84.955 82.057 79.644 78.504 78.442 78.5 77.209 76.997 76.992 76.921 77.752 76.548 76.557 76.537 76.427 76.308 83.534 83.956 87.962 91.327 89.897 89.626 82.626 88.074 91.174 90.208 89.852 89.008 86.912 83.791 75.338 75.354 77.293 78.823 79.471 79.188 75.795 74.972 75.704 74.769 74.748 77.705 80.264 81.434 81.487 80.462 77.907 73.606 73.48 73.427 73.002 72.745 72.723 72.743 72.773 73.122 73.451 72.788 72.693 75.674 77.317 75.486 75.49 73.489 73.09 72.322 72.259 72.298 72.031 71.955 73.203 72.392 75.021 72.463 74.163 75.082 74.689 71.499 71.37 71.213 71.131 71.138 71.058 70.927 70.92 70.864 71.62 71.442 70.874 70.702 70.679 70.683 70.986 70.586 70.611 70.315 70.189 70.142 70.152 70.422 70.028 69.975 69.898 69.788 69.825 69.79 69.858 71.884 72.762 71.244 69.427 69.387 69.636 69.406 69.081 68.644 68.447 68.419 68.388 68.273 68.198 68.116 68.183 68.268 68.358 68.328 68.289 68.555 68.423 71.747 74.932 75.929 74.995 71.093 68.327 68.159 68.036 67.85 67.896 67.874 68.021 68.466 70.103 70.202 68.83 68.507 68.489 68.658 68.77 68.788 68.821 69.186 68.995 68.865 70.212 69.864 70.484 72.532 76.95 76.987 75.722 69.881 69.757 69.823 69.856 69.621 69.676 69.742 69.852 69.919 69.967 70.252 70.013 69.956 69.982 69.97 69.906 70.003 70.005 69.993 69.974 70.014 70.032 70.09 70.098 70.084 70.048 70.114 73.112 75.08 72.04 71.122 70.195 70.266 70.306 70.315 70.396 70.888 72.706 71.128 70.578 70.689 70.865 71.88 70.82 72.61 71.24 71.269 70.607 70.584 70.539 71.214 71.082 70.367 69.91 69.934 70.643 71.092 70.887 69.882 69.951 69.197 69.081 69.155 69.073 69.273 69.194 69.35 69.691 75.112 74.309 75.067 73.288 69.273 69.529 69.537 69.491 69.471 69.389 69.39 69.389 69.366 69.353 69.326 69.289 69.26 69.251 69.214 69.135 69.098 68.989 68.888 68.832 68.748 68.54 68.366 68.249 68.14 68.073 67.968 67.899 67.83 67.797 67.691 67.66 67.655 67.536 67.508 67.448 67.385 75.299 77.067 78.214 80.455 81.866 74.977 81.639 81.055 76.164 74.872 69.987 67.225 66.134 67.631 70.294 68.291 65.933 66.58 72.061 72.352 68.275 66.649 65.806 66.266 66.537 65.732 65.688 65.606 65.518 65.378 65.211 65.118 65.213 72.94 73.058 68.107 63.659 63.433 63.238 63.142 63.047 62.89 62.775 62.712 62.677 62.596 62.494 62.417 62.36 62.315 62.25 62.129 62.036 61.974 61.932 61.873 61.874 61.856 61.926 61.861 61.694 61.359 61.195 61.287 61.271 61.283 61.247 61.23 61.188 61.237 61.168 61.096 61.094 61.031 60.992 60.968 61.039 61.031 61.009 60.914 60.849 60.818 60.718 60.69 60.6 60.582 60.45 60.446 60.427 60.406 60.38 60.207 60.032 64.113 67.705 66.899 62.406 63.803 62.522 59.941 59.812 59.744 59.668 59.671 59.576 59.546 59.471 59.442 59.458 59.435 59.445 59.474 59.634 59.766 59.992 60.208 60.398 60.365 60.136 61.747
83.104 83.383 82.857 82.429 85.352 88.107 85.787 82.496 83.332 87.733 86.727 83.365 81.162 80.628 80.046 80.818 79.71 79.374 79.322 79.201 79.131 78.993 78.898 78.83 78.828 78.955 78.996 78.987 79.025 79.005 78.877 78.618 78.391 78.343 78.322 78.313 78.779 78.523 80.089 79.55 82.497 84.803 85.601 85.722 84.668 79.271 79.008 78.447 78.804 78.261 77.521 77.261 77.036 77.002 78.204 76.707 76.711 76.593 76.484 76.447 78.754 86.445 90.462 89.497 86.77 88.088 90.276 90.356 90.009 89.331 88.914 87.433 88.151 84.828 75.564 75.245 76.24 79.943 79.264 78.596 75.811 75.015 74.959 74.989 77.712 77.864 79.818 80.267 80.129 80.039 75.886 73.964 73.603 73.383 72.989 72.813 72.834 72.799 72.907 73.064 73.822 73.064 77.879 78.9 79.221 78.635 76.065 75.344 75.035 72.735 73.221 73.321 73.034 72.487 72.432 72.014 72.302 72.166 72.168 74.645 74.737 71.638 71.484 71.38 71.442 71.124 71.087 71.042 70.891 71.031 72.14 71.46 71.196 70.892 70.796 70.826 71.02 70.617 70.591 70.464 70.207 70.213 70.087 70.057 69.958 70.007 70.006 69.933 69.856 69.846 69.878 70.283 72.564 71.339 69.508 69.522 69.693 69.589 69.223 68.905 68.72 68.574 68.538 68.48 68.365 68.241 68.305 68.409 68.467 68.397 68.373 68.641 68.474 72.371 74.829 75.969 75.419 74.047 68.396 68.247 68.173 68.002 67.967 68.012 68 68.422 69.046 69.503 70.919 69.112 68.898 68.919 68.891 68.842 68.986 70.018 69.91 70.679 69.739 69.475 69.567 73.871 76.553 77.164 75.986 71.706 69.922 69.809 69.818 69.714 69.778 69.946 70.02 70.054 70.095 70.084 70.121 70.183 70.2 70.137 70.146 70.131 70.155 70.128 70.127 70.098 70.212 70.203 70.206 70.147 72.834 76.952 76.834 76.628 76.737 71.03 70.497 70.613 70.639 70.628 70.759 73.238 73.515 73.583 71.325 70.964 72.633 72.765 73.025 73.942 73.72 74.96 73.565 71.426 70.991 70.775 70.647 70.536 70.363 70.192 70.117 69.856 69.697 69.545 69.39 69.254 69.233 69.246 69.286 69.224 72.516 75.852 76.802 77.828 78.613 77.498 76.401 70.094 69.409 69.643 69.604 69.585 69.518 69.467 69.517 69.503 69.431 69.421 69.392 69.331 69.358 69.303 69.285 69.189 69.113 69.024 68.906 68.778 68.573 68.464 68.356 68.271 68.199 68.168 68.093 68.027 67.927 67.885 67.789 67.745 67.737 67.624 67.655 67.493 67.435 71.861 75.804 79.766 81.054 81.341 80.807 79.296 72.604 70.233 67.604 71.76 66.328 66.139 66.028 66.009 66.284 67.87 71.256 71.447 67.897 65.853 70.581 71.803 69.782 65.78 65.716 65.607 65.575 65.988 65.219 65.144 65.144 65.033 65.341 64.368 63.773 63.443 63.281 63.175 63.068 62.927 62.823 62.773 62.702 62.604 62.513 62.44 62.396 62.302 62.256 62.139 62.083 61.997 61.967 61.921 61.898 61.913 61.868 61.87 61.86 61.641 61.283 61.221 61.264 61.243 61.217 61.245 61.197 61.185 61.184 61.084 61.035 61.044 60.992 61.068 61.115 61.048 60.96 60.891 60.832 60.776 60.759 60.712 60.651 60.611 60.603 60.549 60.466 60.448 60.376 60.363 61.14 66.88 64.144 69.907 69.639 69.131 69.745 67.435 60.998 59.877 59.809 59.82 59.689 59.661 59.64 59.607 59.606 59.625 59.559 59.569 59.763 59.873 60.119 60.277 60.486 60.513 60.325 60.675
83.058 83.513 84.196 87.406 88.524 89.276 89.104 86.103 84.455 83.682 82.091 81.424 81.612 80.792 80.121 79.667 79.556 79.461 79.406 79.332 79.228 79.057 79.028 79.192 79.174 79.259 79.156 79.247 79.225 79.173 79.042 78.796 78.492 78.521 78.528 78.456 78.445 78.504 79.812 78.854 81.536 84.421 84.392 84.601 84.484 80.78 78.284 78.205 77.896 77.771 77.865 77.472 77.408 77.556 77.486 76.947 76.928 76.75 77.165 81.26 81.918 83.421 87.504 79.256 83.26 85.937 88.983 89.662 88.431 88.068 82.81 85.273 86.288 78.621 76.828 77.349 75.773 75.792 77.566 75.899 75.64 74.942 74.831 74.695 74.517 76.973 75.522 78.617 75.744 74.88 74.126 73.992 74.055 73.378 73.026 72.914 72.945 73.103 73.213 73.019 72.948 73.653 78.058 79.695 80.216 78.723 77.175 75.691 73.672 72.851 72.316 72.201 72.086 71.989 72.029 72.014 72.039 72.247 74.466 74.539 74.801 73.494 71.485 71.301 71.301 71.177 71.144 71.111 71.035 71.107 71.247 71.531 70.887 70.896 70.671 70.68 70.847 70.597 70.59 70.352 70.215 70.169 70.124 70.11 70.026 70.209 70.28 70.335 69.936 69.856 69.98 69.95 71.724 72.379 69.636 69.551 69.697 69.921 69.5 69.22 68.877 68.748 68.668 68.624 68.552 68.438 68.408 68.516 68.524 68.487 68.409 68.541 68.448 69.487 74.427 75.814 75.684 70.252 68.515 68.288 68.232 68.111 68.068 68.091 68.141 68.363 68.945 69.099 68.958 69.012 68.992 69.442 70.1 69.655 69.419 69.321 69.139 69.144 69.248 69.621 69.378 73.246 76.51 77.355 76.499 71.157 70.261 69.804 69.877 70.076 69.94 70.059 70.184 70.253 70.285 70.312 70.317 70.266 70.267 70.266 70.245 70.241 70.282 70.583 70.914 70.323 70.288 70.361 70.36 70.339 73.928 77.794 75.578 75.261 76.178 72.101 70.818 70.85 70.994 71.128 72.757 74.514 75.183 74.24 73.076 71.703 72.314 72.902 74.033 74.797 74.298 75.02 74.388 72.17 71.39 71.022 70.711 70.494 70.376 70.182 70.06 69.886 69.81 69.775 69.619 69.515 69.442 69.401 69.409 70.469 69.401 70.589 75.415 77.796 78.721 77.846 76.083 70.15 70.121 70.256 69.703 69.717 69.665 69.57 69.627 69.583 69.54 69.52 69.518 69.459 69.463 69.389 69.341 69.267 69.213 69.08 68.965 68.868 68.696 68.598 68.459 68.418 68.394 68.273 68.174 68.069 68.015 67.98 67.924 67.82 67.907 67.771 67.735 67.622 67.472 67.745 72.73 77.562 79.594 79.567 80.242 80.719 80.41 76.771 72.891 76.28 70.812 66.976 66.181 66.162 69.29 71.265 73.988 70.913 67.315 65.966 72.86 73.365 68.959 65.795 65.898 65.7 65.689 66.132 65.504 65.141 65.136 65.096 65.859 64.901 69.186 63.63 63.28 63.214 63.062 62.984 62.843 62.787 62.753 62.663 62.562 62.479 62.421 62.345 62.292 62.202 62.14 62.087 62.012 61.962 61.943 61.915 61.853 64.295 64.275 63.901 61.484 61.279 61.3 61.194 61.256 61.196 61.168 61.14 61.112 61.098 61.005 61.122 61.14 61.166 61.103 61.045 60.976 60.896 60.834 60.783 60.748 60.703 60.682 60.627 60.601 60.623 60.617 60.547 60.459 60.433 60.445 65.865 67.729 69.433 68.348 69.433 69.154 67.986 64.7 60.695 59.976 59.905 59.822 59.794 59.776 59.771 59.742 59.75 59.731 59.747 59.789 59.989 60.214 60.388 60.545 60.685 60.515 60.462
83.377 83.503 86.998 88.099 89.475 90.038 89.446 88.565 83.329 82.222 81.207 81.23 82.303 80.808 79.853 79.735 79.66 79.595 79.547 79.357 79.236 79.149 79.279 82.133 83.249 82.234 79.46 79.377 79.344 79.329 79.113 78.804 78.628 78.638 78.63 78.591 78.609 78.679 78.691 79.33 79.346 79.719 79.642 80.011 80.017 80.058 78.255 78.22 78.001 77.719 77.59 77.529 77.726 77.523 77.69 77.244 76.932 76.75 76.914 77.563 79.6 78.691 76.546 76.591 76.412 77.498 79.978 85.56 84.336 83.98 82.947 77.259 83.385 79.269 77.344 77.821 75.616 75.379 75.34 75.271 75.562 77.102 76.96 76.183 74.727 74.561 74.555 74.403 74.47 74.498 74.983 74.465 74.88 73.761 73.38 73.035 72.986 74.352 73.857 73.314 73.066 73.044 74.44 79.321 80.585 79.199 76.816 75.855 74.939 72.856 72.668 72.347 72.102 74.154 72.906 74.738 75.875 76.979 74.486 74.29 74.333 72.124 71.386 71.283 71.286 71.202 71.169 71.186 71.112 71.126 71.043 72.037 71.032 70.851 70.903 70.9 71.458 70.665 70.596 70.327 70.278 70.268 70.165 70.147 70.055 70.03 70.236 70.691 69.988 69.907 70.354 70.492 71.816 72.507 70.359 69.659 69.706 70.565 73.046 71.001 70.411 68.889 68.779 68.744 68.721 68.596 68.553 68.636 68.599 68.519 68.498 68.66 68.453 68.408 73.128 75.493 76.411 75.009 73.41 68.833 68.509 68.359 68.173 68.198 68.21 68.318 68.919 69.177 69.076 69.285 70.043 69.474 69.273 70.154 69.3 69.145 69.212 69.281 69.379 69.751 69.747 71.208 74.767 77.307 76.827 72.05 70.114 69.879 70.464 71.051 70.09 70.209 70.301 70.33 70.438 70.424 70.413 70.414 71.529 70.518 70.629 71.149 71.857 72.257 71.363 71.818 70.438 70.497 70.549 70.631 75.584 72.716 78.555 75.467 76.763 74.083 73.584 73.186 72.981 72.366 73.539 72.637 73.235 71.937 72.253 72.681 71.188 71.855 73.849 74.04 73.347 72.386 71.904 71.852 71.575 71.279 71.04 71.781 70.959 70.611 70.252 70.187 70.319 70.117 69.886 69.781 69.578 69.533 69.557 70.304 70.018 70.43 76.842 78.439 79.403 80.845 77.13 71.231 70.347 70.335 69.942 69.889 69.859 69.659 69.711 69.716 69.67 69.589 69.618 69.532 69.485 69.441 69.371 69.312 69.208 69.115 69.018 68.973 68.84 68.724 68.658 68.553 68.536 68.411 68.286 68.244 68.179 68.175 68.107 68.021 68.021 67.954 67.837 67.725 67.609 67.451 70.947 74.516 77.653 80.615 81.29 81.789 81.928 81.286 78.09 76.797 75.999 69.989 66.304 66.292 66.575 71.775 70.921 67.891 66.239 68.788 71.063 73.532 71.606 69.263 66.405 66.18 65.954 65.791 65.582 65.146 65.078 65.052 67.086 72.48 71.316 65.583 63.366 63.176 63.078 62.975 62.868 62.787 62.765 62.667 62.602 62.525 62.471 62.369 62.325 62.255 62.213 62.137 62.091 62.035 61.922 61.899 62.641 66.979 68.192 65.539 62.266 61.443 61.51 61.449 61.351 61.247 61.154 61.128 61.126 61.258 61.246 61.31 61.227 61.145 61.084 61.096 60.968 60.945 60.858 60.832 60.779 60.725 60.723 60.681 60.637 60.632 60.679 60.615 60.528 60.506 60.437 60.43 65.751 66.451 67.371 69.261 69.694 68.134 65.324 60.525 60.048 59.989 59.978 59.94 59.916 59.865 59.895 59.885 59.865 59.911 59.939 60.062 60.204 60.442 60.643 60.764 60.652 60.552
83.809 88.053 89.124 89.753 89.897 90.152 88.85 84.948 81.695 81.739 81.694 80.64 81.512 80.228 79.854 79.758 79.727 79.678 79.543 79.418 79.422 79.677 79.379 82.516 85.209 84.881 81.385 82.714 83.988 81.642 79.256 79.006 78.762 78.809 78.793 78.732 78.741 78.802 78.915 78.75 80.246 82.723 81.553 78.928 78.621 78.635 78.811 78.548 78.159 78.005 77.826 77.686 78.153 78.34 77.765 77.32 77.026 77.006 76.928 76.788 76.698 76.723 78.366 78.177 76.729 77.115 78.828 76.832 76.516 77.105 78.762 79.756 77.424 76.743 78.19 79.322 77.797 75.567 75.507 75.437 76.657 76.632 76.938 76.849 75.805 74.794 74.907 74.82 79.582 80.692 80.768 74.71 73.97 73.859 73.832 73.324 73.096 73.579 74.964 74.095 73.18 73.286 76.062 79.015 79.416 78.903 78.256 74.55 74.35 74.569 75.384 75.666 73.918 76.593 75.257 76.032 76.065 76.621 74.592 74.284 74.172 73.33 71.375 71.321 71.292 71.249 71.287 71.843 71.574 71.201 71.385 72.015 72.845 70.942 70.88 70.854 70.908 70.778 70.649 70.745 70.582 70.255 70.214 70.142 70.111 70.093 70.451 70.077 70.15 70.103 69.971 70.62 71.682 73.121 70.446 69.727 69.734 75.522 78.999 73.255 75.355 69.31 68.893 68.853 68.836 68.739 68.586 68.667 68.656 68.587 68.585 68.655 68.683 68.826 69.105 74.969 76.371 75.964 72.999 69.817 68.72 68.538 68.415 69.136 68.352 68.399 68.868 69.354 69.303 69.323 70.038 71.106 71.234 69.52 70.554 69.355 69.446 69.664 69.553 69.522 69.594 70.839 74.139 76.917 77.101 75.819 70.633 70.667 70.891 71.938 70.52 70.316 70.431 70.454 70.558 70.532 70.579 70.714 70.914 77.082 80.885 81.138 79.682 75.519 71.988 71.67 70.619 70.609 70.691 70.692 75.099 77.167 78.427 75.953 72.692 71.779 73.814 73.173 73.532 73.685 73.636 72.334 71.452 71.426 71.44 71.606 71.545 71.531 71.582 71.608 71.67 71.675 71.788 71.806 72.025 71.798 71.91 71.038 70.962 71.601 70.427 70.629 70.683 70.335 70.635 73.379 70.436 70.044 69.696 69.737 69.663 73.334 75.299 78.201 79.248 78.555 77.256 72.212 70.309 70.325 70.233 70.209 70.084 69.84 69.799 69.795 69.794 69.708 69.664 69.596 69.559 69.508 69.44 69.356 69.294 69.217 69.099 69.001 68.931 68.837 68.742 68.637 68.576 68.526 68.457 68.45 68.397 68.289 68.185 68.129 68.032 68.021 67.955 67.825 67.704 67.606 67.389 72.947 74.634 81.257 81.932 81.984 79.83 81.191 76.825 74.677 72.739 70.347 66.469 67.963 69.539 70.821 70.724 67.154 66.053 67.429 68.84 72.42 73.413 73.798 65.896 66.011 65.875 65.842 65.877 65.066 65.073 64.968 69.71 73.878 74.299 63.679 63.369 63.219 63.107 62.99 62.903 62.808 62.772 62.646 62.601 62.538 62.486 62.412 62.367 62.303 62.301 62.229 62.141 62.06 61.94 61.915 65.637 69.16 70.208 68.62 63.01 61.608 61.696 61.685 61.646 61.541 61.463 61.451 61.461 61.476 61.411 61.343 61.28 61.18 61.121 61.052 60.998 60.983 60.862 60.856 60.794 60.8 60.802 60.748 60.767 60.743 60.718 60.63 60.561 60.52 60.498 60.491 60.488 61.68 61.859 65.173 66.796 67.397 62.633 60.372 60.291 60.19 60.151 60.074 60.06 60.034 60.011 59.988 60.018 60.006 60.088 60.153 60.282 60.459 60.713 60.875 60.915 60.643
88.665 89.468 90.28 90.447 89.35 88.877 86.545 82.28 81.541 81.445 82.396 80.627 80.136 79.967 79.908 79.897 79.772 79.759 79.549 79.577 80.115 80.114 79.617 83.828 88.248 87.838 81.046 81.509 85.452 84.415 79.943 79.166 78.937 78.975 78.952 78.882 78.836 78.895 78.867 79.123 84.218 85.039 85.129 85.035 84.397 84.835 80.911 79.199 78.434 78.309 78.259 78.17 78.093 78.95 77.804 77.262 77.133 77.022 76.969 76.874 76.825 76.838 77.122 77.811 77.974 76.867 76.616 76.651 76.629 76.634 77.89 81.221 77.187 76.96 79.951 79.447 76.95 75.693 75.9 75.572 75.686 75.172 76.937 75.645 76.75 77.898 79.534 81.137 81.824 81.684 81.295 79.503 74.311 74.225 74.289 73.623 73.237 73.461 75.221 73.676 73.316 73.723 73.356 77.037 77.233 77.38 74.336 75.202 74.623 73.753 74.134 75.326 73.517 73.203 73.119 72.848 72.142 72.678 73.025 73.147 74.271 73.778 71.571 71.309 71.275 71.249 71.279 72.067 71.682 71.308 71.483 72.619 72.284 70.95 70.885 70.853 70.905 70.819 70.742 70.658 70.476 70.222 70.193 70.277 70.291 70.557 70.335 70.018 70.027 69.969 70.291 70.854 70.708 73.169 71.335 69.829 70.472 72.556 79.515 78.487 72.504 71.431 69.016 68.935 68.859 68.833 68.749 68.845 68.798 68.691 68.686 68.772 68.771 68.809 70.972 74.927 76.189 76.375 74.921 70.799 68.825 68.589 68.525 69.189 68.528 68.548 68.831 69.363 69.755 69.381 69.852 71.446 70.679 69.891 69.597 69.553 69.61 69.537 69.539 69.559 69.703 69.931 72.709 77.048 77.993 76.778 71.642 70.907 70.381 71.773 70.629 70.396 70.543 70.615 70.629 70.608 71.683 72.097 73.375 79.408 80.721 81.022 80.554 79.098 72.517 71.437 70.819 70.807 70.882 70.891 72.719 75.711 75.609 73.225 71.448 71.469 74.102 71.937 73.462 72.415 72.08 71.45 71.506 71.57 71.601 71.599 71.663 71.678 71.73 71.772 71.777 71.824 71.861 71.972 72.947 74.128 76.847 75.739 76.633 77.253 76.869 76.839 77.273 77.119 77.196 73.293 69.906 70.063 69.867 70.106 70.042 75.929 76.741 77.711 77.654 78.375 76.124 71.556 70.316 70.386 70.459 70.433 70.192 70.005 69.886 69.865 69.808 69.755 69.699 69.662 69.64 69.562 69.505 69.435 69.394 69.259 69.175 69.091 68.986 68.898 68.832 68.722 68.721 68.69 68.69 68.608 68.48 68.362 68.269 68.224 68.167 68.148 68.061 67.952 67.796 67.703 67.643 68.517 78.032 81.911 81.998 83.195 82.837 76.987 72.863 73.48 70.334 67.058 67.182 70.722 70.976 70.688 69.897 66.542 66.037 65.882 65.939 66.917 70.338 66.546 65.885 65.844 65.749 65.668 65.951 65.062 65.032 65.017 65.591 73.983 66.93 64.624 63.421 63.26 63.097 63.017 62.906 62.878 62.772 62.715 62.659 62.582 62.551 62.475 62.423 62.382 62.307 62.237 62.187 62.103 62.007 61.891 63.537 70.411 69.484 66.973 62.497 61.756 61.798 61.784 61.75 61.725 61.656 61.654 61.566 61.506 61.427 61.341 61.303 61.217 61.163 61.102 61.053 60.961 60.931 60.918 60.882 60.878 60.848 60.819 60.767 60.765 60.716 60.687 60.629 60.562 60.563 60.538 60.552 60.516 60.506 60.424 60.411 61.102 60.411 60.418 60.385 60.401 60.359 60.285 60.17 60.198 60.132 60.101 60.128 60.125 60.187 60.253 60.353 60.519 60.707 60.997 61.049 60.765
89.764 90.189 90.586 89.725 88.475 85.064 82.477 82.877 82.004 81.049 80.529 80.287 80.162 80.077 80.04 79.97 79.864 79.756 79.837 80.926 80.465 80.378 79.99 80.131 88.163 88.065 81.682 80.115 80.068 84.101 80.393 79.166 79.057 79.076 79.081 79.005 79.007 79.056 79.786 80.086 84.308 85.967 86.246 85.393 84.445 84.341 81.678 79.359 78.684 78.241 78.2 78.133 78.376 78.872 77.455 77.411 77.256 77.158 77.264 76.979 77.035 76.931 76.832 77.411 77.341 76.891 76.722 76.677 76.665 78.109 79.282 80.316 78.109 78.554 76.289 76.351 75.785 75.853 75.738 75.749 76.035 75.586 75.673 74.926 74.962 77.062 77.899 80.774 82.461 83.029 83.262 80.241 74.753 74.345 74.091 73.987 73.305 73.28 73.231 73.405 73.273 73.155 72.946 72.891 73.153 72.864 72.993 73.237 73.268 72.942 72.89 72.824 72.607 72.48 72.289 72.235 72.15 72.087 72.141 72.12 73.821 74.186 71.956 71.447 71.31 71.308 71.546 71.905 71.594 71.501 72.07 72.21 71.607 70.967 70.924 70.859 70.806 71.593 71.077 70.653 70.513 70.306 70.293 70.271 70.196 70.228 70.244 70.085 70.161 70.015 69.978 70.288 70.169 72.161 71.414 69.95 69.921 69.881 77.265 78.762 76.768 69.497 69.169 69.029 68.977 68.965 68.886 68.849 68.873 68.845 68.777 68.884 68.949 68.902 69.412 74.478 75.856 76.639 75.314 72.349 68.926 68.78 68.682 68.654 68.741 68.632 68.677 69.323 69.818 69.643 69.548 69.805 69.592 69.672 69.653 69.667 70.689 69.893 70.488 70.289 70.089 70.152 70.472 76.943 77.963 77.355 73.917 70.553 70.485 70.789 70.826 70.576 70.695 70.733 70.841 71.394 70.955 71.201 74.298 78.735 80.475 81.54 82.147 79.001 73.43 71.46 71.072 70.946 71.014 71.053 71.031 71.241 71.455 71.381 71.412 71.315 71.413 71.785 71.48 71.578 71.585 71.628 71.643 71.724 71.726 71.783 71.792 71.843 71.89 73.127 73.65 72.98 73.363 74.576 72.466 73.251 77.625 78.997 78.756 78.894 78.778 78.666 78.278 78.591 78.09 77.872 70.113 70.005 69.983 70.865 70.347 71.319 70.737 70.16 70.183 70.571 70.403 70.521 70.567 71.489 70.635 70.528 70.392 70.15 70.03 69.953 69.885 69.817 69.783 69.813 69.788 69.727 69.605 69.563 69.462 69.323 69.186 69.109 69.056 68.986 68.91 68.93 68.837 68.839 68.76 68.732 68.537 68.445 68.395 68.325 68.285 68.257 68.172 68.051 67.916 67.82 67.715 68.922 76.651 81.793 82.502 83.358 80.792 79.106 77.133 71.62 69.618 67.197 70.2 70.272 69.305 68.925 67.928 66.262 65.989 65.773 65.825 65.808 65.764 65.724 65.832 65.802 65.684 65.529 65.772 65.331 65.004 64.981 64.882 65.087 65.778 64.142 63.505 63.276 63.132 63.024 62.961 62.904 62.825 62.738 62.69 62.637 62.582 62.539 62.479 62.425 62.316 62.256 62.205 62.149 62.06 62.749 62.414 65.584 64.726 62.199 62.198 61.854 61.805 61.796 61.772 61.718 61.702 61.667 61.581 61.532 61.427 61.361 61.316 61.262 61.208 61.113 61.061 61.037 61.014 60.969 60.946 60.896 60.884 60.854 60.801 60.777 60.75 60.721 60.68 60.668 60.639 60.602 60.563 60.51 60.489 60.472 60.474 60.487 60.503 60.46 60.428 60.423 60.415 60.412 60.409 60.359 60.321 60.228 60.202 60.269 60.286 60.331 60.399 60.486 60.773 61.116 61.224 60.794
90.261 90.519 90.724 88.702 83.863 82.57 82.493 82.205 83.039 81.285 80.387 80.275 80.209 80.192 80.09 79.999 79.939 81.037 80.723 80.478 80.428 80.461 80.167 80.218 81.619 81.113 84.047 80.39 81.159 81.765 82.724 79.352 79.21 79.257 79.249 79.191 79.132 79.655 79.589 79.164 83.902 85.652 85.918 85.165 84.095 78.898 80.007 80.913 79.107 78.452 78.819 79.051 79.946 79.363 77.553 77.434 77.331 77.275 77.215 77.316 77.107 77.566 76.941 77.663 76.905 77.756 77.35 76.746 76.848 77.282 77.126 77.117 78.877 78.535 76.376 75.882 75.847 75.794 75.769 75.696 75.792 75.574 75.325 75.119 74.932 76.822 77.393 80.774 82.068 82.102 81.739 80.319 74.81 74.061 73.94 73.733 73.415 73.386 73.376 73.375 73.446 73.947 73.707 73.6 73.252 74.25 77.728 75.853 76.326 73.906 72.838 72.651 72.605 72.489 72.418 72.205 72.253 72.741 72.388 72.12 72.606 72.087 71.92 71.446 71.334 71.303 71.27 71.35 71.259 71.284 71.396 71.673 73.299 70.928 70.799 70.939 70.75 71.425 70.911 70.763 70.554 70.449 70.354 70.396 70.277 70.34 70.321 70.205 70.088 70.118 70.131 70.15 70.575 70.593 72.649 70.531 70.004 70.022 70.471 70.009 69.926 69.614 69.257 69.098 69.065 68.977 68.959 68.988 68.962 68.95 68.894 69.636 69.057 69.062 68.988 72.915 75.451 76.607 75.562 73.924 69.014 68.923 68.888 68.802 70.169 68.827 68.726 69.211 69.677 69.982 69.692 69.756 69.776 69.989 69.903 71.527 71.479 71.192 71.018 70.102 70.176 70.557 70.514 75.804 77.999 77.644 72.939 70.715 70.581 70.716 71.384 70.78 70.906 70.877 70.971 72.11 71.291 71.562 71.867 79.087 80.924 82.131 81.477 80.005 74.754 71.418 71.199 71.09 71.169 71.173 71.205 71.275 71.368 71.358 71.401 71.422 71.524 71.583 71.682 71.723 71.737 71.769 71.789 71.861 71.896 72.028 73.261 73.617 72.974 73.308 74.16 73.336 72.552 72.74 72.533 73.764 76.848 78.791 78.562 78.359 77.687 77.481 77.411 77.043 76.585 74.723 70.756 71.037 70.135 70.115 70.241 70.422 70.538 70.41 74.896 73.027 76.093 72.569 70.504 70.767 70.686 70.647 70.482 70.279 70.138 70.167 70.037 69.991 69.922 69.948 69.97 69.842 69.751 69.664 69.547 69.466 69.384 69.233 69.151 69.097 69.073 69.006 68.883 68.897 68.812 68.691 68.638 68.54 68.478 68.386 68.387 68.345 68.226 68.123 68.022 67.908 67.817 70.079 76.196 79.487 80.567 81.386 78.654 73.198 80.719 67.448 67.394 68.957 70.26 68.477 66.862 66.721 66.363 66.079 65.835 65.836 65.836 65.846 66.478 65.93 65.741 65.726 65.605 66.052 65.346 65.815 65 64.91 65.14 65.251 64.539 63.796 63.568 63.324 63.225 63.076 62.997 62.941 62.86 62.769 62.732 62.666 62.594 62.545 62.497 62.408 62.325 62.308 62.282 62.205 62.12 62.071 62.02 63.664 63.437 63.617 61.913 61.861 61.804 61.763 61.781 61.753 61.685 61.633 61.6 61.561 61.46 61.435 61.356 61.327 61.26 61.243 61.122 61.082 61.053 61.017 61.016 60.972 60.952 60.896 60.889 60.797 60.773 60.769 60.724 60.698 60.692 60.676 60.608 60.575 60.514 60.465 60.537 60.504 60.509 60.52 60.597 60.537 60.487 60.407 60.378 60.346 60.402 60.389 60.371 60.389 60.398 60.44 60.459 60.562 60.748 61.068 61.061 60.796
90.6 89.559 88.843 86.158 82.512 82.234 82.624 82.386 81.258 80.577 80.455 80.391 80.316 80.245 80.107 80.052 80.159 82.387 81.326 80.425 82.151 83.204 80.9 80.735 81.572 80.497 80.986 81.632 82.853 82.05 86.427 80.277 79.389 79.384 79.37 79.314 79.279 79.554 79.451 80.223 84.438 84.928 84.957 84.88 83.166 81.085 79.014 78.999 78.727 78.511 78.414 78.465 78.903 79.135 78.688 77.571 77.453 77.315 77.328 77.447 78.434 78.934 78.193 77.446 76.891 77.4 77.981 77.206 77.004 76.973 77.041 77.11 79.018 79.06 76.388 76.123 75.864 75.764 75.797 76.532 75.867 75.737 75.54 75.346 75.686 76.468 77.224 79.687 80.995 80.791 80.236 77.178 74.459 74.078 74.598 74.539 73.501 73.458 73.496 73.429 73.462 73.479 73.711 74.538 78.97 79.343 79.825 78.841 76.664 73.544 72.901 72.65 72.649 72.548 72.894 72.43 72.2 72.162 72.1 71.996 71.958 71.972 72.886 72.486 71.521 71.826 71.379 71.359 71.334 71.353 71.513 71.494 71.217 71.378 71.354 71.397 71.017 70.834 70.846 70.729 70.935 70.489 70.43 70.462 70.43 70.261 70.337 70.398 70.183 70.079 69.994 69.977 69.92 71.365 72.853 70.652 70.112 70.075 70.309 70.652 70.198 69.847 69.476 69.17 69.14 69.091 69.074 69.039 69.099 69.065 69.023 69.678 70.313 69.472 69.18 73.08 75.356 76.516 75.855 70.922 69.094 69.022 69.032 68.927 69.569 69.021 68.836 69.12 69.697 70.161 69.941 69.932 71.556 71.913 71.758 71.186 71.925 70.563 70.953 70.372 71.249 70.681 72.059 75.718 77.583 78.11 76.613 70.764 70.663 70.662 71.368 71.14 71.064 71.035 71.068 71.244 71.174 72.001 71.73 78.305 80.182 81.413 81.74 80.293 76.996 71.589 71.66 71.299 71.231 71.336 71.343 71.424 71.494 71.5 71.575 71.63 71.745 71.757 71.813 71.842 71.886 71.904 71.932 72.007 72.164 72.191 73.621 74.181 73.496 72.959 74.162 73.074 72.591 73.103 73.006 73.465 76.473 77.395 74.446 74.451 74.334 73.157 72.76 73.785 72.265 71.614 70.39 70.912 70.304 70.29 70.22 74.736 77.393 78.306 79.575 79.866 78.671 76.101 70.597 70.571 70.929 70.735 70.586 70.371 70.303 70.252 70.163 70.121 70.149 70.059 70.056 69.904 69.837 69.722 69.671 69.617 69.522 69.381 69.257 69.222 69.218 69.063 69.036 68.967 68.865 68.824 68.76 68.641 68.579 68.53 68.533 68.46 68.295 68.224 68.122 68.023 67.899 68.521 74.694 71.784 80.37 77.937 82.95 82.517 75.753 77.162 71.661 70.762 68.125 67.262 66.911 66.525 66.233 65.918 65.837 65.857 65.827 65.881 66.89 66.363 65.688 65.629 65.519 65.37 65.231 65.496 64.957 64.932 64.825 64.665 64.366 63.968 63.605 63.355 63.279 63.176 63.019 62.985 62.942 62.843 62.78 62.704 62.588 62.562 62.517 62.455 62.402 62.349 62.342 62.238 62.167 62.18 62.072 61.958 61.862 61.922 61.897 61.843 61.845 61.787 61.757 61.739 61.72 61.658 61.639 61.605 61.498 61.488 61.44 61.377 61.303 61.257 61.168 61.09 61.084 61.064 61.063 61.022 61.002 60.936 60.866 60.82 60.778 60.779 60.765 60.751 60.728 60.719 60.657 60.631 60.576 60.597 60.589 60.582 60.547 60.591 60.649 60.653 60.656 60.548 60.527 60.464 60.409 60.392 60.441 60.453 60.447 60.569 60.556 60.606 60.754 61.093 61.101 60.918
90.022 88.73 83.535 83.154 82.553 82.437 81.312 80.841 80.68 80.575 80.537 80.47 80.383 80.29 80.189 80.57 80.638 80.988 80.609 84.73 83.289 82.469 81.014 81.803 81.274 83.35 85.708 84.714 82.998 83.455 84.456 80.228 79.55 79.609 79.502 79.476 79.506 80.155 79.317 79.16 78.947 80.422 80.53 81.42 82.408 79.151 79.115 78.842 78.769 78.529 78.447 79.023 80.655 80.459 78.595 77.886 77.679 77.87 77.425 77.408 77.384 79.413 77.552 77.083 76.989 76.802 77.531 77.484 76.984 77.004 77.032 77.117 77.179 78.301 76.552 76.646 75.97 75.933 75.961 75.945 75.852 75.7 75.599 75.589 75.086 75.356 77.255 78.085 75.021 77.392 75.488 74.784 75.463 74.385 74.181 73.789 73.603 73.561 73.588 73.555 73.722 73.462 73.962 77.166 79.252 80.521 81.644 79.612 74.779 74.403 72.952 72.572 72.472 72.375 72.381 72.311 72.24 72.132 72.093 71.996 71.969 71.967 72.885 75.344 71.987 72.061 71.319 71.336 71.385 71.3 72.376 71.805 70.994 71.061 71.532 71.357 71.081 70.901 70.997 70.75 70.653 70.667 70.472 70.409 70.543 70.342 70.362 70.637 70.5 70.279 70.047 70.02 69.994 70.031 72.257 70.943 70.181 70.181 71.104 70.704 70.359 70.009 69.466 69.312 69.275 69.148 69.168 69.188 69.242 69.17 69.096 69.713 69.772 69.679 69.145 72.765 75.256 76.296 75.961 71.77 69.492 69.109 69.126 69.116 68.94 68.97 68.973 69.105 69.587 70.017 70.464 70.477 72.168 71.981 71.564 70.602 72.441 70.992 71.015 71.608 71.118 71.348 71.157 72.448 77.122 78.305 77.05 72.015 70.814 70.849 71.062 71.167 71.037 71.231 71.172 71.244 71.262 71.674 71.644 72.88 79.729 81.023 81.764 80.911 75.77 71.703 72.179 71.646 71.988 71.516 71.532 71.465 71.636 71.707 71.719 71.783 71.882 71.926 71.942 72.014 71.981 72.008 72.109 72.167 72.925 72.561 72.518 74.125 73.492 72.833 73.37 73.024 72.897 74.294 73.322 72.965 72.899 72.805 72.44 72.231 71.817 71.556 71.316 71.216 70.911 70.806 70.52 70.519 70.416 70.395 70.322 70.47 72.6 78.088 79.312 79.98 79.254 74.415 72.558 72.313 71.844 70.826 70.652 70.516 70.447 70.407 70.291 70.253 70.231 70.176 70.117 70.022 69.918 69.845 69.772 69.756 69.657 69.518 69.405 69.329 69.319 69.204 69.153 69.062 68.986 68.926 68.856 68.78 68.731 68.66 68.584 68.545 68.504 68.342 68.281 68.131 68.016 67.86 67.754 74.995 78.049 80.892 79.127 83.028 76.943 71.325 72.108 69.835 68.711 67.17 66.65 66.316 66.005 65.962 65.865 65.787 67.086 66.826 68.737 67.78 65.641 65.596 65.448 65.38 72.789 72.776 65.073 65.263 68.121 69.385 68.202 64.14 63.727 63.412 63.344 63.209 63.107 63.021 62.957 62.883 62.816 62.753 62.658 62.593 62.528 62.469 62.434 62.378 62.348 62.317 62.264 62.182 62.083 61.981 62.013 61.989 61.949 61.889 61.837 61.803 61.792 61.752 61.72 61.666 61.647 61.6 61.588 61.524 61.512 61.403 61.344 61.281 61.197 61.15 61.082 61.085 61.09 61.078 61.036 61.003 60.896 60.907 60.834 60.834 60.84 60.795 60.773 60.77 60.727 60.7 60.662 60.664 60.638 60.661 60.632 60.648 60.656 60.666 60.663 60.668 60.659 60.661 60.637 60.526 60.54 60.471 60.453 60.535 60.571 60.622 60.734 60.908 60.954 60.86
89.104 83.809 82.85 82.951 83.038 83.013 81.157 80.809 80.765 80.713 80.645 80.513 80.414 80.364 80.425 80.674 88.182 88.751 89.594 90.711 90.919 83.884 80.983 81.614 83.65 86.834 89.815 90.038 88.021 83.036 81.208 79.845 79.704 79.703 79.67 79.605 79.656 79.652 79.638 79.595 79.71 79.698 79.641 79.451 79.325 79.425 79.733 79.504 79.558 79.4 79.111 80.316 81.008 80.894 78.526 78.268 78.144 77.792 77.703 77.579 77.473 78.048 77.296 77.05 76.987 76.911 77.005 77.121 77.025 77.043 77.085 79.518 79.236 78.91 77.123 76.876 76.224 76.434 75.855 76.616 77.692 82.095 76.532 77.348 76.554 77.454 77.56 76.659 75.585 75.948 75.151 76.723 77.694 74.253 74.062 73.882 73.829 73.69 73.674 73.62 73.804 73.728 73.669 74.531 78.967 80.589 80.456 79.391 76.53 74.45 73.042 72.71 74.074 73.732 73.877 72.605 72.231 72.252 72.615 72.064 72.091 72.82 74.858 73.987 71.7 71.556 71.408 72.039 71.416 71.599 71.519 71.754 71.533 71.067 71.018 71.107 71.144 70.856 70.691 70.737 70.709 70.544 70.426 70.409 70.422 70.344 70.28 70.443 70.503 70.265 70.207 69.998 70.026 70.268 71.98 72.919 70.274 70.29 71.087 70.828 70.37 70.073 69.748 69.416 69.388 69.371 69.342 69.391 69.291 69.26 69.235 69.266 69.43 70.467 69.33 69.182 70.114 69.008 69.043 69.038 69.174 69.235 69.287 69.298 69.071 69.076 69.075 69.07 69.564 70.03 70.517 71.466 72.203 71.474 70.677 70.647 71.783 70.868 70.433 70.441 70.434 70.582 71.01 71.839 76.807 78.097 77.346 71.007 70.935 71.081 71.46 71.42 71.987 71.361 71.307 71.387 71.385 71.51 71.927 72.058 78.449 80.95 82.281 81.505 79.291 73.873 71.927 71.81 72.56 71.655 71.655 71.665 71.821 71.875 71.914 72.031 72.059 72.071 72.073 72.111 72.149 72.102 72.192 72.363 76.302 73.485 73.058 74.249 74.571 73.04 73.054 73.14 73.007 73.05 73.734 72.824 72.759 72.334 72.255 71.89 71.744 72.192 71.955 72.278 71.68 71.235 70.71 70.558 70.626 70.556 70.563 70.725 70.826 77.28 79.876 80.48 79.895 74.75 71.871 71.293 72.679 70.973 70.808 70.638 70.549 70.459 70.401 70.35 70.306 70.26 70.172 70.089 69.974 69.929 69.888 69.893 69.783 69.62 69.553 69.472 69.386 69.319 69.227 69.1 69.091 69.028 68.984 68.978 68.822 68.774 68.783 68.68 68.675 68.51 68.377 68.249 68.086 67.94 70.089 74.739 75.672 81.116 80.282 79.79 76.157 73.425 69.778 67.91 67.514 67.167 66.692 66.331 66.069 65.935 65.824 66.275 66.208 67.977 68.517 66.961 65.506 66.379 71.924 74.44 77.274 76.853 76.772 73.712 70.065 72.356 70.773 64.303 63.789 63.513 63.382 63.276 63.17 63.041 63.002 62.946 62.859 62.743 62.705 62.624 62.582 62.53 62.45 62.394 62.321 62.316 62.293 62.235 62.117 62.095 62.118 61.987 61.951 61.883 61.869 61.793 61.792 61.812 61.758 61.679 61.662 61.611 61.613 61.563 61.5 61.436 61.361 61.298 61.263 61.166 61.148 61.134 61.167 61.184 61.111 61.045 61.01 60.959 60.928 60.906 60.895 60.868 60.848 60.815 60.762 60.714 60.708 60.726 60.691 60.708 60.704 60.734 60.76 60.777 60.769 60.781 60.793 60.805 60.845 60.804 60.76 60.684 60.644 60.613 60.657 60.686 60.713 60.732 60.786 60.795
84.517 83.256 82.735 82.203 82.673 81.346 80.924 80.88 80.847 80.765 86.199 86.209 85.863 81.164 82.288 87.132 90.307 90.144 90.557 90.681 90.562 83.247 84.659 88.797 89.839 90.534 91.799 92.053 90.144 84.102 80.809 80.124 79.827 79.88 79.824 79.789 79.788 80.935 80.489 83.41 85.335 84.144 83.785 83.545 81.06 79.647 80.569 79.286 79.12 79.054 80.303 81.847 79.935 80.105 78.66 78.717 79.125 78.278 77.85 78.278 77.762 77.556 77.432 77.129 77.119 77.733 78.338 77.117 77.091 77.051 77.154 80.078 78.956 80.083 77.341 76.806 76.52 77.067 80.526 79.072 84.66 86.446 80.56 76.364 76.063 75.596 76.698 76.647 77.938 80.436 80.974 80.822 80.52 76.193 74.152 74.143 74.265 73.788 73.743 73.724 73.877 73.771 73.343 74.59 78.139 79.524 79.794 79.293 77.799 76.591 73.521 72.98 74.822 74.872 74.689 74.118 72.684 72.555 72.705 73.343 72.366 72.181 72.718 73.418 71.602 71.692 71.885 71.619 71.44 71.349 71.347 72.311 72.001 71.105 71.068 70.921 70.86 70.816 70.762 70.719 70.711 70.601 70.449 70.449 70.371 70.31 70.252 70.839 70.231 70.427 70.498 70.054 70.892 70.263 70.228 72.858 70.362 70.304 70.332 70.661 70.552 70.266 69.872 69.573 69.481 69.538 69.545 69.54 69.473 69.375 69.424 69.389 69.373 69.374 69.327 69.291 69.257 69.321 69.332 69.375 69.46 69.488 69.47 69.347 69.256 69.166 69.222 69.248 69.49 69.904 70.366 71.515 70.609 70.611 70.728 70.533 70.441 70.398 70.415 70.433 70.526 70.72 71.152 70.874 72.223 71.311 71.059 71.627 71.897 71.921 71.82 72.21 71.538 71.555 71.476 71.519 71.501 72.012 72.375 71.623 78.368 81.356 82.072 81.671 80.049 74.78 72.15 72.771 71.756 71.754 71.862 71.818 71.876 72.051 72.064 72.156 72.16 72.184 72.206 72.273 72.295 73.787 73.806 74.368 73.931 73.53 73.36 73.349 73.446 73.202 74.253 73.941 74.055 73.237 73.216 72.795 72.817 72.927 73.283 72.164 71.834 71.733 71.516 71.295 71.135 70.964 70.792 70.74 70.697 70.683 71.289 70.793 71.21 78.191 79.457 80.647 79.443 76.174 72.093 71.579 72.595 71.058 70.974 70.742 70.667 70.55 70.554 70.453 70.394 70.37 70.282 70.238 70.12 70.129 70.062 69.967 69.873 69.765 69.693 69.63 69.499 69.396 69.297 69.245 69.206 69.185 69.088 68.992 68.973 68.873 68.804 68.783 68.733 68.673 68.572 68.355 68.22 68.03 68.856 74.765 74.292 78.078 78.583 74.978 74.566 69.098 67.934 67.687 67.587 67.459 69.955 67.659 66.284 65.951 66.215 65.901 65.714 65.541 66.266 66.306 65.302 69.409 77.737 78.034 79.971 75.035 77.843 77.076 74.031 72.419 71.573 66.773 63.934 63.698 63.436 63.348 63.228 63.109 63.034 62.972 62.87 62.749 62.727 62.639 62.62 62.561 62.526 62.436 62.362 62.384 62.373 62.287 62.105 62.2 62.148 62.079 61.987 61.923 61.889 61.86 61.822 61.784 61.761 61.696 61.681 61.652 61.619 61.621 61.502 61.443 61.376 61.332 61.254 61.178 61.172 61.133 61.187 61.19 61.153 61.117 61.086 61.079 60.998 60.997 60.94 60.927 60.896 60.833 60.787 60.771 60.765 60.799 60.783 60.769 60.806 60.828 60.844 60.851 60.863 60.878 60.898 60.91 60.915 60.914 60.882 60.928 60.899 60.869 60.717 60.792 60.798 60.786 60.801 60.745
83.339 83.098 82.682 81.686 81.242 81.048 81.002 80.958 80.901 81.08 88.786 93.099 92.716 84.565 84.203 88.597 90.35 87.708 85.363 86.997 85.044 83.633 88.545 91.453 92.08 92.093 89.517 92.561 90.441 83.639 81.92 80.538 79.989 80.039 79.99 80.01 79.98 80.689 80.472 84.071 86.139 86.223 86.054 85.179 82.55 82.587 83.122 80.185 79.368 81.267 82.596 83.196 79.416 78.789 78.682 78.687 79.633 78.678 78.467 78.113 78.745 77.621 77.318 77.223 78.379 81.731 79.787 77.224 77.169 77.136 77.869 82.112 82.215 78.827 78.281 77.122 78.557 79.817 79.833 77.64 83.877 81.457 77.065 75.697 75.471 76.618 77.64 78.132 79.398 81.406 81.888 82.189 80.572 75.677 76.006 75.13 75.41 74.507 74.333 73.818 73.896 73.842 73.459 73.993 77.982 75.345 77.568 74.51 74.009 73.064 73.107 73.076 74.848 75.4 75.31 72.82 72.51 72.417 72.497 76.127 73.863 72.173 72.258 72.921 72.585 72.096 71.411 71.397 71.381 71.319 71.359 71.669 71.151 71.099 71.134 71.024 70.945 70.854 70.8 70.735 70.704 70.551 70.477 70.504 70.506 70.284 70.281 70.301 70.298 70.194 70.277 70.131 70.466 70.165 73.256 72.879 70.891 70.408 70.415 70.976 71.02 70.43 70.071 69.757 69.66 69.729 69.632 69.612 69.559 69.523 69.566 69.551 69.596 69.619 69.572 69.549 69.644 69.612 69.625 69.635 69.653 69.621 69.495 69.339 69.25 69.312 69.37 69.398 69.362 69.912 71.471 72.467 70.537 70.536 70.482 70.43 70.463 70.479 70.479 70.721 70.894 71.449 71.272 71.906 71.86 72.045 72.196 71.943 71.997 71.874 71.838 71.706 71.632 71.515 71.617 71.643 71.694 71.782 73.703 72.107 77.61 81.074 82.695 82.216 80.91 78.114 72.313 72.751 71.95 71.885 71.997 72.015 72.029 72.11 72.174 72.215 74.007 74.558 73.706 73.43 75.741 75.891 73.425 73.59 73.533 73.121 73.096 73.442 73.283 73.628 74.552 75.576 75.105 73.454 73.535 73.109 72.943 72.797 72.293 72.4 72.011 71.879 71.659 71.482 71.366 71.136 70.967 70.863 70.873 70.809 71.836 70.932 74.738 77.559 79.52 80.532 79.728 75.693 71.049 72.372 72.775 71.119 70.974 70.865 70.763 70.733 70.629 70.581 70.503 70.41 70.397 70.368 70.324 70.272 70.181 70.096 69.99 69.944 69.823 69.691 69.574 69.54 69.4 69.349 69.28 69.227 69.143 69.121 69.079 69.014 68.939 68.934 68.82 68.784 68.638 68.447 68.263 68.157 68.894 73.655 73.983 72.393 71.633 69.372 67.921 69.403 68.024 67.594 67.778 76.544 76.67 71.226 66.581 66.351 66.242 65.699 65.691 65.548 65.408 65.394 65.306 74.631 76.644 80.042 81.481 81.983 81.452 77.841 73.696 71.862 70.093 65.092 64.151 63.83 63.558 63.405 63.309 63.205 63.135 63.046 62.94 62.812 62.778 62.71 62.665 62.609 62.572 62.482 62.428 62.419 62.4 62.288 62.241 62.26 62.174 62.096 62.016 61.957 61.918 61.901 61.856 61.823 61.773 61.723 61.706 61.683 61.632 61.596 61.537 61.486 61.425 61.397 61.304 61.235 61.194 61.207 61.24 61.217 61.203 61.164 61.173 61.198 61.101 61.081 61.024 60.98 60.944 60.916 60.851 60.847 60.826 60.86 60.875 60.938 60.994 60.947 60.963 60.957 60.984 61.041 61.05 61.126 61.124 61.098 61.041 61.017 60.956 60.91 60.884 60.892 60.862 60.855 60.824 60.802
83.003 82.698 82.155 81.394 81.201 81.152 81.114 81.073 80.94 88.735 93.454 94.59 95.016 92.684 84.493 83.71 83.079 84.132 83.453 83.581 82.481 82.368 85.444 90.018 88.639 82.173 81.674 92.331 91.409 81.83 81.733 80.169 80.095 80.175 80.117 80.15 80.146 80.375 79.917 83.738 86.92 87.059 86.472 85.319 82.466 82.41 82.921 79.909 79.42 82.351 83.44 83.239 79.744 79.463 79.313 80.322 78.805 78.7 78.78 78.54 79.25 78.008 77.418 77.329 77.688 79.494 79.629 77.239 77.171 77.238 80.511 81.431 81.437 83.387 84.055 83.084 79.119 79.243 79.24 77.318 76.479 76.428 75.862 75.973 75.605 76.757 77.508 77.979 78.79 81.102 82.554 83.857 81.033 76.98 74.794 74.755 74.64 76.8 75.663 73.959 73.958 73.976 73.748 73.523 73.382 73.643 73.812 73.502 73.428 73.271 73.546 73.255 74.198 74.856 73.536 72.909 72.596 72.521 73.103 75.027 72.651 72.8 73.769 77.127 76.293 72.613 71.751 71.499 71.326 71.354 71.314 71.545 71.227 71.209 71.108 71.142 71.089 70.904 70.861 70.757 70.766 70.563 70.512 70.546 70.556 70.313 70.285 70.269 70.737 70.364 70.549 70.275 70.554 70.492 71.035 72.145 70.875 70.493 70.484 70.72 70.955 70.493 70.266 70.044 69.88 69.773 69.738 69.705 69.651 69.661 69.697 69.718 69.764 69.769 69.816 69.831 69.893 69.888 69.859 69.778 69.62 69.485 69.42 69.384 69.388 69.383 69.445 69.502 69.463 69.777 71.637 72.72 71.214 70.55 70.489 70.609 70.673 70.942 71.595 75.414 78.293 78.379 75.237 76.475 76.02 76.608 77.801 78.045 73.777 71.913 71.904 71.913 71.824 71.637 71.725 71.753 71.857 72.787 73.181 72.644 75.905 80.436 83.689 83.963 80.7 80.306 73.816 72.541 72.221 72.065 72.121 72.148 72.148 72.271 72.59 73.652 73.611 73.457 73.919 73.019 74.546 73.715 73.306 73.45 73.317 73.253 73.133 73.516 73.409 73.749 73.619 74.375 73.705 75.26 74.69 75.043 77.275 73.013 72.38 73.006 73.196 71.967 71.742 71.544 71.461 71.326 71.13 71.027 71.023 70.921 71.19 71.212 77.389 78.126 79.677 80.62 79.55 73.57 71.073 73.26 74.183 71.142 70.965 70.972 70.862 70.801 70.797 70.737 70.667 70.606 70.538 70.519 70.445 70.385 70.304 70.196 70.141 70.013 69.958 69.84 69.749 69.61 69.493 69.422 69.347 69.267 69.217 69.221 69.128 69.076 69.044 68.956 68.901 68.787 68.63 68.487 68.324 68.171 67.995 69.218 69.169 67.902 67.476 67.452 67.414 67.767 69.506 68.351 67.597 69.335 71.52 67.461 66.77 67.926 66.208 65.779 65.695 65.569 65.414 65.383 67.194 68.037 74.207 79.911 80.524 79.176 76.969 74.626 71.784 67.916 65.377 64.649 64.283 63.923 63.684 63.509 63.408 63.255 63.213 63.117 63.028 62.933 62.838 62.79 62.695 62.64 62.605 62.54 62.527 62.508 62.455 62.355 64.13 62.796 62.229 62.162 62.064 62.006 61.979 61.914 61.886 61.828 61.811 61.768 61.769 61.729 61.687 61.677 61.57 61.573 61.48 61.44 61.314 61.337 61.272 61.258 61.282 61.267 61.287 61.211 61.183 61.21 61.19 61.129 61.065 61.027 61.002 60.996 60.902 60.957 60.957 61.038 61.021 61.069 61.19 61.17 61.135 61.18 61.256 61.271 61.305 61.274 61.266 61.19 61.093 61.054 60.996 60.948 60.972 60.945 60.94 60.89 60.814 60.752
82.224 82.029 81.437 81.285 81.25 81.254 81.194 81.062 81.177 90.788 92.075 95.174 95.511 93.313 91.198 83.112 82.798 82.449 82.564 82.606 82.288 81.939 81.836 83.185 82.973 82.285 81.721 91.628 86.722 84.678 84.22 80.331 80.302 80.294 80.242 80.424 80.259 80.115 79.906 85.066 86.217 86.302 85.952 85.085 82.236 80.743 80.916 79.947 81.841 82.781 83.767 80.638 81.45 82.079 81.833 81.266 78.906 78.906 78.791 78.704 80.319 78.692 77.628 78.139 78.047 77.382 77.296 77.191 77.418 80.659 83.035 78.095 77.747 80.764 84.817 83.83 79.118 79.147 79.24 79.08 76.602 76.48 76.201 75.89 75.914 76.25 77.4 77.79 78.186 80.899 81.773 81.944 81.159 78.018 74.527 74.713 75.353 76.919 74.746 74.03 73.958 74.004 73.857 73.781 73.616 73.741 76.211 76.538 77.712 76.582 76.217 73.397 73.215 73.063 73.049 72.915 72.829 72.802 72.777 72.771 72.945 74.231 74.614 74.738 72.624 71.612 71.668 71.464 71.407 71.43 71.27 71.288 72.122 71.593 71.191 71.135 71.064 70.935 70.91 70.788 70.776 70.64 70.596 70.503 70.451 70.385 70.357 70.3 70.612 70.346 70.786 70.504 70.376 70.608 71.035 70.935 73.297 70.498 70.574 70.57 71.001 70.652 70.364 70.214 70.045 69.971 69.863 69.813 69.786 69.815 69.835 69.919 69.942 70.008 70.048 70.115 70.089 70.157 70.109 70.138 69.669 69.518 69.499 69.5 69.447 69.482 69.551 69.554 69.595 69.881 70.275 70.906 71.428 70.802 70.957 71.516 71.283 79.457 81.712 82.12 81.077 79.057 77.822 77.894 78.044 78.148 78.396 78.469 78.491 72.05 71.972 71.95 71.98 71.874 71.867 71.899 71.986 72.683 72.133 72.614 75.559 79.749 81.725 82.738 82.169 80.135 72.605 72.777 72.728 72.233 72.25 72.257 72.273 72.436 73.47 73.536 73.084 75.635 76.636 73.798 74.105 74.799 73.745 73.536 73.328 73.322 73.256 73.397 73.519 74.898 76.561 75.09 78.628 79.528 79.507 80.005 80.097 75.724 72.588 72.31 72.124 72.492 71.902 72.296 72.47 72.455 72.368 71.304 71.584 71.124 71.08 71.198 76.752 78.305 79.242 80.611 80.023 72.469 71.184 73.164 71.398 71.147 71.096 71.03 71.017 70.902 70.858 70.849 70.78 70.744 70.698 70.628 70.605 70.549 70.454 70.352 70.258 70.211 70.092 69.949 69.792 69.657 69.572 69.469 69.394 69.333 69.261 69.2 69.159 69.135 69.073 68.941 68.823 68.772 68.686 68.511 68.379 68.193 68.048 67.813 67.667 67.636 67.562 67.452 67.353 67.358 67.657 68.848 67.922 67.25 66.834 66.909 67.449 67.773 66.791 67.404 67.309 65.645 65.555 67.741 67.941 68.602 78.169 81.46 81.891 73.455 77.523 76.268 70.563 70.788 70.363 66.314 64.389 64.096 63.864 63.634 63.441 63.333 63.269 63.192 63.086 62.953 62.877 62.831 62.741 62.674 62.628 62.56 62.573 62.587 62.422 62.388 62.366 62.256 62.224 62.15 62.098 62.052 62.052 61.995 61.919 61.86 61.819 61.84 61.819 61.756 61.749 61.706 61.676 61.611 61.525 61.504 61.37 61.406 61.371 61.338 61.336 61.327 61.294 61.271 61.255 61.242 61.278 61.191 61.153 61.111 61.134 61.104 61.079 61.114 61.131 61.176 61.209 65.783 66.855 65.576 61.49 61.371 61.386 61.394 61.286 61.307 61.194 61.154 61.127 61.083 61.072 61.005 60.964 60.925 60.935 60.894 60.828 60.782
82.04 81.655 81.397 81.372 81.376 81.256 81.17 81.116 81.373 89.108 94.648 95.239 95.118 94.008 87.1 82.486 82.455 83.133 83.18 82.407 82.429 82.113 86.828 90.056 84.319 82.004 89.056 93.819 93.139 92.538 91.433 80.587 80.43 80.479 80.376 80.35 80.44 81.604 79.766 84.021 85.126 85.356 85.431 84.499 82.216 79.643 79.691 81.154 81.672 80.419 81.023 81.976 84.416 84.754 83.79 82.269 81.258 78.991 78.989 80.721 80.605 78.793 78.164 78.863 77.68 77.459 77.331 77.226 77.687 80.883 82.561 77.25 79.428 84.101 83.984 83.98 78.842 79.122 79.169 79.258 78.058 77.318 77.378 78.516 76.19 75.464 77.718 78.335 78.465 80.292 81.045 80.708 79.97 78.914 74.672 74.57 74.697 74.229 74.12 74.159 74.109 74.294 74.743 73.894 75.051 78.51 79.765 79.776 79.969 78.811 76.656 73.844 73.463 73.297 73.585 73.524 73.139 73.01 72.804 73.235 72.563 72.65 74.115 74.9 72.649 71.633 71.735 71.506 71.469 71.431 71.327 71.312 71.342 71.746 71.212 71.04 71.014 70.98 71.01 70.864 70.829 70.756 70.611 70.597 70.46 70.379 70.368 70.369 70.312 70.53 70.397 70.35 70.428 70.443 71.904 73.818 70.863 70.626 70.654 70.648 70.968 71.052 70.578 70.404 70.248 70.091 69.939 69.903 69.912 69.98 70.005 70.098 70.092 70.108 70.266 70.284 70.326 70.33 70.407 70.356 69.875 69.589 69.608 69.588 69.564 69.593 69.628 69.689 69.688 69.841 70.251 70.586 70.586 71.839 71.13 71.047 72.934 80.472 81.355 82.342 81.506 78.232 78.304 78.47 78.549 78.655 78.851 78.937 77.991 73.379 72.017 72.012 72.149 71.976 72.002 72.059 72.138 72.228 72.239 72.441 72.57 74.646 81.156 82.641 82.449 80.945 74.09 73.268 72.837 72.371 72.418 72.421 72.44 72.504 73.08 73.093 73.162 75.186 76.148 73.548 74.908 74.239 73.854 74.138 73.499 73.424 73.406 76.417 78.361 79.649 79.862 80.062 80.413 80.515 80.951 81.148 81.171 79.439 73.221 72.457 72.595 72.91 72.681 78.293 75.875 77.057 77.824 71.895 71.935 71.279 71.204 71.326 72.856 71.398 75.885 75.977 71.823 71.349 71.352 72.002 71.359 71.285 71.197 71.175 71.123 71.041 70.964 70.948 70.87 70.777 70.736 70.731 70.685 70.645 70.513 70.434 70.349 70.277 70.154 70.012 69.826 69.76 69.61 69.512 69.414 69.338 69.296 69.234 69.207 69.146 69.104 68.957 68.842 68.789 68.631 68.722 72.414 68.271 67.994 67.872 67.778 67.684 67.48 67.409 67.36 67.32 67.293 67.167 68.708 68.852 67.296 67.032 67.666 67.102 67.423 67.818 65.973 65.878 65.569 67.853 66.144 70.421 80.617 81.728 81.509 81.16 78.782 76.664 68.505 71.815 72.108 69.997 64.556 64.187 63.974 63.711 63.555 63.424 63.376 63.28 63.124 63.037 62.914 62.867 62.83 62.736 62.685 62.664 62.658 62.566 62.456 62.508 62.415 62.305 62.236 62.213 62.132 62.086 62.088 62.038 61.945 61.874 61.844 61.84 61.81 61.761 61.774 61.759 61.736 61.641 61.6 61.519 61.455 61.465 61.443 61.445 61.396 61.429 61.41 61.319 61.317 61.359 61.305 61.289 61.29 61.237 61.292 61.342 61.336 61.354 61.337 61.368 61.448 65.779 68.022 66.971 61.861 61.412 61.384 61.343 61.334 61.293 61.273 61.256 61.13 61.067 61.011 60.991 60.988 60.95 60.944 60.898 60.849 60.777
81.705 81.545 81.492 81.475 86.36 81.397 81.199 81.404 82.651 83.628 92.656 93.941 93.508 91.756 86.599 82.838 82.627 82.85 82.398 82.347 82.629 90.965 92.438 92.761 93.912 89.446 83.951 92.256 92.645 91.419 92.814 87.512 80.741 80.651 80.547 80.493 80.472 81.515 80.548 79.9 79.765 80.637 80.628 80.285 79.926 79.759 80.203 81.614 80.715 80.542 79.56 83.586 85.444 86.34 85.166 84.244 81.111 78.939 78.688 79.07 78.847 78.753 78.606 78.943 78.035 77.653 77.829 80.461 81.256 78.15 78.661 77.35 77.415 84.81 81.961 81.435 79.126 78.362 77.556 79.004 80.251 79.923 78.583 76.591 75.449 76.007 76.966 77.878 77.481 77.203 76.164 77.352 75.02 74.818 74.696 74.524 74.402 74.267 74.231 74.229 74.209 75.996 77.877 74.338 73.799 78.378 80.469 81.023 80.292 78.988 76.843 74.649 74.635 73.529 73.221 73.096 73.013 72.922 72.776 72.627 72.42 72.348 72.856 74.279 72.558 71.852 73.041 71.574 71.429 71.412 71.361 71.343 71.354 72.474 72.234 71.218 71.409 71.504 71.076 71.012 70.883 70.799 70.742 70.636 70.578 70.564 71.325 70.668 71.847 71.061 70.364 70.353 70.548 71.404 71.33 72.027 70.931 70.731 70.75 70.72 70.931 71.156 70.696 70.493 70.38 70.241 70.084 70.084 70.083 70.149 70.24 70.284 70.305 70.329 70.418 70.478 70.448 70.444 70.55 70.562 70.011 69.716 69.67 69.717 69.724 69.75 69.815 69.812 69.792 69.857 70.017 70.173 70.286 71.687 71.822 71.193 71.59 80.07 81.216 82.262 81.643 79.234 78.799 78.886 79.04 79.23 79.327 79.461 79.499 72.784 72.043 72.033 72.07 72.1 72.094 72.178 72.202 72.94 72.663 72.778 72.668 72.511 80.957 82.688 83.103 81.957 79.188 72.906 72.87 72.585 72.527 72.599 72.642 72.692 73.096 73.166 73.277 73.309 73.436 73.83 73.331 75.071 73.715 73.945 73.896 73.66 73.562 77.968 80.344 80.436 80.904 81.092 81.374 81.707 81.695 81.739 81.544 77.744 73.179 74.11 79.702 80.542 80.664 80.962 81.21 81.007 80.757 71.756 72.019 71.44 71.85 71.697 72.984 73.342 71.839 71.475 71.491 71.584 72.88 71.774 71.484 71.379 71.395 71.306 71.158 71.126 71.063 70.972 70.863 70.818 70.804 70.745 70.669 70.618 70.588 70.52 70.42 70.282 70.192 70.071 69.909 69.789 69.676 69.553 69.442 69.404 69.313 69.249 69.199 69.174 69.09 68.976 68.896 68.815 68.835 73.612 71.053 73.628 69.198 67.913 67.877 67.709 67.556 67.412 67.374 67.279 67.22 67.147 67.092 67.549 68.366 67.441 67.376 67.611 67.823 66.821 67.708 67.677 65.62 65.536 65.417 67.407 77.102 79.917 80.693 80.782 78.03 76.36 66.809 66.231 66.537 65.264 64.459 64.207 64.059 63.787 63.614 63.503 63.432 63.315 63.254 63.1 62.986 62.92 62.848 62.79 62.767 62.726 62.704 62.527 62.594 62.514 62.418 62.327 62.296 62.248 62.186 62.144 62.107 62.056 61.97 61.916 61.881 61.864 61.842 61.813 61.811 61.774 61.73 61.661 61.623 61.592 61.529 61.491 61.499 61.47 61.494 61.44 61.441 61.48 61.387 61.405 61.401 61.645 62.158 61.495 61.459 62.692 67.775 67.444 62.86 61.666 61.604 62.77 66.031 63.09 61.763 61.464 61.427 61.338 61.302 61.262 61.255 61.16 61.091 61.075 61.066 61.085 61.051 61.004 60.957 60.87 60.848 60.817
81.645 81.637 81.768 88.451 92.71 84.97 89.559 85.819 82.98 82.952 86.625 86.024 89.322 85.455 84.662 82.66 82.708 83.255 82.759 82.597 93.926 95.91 96.32 95.861 94.377 92.247 83.581 90.057 91.313 90.823 93.698 84.093 82.678 80.774 80.676 80.626 80.613 80.936 81.795 81.25 80.262 80.133 79.94 79.831 79.862 79.801 79.904 81.415 80.345 81.006 81.796 84.882 85.85 86.501 85.662 84.787 79.506 79.023 78.795 80.115 78.747 79.774 78.983 78.797 79.433 79.769 80.995 81.353 78.243 77.318 80.08 82.114 83.986 85.16 82.158 79.106 78.803 78.813 76.757 78.693 81.702 81.855 79.291 77.2 77.704 77.677 76.409 75.563 75.267 75.324 75.26 75.869 75.202 76.255 75.987 74.644 74.589 74.632 74.615 74.331 74.364 75.593 77.4 74.922 74.12 77.684 80.04 81.307 80.555 79.524 77.383 75.499 73.953 73.466 73.242 73.166 73.035 72.836 72.748 72.604 72.437 72.694 72.865 72.414 72.539 71.813 71.705 71.622 71.785 71.822 71.72 71.525 71.714 72.962 72.846 71.31 71.191 71.166 71.121 71.168 71.054 70.974 71.067 70.728 70.606 70.612 70.979 71.567 70.506 71.052 70.426 70.33 70.452 70.484 70.551 73.694 76.268 74.136 70.92 70.827 70.906 71.326 70.862 70.685 70.5 70.441 70.331 70.322 70.329 70.409 70.418 70.44 70.48 70.519 70.542 70.577 70.605 70.662 70.673 70.669 70.278 69.814 70.298 70.362 70.547 70.292 70.111 69.966 69.964 69.997 70.084 70.203 70.327 70.472 71.193 71.15 73.024 79.923 81.077 81.936 82.02 79.745 79.227 79.461 79.573 79.712 79.774 79.943 79.959 74.48 72.089 72.074 72.12 72.334 72.718 72.475 72.396 72.353 72.522 72.778 72.87 75.254 79.93 82.331 83.081 82.334 80.962 74.48 73.01 72.809 72.753 72.78 72.782 72.767 73.83 73.327 73.27 73.429 73.629 74.057 73.826 74.337 74.357 74.123 75.086 77.75 76.704 74.118 81.445 81.663 81.685 81.688 81.592 81.312 80.924 80.819 80.355 77.35 73.525 74.487 74.629 80.914 81.136 81.155 82.143 81.175 81.072 73.912 72.12 71.554 71.705 72.609 73.217 73.442 72.298 72.003 71.95 72.179 71.753 71.666 71.609 71.516 71.429 71.323 71.197 71.158 71.155 71.04 70.972 70.842 70.797 70.74 70.68 70.674 70.644 70.581 70.465 70.34 70.221 70.055 69.953 69.854 69.727 69.623 69.504 69.406 69.344 69.306 69.244 69.176 69.075 69.003 68.895 68.855 68.704 71.634 74.386 74.116 71.271 68.058 67.906 67.713 67.578 67.46 67.398 67.306 67.179 67.093 67.025 66.923 67.211 68.13 67.287 66.846 66.522 68.1 68.183 66.017 65.628 65.56 65.51 65.528 67.875 77.322 78.074 78.372 75.025 66.274 65.044 65.108 71.913 72.38 68.901 64.443 64.061 63.825 63.691 63.628 63.482 63.392 63.259 63.158 63.006 62.926 62.883 62.828 62.844 62.835 62.654 62.654 62.627 62.513 62.452 62.389 62.351 62.328 62.239 62.175 62.128 62.088 62.011 61.919 61.892 61.898 61.876 61.85 61.859 61.814 61.774 61.764 61.702 61.63 61.595 61.589 61.562 61.562 61.569 61.542 61.567 61.523 61.551 61.563 61.615 66.012 63.263 62.527 61.775 64.494 66.755 67.041 62.285 61.632 61.6 61.591 61.579 61.542 61.47 61.447 61.384 61.311 61.289 61.209 61.188 61.117 61.082 61.028 61.071 61.059 60.979 60.944 60.918 60.864 60.781 60.806
81.71 81.659 82.066 94.984 95.231 94.883 88.215 87.955 82.975 83.022 82.928 83.033 82.868 82.769 82.607 82.694 82.645 82.712 82.657 82.577 94.317 96.4 97.216 96.839 96.023 92.083 83.708 85.085 89.406 89.473 92.767 83.238 80.948 80.895 80.877 80.826 80.782 80.711 80.677 80.711 80.564 81.299 80.299 80.264 80.023 79.927 79.84 79.871 80.516 80.418 81.874 84.423 85.11 85.999 85.249 84.135 78.981 78.994 83.66 81.976 79.689 80.291 79.173 78.689 80.604 80.753 80.534 81.129 78.581 77.556 83.068 84.133 84.236 80.864 80.195 78.784 78.304 76.96 76.776 77.699 81.788 81.323 78.634 77.526 77.565 76.221 75.778 75.518 75.8 75.475 79.181 81.159 81.542 81.403 80.338 74.816 74.853 75.816 74.745 74.431 74.448 74.422 74.503 74.992 74.572 77.226 79.532 80.153 80.05 79.322 77.203 76.346 73.447 73.868 73.27 73.159 73.143 74.185 73.319 72.74 72.439 72.329 72.299 72.977 72.784 71.943 71.939 71.845 72.012 71.75 71.564 71.44 71.34 71.443 71.363 71.288 71.175 71.151 71.196 71.281 71.178 71.017 71.074 70.743 70.621 70.74 70.699 70.787 70.554 70.562 70.686 70.495 70.648 70.964 70.74 75.938 76.129 76.42 71.05 70.922 70.966 71.347 71.027 70.781 70.629 70.541 70.492 70.532 70.53 70.471 70.512 70.527 70.591 70.624 70.597 70.693 70.717 70.791 70.76 70.714 70.696 70.536 70.539 70.587 70.593 70.675 70.741 70.262 70.086 70.127 70.197 70.331 70.412 70.598 70.765 71.224 71.869 79.402 80.677 81.767 82.05 81.158 79.743 79.855 79.981 79.966 79.796 79.714 79.626 79.041 72.166 72.236 72.517 73.356 73.152 72.967 72.525 72.574 73.33 72.65 72.782 73.799 80.321 82.225 83.385 83.456 80.839 75.556 73.172 72.975 72.892 72.928 72.945 72.948 73.002 73.306 73.373 73.539 74.28 74.163 75.751 77.835 78.523 79.803 80.029 80.316 80.571 74.183 79.796 81.171 81.129 80.597 80.332 80.081 79.726 79.725 79.106 78.919 74.299 74.57 75.943 78.108 79.387 80.051 77.153 77.101 77.478 72.466 71.883 71.68 71.691 71.584 73.514 72.958 73.107 72.284 72.292 71.899 71.81 71.71 71.635 71.573 71.496 71.385 71.273 71.309 71.208 71.016 70.954 70.926 70.888 70.853 70.768 70.699 70.629 70.568 70.502 70.335 70.211 70.114 69.994 69.893 69.772 69.627 69.549 69.478 69.421 69.348 69.274 69.188 69.102 69.029 68.911 68.94 71.687 72.218 71.291 69.757 68.593 68.091 67.915 67.803 67.666 67.523 67.44 67.303 67.219 67.127 67.012 66.864 66.832 66.755 68.043 67.745 66.481 66.456 66.728 66.769 67.062 65.643 65.618 65.595 65.815 65.55 68.418 66.361 67.054 65.133 65.051 69.244 70.195 72.556 70.809 65.927 64.09 63.934 63.729 63.634 63.519 63.432 63.359 63.215 63.114 63.013 62.988 62.965 63.39 62.804 62.69 62.728 62.595 62.549 62.496 62.411 62.383 62.355 62.273 62.212 62.136 62.087 62.022 61.963 61.943 61.893 61.893 61.888 61.853 61.888 61.834 61.766 61.728 61.692 61.659 61.666 61.652 61.673 61.654 61.627 61.67 61.701 61.784 61.723 64.757 66.686 64.945 63.121 62.028 61.884 62.396 62.211 61.736 61.706 61.659 61.597 61.582 61.556 61.502 61.477 61.407 61.325 61.288 61.253 61.208 61.142 61.054 61.01 61.002 60.941 60.938 60.881 60.853 60.8 60.793 60.778
81.759 82.278 90.83 95.219 94.628 94.854 94.773 89.253 83.222 83.599 84.127 94.864 89.458 98.447 83.028 82.722 82.654 82.491 82.544 88.405 87.646 96.66 97.341 96.837 88.067 85.011 84.774 92.371 92.922 91.399 92.013 83.302 81.125 81.103 81.047 80.977 80.93 80.794 80.682 80.568 80.461 80.434 80.605 80.462 80.566 80.201 79.863 79.972 80.287 79.976 79.316 80.026 83.126 84.489 84.495 79.255 79.022 83.736 84.911 84.617 83.222 81.958 81.591 78.778 80.777 80.776 81.16 81.377 80.587 81.78 83.425 84.224 83.166 78.998 78.177 77.796 78.763 77.838 77.802 77.971 79.353 79.677 77.808 76.63 76.246 76.179 75.937 75.814 77.72 78.922 81.276 82.295 82.938 82.275 80.681 75.152 76.712 77.008 75.159 74.652 74.54 74.522 74.508 74.531 74.231 74.635 78.901 78.708 78.414 74.391 75.021 74.114 74.174 74.011 75.483 75.635 75.747 73.673 73.289 72.86 72.458 72.322 72.274 72.923 72.906 72.624 71.753 72.121 72.18 71.632 71.86 71.413 71.41 71.359 71.316 71.292 71.267 71.201 71.156 71.25 71.148 71.134 71.087 70.813 70.764 70.728 70.699 70.746 71.106 70.751 70.825 70.573 70.733 70.975 70.806 74.339 75.955 75.782 71.62 70.982 70.98 71.334 71.402 70.839 70.776 70.644 70.613 70.612 70.626 70.612 70.638 70.678 70.643 70.67 70.727 70.776 70.786 70.792 70.78 70.791 70.784 70.738 70.609 70.661 70.621 70.67 70.938 70.838 70.379 70.281 70.378 70.452 70.516 70.656 71.965 73.093 71.386 71.636 80.383 81.466 82.356 81.5 79.851 79.683 79.527 79.457 79.333 79.178 78.924 78.994 76.761 76.357 76.84 76.089 72.727 72.61 72.553 72.649 73.451 72.828 72.923 73.54 79.3 82.388 83.293 82.959 81.691 78.334 73.338 73.233 73.045 73.087 73.137 73.121 73.187 74.054 73.895 76.536 77.954 79.097 79.983 80.257 80.59 80.76 81.222 81.585 81.84 80.309 78.507 80.061 79.777 79.467 76.508 78.973 76.029 76.194 74.313 73.641 73.732 74.254 75.879 73.199 72.752 73.658 73.219 72.437 72.713 72.44 72.053 72.175 72.182 73.491 75.165 75.288 72.704 72.152 72.04 71.97 71.971 71.887 71.812 71.673 71.554 71.427 71.398 71.34 71.263 71.113 71.094 71.062 70.965 70.881 70.79 70.739 70.706 70.635 70.614 70.716 70.481 70.183 69.986 69.895 69.785 69.685 69.585 69.565 69.47 69.392 69.309 69.21 69.128 69.039 69.026 71.876 74.232 71.287 69.056 68.262 68.223 68.134 67.996 67.843 67.704 67.54 67.483 67.345 67.216 67.122 67.044 66.895 66.784 66.709 66.637 67.603 67.141 67.247 66.073 67.019 68.094 67.434 66.644 65.712 65.692 65.511 66.361 66.051 65.164 65.144 65.115 66.208 74.623 74.184 72.304 68.504 64.163 63.906 63.767 63.687 63.592 63.497 63.437 63.347 63.166 63.142 63.095 63.071 63.008 62.813 62.848 62.761 62.666 62.567 62.5 62.444 62.407 62.354 62.297 62.235 62.173 62.093 62.063 61.996 61.965 61.943 61.946 61.965 61.927 61.927 61.899 61.822 61.78 61.744 61.726 61.75 61.722 61.716 61.735 61.786 61.772 61.844 62.048 62.134 62.149 63.445 65.715 62.51 61.942 61.901 61.869 61.805 61.743 61.74 61.699 61.635 61.6 61.558 61.542 61.438 61.445 61.39 61.228 61.228 61.194 61.139 61.067 60.999 60.945 60.915 60.874 60.838 60.811 60.804 60.744 60.774
