ncols 412
nrows 32
xllcorner    427048
yllcorner    437194
cellsize     2
NODATA_value -9999
96.512 96.318 96.395 96.72 97.363 98.136 98.454 98.672 98.653 98.517 98.507 98.576 98.496 98.524 98.642 98.772 98.851 98.835 98.754 98.654 98.897 98.446 98.5 98.553 98.38 98.316 98.339 98.316 98.36 98.449 98.491 98.414 98.423 98.263 97.376 96.45 96.417 96.437 96.385 96.319 96.23 96.33 96.308 96.235 96.267 96.356 96.392 96.322 96.516 96.986 97.653 98.378 98.574 98.583 98.48 98.312 98.69 98.76 98.744 98.697 98.815 98.715 98.802 98.805 98.743 98.641 98.791 98.948 99.033 98.888 98.554 98.448 98.412 97.911 97.046 96.704 96.718 96.296 96.078 96.214 96.337 96.482 96.232 96.041 96.004 95.922 95.667 95.401 95.315 95.193 95.038 95.742 96.019 95.402 94.882 95.261 94.941 94.428 94.211 94.09 94.211 94.468 94.258 94.455 94.034 93.793 93.698 93.629 93.65 -9999 -9999 -9999 -9999 -9999 93.501 93.437 93.73 93.776 93.766 93.068 92.885 92.644 91.786 91.647 91.326 91.42 91.701 92.031 92.383 93.543 97.201 99.471 100.082 95.839 91.902 90.803 90.662 90.53 90.703 91.007 91.34 90.301 89.855 89.727 89.617 89.68 89.689 89.552 89.591 89.764 91.362 92.136 94.808 95.937 92.888 90.714 96.776 96.004 94.907 -9999 -9999 -9999 -9999 -9999 -9999 88.4 88.382 88.452 88.514 88.453 88.44 88.228 88.151 88.151 88.497 88.457 88.379 88.284 88.05 88.051 88.067 87.917 87.982 88.877 88.538 87.854 87.404 87.293 87.24 87.367 88.641 94.419 94.637 94.134 94.279 88.387 87.309 89.824 90.892 93.814 94.727 93.722 92.942 90.499 87.699 87.937 87.057 87.182 87.057 86.972 86.999 88.652 86.942 86.947 86.982 86.912 91.089 89.602 88.562 86.939 87.032 87.669 86.992 88.237 88.279 87.184 87.134 87.612 87.539 93.149 94.419 95.009 95.492 94.452 91.034 87.437 87.917 87.457 89.432 89.189 89.159 87.904 90.182 87.659 92.827 87.124 86.939 86.034 91.022 90.999 91.087 92.739 94.009 95.389 94.272 92.562 89.844 87.784 87.784 87.802 87.812 87.792 87.842 87.802 87.814 87.807 87.827 89.207 87.427 87.479 87.529 87.492 87.394 87.484 87.417 93.922 97.734 89.839 87.896 87.804 87.816 94.389 96.241 96.371 97.046 96.029 94.469 87.936 87.909 87.891 87.934 87.919 87.924 87.914 87.906 87.959 87.874 89.024 90.536 87.854 89.216 87.851 88.401 88.519 87.669 87.619 87.571 87.681 87.606 87.521 88.681 88.161 87.284 87.109 87.181 88.234 89.569 90.346 90.141 88.509 86.399 86.426 93.164 94.736 87.514 87.181 86.724 85.469 84.944 84.934 84.939 84.936 84.929 84.906 84.896 84.861 84.894 85.434 87.181 86.254 83.551 83.629 83.246 82.984 82.491 82.449 82.411 82.336 82.259 82.161 82.061 82.471 81.941 83.931 81.189 81.101 81.181 88.124 90.409 85.069 79.919 79.724 79.564 79.716 83.909 82.089 78.734 78.579 78.284 77.849 77.421 77.104 76.691 77.069 76.096 75.764 75.521 75.404 74.866 74.536 74.971 74.161 75.069 73.859 73.559 73.146 72.691 72.569 72.376 72.024 71.826 71.571 71.376 71.194 71.041 70.749 70.579 70.429 70.261 70.111 69.891 70.509 70.621 69.174 68.829 74.016 75.416 75.686 74.879 70.366 67.569 67.181
96.635 96.512 96.484 96.607 97.199 97.96 98.472 98.683 98.654 98.583 98.523 98.559 98.494 98.49 98.694 98.785 98.73 98.703 98.751 98.798 98.696 98.486 98.441 98.374 98.388 98.284 98.354 98.364 98.605 98.405 98.584 98.581 98.454 97.952 97.115 96.68 96.458 96.313 96.334 96.497 96.204 96.317 96.326 96.268 96.303 96.335 96.287 96.368 96.439 96.572 96.964 97.921 98.3 98.64 98.526 98.468 98.496 98.694 98.774 98.796 98.8 98.788 98.891 98.746 98.724 98.607 98.846 98.943 98.949 99.016 98.665 98.419 98.315 98.042 97.258 96.683 96.289 96.107 96.003 96.156 96.113 96.237 96.125 96.071 96.059 95.98 95.861 95.437 95.219 95.139 95.158 96.005 98.703 95.442 95.442 99.325 96.317 94.46 94.202 93.937 93.99 94.152 93.955 93.821 93.779 93.621 93.605 93.617 -9999 -9999 -9999 -9999 -9999 -9999 -9999 93.512 93.356 92.948 93.154 94.146 92.577 91.871 91.708 91.519 91.262 91.185 91.442 91.993 92.096 91.97 92.175 91.494 94.59 93.053 91.119 90.859 90.767 90.893 90.744 91.378 92.127 90.019 89.778 89.741 89.793 89.693 89.676 89.741 89.504 89.422 90.213 90.466 91.876 91.021 90.701 90.331 93.323 94.578 93.255 92.85 -9999 -9999 -9999 91.769 -9999 -9999 88.715 88.465 88.514 88.512 88.4 88.26 88.24 88.594 88.547 88.447 88.332 88.023 88.039 88.076 87.984 87.922 88.622 89.342 89.085 87.972 87.745 87.378 88.22 93.096 95.034 94.163 95.312 95.212 95.747 95.097 87.219 88.094 90.644 92.857 92.572 89.099 87.814 87.237 87.277 89.372 86.962 86.922 86.897 86.884 86.972 88.154 86.882 86.884 86.884 86.777 91.449 90.269 89.689 86.917 87.379 87.017 86.884 89.447 87.062 87.057 87.057 87.074 87.247 90.897 93.984 95.242 96.167 95.082 93.792 88.047 87.412 87.254 87.282 87.589 87.174 87.217 88.349 87.307 87.707 86.212 87.017 85.674 91.087 90.997 91.002 92.854 93.769 95.339 94.504 93.832 91.012 87.924 87.774 87.774 87.764 87.812 87.837 87.819 87.797 87.812 87.802 89.362 87.377 87.387 87.439 87.419 87.317 87.379 87.344 87.747 87.856 87.871 87.884 87.899 87.734 92.701 94.879 96.046 97.376 96.399 94.644 88.121 87.949 87.886 87.894 87.884 87.886 87.904 87.869 87.861 87.926 87.924 88.356 87.799 88.529 87.841 87.661 87.644 87.614 87.546 87.551 87.566 87.811 87.621 89.814 88.001 87.199 87.181 87.324 89.306 91.871 90.034 86.961 87.876 86.416 86.396 86.501 87.839 86.654 87.406 87.951 85.686 84.954 84.929 84.929 84.924 84.924 84.901 84.876 85.176 85.024 85.329 85.551 84.816 84.236 84.216 87.674 86.694 82.481 82.436 82.386 82.289 82.221 82.096 82.011 81.994 81.866 83.949 81.164 81.371 88.834 93.166 93.341 89.609 80.739 79.709 79.594 79.416 80.464 79.361 78.706 78.634 78.266 77.931 77.444 77.129 76.716 76.449 76.154 75.989 75.941 75.171 75.036 74.544 75.064 74.414 74.164 82.659 83.866 74.204 72.789 72.689 72.321 72.089 71.771 71.621 71.544 71.324 71.059 70.789 70.619 70.439 70.241 70.059 71.044 70.189 69.496 69.121 68.831 68.824 72.314 73.519 68.111 67.969 67.546 66.526
96.699 96.655 96.611 96.662 96.905 97.537 98.336 98.601 98.638 98.568 98.496 98.583 98.377 98.346 98.717 98.789 98.821 98.684 98.776 98.824 98.421 98.06 97.988 98.281 98.322 98.412 98.441 98.38 98.574 98.499 98.588 98.507 98.172 97.773 96.914 96.678 96.463 96.344 96.445 96.494 96.297 96.357 96.415 96.457 96.266 96.302 96.398 96.45 96.361 96.349 96.516 97.162 98.172 98.432 98.481 98.278 98.416 98.804 98.772 98.849 98.763 98.894 98.775 98.743 98.578 98.611 98.823 98.785 98.741 98.813 98.636 98.562 98.3 97.883 97.063 96.592 96.22 96.109 96.033 96.101 95.869 95.982 96.125 96.063 95.914 95.978 96.02 95.617 95.273 95.168 95.075 97.381 97.049 95.765 95.233 96.123 94.754 94.314 94.2 94.019 93.829 93.744 93.846 93.758 93.706 93.65 93.636 -9999 -9999 -9999 -9999 -9999 -9999 -9999 -9999 -9999 93.14 93.011 92.877 93.188 92.607 92.283 93.681 93.495 92.34 91.928 91.216 91.474 91.813 91.895 91.781 91.267 91.537 91.163 90.849 90.863 90.801 90.846 91.111 94.456 95.311 92.423 90.141 89.798 89.797 89.774 90.293 90.294 89.57 89.41 89.341 89.346 89.602 89.62 89.231 89.277 92.294 92.052 91.88 91.135 -9999 -9999 92.863 93.007 93.233 -9999 -9999 -9999 88.496 88.49 88.426 -9999 -9999 -9999 88.502 88.367 88.349 88.221 87.961 87.955 88.304 87.597 87.383 89.011 88.612 88.446 87.595 89.474 92.943 94.044 94.988 95.234 95.772 96.139 95.944 95.397 88.972 87.082 88.639 87.694 87.092 87.062 87.162 87.199 87.382 86.829 87.127 86.817 87.177 86.812 86.824 86.974 87.189 86.792 86.784 86.712 90.244 90.097 89.362 86.837 87.154 86.884 86.769 88.662 87.399 86.984 86.984 86.984 87.079 88.709 93.504 95.152 96.004 95.569 95.054 89.562 87.407 87.129 87.074 87.097 87.032 87.074 87.344 89.012 87.937 85.902 85.832 85.729 90.109 90.974 91.012 92.842 93.487 95.082 94.714 93.917 91.309 87.822 87.727 87.829 87.802 87.754 87.802 87.827 87.804 87.802 87.812 90.052 87.287 87.297 87.382 87.334 87.217 87.292 87.252 87.474 87.759 87.901 87.884 87.744 88.801 88.446 94.314 95.849 96.176 95.879 94.841 89.884 88.034 87.854 87.841 87.829 87.859 87.859 87.826 87.804 87.836 88.306 91.906 88.356 87.861 90.556 87.646 87.594 87.649 87.964 90.119 90.064 88.009 92.236 90.374 89.384 89.741 87.221 89.146 91.101 93.054 88.051 86.716 87.176 86.449 86.371 86.534 86.446 87.374 87.386 87.811 85.786 85.026 84.924 84.924 84.916 84.906 84.901 84.901 85.671 85.851 86.751 85.984 85.209 84.211 84.751 84.746 86.049 82.469 82.419 82.336 82.241 82.139 82.061 81.959 81.996 81.801 83.829 81.109 80.919 91.106 93.606 92.464 90.626 82.911 79.701 79.566 79.411 79.284 78.856 78.664 78.471 78.164 77.989 77.444 77.134 76.761 76.516 76.064 75.746 75.659 75.141 74.951 74.729 74.591 76.331 79.001 89.474 90.069 80.896 72.879 72.656 72.869 72.354 71.789 71.654 71.469 71.376 71.126 70.829 70.626 70.471 70.264 70.351 70.151 69.531 69.494 69.374 69.034 68.819 68.346 68.101 67.959 66.746 66.581 68.024
96.598 96.644 96.578 96.538 97.01 97.435 98.36 98.689 98.657 98.537 98.385 98.55 98.653 98.659 98.698 98.504 98.733 97.834 98.096 98.536 98.216 97.729 97.382 97.567 97.926 98.124 98.463 98.527 98.438 98.43 98.365 98.125 97.927 97.303 96.727 96.446 96.522 96.499 96.5 96.436 96.43 96.382 96.438 96.418 96.431 96.386 96.404 96.306 96.241 96.227 96.393 96.793 97.414 97.935 98.398 98.394 98.447 98.736 98.8 98.823 98.939 98.901 98.689 98.58 98.465 98.641 98.797 98.764 98.624 98.651 98.592 98.554 98.412 97.805 96.976 96.538 96.326 96.106 95.989 95.871 95.839 95.891 96.031 96.092 96.041 96.046 95.926 95.825 95.672 95.278 95.391 100.112 96.806 99.378 97.248 94.601 94.46 94.295 94.108 94.025 94.063 93.828 93.719 93.647 93.6 93.631 93.683 -9999 -9999 -9999 -9999 -9999 92.947 92.957 92.939 -9999 -9999 93.016 92.933 92.958 93.469 97.005 98.565 98.53 95.425 95.932 91.934 91.106 91.37 91.496 91.49 91.212 91.107 90.959 91.04 91.004 90.844 91.074 94.322 102.051 100.019 96.13 90.485 89.676 89.889 90.55 91.108 90.885 89.633 89.362 89.402 89.274 89.323 89.178 89.106 89.071 90.268 90.892 91.065 90.308 89.808 91.058 92.943 91.558 93.683 95.143 -9999 -9999 -9999 88.483 -9999 -9999 -9999 -9999 89.357 89.407 89.207 88.335 87.975 87.7 87.187 87.179 88.186 89.456 89.158 88.254 87.738 88.809 93.555 94.888 95.66 96.178 96.047 95.357 94.862 94.247 93.229 87.022 87.157 87.904 87.204 86.952 86.804 86.727 86.752 86.817 87.964 86.727 86.657 87.039 86.737 86.749 90.934 86.762 86.724 87.044 88.042 86.672 88.087 86.864 86.734 86.809 86.672 87.164 88.197 86.939 86.912 86.899 86.994 87.119 92.412 94.212 95.392 95.972 94.914 93.652 87.307 87.107 87.089 87.572 88.362 86.974 87.177 89.079 86.699 85.912 85.857 85.789 88.507 90.977 90.999 92.809 93.259 94.979 94.969 93.299 91.612 88.489 87.597 87.794 87.792 87.729 87.749 87.779 87.752 87.762 87.767 92.697 87.459 87.179 87.262 87.237 87.144 87.202 87.147 87.214 87.696 88.229 88.146 87.701 89.001 87.606 93.989 94.769 94.686 94.461 94.244 89.594 88.066 87.846 87.819 88.189 87.824 87.794 88.589 87.721 88.021 88.451 90.379 87.819 87.966 90.961 88.186 87.979 87.711 87.769 89.391 89.699 91.514 95.234 95.979 87.284 88.499 87.479 89.919 87.339 88.669 88.956 86.784 87.351 86.629 86.424 86.351 86.291 86.296 87.344 88.851 88.334 89.536 89.369 89.384 88.479 84.904 84.864 84.931 85.749 85.294 84.746 87.186 86.866 84.376 84.674 83.281 82.489 82.426 82.384 82.281 82.189 82.221 82.044 81.904 81.934 81.789 83.911 81.179 80.866 85.076 91.304 90.339 83.531 79.974 79.786 79.531 79.391 79.951 78.786 78.684 79.631 80.361 77.939 77.479 77.184 76.821 76.639 76.264 75.954 75.856 75.091 74.911 74.826 75.149 75.914 77.026 87.854 88.599 76.789 73.284 72.424 73.281 72.731 71.856 71.681 71.356 71.179 71.014 71.009 70.686 70.709 70.371 69.591 69.554 69.541 69.474 69.384 68.789 69.449 70.124 68.086 66.646 66.651 70.389 73.116
96.628 97.004 97.046 96.632 96.972 97.615 98.378 98.664 98.685 98.527 98.403 98.586 98.592 98.627 98.372 97.888 97.279 97.197 97.045 97.328 97.773 97.513 97.08 96.9 97.259 97.815 98.023 98.218 98.148 98.142 97.978 97.705 97.382 96.708 96.497 96.41 96.472 96.457 96.479 96.41 96.376 96.345 96.461 96.378 96.379 96.35 96.347 96.296 96.257 96.294 96.406 96.396 96.846 97.48 98.09 98.485 98.7 98.902 98.798 98.804 98.891 98.772 98.655 98.548 98.607 98.815 98.856 98.866 98.767 98.699 98.772 98.683 98.5 98.009 97.167 96.481 96.324 96.05 95.985 95.867 95.765 95.862 95.935 96.1 96.129 96.034 95.936 95.962 95.82 95.639 95.443 95.124 95.268 96.567 96.418 94.38 94.258 94.249 94.082 93.952 93.998 93.895 93.664 93.618 93.552 93.713 94.267 96.977 97.663 -9999 -9999 -9999 94.908 93.189 92.893 -9999 -9999 -9999 93.068 93.725 93.089 94.674 97.761 92.754 93.21 92.729 91.566 91.068 91.191 91.214 91.095 91.089 91.155 91.237 91.141 91.198 91.98 94.233 97.316 101.405 100.449 95.703 90.593 89.822 90.142 90.635 90.314 90.055 89.326 89.329 89.357 89.42 89.454 89.268 89.254 89.298 89.468 89.558 89.354 89.09 89.624 90.358 92.129 98.002 97.241 97.816 97.166 -9999 -9999 88.597 88.541 88.464 -9999 88.643 89.05 89.891 90.262 88.692 87.405 87.149 87.153 88.724 90.582 93.318 90.852 88.81 88.699 88.434 93.315 95.603 95.981 95.494 95.048 94.328 93.724 92.614 91.057 87.272 86.859 86.844 87.072 86.689 86.694 86.674 86.754 86.734 87.504 88.712 86.592 86.584 86.839 86.634 87.857 86.737 86.577 86.557 89.137 86.604 92.114 87.549 86.667 86.714 86.657 86.652 87.079 87.234 86.967 86.997 86.972 87.004 89.862 93.669 94.894 94.727 94.244 93.747 88.529 88.262 89.222 89.294 89.269 87.044 87.762 87.797 87.689 85.942 85.904 85.782 86.964 90.984 91.009 91.389 92.989 94.244 94.124 93.497 91.842 87.692 87.507 87.707 87.824 88.274 88.494 90.127 88.742 88.557 88.002 88.667 87.634 90.027 87.149 87.139 87.062 87.142 87.074 87.114 96.359 99.536 98.989 87.574 87.616 87.556 89.581 90.451 88.089 88.199 88.436 88.581 89.179 90.029 88.394 87.574 87.556 88.766 87.584 88.051 88.081 88.124 88.069 88.759 88.384 88.314 88.771 88.441 88.186 87.641 89.831 89.284 88.914 90.599 89.989 89.741 89.874 87.111 87.266 87.756 87.451 86.844 86.816 87.059 87.131 87.161 87.114 86.346 86.254 87.196 90.969 93.376 90.289 89.789 90.029 88.884 86.091 84.821 84.749 84.606 84.284 84.381 87.119 87.334 85.436 84.771 83.794 82.429 82.399 82.351 82.259 82.161 84.126 84.616 82.339 81.926 82.196 83.986 81.444 80.746 80.599 86.144 81.799 81.509 80.219 79.761 79.439 79.356 81.371 79.454 78.621 78.536 77.976 77.904 77.454 77.171 76.994 76.731 76.074 75.796 75.691 75.049 74.899 74.759 74.346 74.346 73.821 73.634 76.024 74.939 72.734 72.406 72.201 71.961 71.806 71.564 71.351 71.131 70.976 70.986 70.766 70.711 72.279 69.616 69.601 69.439 69.351 68.919 70.091 70.509 68.689 66.679 66.941 71.781 73.269 74.229
97.492 97.613 97.619 97.232 96.989 97.275 97.973 98.391 98.555 98.427 98.593 98.58 98.699 98.464 97.43 97.124 96.788 96.897 96.834 96.786 97.184 97.271 97.109 96.921 96.907 97.359 97.628 97.74 97.801 97.705 97.542 97.076 96.611 96.563 96.549 96.37 96.309 96.439 96.407 96.352 96.352 96.449 96.503 96.45 96.339 96.277 96.315 96.224 96.294 96.341 96.401 96.257 96.521 97.13 97.553 98.322 98.59 98.736 98.805 98.735 98.713 98.755 98.691 98.591 98.633 98.72 98.732 98.924 98.973 98.864 98.815 98.824 98.688 98.252 97.346 96.55 96.065 96.037 96.004 95.93 95.778 95.821 95.876 96.004 96.081 96.073 95.96 96.041 95.947 95.832 95.561 95.076 94.839 94.726 94.694 94.554 94.336 94.242 94.457 94.673 94.066 93.989 93.876 93.566 93.579 93.95 95.211 97.529 97.479 100.606 -9999 -9999 94.92 93.338 93.361 -9999 -9999 -9999 -9999 93.736 93.527 94.037 93.304 92.102 91.652 91.379 91.183 91.144 91.111 91.063 91.052 91.095 91.149 91.37 91.37 91.548 93.874 98.795 99.03 99.828 -9999 96.748 91.541 90.238 90.148 90.129 89.696 89.332 89.349 89.347 89.317 89.394 89.642 89.74 89.369 89.275 89.094 88.896 88.945 88.959 89.143 89.687 90.208 94.922 99.305 101.528 98.049 -9999 88.716 88.648 88.496 88.457 88.419 88.447 88.599 88.863 89.778 88.431 87.683 87.284 87.867 88.202 92.414 93.704 93.684 90.233 89.168 88.739 90.747 94.614 94.738 94.105 93.732 92.73 90.044 87.917 87.412 87.107 89.442 87.927 86.602 86.594 86.617 86.614 86.594 86.597 87.599 87.942 88.887 89.412 88.329 86.502 86.549 87.899 86.844 86.647 87.822 87.889 88.759 86.667 86.602 86.649 86.629 86.524 86.577 86.969 86.869 86.914 86.957 87.142 87.522 92.772 94.052 93.547 90.854 88.299 86.987 87.092 89.017 88.004 87.809 89.134 88.239 87.519 88.294 85.979 85.932 85.924 89.222 91.012 91.002 92.319 92.704 92.799 92.514 92.312 89.032 89.192 87.462 87.492 87.709 87.224 87.119 87.149 87.149 87.152 87.142 87.124 86.967 86.944 87.037 87.054 87.597 86.937 86.967 86.992 95.061 97.294 95.294 87.491 87.514 87.534 87.979 87.864 87.534 87.954 87.634 87.656 87.571 87.914 89.944 88.984 88.791 88.324 87.799 87.456 87.501 87.376 87.364 87.411 87.351 88.389 89.659 87.371 88.619 87.344 87.464 87.474 87.569 88.546 87.906 89.239 87.639 87.064 86.969 86.994 86.931 86.851 86.794 87.019 87.599 87.101 86.659 86.279 86.179 86.479 91.406 93.061 90.904 89.614 89.161 89.144 85.294 84.956 84.661 84.466 84.131 83.936 85.921 92.719 89.294 84.901 85.074 82.439 82.371 82.344 82.261 82.121 82.001 81.919 81.789 82.814 83.824 84.444 83.201 80.641 80.484 80.356 80.351 82.969 80.101 79.491 79.469 79.286 78.961 78.789 78.619 81.449 79.061 78.044 77.371 77.131 77.039 76.444 76.514 76.126 75.724 75.074 74.864 74.676 74.269 74.031 73.754 73.854 73.296 72.971 72.756 72.481 72.256 71.999 71.786 71.546 71.306 71.154 71.006 71.084 70.404 72.264 84.181 69.711 69.544 69.349 69.896 68.879 68.589 68.461 68.801 67.161 71.874 71.946 72.566 73.616
98.134 98.374 97.895 97.536 97.153 97.085 97.356 97.809 98.188 98.462 98.766 98.961 98.633 97.904 97.159 96.82 96.875 96.815 96.736 96.872 97.316 97.081 97.06 96.884 96.916 96.961 97.192 97.443 97.266 97.302 97.026 96.734 96.55 96.486 96.459 96.469 96.43 96.399 96.402 96.427 96.442 96.444 96.548 96.462 96.284 96.293 96.331 96.282 96.284 96.417 96.39 96.324 96.41 96.68 96.924 98.013 98.681 98.795 98.888 98.768 98.697 98.722 98.751 98.642 98.592 99.018 101.186 100.587 99.1 98.983 98.987 98.967 98.774 98.35 97.421 96.62 96.261 96.038 95.978 95.955 95.788 95.814 95.811 95.879 96.028 96.138 96.059 95.972 95.984 95.888 95.68 95.525 95.027 94.74 94.666 94.386 94.196 94.18 95.586 97.347 94.12 93.884 93.751 93.524 93.537 93.821 97.219 100.594 102.251 101.571 99.728 -9999 97.214 95.276 94.316 94.103 93.055 92.634 -9999 -9999 93.876 92.967 92.334 92.205 91.943 91.72 91.751 95.385 96.99 93.517 91.705 90.99 91.424 91.41 91.301 91.682 95.515 96.435 97.305 -9999 101.383 100.163 96.558 92.765 90.306 89.737 89.559 89.384 89.412 89.48 89.36 89.364 89.506 90.165 89.548 89.142 89.045 88.999 88.974 89.004 89.23 89.548 91.645 94.62 98.508 99.827 95.256 90.26 88.757 88.791 88.551 88.506 88.409 88.375 88.537 89.283 89.998 88.762 88.196 87.956 88.518 90.325 92.449 94.491 94.288 93.267 90.796 88.806 87.897 92.597 93.094 92.667 90.329 87.571 89 87.372 86.739 88.322 89.927 88.504 86.932 86.489 87.284 86.557 86.547 86.564 86.529 87.584 89.214 89.842 89.362 86.494 86.469 87.029 86.854 89.409 87.572 88.974 86.724 86.434 86.539 86.579 86.552 86.529 86.422 86.409 87.329 86.847 86.559 86.559 87.569 89.892 89.497 87.204 86.917 86.937 86.944 86.942 86.789 87.864 90.014 89.817 88.759 87.612 88.004 86.014 85.987 86.144 86.587 91.022 91.002 91.092 91.429 90.927 90.517 88.629 86.909 87.002 87.062 87.072 87.057 87.142 87.314 87.427 87.799 87.974 87.489 87.187 86.919 86.844 86.947 86.959 86.964 86.802 86.839 86.897 87.074 87.196 87.401 87.469 89.201 88.266 88.719 90.249 87.669 87.941 89.674 89.564 87.614 87.476 88.796 89.579 89.861 87.931 87.961 87.836 87.731 87.659 87.306 87.414 87.439 92.356 91.699 87.249 90.701 88.329 86.769 86.639 86.619 86.976 88.844 89.404 89.451 86.956 86.959 86.929 86.891 86.801 86.751 88.341 88.294 86.406 86.321 86.271 86.106 86.019 88.789 87.759 88.861 85.839 86.091 85.296 84.934 85.351 85.121 84.369 84.269 83.984 84.159 89.451 86.256 83.584 82.879 82.421 82.331 82.269 82.164 82.041 81.994 81.814 82.014 83.566 83.334 84.581 83.119 80.709 80.724 80.441 80.226 83.361 81.806 79.536 79.104 78.859 78.994 78.861 78.816 79.546 79.276 77.769 77.114 76.919 77.371 77.906 75.899 75.431 76.574 74.974 74.791 74.641 74.176 73.949 73.951 73.821 73.501 73.774 73.944 72.769 72.161 71.971 71.719 71.494 71.379 71.211 70.741 70.459 70.329 70.259 70.979 69.876 69.986 70.226 67.981 67.671 67.794 68.754 68.644 66.891 67.376 71.486 70.294 72.866
98.549 98.591 98.47 98.054 97.655 97.181 97.163 97.507 97.898 98.558 98.792 98.585 97.979 97.353 96.952 96.779 96.806 96.766 96.809 96.886 96.963 96.975 96.973 96.917 96.871 96.892 96.92 97.058 96.894 96.948 96.763 96.55 96.457 96.414 96.452 96.564 96.514 96.454 96.467 96.533 96.415 96.353 96.448 96.478 96.45 96.402 96.369 96.346 96.366 96.404 96.459 96.366 96.381 96.497 97.688 98.712 98.922 98.977 98.913 98.861 98.854 98.734 98.843 98.756 99.685 101.631 107.368 104.955 100.186 98.975 98.921 98.869 98.992 98.688 98.011 96.761 96.246 96.025 95.907 95.876 95.888 95.8 95.84 95.901 95.992 95.964 95.985 95.966 95.871 95.942 95.891 95.875 95.413 94.912 94.626 94.374 94.232 94.068 94.448 94.742 94.05 93.65 93.658 93.583 93.84 97.158 99.19 99.219 101.735 99.263 99.877 99.976 99.85 -9999 -9999 94.071 93.19 92.807 -9999 -9999 -9999 92.521 92.284 92.412 92.646 92.83 99.048 102.693 102.934 99.716 95.426 92.943 92.181 91.776 91.179 91.738 93.576 92.918 94.752 98.154 101.111 102.434 100.903 96.819 94.283 90.762 89.519 89.238 89.415 89.467 89.37 89.394 89.428 89.453 89.723 89.437 89.143 89.047 89.038 88.941 89.075 89.578 -9999 -9999 -9999 -9999 91.257 89.324 88.764 88.888 88.774 88.584 88.411 88.429 88.588 89.514 90.392 89.744 88.959 88.141 87.672 90.468 93.33 94.939 94.738 94.053 93.843 89.364 88.011 88.101 88.657 88.246 87.253 86.722 88.871 86.772 86.675 86.659 88.942 89.142 88.697 87.194 86.564 86.484 86.572 86.579 86.507 86.882 89.129 89.912 89.414 86.742 86.654 88.537 88.137 86.719 86.314 86.279 86.292 86.419 86.559 86.687 86.452 86.439 86.409 86.317 86.222 86.332 86.417 86.522 86.604 86.722 86.857 86.784 86.667 86.717 86.752 86.742 87.869 88.022 89.419 86.797 86.567 86.532 87.059 86.144 86.032 86.054 86.074 86.594 86.484 86.374 86.467 86.574 86.737 87.112 87.207 87.669 87.657 87.452 87.494 86.944 86.919 86.937 86.962 86.979 87.077 87.294 87.624 86.777 86.852 86.884 87.052 86.714 86.737 86.792 88.384 87.764 88.066 87.911 87.764 87.571 87.614 87.149 91.149 91.446 91.729 90.424 88.256 87.289 89.869 89.899 89.906 87.569 87.284 87.241 87.296 87.199 87.324 88.189 88.096 87.846 88.559 86.621 86.601 86.594 86.579 86.584 86.606 86.621 88.601 87.031 87.261 86.869 86.861 86.856 86.821 86.739 86.656 88.319 88.134 86.384 86.266 86.244 86.069 86.259 86.959 85.736 85.609 85.384 85.214 85.011 84.886 84.711 84.476 84.281 84.199 84.044 83.976 84.004 83.884 84.149 83.014 83.199 83.259 82.589 82.881 85.404 81.966 83.356 81.661 83.614 84.469 85.656 84.054 80.146 79.654 79.606 79.539 82.456 81.734 78.619 78.324 78.091 78.026 78.401 81.059 82.489 81.059 77.619 76.936 76.689 77.176 76.419 76.214 75.264 75.824 75.199 74.666 74.314 74.064 73.836 73.631 73.709 73.899 73.489 72.696 72.249 72.059 71.819 71.631 71.504 71.391 70.711 70.589 70.391 70.489 72.011 71.721 69.404 68.051 67.521 67.341 67.291 67.139 67.201 66.929 66.669 66.649 67.326 69.284 71.079
98.824 98.656 98.547 98.335 98.157 97.495 97.411 97.697 98.372 98.725 98.763 98.218 96.937 96.872 96.868 96.698 96.741 96.736 96.804 96.849 96.799 96.9 96.898 96.838 96.941 96.872 96.911 96.801 96.732 96.852 96.756 96.57 96.431 96.323 96.489 96.486 96.427 96.502 96.481 96.435 96.345 96.377 96.346 96.494 96.475 96.534 96.383 96.259 96.358 96.344 96.247 96.251 96.836 97.92 98.839 98.752 98.851 99.069 98.967 98.892 98.893 98.898 98.907 98.871 99.406 101.141 102.416 104.813 100.923 98.89 98.851 98.938 99.056 98.73 98.327 97.63 96.519 96.196 95.917 95.782 95.785 95.771 95.792 95.817 95.853 95.839 95.85 95.861 95.88 95.833 95.824 95.827 95.652 95.353 94.866 94.499 94.174 94.027 94.085 93.951 93.762 93.69 93.646 93.669 94.656 103.41 98.702 94.258 96.608 102.77 100.759 98.02 102.049 -9999 -9999 94.265 92.999 93.124 -9999 -9999 -9999 -9999 92.281 92.207 92.691 96.374 103.077 104.551 103.237 102.198 100.44 95.579 92.468 91.876 91.417 91.282 91.77 91.662 93.065 98.252 102.281 102.119 101.658 100.39 100.048 93.915 90.302 89.298 89.446 89.363 89.386 89.543 89.318 89.953 91.025 90.423 89.573 89.857 89.443 89.458 -9999 -9999 -9999 -9999 90.31 90.164 89.119 88.516 88.8 88.8 88.774 88.693 88.658 88.671 88.566 88.398 88.909 88.768 89.64 89.224 88.601 89.464 92.023 93.963 94.696 94.223 93.555 90.58 87.021 87.497 87.852 87.104 86.678 86.626 86.835 88.576 86.722 86.645 86.614 87.269 87.922 86.684 86.449 87.247 87.107 88.432 88.209 87.459 89.647 87.259 87.922 87.704 86.359 86.359 86.342 86.337 86.257 86.182 86.294 86.332 86.447 86.419 86.579 89.019 86.459 86.279 86.162 86.159 86.317 86.507 86.522 86.507 86.549 89.354 89.627 91.397 92.452 92.979 90.707 87.167 86.559 86.527 86.504 86.502 88.102 90.654 92.334 86.179 86.387 87.279 87.542 87.859 87.422 86.819 86.802 86.754 86.757 86.777 86.774 87.859 87.177 86.837 86.852 86.972 87.112 86.909 86.964 87.027 87.874 86.752 86.747 86.784 86.764 86.622 86.632 86.657 86.799 86.769 86.871 86.959 87.109 88.209 87.711 87.431 92.696 92.981 93.254 93.564 93.271 87.201 87.316 87.286 87.264 87.639 87.236 87.229 87.214 87.259 87.459 88.829 88.284 88.014 87.924 87.299 86.589 86.574 86.564 86.571 86.591 86.581 87.706 89.714 86.931 86.806 86.776 86.784 86.739 86.669 86.639 86.581 87.419 86.309 86.196 86.106 86.014 85.959 87.261 85.664 85.551 85.296 85.134 84.941 84.831 84.616 84.494 84.216 84.151 84.156 83.969 85.511 84.274 87.106 84.649 83.239 82.946 83.681 82.499 85.501 82.984 82.909 81.431 81.779 85.041 84.744 80.734 79.551 79.234 78.969 78.836 78.266 77.859 77.641 77.271 77.124 77.196 77.334 77.579 79.861 81.699 77.141 76.634 76.391 76.031 76.119 76.394 75.116 75.289 75.019 74.619 74.389 73.984 73.811 73.684 73.489 73.309 72.671 72.449 72.131 71.919 71.721 71.561 71.431 70.744 70.594 70.954 72.691 73.839 69.826 68.241 67.614 67.509 67.431 67.376 67.299 67.161 67.076 66.896 66.711 66.636 66.839 69.114 69.686
98.685 98.659 98.611 98.512 98.401 97.849 97.64 97.979 98.727 98.872 98.067 97.038 96.804 96.836 96.855 96.78 96.816 96.862 96.823 96.808 96.791 96.797 96.882 96.798 96.77 96.819 96.821 97.063 96.918 96.808 96.732 96.587 96.535 96.491 96.457 96.462 96.472 96.389 96.413 96.389 96.273 96.378 96.417 96.54 96.556 96.617 96.447 96.373 96.304 96.42 96.27 96.466 98.113 98.573 98.866 98.837 98.834 99.003 99.086 98.971 98.852 98.884 98.826 98.819 98.627 99.435 100.645 101.167 99.143 99.3 99.199 99.613 99.115 98.775 98.531 98.152 97.031 96.386 96.27 95.881 95.685 95.639 95.684 95.674 95.695 95.815 95.867 95.856 95.866 95.755 95.801 95.789 95.655 95.601 95.156 94.562 94.243 94.133 93.968 93.888 93.783 93.796 93.662 93.684 94.499 98.791 95.015 93.083 97.123 104.527 103.469 105.548 102.645 98.226 -9999 95.305 94.34 94.582 -9999 -9999 -9999 91.953 92.019 92.24 94.003 94.93 102.145 100.359 101.492 101.948 97.935 93.529 91.263 91.353 91.353 91.282 91.424 91.436 91.35 96.959 102.83 100.712 100.811 100.849 99.668 94.976 -9999 89.34 89.337 89.286 89.491 89.395 89.356 90.574 96.082 91.307 90.882 92.026 -9999 -9999 -9999 -9999 -9999 -9999 88.684 88.68 88.658 88.595 88.704 88.909 89.309 89.048 88.932 88.749 88.426 88.217 88.276 88.541 89.355 89.703 89.233 89.264 90.769 92.933 94.094 92.958 89.833 87.101 86.906 87.786 89.557 87.975 86.726 86.604 86.666 88.379 86.757 86.739 86.598 86.815 88.897 87.944 87.477 87.162 91.562 91.657 90.954 88.437 87.852 87.479 86.349 86.314 86.309 86.287 86.254 86.222 86.224 86.154 86.239 86.334 86.539 86.522 86.527 88.789 87.342 86.164 86.134 85.999 86.154 86.294 86.367 86.429 86.677 92.432 93.484 93.699 93.922 93.742 92.394 86.894 86.482 86.454 86.474 88.499 95.312 95.684 96.124 89.754 88.794 86.927 86.542 86.609 87.594 88.099 90.927 91.474 92.317 92.127 86.562 86.737 86.754 86.764 86.762 86.804 86.819 86.819 86.854 86.947 88.232 86.677 87.787 86.689 86.664 86.534 86.517 86.552 86.649 86.729 86.851 86.944 86.991 87.039 87.049 87.606 93.291 94.489 96.279 94.966 93.556 87.121 87.179 87.204 87.186 87.194 87.171 87.199 87.196 87.194 88.746 87.241 87.391 87.501 87.594 87.106 86.561 86.574 86.569 86.579 86.576 86.581 87.721 95.781 86.829 86.739 87.519 86.704 86.661 86.589 86.581 86.576 86.551 86.806 86.119 85.986 86.071 85.954 87.204 85.534 85.371 85.191 84.989 85.171 84.861 84.729 86.056 85.964 84.861 84.019 83.956 83.879 84.811 83.979 84.639 85.126 84.926 82.219 83.006 82.599 81.496 81.126 80.764 80.464 80.141 79.844 79.451 79.086 78.786 78.304 77.751 77.331 77.094 76.676 76.321 76.154 76.151 76.429 76.726 76.916 76.886 76.751 76.461 76.079 75.826 75.869 75.654 74.946 75.064 74.526 74.456 74.304 73.971 73.656 73.611 73.074 72.861 72.504 72.139 72.321 71.766 71.521 70.919 70.624 71.226 70.989 71.361 72.084 71.896 67.891 67.769 67.646 67.594 67.499 67.404 67.339 67.234 67.141 66.991 66.836 67.179 68.079 66.411 69.474
98.527 98.613 98.595 98.531 98.485 98.186 98.423 98.758 98.412 97.843 97.259 96.873 96.866 96.888 96.843 96.747 96.786 96.846 96.835 96.739 96.852 96.816 96.953 96.886 96.735 96.743 96.869 97.382 97.161 96.802 96.521 96.5 96.54 96.416 96.431 96.399 96.391 96.47 96.473 96.459 96.401 96.426 96.455 96.481 96.531 96.504 96.424 96.524 96.651 96.247 96.379 96.95 98.141 98.834 98.901 98.928 98.952 98.932 99.033 98.996 98.889 98.754 98.767 98.836 98.6 98.312 98.596 98.847 98.908 102.376 104.466 105.453 100.43 98.852 98.693 98.522 97.791 96.821 96.466 95.882 95.721 95.663 95.577 95.523 95.709 95.845 95.845 95.905 95.759 95.704 95.719 95.795 95.645 95.551 95.413 95.286 94.842 94.291 94.002 93.922 93.753 93.706 93.581 93.354 93.232 93.101 93.107 93.176 93.392 95.723 96.33 97.116 94.787 95.594 97.231 96.217 -9999 -9999 -9999 -9999 92.69 91.991 91.862 92.013 93.367 96.119 98.514 97.029 101.48 101.83 95.181 92.484 91.288 91.462 91.364 91.234 91.214 91.462 91.662 94.041 98.578 98.355 98.324 -9999 -9999 -9999 89.63 89.362 89.41 89.467 89.402 89.384 89.36 90.283 93.126 91.106 93.481 94.392 94.583 94.074 -9999 -9999 -9999 88.696 88.735 88.741 88.602 88.644 88.776 90.186 91.736 91.593 89.303 88.373 88.302 88.08 87.945 88.366 89.358 89.566 89.869 89.641 89.685 91.14 91.951 87.976 86.717 86.691 86.469 87.309 89.693 88.396 87.059 86.641 86.614 86.895 87.689 86.829 86.902 87.274 88.15 89.154 87.732 88.957 91.429 89.062 87.062 86.314 87.647 86.774 86.304 86.244 86.232 86.222 86.182 86.144 86.102 86.089 86.112 86.382 87.627 87.777 86.439 86.432 86.399 86.352 86.054 85.929 86.127 86.249 86.317 86.299 86.487 92.334 93.447 94.594 95.012 93.884 92.692 86.529 86.464 86.449 86.889 88.797 91.814 94.404 88.977 89.322 87.887 86.862 86.557 86.542 91.352 93.364 93.587 93.789 93.839 92.777 87.359 86.714 87.234 86.737 86.729 86.757 86.747 86.752 86.892 87.102 88.084 86.597 87.584 86.594 86.579 86.469 86.484 86.484 87.041 87.866 86.876 86.911 86.946 87.026 87.044 87.536 93.101 94.546 96.079 95.321 93.819 89.011 87.184 87.189 87.169 87.164 87.151 87.174 87.164 87.156 89.001 87.164 87.316 87.334 89.551 87.276 86.556 86.559 86.574 86.579 86.561 86.566 86.951 87.211 86.731 86.694 86.674 86.669 86.619 86.541 86.499 86.499 86.509 86.096 86.511 86.684 85.939 86.116 86.999 85.354 85.164 85.409 85.324 85.869 85.519 91.736 84.569 85.176 84.224 83.919 84.126 83.796 83.929 84.459 83.056 82.889 82.266 82.101 81.784 81.399 81.016 80.649 80.296 79.969 79.609 79.296 79.284 78.554 77.946 77.511 76.894 76.416 76.189 75.786 75.759 75.789 75.871 75.971 76.034 76.294 76.514 76.426 76.131 75.814 75.529 75.154 74.904 74.669 74.421 74.494 74.344 74.099 74.291 74.611 74.379 72.854 72.384 71.979 71.679 71.561 71.509 70.884 70.774 71.091 70.259 69.769 69.029 68.204 68.066 67.941 67.834 67.736 67.601 67.494 67.409 67.311 67.231 67.124 67.036 66.934 66.736 66.611 66.491 66.314
98.578 98.531 98.459 98.475 98.515 98.587 98.725 98.55 97.655 97.392 97.164 96.916 96.876 96.879 96.768 96.83 96.928 96.855 96.8 96.825 96.888 96.778 96.733 96.74 96.777 96.753 96.917 97.001 97.024 96.802 96.68 96.61 96.599 96.598 96.524 96.476 96.413 96.482 96.519 96.53 96.339 96.503 96.533 96.502 96.386 96.331 96.422 96.481 97.759 97.274 97.219 98.515 98.701 98.875 98.899 98.978 98.887 98.848 98.973 98.895 98.826 98.67 98.661 98.698 98.547 98.371 98.411 98.416 98.786 102.262 104.019 102.288 99.519 99.618 99.289 98.533 98.187 97.352 96.78 96.226 95.983 95.772 95.547 95.53 95.563 95.628 95.696 95.698 95.703 95.539 95.683 95.694 95.655 95.536 95.529 95.507 95.153 94.562 94.211 93.935 93.737 93.642 94.049 93.685 93.234 92.998 93.006 92.854 93.019 92.951 92.995 94.133 98.074 95.87 94.84 96.308 98.066 -9999 -9999 96.648 93.135 91.91 91.822 91.907 93.18 95.848 99.758 102.341 102.118 98.537 94.641 93.094 91.633 91.399 91.242 91.097 90.976 91.329 91.572 92.382 95.357 94.423 93.781 -9999 -9999 90.242 89.726 89.497 89.356 89.731 91.386 91.206 89.594 89.33 90.251 91.578 93.155 95.867 97.514 95.176 -9999 88.677 88.652 88.673 88.747 88.809 88.758 88.874 89.504 92.424 93.755 93.84 91.238 88.711 88.331 88.165 88.129 88.377 88.908 89.287 89.67 89.957 89.752 89.538 88.672 86.633 86.426 86.358 86.356 86.996 87.932 87.948 87.547 87.072 86.517 86.7 88.037 88.493 87.315 87.052 86.783 89.819 86.959 87.252 86.232 87.049 86.644 87.697 91.372 91.819 87.322 86.209 86.192 86.164 86.114 86.097 85.999 85.989 86.029 86.282 86.327 86.364 86.367 86.372 86.299 86.407 85.954 85.839 86.227 86.127 86.184 86.219 86.337 92.257 93.254 94.422 95.212 94.714 92.947 86.624 86.987 86.959 86.299 86.594 88.404 87.882 86.512 86.382 86.364 86.307 86.264 86.707 90.074 93.379 94.609 95.012 94.202 93.867 92.397 86.719 87.257 86.669 86.674 86.679 86.822 86.897 86.742 86.852 88.677 86.489 87.089 86.479 86.477 86.387 86.444 86.392 86.716 87.631 86.891 86.921 87.296 87.221 87.051 87.071 92.716 94.251 95.719 95.589 94.116 90.009 87.216 87.164 87.139 87.131 87.129 87.146 87.161 87.156 88.991 88.116 87.334 87.356 87.439 87.366 86.549 86.561 86.556 86.564 86.559 86.561 86.561 87.861 86.659 86.696 86.706 86.644 86.589 86.491 86.476 86.471 86.524 86.146 88.481 88.124 85.891 86.256 87.741 92.394 91.969 85.244 85.641 85.376 85.104 85.801 84.261 83.961 83.759 83.656 83.216 83.074 82.881 82.649 82.441 82.304 82.201 81.751 81.331 80.931 80.561 80.189 79.816 79.401 78.994 78.454 77.921 77.346 77.184 75.899 75.739 75.726 75.714 75.719 75.726 75.754 75.791 75.811 75.834 75.871 75.961 76.054 75.924 75.866 75.179 74.784 74.441 74.701 74.379 74.361 74.074 73.926 73.694 75.844 74.984 72.449 71.759 71.366 71.426 71.174 71.074 71.146 75.306 75.219 68.721 68.859 68.454 68.284 68.106 67.961 67.864 67.799 67.621 67.474 67.336 67.271 67.214 67.159 66.986 66.886 66.766 66.651 66.519 66.336
98.412 98.456 98.435 98.532 98.59 98.772 98.456 97.742 97.054 97.071 96.783 96.855 96.762 96.734 96.809 96.927 96.857 96.844 96.817 96.852 96.959 96.803 96.707 96.664 96.7 96.989 96.913 96.932 96.904 96.883 96.796 96.632 96.468 96.548 96.541 96.527 96.415 96.405 96.394 96.512 96.512 96.446 96.429 96.494 96.408 96.334 96.224 96.48 98.051 98.705 98.763 98.767 98.769 98.836 98.927 98.894 98.8 98.845 98.862 98.814 98.796 98.682 98.573 98.855 98.634 98.526 98.844 98.865 98.627 99.154 99.184 99.003 98.869 104.571 100.914 99.108 98.565 98.175 97.731 97.252 96.384 96.197 95.791 95.65 95.434 95.423 95.486 95.472 95.542 95.612 95.592 95.485 95.491 95.522 95.58 95.46 95.379 95.21 94.69 93.948 93.926 93.592 94.853 94.109 93.193 92.776 92.753 92.919 93.028 92.831 92.805 94.92 100.35 96.246 94.26 99.302 99.361 99.784 102.017 100.06 94.692 92.307 91.903 92.019 92.925 94.037 97.623 99.911 95.643 96.343 93.108 92.599 91.392 91.253 91.173 90.976 91.137 91.365 91.373 91.804 91.822 91.61 91.753 90.99 90.05 89.833 89.736 89.773 89.415 89.714 93.403 93.521 91.419 91.141 90.522 91.359 93.848 95.732 96.654 93.749 89.853 88.697 88.612 88.592 88.699 88.717 88.98 90.073 91.868 94.125 94.764 95.687 93.822 90.704 88.66 88.047 88.34 88.247 88.133 88.331 88.223 89.252 89.834 89.394 88.358 86.633 86.422 86.312 86.299 86.268 86.917 88.04 87.931 87.823 87.523 87.604 88.504 89.755 88.913 87.295 86.567 86.422 86.304 86.282 89.814 92.609 92.819 93.057 93.774 92.654 88.539 86.149 86.144 86.089 86.047 86.249 86.909 86.717 85.937 87.007 86.382 86.247 86.234 86.312 86.287 86.272 85.829 85.762 86.027 86.177 86.282 86.674 86.604 88.929 93.089 94.232 95.247 94.739 93.134 87.044 86.494 86.789 86.254 86.294 86.262 88.537 87.799 86.147 86.184 86.522 86.229 89.704 90.927 93.134 94.397 95.489 94.392 93.367 91.384 86.917 86.607 86.989 86.679 87.064 86.739 86.627 86.614 86.644 88.449 86.417 86.862 86.377 86.382 86.324 86.314 86.317 86.281 87.399 86.879 86.924 87.241 87.226 87.079 87.069 91.514 93.961 95.566 95.629 94.404 92.961 87.109 87.109 87.111 87.114 87.106 87.111 87.119 87.909 89.069 87.321 87.256 87.399 87.424 87.374 86.549 86.534 86.539 86.536 86.556 86.561 86.554 87.036 86.671 86.779 86.704 86.616 86.551 86.444 86.399 86.489 86.881 86.696 87.969 87.426 85.776 85.754 86.599 88.246 89.486 85.584 85.561 85.506 84.301 84.104 83.829 83.586 83.324 83.154 83.014 82.814 82.991 82.529 83.989 83.846 83.494 81.239 80.884 80.429 80.046 79.656 79.126 78.546 77.924 77.469 76.484 77.009 75.751 76.324 82.609 80.856 75.734 75.716 75.714 75.821 75.746 75.729 75.731 75.726 75.726 75.779 75.666 75.136 74.729 74.379 73.994 73.819 73.561 73.509 73.426 73.491 72.519 72.099 72.914 71.474 71.144 70.846 71.049 70.979 70.891 71.529 73.426 69.144 68.616 68.541 68.379 68.254 68.066 68.009 67.866 67.774 67.634 67.439 67.271 67.344 67.674 67.274 66.956 66.864 66.761 66.659 66.536 66.429
98.369 98.356 98.504 98.655 98.768 98.321 97.658 97.042 96.912 96.887 96.857 97.035 96.863 96.775 96.771 96.862 96.88 96.74 96.811 96.927 97.048 96.892 96.719 96.668 96.764 96.976 96.94 96.911 96.929 96.846 96.841 96.808 96.683 96.549 96.535 96.505 96.407 96.376 96.372 96.37 96.407 96.342 96.402 96.311 96.385 96.454 96.436 96.837 98.311 98.797 98.783 98.801 98.75 98.756 98.948 98.858 98.796 98.761 98.794 98.834 98.783 98.716 99.428 100.369 99.088 98.423 99.191 99.33 98.857 98.404 98.296 98.386 99.412 101.193 102.455 99.017 98.726 98.668 98.227 97.806 96.901 96.627 96.031 95.673 95.448 95.319 95.264 95.314 95.387 95.382 95.455 95.489 95.491 95.486 95.482 95.472 95.555 95.302 95.188 94.633 94.107 93.704 94.189 95.545 93.231 92.901 92.778 92.978 92.839 92.861 92.756 93.081 93.612 95.454 98.551 99.689 95.185 100.272 105.596 102.324 98.187 93.837 92.08 92.348 93.022 92.852 96.956 100.059 96.145 92.192 91.713 91.299 91.072 91.09 91.041 90.973 91.268 91.174 90.978 91.348 91.399 91.208 91.232 90.877 90.063 89.747 90.002 90.123 89.887 90.045 91.569 93.329 94.879 93.856 92.055 -9999 -9999 -9999 -9999 -9999 89.528 88.749 88.688 88.63 88.606 88.809 91.137 93.846 95.219 96.194 96.273 95.837 94.859 93.649 89.811 87.908 88.041 88.145 88.159 88.023 88.976 89.365 90.067 89.611 88.837 87.51 87.348 86.344 86.224 86.316 87.544 87.682 87.297 88.142 88.622 89.416 89.97 88.703 87.898 87.336 86.981 86.346 86.129 86.149 89.607 92.664 93.869 94.269 94.049 92.864 89.827 86.077 86.054 86.024 86.097 86.747 86.017 85.754 85.852 86.039 86.064 86.077 86.059 86.052 86.122 87.089 85.734 85.664 85.692 85.982 85.982 86.022 86.442 91.617 92.927 94.047 94.204 94.349 93.284 89.739 86.974 86.139 85.879 85.887 86.284 87.064 86.249 86.122 86.494 86.649 86.872 88.379 89.057 92.959 94.394 95.434 94.587 93.777 94.044 86.522 86.472 86.512 86.544 86.577 86.569 86.594 86.604 86.612 86.902 86.912 86.257 86.252 86.287 86.229 86.197 86.239 86.174 87.599 86.894 86.886 86.999 87.061 87.001 87.054 88.654 93.669 94.309 94.039 93.766 93.179 87.131 87.104 87.069 87.069 87.059 87.114 87.344 87.476 87.896 89.091 88.499 87.179 87.164 87.081 86.636 86.531 86.519 86.524 86.529 86.549 86.536 86.864 86.856 91.584 91.116 87.736 86.511 86.431 86.366 87.229 86.969 87.239 88.819 90.054 87.649 86.799 87.126 90.754 89.986 85.611 84.631 84.159 84.056 83.806 83.551 83.329 83.161 82.979 82.911 82.651 82.439 82.196 83.371 84.901 81.519 80.726 80.324 79.931 79.469 78.886 78.191 77.669 77.201 75.791 79.719 81.029 78.521 84.849 83.694 82.476 76.711 75.729 75.704 75.709 76.076 75.836 75.646 75.586 75.574 75.511 75.276 74.616 74.846 73.804 73.419 73.149 72.971 72.716 73.171 72.931 71.904 72.834 72.096 70.959 70.664 70.581 71.511 73.574 72.124 70.251 69.409 68.646 68.589 68.414 68.186 68.164 68.044 67.999 67.846 67.721 67.614 67.386 67.346 67.356 67.124 67.171 66.881 66.876 66.744 66.644 66.559 66.466
98.424 98.194 98.6 98.819 98.706 97.279 97.029 96.945 96.91 96.943 96.917 96.961 96.808 96.666 96.793 96.877 96.861 96.69 96.909 96.844 96.801 96.672 96.772 96.678 96.887 96.919 96.89 96.8 96.814 96.887 96.923 97.044 97.148 96.631 96.508 96.43 96.43 96.433 96.419 96.442 96.49 96.396 96.306 96.184 96.381 96.413 96.904 98.314 98.759 98.755 98.834 98.728 98.813 98.906 98.881 98.802 98.938 99.518 99.379 98.869 98.652 99.021 100.816 104.546 101.71 98.855 99.63 99.547 99.286 98.732 98.537 98.182 98.479 99.309 99.032 98.792 98.773 98.726 98.566 98.325 97.986 96.932 96.405 95.881 95.597 95.382 95.255 95.29 95.304 95.228 95.405 95.45 95.471 95.39 95.429 95.489 95.414 95.287 95.136 95.012 94.406 93.888 93.698 94.235 93.268 93.134 93.022 92.927 92.9 92.88 92.9 93.838 94.887 97.028 102.235 105.339 94.871 101.463 105.107 103.313 -9999 -9999 -9999 -9999 93.755 94.966 96.793 97.174 94.908 91.867 91.394 91.189 91.065 91.264 90.84 91.011 91.054 90.841 90.974 91.62 91.998 91.057 91.129 91.166 90.408 89.687 90.203 90.644 90.023 89.997 90.945 92.927 94.341 93.978 -9999 -9999 -9999 -9999 -9999 89.79 89.008 88.841 88.705 88.638 88.488 89.402 93.658 95.883 96.543 96.618 96.77 95.225 94.59 93.777 91.756 89.073 88.135 88.157 88.55 90.113 89.913 89.153 89.189 88.971 88.961 89.787 89.828 86.601 86.211 86.252 86.324 86.35 86.435 87.288 88.442 90.122 89.807 88.33 87.74 87.603 87.006 86.191 86.128 86.124 88.007 92.447 94.024 94.852 94.294 93.094 90.879 86.672 87.067 87.384 86.242 87.427 85.732 85.632 85.752 85.877 85.964 86.572 85.942 85.999 85.959 86.227 85.602 85.572 85.542 85.922 85.927 85.927 86.062 88.069 92.732 93.629 93.464 93.284 93.144 91.294 87.747 85.902 85.892 86.542 87.189 87.287 86.479 86.754 86.094 86.097 86.402 86.234 86.364 92.787 93.924 95.262 94.794 93.667 93.049 86.562 86.527 86.419 86.454 86.474 86.517 86.494 86.582 86.642 86.669 88.097 86.127 86.149 86.169 86.152 86.047 87.109 86.061 87.334 87.006 86.836 86.876 86.929 86.994 87.016 87.559 93.156 92.959 91.934 89.961 88.409 87.014 87.149 87.126 87.091 87.944 87.036 87.401 88.024 87.136 93.951 92.981 87.036 86.879 86.731 86.526 86.526 86.506 86.511 86.524 86.524 86.516 86.624 86.611 87.946 87.596 86.499 86.986 87.389 86.571 87.231 87.151 86.851 86.781 90.209 88.794 86.581 87.346 87.464 88.409 86.871 84.649 84.106 83.691 83.489 83.331 83.146 82.981 82.826 82.639 82.444 82.126 81.809 82.199 81.546 80.716 80.256 79.826 79.241 78.599 77.956 77.436 76.091 78.554 80.619 81.489 82.161 82.704 83.919 84.436 83.239 81.989 75.724 75.719 75.709 75.684 75.616 75.574 75.516 75.511 75.184 74.651 74.821 73.586 73.196 72.829 72.594 72.531 71.961 72.034 72.269 71.269 71.901 72.906 72.361 72.401 70.391 69.104 72.809 68.831 68.901 68.879 68.546 68.431 68.294 68.159 68.211 68.019 67.964 67.866 67.881 67.734 67.834 67.729 67.366 67.451 67.196 67.071 66.911 66.839 66.746 66.629 66.566
98.394 98.686 98.759 98.445 97.386 96.992 96.943 96.871 96.854 96.914 96.893 96.854 96.822 96.781 96.824 96.854 96.854 96.792 96.922 96.89 96.874 96.766 96.786 96.9 96.909 96.946 96.896 96.858 96.968 96.907 96.922 96.921 97.648 96.838 96.678 96.547 96.534 96.517 96.477 96.519 96.557 96.411 96.318 96.316 96.366 96.676 97.689 98.678 98.831 98.903 99.019 98.976 98.88 98.914 98.828 98.861 100.297 102.044 99.941 98.893 98.71 100.542 102.25 104.501 104.281 100.443 99.877 100.011 100.165 99.489 98.929 98.412 98.527 98.695 98.837 98.744 98.816 98.803 98.598 98.572 98.241 97.657 97.142 96.511 95.881 95.486 95.223 95.203 95.152 95.234 95.364 95.301 95.338 95.429 95.316 95.369 95.449 95.313 95.157 95.024 94.877 94.412 93.642 93.406 93.268 92.974 92.949 92.926 92.961 92.843 93.086 95.99 96.785 95.939 96.46 96.748 97.381 106.098 104.523 101.987 101.022 -9999 -9999 94.046 94.06 94.096 94.902 -9999 -9999 92.181 92.548 93.729 93.85 93.412 95.035 95.583 92.471 90.545 90.789 91.437 91.467 91.143 90.809 91.073 90.864 90.243 90.812 91.446 90.634 90.234 90.698 -9999 93.489 -9999 -9999 -9999 -9999 -9999 -9999 89.013 89.037 88.891 88.696 88.549 89.319 91.831 95.662 96.354 96.459 96.498 95.354 94.594 93.906 93.213 91.462 88.946 88.369 88.172 88.187 91.109 89.617 88.599 88.214 87.96 88.785 90.017 89.069 86.965 86.166 86.139 86.146 86.17 86.41 87.178 89.431 90.581 89.637 87.511 86.941 87.262 86.762 86.23 86.132 86.11 86.529 92.212 94.119 94.639 94.539 93.492 91.874 86.002 85.942 85.777 85.617 86.432 85.739 85.532 85.634 85.744 85.839 85.857 85.804 85.832 85.827 85.939 85.499 85.462 85.397 85.494 85.497 85.534 85.629 86.584 92.592 92.594 91.877 91.102 89.384 87.332 86.087 85.987 85.904 88.064 87.964 87.884 87.464 85.822 85.879 85.957 86.027 86.462 86.454 92.582 93.809 94.232 94.099 93.719 92.419 86.437 86.442 86.544 86.484 86.534 86.412 86.362 86.352 86.292 86.237 86.157 86.039 86.014 86.074 86.042 85.939 86.104 85.961 86.824 87.014 86.974 86.914 86.931 87.049 87.076 86.959 87.074 86.876 86.874 86.886 86.929 86.954 87.089 87.136 92.989 89.314 87.724 87.666 87.454 87.259 88.421 88.469 86.591 86.869 86.634 86.509 86.521 86.506 86.509 86.509 86.509 86.491 86.574 87.999 88.916 92.336 87.231 88.021 87.441 87.456 87.084 85.801 86.911 85.524 90.579 86.526 86.401 85.291 85.224 84.464 88.386 87.721 87.166 83.551 83.284 83.121 82.976 82.821 82.609 82.346 82.056 81.724 81.399 81.019 80.636 80.246 79.764 79.146 78.469 77.854 76.866 76.394 80.259 81.204 81.916 82.046 81.409 81.911 83.176 84.394 83.989 82.781 79.249 75.734 75.734 75.641 75.531 75.404 75.121 74.954 75.464 73.796 73.431 73.039 72.614 72.269 71.919 71.596 71.416 71.496 71.746 70.926 70.706 70.766 70.216 69.436 72.536 69.716 69.329 70.576 71.384 69.601 68.636 68.456 68.414 68.196 68.046 68.001 67.934 67.969 67.799 67.769 67.651 67.619 67.479 67.339 67.136 67.079 66.999 66.909 66.809 66.729 66.574
98.822 98.877 98.456 97.762 97.053 96.837 96.905 97.069 96.933 96.896 96.83 96.901 96.935 96.813 96.886 96.809 96.767 96.85 96.802 96.849 96.854 96.842 96.9 96.796 96.853 97.002 96.83 96.767 96.789 96.88 96.779 96.838 96.994 96.945 97.575 96.912 96.559 96.576 96.6 96.554 96.457 96.388 96.377 96.354 96.619 97.757 98.616 98.957 98.818 98.942 99.058 99.039 98.872 98.789 98.815 98.917 100.396 101.657 99.997 98.744 99.192 102.491 104.639 104.931 104.842 102.786 100.975 101.076 100.977 100.774 99.964 98.722 98.512 98.481 98.482 98.496 98.819 99.202 99.112 98.718 98.557 98.255 97.78 97.027 96.332 95.638 95.272 95.114 95.126 95.124 95.178 95.215 95.266 95.259 95.217 95.324 95.339 95.322 95.148 94.972 94.804 94.445 94.099 93.402 93.29 93.021 92.913 92.861 92.736 92.815 92.9 95.93 95.637 92.793 92.529 93.068 93.969 96.315 95.662 103.466 98.725 97.047 96.904 95.094 92.762 92.014 93.409 -9999 91.137 91.929 92.904 97.108 97.235 101.701 103.361 105.144 99.164 90.86 90.511 90.705 91.631 90.895 90.804 92.683 97.425 97.988 94.265 92.161 91.377 90.81 -9999 -9999 -9999 -9999 -9999 -9999 89.587 89.168 89.085 89.058 89.171 88.853 88.485 89.115 93.067 96.361 96.959 96.807 95.635 94.769 94.334 93.534 91.51 90.498 89.289 88.641 88.551 88.138 87.611 88.352 88.103 87.95 87.915 87.185 88.609 89.366 89.452 87.329 86.168 86.201 86.153 86.057 86.115 86.899 90.105 92.833 92.868 89.282 86.803 87.481 87.003 86.729 86.826 87.175 86.159 91.464 93.187 94.422 94.744 93.509 92.344 86.402 86.034 85.547 85.519 86.249 90.392 85.399 85.529 85.522 85.739 85.724 85.697 85.649 85.822 85.719 85.572 85.369 85.264 85.397 85.447 85.489 85.527 85.584 86.254 85.682 85.742 86.479 87.159 85.904 85.979 86.089 85.919 88.057 87.954 87.874 87.342 85.767 85.777 85.872 85.947 86.857 86.107 91.617 93.192 93.059 92.837 92.692 91.974 86.347 86.299 86.302 86.282 86.294 86.272 86.292 86.304 86.254 86.189 86.067 85.937 85.907 85.962 85.942 85.854 85.982 85.881 85.959 86.879 87.316 87.959 87.346 88.299 87.029 87.881 89.346 86.901 86.879 86.606 86.229 86.551 87.196 87.101 87.154 86.659 86.651 86.599 86.601 86.594 86.571 86.559 86.571 86.604 86.636 86.479 86.511 86.501 86.484 86.481 86.494 86.476 86.451 88.836 86.874 88.426 89.301 87.139 85.951 85.756 85.696 85.566 85.606 86.366 84.956 84.759 84.529 84.329 84.129 83.914 84.129 83.531 83.374 83.246 83.081 82.926 82.744 82.526 82.266 82.004 81.654 81.339 80.909 80.511 80.056 79.601 79.144 78.551 77.894 77.331 76.456 75.709 81.654 82.224 81.646 80.974 79.514 76.124 82.389 83.639 84.604 83.519 82.294 76.039 75.709 75.639 77.469 75.001 74.261 73.836 74.364 73.211 72.854 72.481 71.994 71.676 71.319 70.966 70.919 71.146 70.994 70.294 69.954 69.546 69.264 71.054 69.356 69.526 69.794 70.241 74.614 75.946 68.921 68.436 68.309 68.226 68.131 67.989 67.956 69.474 68.014 67.789 67.871 67.614 67.459 67.406 67.304 67.106 67.031 66.944 66.891 66.764 67.014
98.832 98.724 97.625 96.899 96.781 96.829 96.876 96.982 96.884 96.857 96.891 96.812 96.867 96.865 96.819 96.746 96.787 96.84 96.792 96.782 96.816 96.801 96.912 96.796 96.677 96.908 96.766 96.806 96.804 96.774 96.795 96.916 96.944 96.97 97.633 97.554 96.642 96.612 96.615 96.512 96.407 96.398 96.694 97.08 97.93 98.671 98.907 98.9 98.888 98.912 98.959 99.018 99.001 98.897 98.824 98.763 99.445 100.596 99.666 100.962 102.39 104.184 104.795 104.888 104.503 102.286 101.536 101.372 101.12 101.013 100.566 99.719 98.831 98.383 98.348 98.358 99.958 101.641 105.368 99.731 98.674 98.388 98.054 97.689 96.64 95.878 95.489 95.144 94.98 95.089 95.082 95.067 95.092 95.225 95.35 95.358 95.286 95.265 95.176 94.988 94.758 94.334 94.086 93.706 93.265 93.089 92.878 92.935 92.746 92.699 92.547 94.364 93.447 92.11 92.185 92.301 92.342 92.677 95.275 97.381 93.307 95.836 98.817 97.808 93.835 92.41 92.732 91.624 91.399 91.567 91.339 94.634 98.778 102.741 105.623 107.212 100.652 92.283 90.576 90.612 90.783 90.673 93.37 100.545 106.246 105.712 102.202 96.862 92.396 91.73 91.293 -9999 -9999 -9999 -9999 89.999 89.412 89.213 89.137 89.014 88.872 88.732 88.649 90.024 94.701 97.414 97.253 95.574 94.515 94.178 93.436 90.485 88.457 88.423 88.461 88.675 88.206 87.547 87.309 87.416 87.341 87.511 87.482 87.48 89.889 91.999 91.054 88.749 86.863 86.597 86.131 86.143 86.16 86.098 88.883 91.659 93.72 93.094 88.29 88.204 87.767 86.523 86.153 86.052 86.061 90.537 93.004 94.112 93.892 93.624 92.524 87.402 85.907 85.524 85.489 85.447 85.427 85.319 85.409 85.424 85.619 85.812 85.554 85.619 85.674 85.612 85.432 85.277 85.182 85.277 85.344 85.942 86.009 85.784 85.409 85.477 85.549 85.489 85.477 85.509 85.567 85.567 85.637 86.519 87.739 87.652 86.752 85.852 86.549 86.127 86.439 85.869 85.919 88.734 89.692 87.849 86.932 86.177 86.229 86.257 86.267 86.184 86.144 86.147 86.167 86.182 86.162 86.147 86.117 86.084 85.864 85.787 85.842 85.809 85.779 85.814 85.796 85.746 87.216 86.671 90.164 87.614 86.389 86.246 89.761 91.439 88.446 88.806 89.014 89.224 86.374 86.311 86.356 86.484 86.459 86.479 86.481 86.536 86.536 86.496 86.499 86.484 86.531 86.526 86.456 86.499 86.479 86.466 86.456 86.464 86.456 86.436 87.984 86.294 86.596 86.056 86.326 85.806 85.599 85.484 85.291 85.124 84.911 84.766 84.496 84.316 84.076 83.871 83.666 83.506 83.336 83.139 82.929 82.709 82.596 82.411 82.181 81.881 81.559 81.226 80.816 80.404 79.921 79.444 79.029 78.561 77.976 77.359 76.764 76.536 75.989 78.069 81.254 80.514 76.536 75.674 75.821 81.189 82.834 84.114 84.314 83.016 81.269 75.724 75.539 74.956 74.144 73.589 73.376 72.941 75.239 72.239 71.786 71.496 71.126 70.854 70.999 71.136 71.354 70.559 70.336 69.374 69.651 71.661 71.009 69.416 69.389 69.224 73.751 77.886 75.409 72.766 70.831 69.996 69.164 68.139 68.134 68.539 67.979 68.604 67.821 67.764 67.601 67.606 67.506 67.446 67.226 67.061 67.369 66.971 66.894 69.476
98.766 97.916 96.908 96.736 96.761 96.892 96.929 97.003 96.895 96.773 96.724 96.756 96.898 96.84 96.75 96.804 96.753 96.783 96.817 96.88 96.774 96.741 96.848 96.812 96.769 96.827 96.855 96.852 96.827 96.798 96.847 96.89 96.903 96.956 97.238 97.818 97.645 96.905 96.583 96.387 96.345 96.429 97.128 98.658 98.835 98.789 98.809 98.895 98.945 99.011 98.927 99.039 99.017 99.04 98.855 98.812 98.815 98.965 98.954 102.705 104.343 104.775 104.746 104.598 102.555 101.495 101.525 101.076 100.653 100.515 100.338 100.062 -9999 98.299 98.244 98.391 100.079 103.163 104.16 99.243 98.631 98.49 98.213 97.856 97.203 96.369 95.696 95.258 95.014 94.942 94.94 94.975 95.095 95.218 95.354 95.233 95.286 95.227 95.102 94.832 94.525 94.249 93.958 93.563 93.28 93.068 92.954 92.862 92.748 92.656 92.557 92.448 92.527 92.297 92.305 92.284 92.276 92.145 93.772 94.36 93.608 94.65 99.22 98.47 -9999 -9999 -9999 91.077 91.002 91.104 91.207 92.569 95.267 101.284 103.086 97.54 95.992 92.238 90.577 90.583 90.587 91.756 97.844 102.582 104.119 105.688 104.607 102.238 97.004 92.686 90.744 90.186 -9999 -9999 90.512 90.04 89.499 89.255 89.167 -9999 88.824 88.884 89.527 92.844 95.177 95.81 95.426 94.321 94.146 93.672 91.018 88.212 88.175 88.425 88.493 88.229 87.869 87.446 87.261 87.199 87.23 87.227 88.314 90.068 92.477 93.325 91.129 87.961 87.478 87.242 86.427 86.267 86.046 85.915 86.943 90.206 92.773 92.008 88.51 88.292 86.733 85.934 85.81 85.811 86.03 88.052 92.777 92.932 92.699 92.464 92.247 87.699 85.529 85.487 85.449 85.462 85.357 85.259 85.324 85.329 85.469 85.564 85.497 85.464 85.522 86.062 85.794 85.197 85.082 85.324 85.309 85.347 85.327 85.699 87.714 89.887 88.439 86.477 85.474 86.017 85.479 85.492 85.524 86.762 87.747 87.652 86.702 88.254 88.334 86.784 86.104 86.362 85.944 85.989 86.194 86.312 86.014 86.012 86.049 86.969 86.509 86.027 86.014 86.034 86.039 86.037 86.089 86.124 86.147 86.197 86.027 85.702 85.724 85.724 85.694 85.609 85.591 85.639 85.751 85.859 85.914 85.949 85.976 85.989 85.979 85.994 89.229 89.054 88.824 88.466 86.536 85.946 85.964 86.414 86.401 86.579 86.406 86.474 86.519 86.441 86.394 86.389 86.386 86.386 87.244 88.319 86.461 86.441 86.416 86.421 86.424 86.421 88.029 86.151 86.784 85.976 85.736 85.611 85.441 85.231 85.056 84.876 84.714 84.531 84.304 84.036 83.839 83.634 83.441 83.111 82.799 82.449 82.186 82.169 82.131 81.944 81.751 81.459 81.121 80.714 80.286 79.801 79.284 78.841 78.439 78.001 77.491 76.904 76.524 76.266 76.104 75.694 78.691 75.634 75.616 75.629 75.879 78.551 82.096 83.311 84.561 83.749 76.974 75.726 75.561 74.811 73.799 73.026 72.704 72.454 73.636 71.439 71.436 70.966 70.819 71.366 71.336 70.864 70.639 69.951 69.756 69.939 71.376 69.859 69.331 69.276 69.171 69.454 72.969 76.269 77.126 75.726 69.224 69.744 69.376 68.809 70.594 68.489 68.541 68.621 67.929 67.981 67.964 67.621 67.481 67.384 67.384 67.286 67.141 67.059 67.236 67.516
97.601 96.956 96.783 96.854 96.84 96.754 96.903 96.886 96.818 96.836 96.971 96.953 96.892 96.902 96.865 96.92 96.765 96.82 96.925 96.928 96.784 96.701 96.918 96.803 96.733 96.923 96.868 96.812 96.883 96.85 96.813 96.862 96.943 96.973 97.101 97.495 98.009 97.478 96.731 96.42 96.372 96.525 97.665 98.759 98.798 98.759 98.919 99.119 99.099 99.033 99.042 99.043 99.033 98.909 98.922 98.937 98.826 98.714 99.036 100.255 103.168 104.092 104.15 103.26 101.616 101.385 101.317 100.179 99.347 99.671 99.644 -9999 98.349 98.314 98.257 98.307 98.398 99.335 102.225 100.015 98.844 98.844 98.504 98.156 97.533 96.929 96.36 95.456 95.138 94.888 94.87 94.875 95.015 95.125 95.21 95.114 95.139 94.948 94.43 94.288 94.276 93.985 93.636 93.498 93.409 93.051 92.775 92.686 92.722 92.674 92.573 92.45 92.436 92.387 92.166 92.696 92.344 92.093 92.321 95.073 94.91 93.152 94.84 95.789 -9999 -9999 -9999 91.015 90.983 91.002 91.214 92.527 92.59 95.291 96.667 95.664 94.764 91.643 90.672 90.685 91.889 96.945 102.305 103.166 103.04 105.9 106.432 104.152 99.17 92.45 90.087 89.743 90.344 90.809 90.386 89.94 89.409 89.428 89.163 -9999 89.111 89.28 89.506 92.322 94.221 94.571 94.284 93.957 92.81 90.415 88.401 88.286 88.555 89.449 89.316 88.031 87.51 87.429 87.465 87.456 87.211 87.311 88.737 89.357 93.743 93.164 88.047 87.45 88.129 88.247 87.688 86.477 86.027 86.002 85.971 87.138 87.658 87.981 88.499 87.263 86.371 85.795 85.761 85.738 85.685 86.604 91.212 90.209 88.527 86.347 85.712 85.549 85.664 85.709 86.797 85.439 85.739 85.222 85.219 85.234 85.802 85.437 85.392 85.374 85.397 86.024 87.102 85.064 85.504 85.509 85.642 85.282 85.312 85.372 88.307 92.014 92.332 92.179 92.017 91.817 85.452 85.444 85.489 86.424 87.639 87.544 86.194 87.494 87.782 87.337 87.799 85.687 85.734 85.787 87.237 90.447 91.177 93.882 92.579 92.387 85.802 86.919 85.889 85.947 85.972 85.987 85.992 86.057 86.082 86.107 86.242 85.612 85.604 85.619 85.602 85.504 85.479 85.519 86.119 86.586 86.004 86.266 85.996 85.986 85.949 85.919 86.551 85.934 87.126 89.641 88.704 88.246 85.956 86.361 86.349 86.324 86.344 86.419 86.451 86.421 86.406 86.411 86.324 86.259 86.216 86.426 86.431 86.404 86.391 86.384 86.389 86.386 87.256 85.864 85.831 85.656 85.544 85.466 85.266 85.044 84.791 84.609 84.449 84.289 83.939 83.704 83.409 83.094 82.689 82.284 81.949 81.691 81.484 81.466 81.486 81.369 81.306 80.949 80.561 80.164 79.659 79.659 78.794 78.361 77.901 77.491 76.994 76.574 76.354 76.166 75.879 75.654 75.621 75.584 75.564 75.559 75.591 76.151 76.309 82.606 80.344 75.936 75.719 75.686 75.456 74.324 73.434 72.766 72.351 72.064 74.276 70.911 71.089 70.979 71.259 71.164 70.824 71.114 69.801 69.856 69.904 69.804 69.681 69.489 69.451 69.021 68.984 69.181 69.121 74.049 72.644 70.334 69.281 68.789 68.626 68.206 68.199 68.549 69.171 69.431 68.451 68.791 68.364 67.614 67.599 67.601 67.406 67.434 67.459 68.799 67.426 68.234
97.143 96.898 96.82 96.811 96.748 96.851 96.809 96.797 96.915 96.862 96.879 96.997 97.058 96.892 96.848 96.822 96.873 96.904 96.724 96.789 96.798 96.839 96.84 96.878 96.948 96.812 96.83 96.879 96.929 96.988 96.869 96.863 96.983 97.05 97.056 96.957 97.032 97.071 97.05 96.671 96.614 97.354 98.549 98.776 98.907 99.129 99.492 99.253 99.063 99.124 99.136 99.148 99.032 98.972 98.994 99.053 99.878 99.479 100.637 101.228 103.298 102.015 101.701 101.656 101.226 101.384 100.998 100.565 99.002 98.795 98.8 98.648 98.432 98.409 98.291 98.258 98.254 98.387 99.132 99.349 98.818 101.578 100.273 98.653 98.044 97.38 96.865 96.19 95.48 95.233 94.994 94.929 94.883 95.007 95.022 94.929 94.69 94.111 93.824 93.826 93.913 93.707 93.492 93.321 93.148 92.954 92.717 92.643 92.682 92.748 92.545 92.448 92.513 92.449 93.004 93.656 93.762 92.032 92.651 94.319 98.668 96.387 94.664 93.695 -9999 -9999 -9999 -9999 91.221 91.461 91.467 92.836 96.645 92.525 92.063 92.57 91.954 91.468 91.05 92.046 97.451 102.902 105.491 105.246 105.6 107.135 106.227 103.905 99.479 92.914 89.616 89.541 90.222 90.693 90.065 90.038 90.263 90.143 -9999 -9999 -9999 89.805 89.974 91.435 91.928 93.53 93.96 91.657 89.297 88.425 88.557 89.199 88.987 90.961 89.877 87.846 87.45 87.751 88.415 88.43 87.484 87.638 88.297 88.616 90.987 91.536 89.592 88.168 87.984 87.774 88.472 88.735 87.231 86.102 85.945 85.866 85.836 87.572 87.615 88.767 87.717 85.802 85.731 85.733 85.682 85.804 85.617 85.619 85.604 85.719 85.607 85.544 85.502 85.487 85.399 85.297 85.549 85.347 85.139 85.142 85.264 85.694 85.264 85.259 85.327 85.434 86.667 84.957 85.039 85.164 85.244 85.389 85.207 85.292 91.967 92.202 93.332 93.352 93.182 91.797 87.094 85.359 85.377 85.364 85.392 85.414 85.644 85.879 87.454 88.037 87.622 86.009 86.159 88.547 92.294 93.317 94.939 94.079 93.517 93.104 85.784 85.777 85.837 85.887 85.894 85.894 85.909 85.924 85.957 86.112 86.347 85.517 85.489 85.502 85.492 85.404 85.474 85.426 86.346 86.494 85.994 86.026 86.071 86.061 85.929 85.869 92.249 92.591 92.564 92.216 89.531 88.439 85.961 86.254 86.296 86.269 86.289 86.361 86.396 86.346 86.319 86.299 86.221 86.219 86.266 86.401 86.401 86.376 86.369 86.349 86.344 86.344 88.631 85.996 85.504 85.441 85.359 85.266 85.061 84.816 84.581 84.326 84.166 83.949 83.539 83.186 82.669 82.346 81.834 81.474 81.176 81.021 80.951 80.939 80.891 80.814 80.786 80.414 79.999 79.544 79.126 78.699 78.211 77.789 77.366 76.994 76.569 76.294 76.059 75.931 75.759 75.634 75.564 75.489 75.461 75.479 76.411 76.736 75.646 75.711 75.699 75.701 75.544 75.149 74.289 73.626 73.066 72.636 72.209 71.686 70.956 70.464 70.666 70.726 73.454 74.414 71.121 69.746 69.899 69.746 69.909 69.541 69.521 69.436 71.286 69.286 69.026 68.799 68.906 68.581 68.756 70.161 68.659 68.661 68.331 68.174 68.161 68.936 69.769 69.709 68.884 70.834 70.079 69.909 69.899 69.554 69.454 68.426 67.926 69.299 68.629 68.761
97.03 97.016 96.837 96.714 96.719 96.684 96.719 96.78 96.966 96.931 96.807 96.8 96.875 96.908 96.868 96.852 96.837 96.709 96.725 96.811 96.881 96.899 96.825 96.834 96.933 96.785 96.792 96.82 96.833 96.833 96.851 96.809 96.92 97.002 96.996 96.849 96.902 97.121 97.494 98.374 98.092 98.649 98.82 99.047 100.021 100.474 101.239 100.223 99.032 99.111 99.161 99.264 99.105 99.144 99.043 99.149 99.811 101.175 102.975 103.236 101.761 101.453 101.208 100.984 100.096 99.502 99.609 99.451 98.805 98.5 98.458 98.395 98.403 98.488 98.491 98.453 98.441 98.387 98.398 98.52 99.125 100.669 99.52 98.697 98.38 98.059 97.4 96.92 96.304 95.95 95.909 95.183 95.012 94.884 94.901 94.475 93.981 93.649 93.638 93.568 93.645 93.576 93.424 92.969 92.84 92.791 92.691 92.605 92.394 92.53 92.509 92.432 92.508 92.366 92.972 98.992 93.669 92.192 92.234 97.009 101.355 93.685 93.23 92.231 -9999 -9999 -9999 -9999 91.406 91.311 91.197 92.524 92.209 91.002 91.376 90.847 90.971 91.16 90.967 92.577 99.057 105.709 106.161 107.147 107.39 106.109 102.986 102.213 96.879 90.403 89.304 89.488 89.513 90.201 95.237 92.172 -9999 -9999 -9999 -9999 -9999 -9999 91.043 91.785 91.836 92.492 92.24 89.505 88.557 88.174 88.427 89.369 88.985 88.731 88.364 87.864 88.161 88.526 88.577 88.513 87.98 87.735 87.927 87.717 88.754 92.762 92.653 89.24 88.547 88.398 88.966 90.123 89.47 86.362 85.874 85.797 86.582 88.543 89.046 89.34 86.839 85.998 85.735 85.703 85.622 85.619 85.674 86.077 86.509 85.509 89.029 91.629 89.697 85.427 85.382 85.302 85.269 85.799 85.032 85.074 85.169 85.179 85.112 85.139 85.162 85.967 86.869 84.869 84.844 84.897 85.122 85.402 85.742 86.659 92.079 92.447 93.527 93.987 93.952 92.449 85.327 85.312 85.297 85.309 85.319 85.349 85.432 85.507 85.817 85.402 85.442 85.522 85.599 86.697 92.082 93.877 94.752 94.277 92.934 91.437 85.672 85.652 85.714 85.817 85.749 85.737 85.777 85.764 85.749 85.809 85.897 85.419 85.347 85.384 85.377 85.314 85.371 85.314 85.634 86.446 87.606 85.929 85.941 85.931 86.114 85.821 92.189 93.041 92.339 92.634 90.981 88.871 85.949 86.181 86.276 86.256 86.254 86.309 86.319 86.279 86.231 86.226 86.114 86.189 86.226 86.336 86.354 86.351 86.339 86.309 86.301 86.281 87.439 86.051 85.349 85.184 85.171 85.041 84.871 84.599 84.359 84.126 83.851 83.529 83.131 82.481 81.914 81.541 81.194 81.001 80.931 80.869 80.826 80.794 80.736 80.394 80.321 79.839 79.426 79.079 78.594 78.209 77.649 77.279 76.904 76.541 76.186 75.949 75.821 75.756 75.639 75.549 75.461 75.396 75.371 75.381 75.439 75.514 75.574 75.679 75.654 75.466 75.021 74.449 73.691 73.186 72.849 72.396 71.779 71.086 70.426 70.249 70.276 70.834 73.696 70.101 69.741 70.464 70.139 69.746 69.704 69.489 69.346 69.189 71.454 69.291 68.796 69.526 69.226 69.114 70.026 69.754 68.484 68.439 68.299 68.226 68.141 69.286 70.444 70.136 68.736 70.814 68.739 68.449 68.651 69.161 69.919 70.251 69.849 67.844 68.806 68.789
97.029 97.024 96.87 96.853 96.749 96.702 96.746 96.804 96.812 96.777 96.846 96.815 96.871 96.951 96.882 96.796 96.706 96.652 96.761 96.854 96.795 96.798 96.786 96.768 96.883 96.924 96.832 96.812 96.785 96.982 96.846 96.678 96.821 96.84 96.899 96.881 96.883 97.102 97.539 98.585 98.782 98.859 99.105 99.627 100.549 101.325 102.533 102.159 99.338 99.041 99.191 99.222 99.28 99.151 99.055 98.882 99.156 100.583 103.267 103.512 103.056 102.505 101.338 99.669 98.934 98.823 98.737 98.863 98.765 98.468 98.319 98.355 98.399 98.584 98.659 98.676 98.748 98.658 98.517 98.458 98.481 98.762 98.745 98.752 98.586 98.438 98.177 97.35 96.712 96.234 96.374 96.351 95.783 94.836 94.635 94.231 93.738 93.587 93.435 93.35 93.431 93.373 93.147 92.95 92.792 92.581 92.819 93.782 93.242 92.463 92.548 92.455 92.399 92.325 92.356 92.706 92.754 91.894 91.985 93.597 94.19 92.288 91.902 91.726 -9999 -9999 -9999 -9999 90.989 91.262 91.371 92 91.745 91.105 90.781 90.676 90.642 90.601 90.581 91.25 94.254 101.561 106.167 107.379 106.823 106.119 103.597 99.559 92.419 89.874 90.032 89.722 89.396 90.848 93.851 93.229 -9999 -9999 -9999 -9999 -9999 -9999 -9999 91.843 92.506 91.471 89.612 89.408 89.135 88.405 88.414 88.879 88.837 87.828 88.201 89.017 89.594 89.358 88.508 88.282 88.079 87.76 87.583 87.1 87.517 90.376 89.591 88.439 89.658 89.629 87.559 90.02 90.765 89.387 86.693 86.264 87.185 88.578 89.187 89.198 87.223 86.618 85.737 85.652 85.705 85.671 85.687 85.697 88.979 91.707 92.279 92.719 91.682 87.944 85.274 85.257 85.207 85.659 84.929 84.987 86.969 85.292 85.127 87.237 85.062 85.169 86.179 84.779 84.732 84.897 84.809 84.874 84.977 86.949 91.824 92.749 93.689 93.809 92.714 91.597 85.762 85.334 85.324 85.552 85.254 85.259 85.674 87.612 85.349 85.299 85.359 85.367 85.429 85.907 91.879 93.214 94.544 94.482 93.157 91.804 85.732 85.737 85.819 87.114 85.604 85.609 85.627 85.632 85.667 85.644 87.184 85.329 85.222 85.262 85.264 85.204 85.231 85.204 85.214 94.129 98.181 87.384 85.861 85.859 85.869 85.799 87.574 92.859 91.879 93.016 91.291 88.711 85.944 86.071 86.939 86.216 86.581 86.174 86.186 86.081 86.086 86.076 86.066 86.381 88.124 86.121 86.331 86.319 86.294 86.276 86.271 86.259 86.391 86.586 85.056 84.924 84.884 84.799 88.009 84.506 84.144 83.896 83.351 82.911 82.506 81.741 81.359 81.094 80.979 80.944 80.869 80.826 80.834 80.504 80.129 79.676 79.351 79.196 78.864 78.321 77.794 77.659 77.066 76.786 76.449 76.141 75.894 75.766 75.654 75.539 75.446 75.429 75.354 75.279 75.249 75.261 75.321 75.424 75.504 75.544 75.311 74.869 74.324 73.714 73.339 73.049 72.641 72.024 71.134 70.591 70.326 70.336 71.909 70.281 69.759 69.519 69.459 69.924 70.674 70.884 69.581 69.536 69.264 69.161 69.014 69.469 68.711 69.036 68.741 68.939 71.179 72.509 72.891 69.444 68.249 68.239 68.226 68.181 68.101 69.414 71.001 70.544 68.009 67.931 67.829 67.761 69.106 68.346 67.674 67.796 68.129 68.731
96.986 96.98 96.959 96.961 96.829 96.686 96.738 96.749 96.789 96.818 96.835 96.812 96.85 96.895 96.853 96.804 96.73 96.683 96.789 96.882 96.846 96.836 96.874 96.862 96.919 96.899 96.806 96.76 96.79 96.821 96.846 96.827 96.778 96.875 96.923 96.919 97.048 97.48 98.362 98.686 98.828 99.151 99.554 100.035 101.33 100.184 101.094 103.582 101.804 100.127 99.53 99.365 99.293 99.207 99.142 98.979 98.964 98.881 100.777 103.809 103.963 103.693 102.379 99.024 98.763 98.778 98.737 98.82 98.574 98.322 98.238 98.385 98.577 98.73 98.751 98.747 98.763 98.774 98.742 98.467 98.467 98.634 98.78 98.67 98.708 98.616 98.425 97.817 97.116 96.314 96.135 96.341 96.082 94.921 94.429 94.002 93.711 93.568 93.44 93.324 93.194 93.119 92.929 92.633 92.531 92.511 93.783 94.844 95.062 95.958 93.63 92.382 92.355 92.479 92.389 92.185 92.191 92.054 91.898 91.806 91.823 91.759 91.495 91.546 91.527 91.352 91.25 91.146 91.089 -9999 -9999 -9999 -9999 90.706 90.669 90.564 90.485 90.425 90.43 90.68 91.649 97.485 104.062 105.644 105.429 105.305 100.784 95.389 90.993 90.452 90.67 89.749 89.643 90.795 93.756 96.231 97.52 -9999 -9999 -9999 -9999 -9999 91.406 91.406 91.905 92.772 90.318 90.396 90.222 90.857 88.783 88.536 89.083 88.532 89.152 89.991 90.107 89.062 88.232 88.13 87.748 87.297 87.484 87.233 86.924 86.905 87.199 88.544 90.757 92.509 89.886 88.406 90.017 90.736 87.585 87.377 88.176 88.42 88.202 90.007 87.155 85.883 85.753 85.785 85.647 85.609 85.522 90.722 92.352 92.987 93.522 93.332 92.567 92.522 86.082 86.649 86.237 85.139 84.827 84.872 84.862 86.809 85.427 85.647 84.869 85.134 84.679 84.689 84.577 84.689 84.837 85.142 86.357 89.964 92.227 92.714 93.834 93.612 92.459 89.689 85.242 85.157 85.749 86.667 85.574 86.954 86.469 85.599 85.602 85.587 85.762 86.344 85.674 85.967 91.657 92.987 94.302 94.687 93.339 91.992 86.704 85.669 85.489 85.492 85.504 85.564 85.599 85.564 85.559 85.672 85.682 85.714 85.114 85.149 85.137 85.119 85.064 85.139 87.209 92.591 94.236 87.224 85.771 85.801 85.779 85.781 85.754 92.486 92.946 93.099 91.536 85.944 85.946 85.986 86.076 86.014 85.979 85.936 85.939 85.896 85.906 85.954 86.009 86.074 86.306 85.844 86.316 86.304 86.411 86.249 85.621 85.704 85.309 86.499 84.719 84.619 84.574 84.506 84.526 84.301 83.906 83.564 82.784 82.321 81.866 81.266 81.111 81.011 80.964 80.886 80.991 80.659 80.321 79.889 79.396 78.851 78.301 78.024 79.324 77.224 77.021 76.826 76.714 76.526 76.321 75.906 75.746 75.644 75.441 75.326 75.201 75.181 75.239 75.174 75.069 75.121 75.204 75.499 75.319 75.236 74.714 74.074 73.646 73.409 73.124 72.834 72.216 71.321 70.791 70.496 70.746 70.356 70.471 70.119 69.579 69.544 69.501 69.901 70.389 71.766 69.571 70.201 69.251 69.171 69.016 68.921 68.841 68.696 68.546 68.469 71.979 72.379 69.564 71.296 68.899 69.381 68.239 68.204 68.129 68.091 69.809 68.074 68.334 67.946 68.106 67.771 67.789 69.874 69.491 68.096 72.174 67.576
96.871 96.921 97.123 97.149 96.97 96.876 96.709 96.773 96.801 96.743 96.837 96.862 96.855 96.856 96.88 96.891 96.865 96.852 96.882 96.903 96.851 96.876 96.981 96.999 96.906 96.851 96.861 96.867 96.711 96.767 96.911 96.87 96.838 96.922 96.957 96.892 97.193 98.293 98.777 98.78 99.131 99.634 99.832 100.317 99.923 99.323 99.251 100.761 102.664 103.669 99.906 99.537 99.354 99.248 99.17 99.037 98.896 98.844 99.361 102.983 103.879 103.856 103.383 100.165 98.817 98.662 98.515 98.575 98.396 98.319 98.421 98.59 98.734 98.879 98.807 98.73 98.813 98.838 98.82 98.642 98.701 98.794 98.729 98.645 98.717 98.684 98.522 98.263 97.691 97.092 96.496 96.214 95.987 94.893 94.238 93.777 93.609 93.517 93.365 93.314 93.166 93.001 92.541 92.21 92.28 92.15 93.837 95.492 96.845 97.709 95.308 92.515 92.494 92.484 92.434 92.29 92.174 92.018 91.966 91.828 91.698 91.594 91.592 91.583 91.41 91.304 91.308 91.132 91.28 -9999 -9999 -9999 -9999 -9999 90.552 90.479 90.477 90.338 90.26 90.204 90.144 92.566 99.283 103.262 103.003 100.71 95.152 91.03 90.588 90.909 91.138 90.364 91.125 94.488 96.862 98.701 99.088 -9999 97.096 95.976 94.668 92.396 91.149 90.846 90.913 90.888 90.862 90.93 91.42 90.447 88.668 88.142 88.74 89.799 89.755 89.779 89.317 88.131 87.891 87.635 87.04 87.004 87.14 87.368 87.005 86.817 87.12 88.151 93.134 91.949 90.447 87.997 87.69 88.558 87.172 87.402 88.2 88.066 87.621 89.417 86.916 85.976 85.809 85.621 85.642 87.078 85.454 86.982 91.967 93.067 94.284 93.822 92.792 91.404 87.292 85.132 84.999 85.044 84.767 84.712 84.739 84.684 84.634 84.587 84.579 84.589 84.609 84.539 84.534 84.607 84.677 84.822 86.427 86.904 91.682 92.849 93.214 93.327 92.297 88.407 85.174 84.814 84.892 84.867 84.887 85.964 89.304 88.042 85.769 85.789 85.974 85.149 85.192 85.357 90.644 92.727 94.092 94.879 93.557 92.642 92.092 85.624 85.414 85.419 85.434 85.467 85.477 85.474 85.497 87.424 85.662 85.497 84.992 85.017 85.034 85.002 84.919 85.009 84.991 86.694 89.539 86.284 85.699 85.706 85.734 85.779 85.784 91.869 91.699 92.394 92.254 86.674 85.941 89.001 94.371 86.064 85.864 85.834 86.071 86.047 85.991 86.691 86.154 85.737 85.987 86.573 85.516 85.57 85.318 85.134 85.051 84.839 84.799 86.144 84.489 84.371 84.284 84.186 84.171 83.939 83.581 83.091 82.291 81.741 81.409 81.076 80.994 80.946 80.876 80.809 80.436 80.064 79.641 79.171 78.556 77.839 76.571 76.854 76.826 76.761 76.589 76.699 76.624 76.364 75.949 75.704 75.586 75.346 75.174 74.966 74.801 74.874 74.909 74.966 74.881 74.956 75.051 75.261 75.064 74.624 73.999 73.701 73.479 73.169 72.866 72.391 71.529 70.931 70.674 70.481 70.524 70.154 70.074 70.431 70.154 69.576 69.741 69.766 69.879 70.036 69.581 69.336 69.189 69.206 69.039 68.894 69.146 68.834 68.651 68.476 70.316 72.044 73.641 79.674 75.264 73.964 68.279 68.216 68.131 68.106 68.629 68.081 68.934 68.021 67.961 67.961 67.776 67.701 67.786 67.756 68.021 69.299
96.942 97.022 97.114 97.73 97.179 97.254 96.797 96.746 96.762 96.8 96.891 96.727 96.806 96.888 96.873 96.843 96.764 96.873 96.882 96.913 96.85 96.831 97.032 97.008 96.892 96.855 96.883 96.929 96.756 96.809 96.874 96.897 96.898 96.945 96.933 97.329 97.841 98.413 98.696 98.882 99.366 100.565 100.175 99.558 99.306 99.079 98.968 99.015 100.234 102.183 101.75 100.747 99.598 99.401 99.331 99.167 98.939 98.819 98.6 101.063 103.884 103.851 103.818 102.782 99.587 99.001 98.465 98.364 98.48 98.395 98.619 98.722 98.834 98.889 98.886 98.787 98.812 98.769 98.767 98.85 98.991 98.839 98.78 98.651 98.692 98.835 98.565 98.478 97.889 97.335 97.094 96.252 95.813 95.471 94.148 93.596 93.544 93.452 93.376 93.283 93.117 92.952 92.539 92.129 92.136 92.516 94.24 97.019 97.908 97.944 96.966 93.391 92.379 92.437 92.536 92.36 92.18 92.129 92.057 91.939 91.723 91.737 91.739 91.651 91.423 91.249 91.196 91.096 91.558 95.311 100.455 102.89 -9999 -9999 90.475 90.403 90.358 90.28 90.195 90.175 90.136 90.498 94.262 97.556 97.601 93.906 91.15 90.466 90.447 94.885 91.148 90.475 91.499 96.782 97.262 98.954 98.806 98.342 97.105 96.504 96.147 92.025 90.221 90.457 90.897 91.443 91.559 91.012 89.71 88.751 88.627 89.276 90.268 90.683 89.261 88.93 88.607 87.784 87.315 87.113 87.078 86.923 86.851 87.119 87.616 86.693 86.742 88.117 90.616 90.592 88.976 87.295 86.758 87.445 87.879 87.925 87.952 88.055 87.922 87.369 85.871 85.484 85.396 85.404 85.37 85.567 85.317 85.682 91.395 92.631 93.827 94.327 93.254 92.632 90.644 85.287 84.972 84.834 84.767 84.639 84.582 84.597 84.562 84.534 84.509 84.517 84.447 84.457 84.854 84.827 84.684 84.659 84.737 87.647 91.709 91.902 92.047 92.204 92.117 87.872 86.434 84.677 84.709 84.737 84.752 84.772 85.327 85.919 85.119 85.024 85.014 85.082 85.119 85.339 89.747 92.549 93.859 94.964 93.797 92.999 92.502 85.489 86.014 85.522 85.387 85.249 85.232 85.207 85.209 85.182 85.127 85.044 84.909 84.889 84.919 84.904 84.799 84.904 84.846 86.031 87.144 85.729 85.611 85.641 85.656 85.859 85.746 85.784 85.791 92.016 92.729 86.306 87.064 89.864 93.229 86.589 85.996 85.685 85.797 85.77 86.221 86.329 85.834 85.757 85.647 86.613 85.338 85.262 85.184 85.08 84.901 84.728 84.586 85.239 84.276 84.086 83.969 83.829 83.726 83.481 83.196 82.544 81.706 81.334 81.164 80.984 80.929 80.791 80.561 80.259 79.831 79.376 78.821 78.241 76.709 78.794 80.899 76.561 76.546 76.539 76.534 76.549 76.429 76.044 75.619 75.511 75.301 75.086 74.894 74.681 74.556 75.901 74.636 74.689 74.721 74.959 74.839 74.751 74.491 73.999 73.731 73.506 73.241 72.934 72.459 71.704 71.044 70.799 71.284 71.164 70.241 70.114 69.946 71.919 70.034 70.076 70.109 69.899 70.044 69.689 69.506 69.306 69.271 69.259 69.046 68.954 68.861 68.819 68.661 69.274 69.271 68.656 79.634 79.784 80.574 79.871 72.466 68.261 68.494 70.134 68.271 69.136 68.079 68.036 67.951 67.999 67.956 67.884 67.766 67.774 67.724 67.839
96.95 97.031 96.961 96.915 97.245 97.685 96.96 96.738 96.775 96.864 96.76 96.756 96.899 96.875 96.885 96.894 96.817 96.842 96.818 96.954 96.962 96.983 96.956 96.944 96.889 96.884 96.877 96.746 96.798 96.94 96.857 96.75 96.743 96.829 97.164 98.039 98.643 98.742 98.812 99.075 100.363 100.368 99.588 99.048 98.913 98.78 98.925 98.991 98.908 99.617 102.211 103.954 100.536 99.953 99.487 99.29 99.105 98.841 98.717 99.841 103.403 103.661 103.084 100.419 99.682 99.012 98.451 98.22 98.362 98.464 98.76 98.798 98.836 98.878 98.894 98.884 98.88 98.859 98.843 98.971 99.029 98.871 98.637 98.555 98.521 98.631 98.605 98.58 98.568 97.819 97.352 96.565 95.667 94.705 94.114 93.836 93.532 93.408 93.271 93.176 93.022 92.756 92.407 92.055 91.848 92.382 94.183 95.382 96.532 97.639 97.724 94.755 92.426 92.605 92.355 92.265 92.275 92.165 92.046 91.984 92.014 91.823 91.852 91.618 91.431 91.227 91.131 91.158 92.6 98.718 102.775 103.731 103.556 -9999 91.678 90.362 90.348 90.237 90.167 90.071 90.135 90.206 91.135 92.039 92.237 91.518 90.672 91.558 90.287 90.393 89.954 89.425 89.732 93.326 93.823 94.501 96.464 98.757 98.474 96.924 95.165 91.028 89.697 90.119 91.087 91.409 90.572 88.925 88.947 88.995 90.349 91.124 91.913 89.936 88.748 88.192 88.083 87.268 87.204 87.115 87.051 86.884 87.281 87.728 86.629 86.37 86.314 86.339 87.209 87.491 87.51 86.563 86.362 87.32 87.904 88.041 87.466 88.14 90.102 88.007 86.104 85.37 85.294 85.289 85.266 85.266 85.292 85.443 89.329 92.068 93.357 94.409 93.632 92.467 90.442 85.222 85.302 84.782 84.734 84.684 84.632 85.509 85.329 84.342 84.297 84.307 84.394 85.949 84.467 84.437 84.359 85.559 84.932 84.579 85.839 88.817 88.959 89.892 90.792 84.862 85.697 84.712 84.599 84.639 84.614 84.647 84.724 86.162 86.342 85.017 84.944 85.014 85.077 85.042 88.709 92.337 93.719 94.792 92.477 90.042 85.624 85.117 85.092 85.089 85.089 85.099 85.089 85.099 85.119 85.094 85.019 84.957 84.832 84.784 84.807 84.779 84.699 84.776 84.754 84.774 88.789 88.124 85.696 87.364 85.641 86.424 86.701 86.484 87.074 91.514 92.941 89.179 85.814 86.884 85.874 85.731 85.598 85.533 85.487 85.433 85.391 85.358 85.495 85.617 85.746 86.049 85.351 85.023 85.235 84.925 84.695 84.552 84.335 84.406 83.989 83.721 83.584 83.521 83.411 83.154 82.721 81.849 81.304 81.149 80.979 80.746 80.606 80.311 79.989 79.544 79.049 78.474 77.531 76.549 80.444 81.931 82.689 77.236 76.514 76.474 76.426 76.376 76.149 75.624 77.434 77.726 74.914 74.766 74.626 74.464 74.414 74.404 74.466 74.496 74.511 74.586 74.584 74.396 74.069 73.784 73.529 73.316 72.971 72.531 71.929 71.274 70.901 70.681 70.556 70.294 70.309 70.026 69.889 71.206 69.974 69.934 69.961 70.074 70.121 70.094 69.344 69.379 69.726 69.319 69.144 69.051 68.919 68.809 68.691 68.564 68.484 74.496 79.664 80.281 80.426 78.774 75.049 68.414 68.389 69.439 68.749 69.341 68.049 68.061 67.996 67.971 67.931 67.921 67.786 67.789 67.689 67.744
96.865 96.895 96.879 96.854 97.009 97.815 97.316 97.047 96.848 96.716 96.823 96.87 96.846 96.809 97.043 96.927 96.842 96.84 96.818 96.922 96.925 96.876 96.845 96.776 96.769 96.824 96.852 96.868 96.743 96.846 96.853 96.753 96.872 97.42 98.409 98.582 98.833 98.757 98.811 99.231 100.431 99.792 98.829 98.796 98.763 98.801 98.871 98.971 98.934 98.941 100.609 103.567 103.523 101.555 100.075 99.282 99.17 99.031 98.902 99.171 100.368 100.849 99.918 98.823 98.71 98.412 98.308 98.227 98.535 98.713 98.796 98.855 98.99 98.91 98.928 98.809 98.912 98.937 98.943 98.999 98.899 98.809 98.413 98.414 98.404 98.571 98.718 98.754 98.655 98.335 97.802 97.235 96.077 95.532 94.622 94.022 93.623 93.528 93.306 93.171 92.991 92.627 92.303 92.107 91.889 92.092 92.455 92.552 94.445 95.916 97.282 97.302 95.558 94.999 93.48 92.315 92.248 92.146 92.106 92.004 92.033 91.982 91.771 91.72 92.05 91.575 91.185 91.162 93.884 100.264 103.672 104.01 103.647 103.434 -9999 92.026 90.274 90.195 90.152 90.127 90.072 89.989 90.066 91.025 91.577 92.685 91.903 91.451 89.792 89.808 89.744 89.544 89.071 89.752 90.015 90.124 93.058 98.996 98.893 -9999 -9999 90.881 89.435 89.535 89.936 90.711 88.685 88.425 88.753 89.368 91.476 91.963 91.225 89.326 88.542 87.99 87.539 87.391 87.264 87.291 87.671 87.775 87.236 86.712 86.418 86.368 86.156 86.232 86.665 87.696 88.777 87.268 87.831 88.825 88.327 87.036 86.769 87.865 87.626 86.691 85.502 85.319 85.253 85.242 85.232 85.36 85.301 85.691 86.844 91.35 92.119 93.697 92.788 92.767 91.802 85.944 84.767 84.699 84.649 84.624 85.382 84.637 84.717 84.289 84.287 84.282 84.447 84.344 84.574 84.282 84.244 84.279 84.697 84.162 84.542 84.504 84.504 84.492 84.482 84.922 84.454 84.439 84.462 84.477 84.492 84.584 84.647 85.072 84.997 85.822 84.949 84.939 84.997 84.964 85.347 86.099 85.422 85.199 85.099 85.017 84.994 85.067 85.914 86.367 84.997 84.984 85.009 85.062 85.014 85.042 85.059 85.144 84.789 84.639 84.689 84.654 84.591 84.659 84.666 84.651 88.444 87.509 85.804 86.379 86.041 85.849 86.501 86.324 86.071 89.814 93.034 90.904 85.851 86.216 85.981 85.431 85.367 85.31 85.249 85.2 85.843 86.316 85.172 85.649 86.184 85.912 85.611 84.852 85.026 84.782 84.476 84.34 84.042 83.855 83.903 83.414 83.246 83.211 83.046 82.746 82.069 81.289 81.154 81.149 80.444 80.254 80.046 79.654 79.221 78.619 78.061 76.989 79.639 81.644 82.394 83.056 82.646 81.866 76.519 76.496 76.534 76.266 75.781 75.216 76.884 79.359 79.239 74.504 74.321 74.289 74.241 74.256 74.304 74.301 74.396 74.916 74.471 74.076 73.796 73.566 73.341 73.024 72.409 71.951 71.501 71.181 71.131 70.434 70.394 70.269 70.174 69.939 69.831 69.829 69.831 71.666 70.389 70.284 70.216 69.756 69.409 69.404 70.154 69.821 69.279 69.144 71.219 71.524 69.359 68.706 68.686 77.039 79.234 78.166 79.324 75.424 68.416 68.489 68.381 68.999 69.314 70.696 69.261 68.081 68.051 68.101 68.149 68.109 68.021 67.756 68.536 67.809
96.846 96.814 96.687 96.764 96.892 97.002 97.788 97.313 97.119 96.817 96.768 96.91 96.92 96.969 96.962 96.801 96.813 96.835 96.843 96.854 96.835 96.787 96.874 96.78 96.633 96.768 96.814 96.767 96.808 96.904 96.844 96.924 97.805 98.29 98.664 98.752 98.864 98.735 98.814 98.886 99.072 99.138 98.817 98.808 98.779 98.944 98.986 99.012 98.867 98.895 99.295 100.032 102.856 104.571 100.938 99.39 99.329 99.341 99.064 98.856 98.817 99.395 99.162 98.611 98.534 98.509 98.387 98.593 98.812 98.729 98.678 98.903 98.971 98.842 98.878 98.926 98.894 98.949 98.886 98.915 98.749 98.483 98.504 98.516 98.547 98.658 98.753 98.859 98.636 98.501 98.256 97.628 96.831 96.313 95.232 94.491 94.12 93.525 93.376 93.211 92.846 92.512 92.234 92.044 91.954 91.93 92.566 93.141 94.741 94.257 96.878 97.881 97.576 97.463 95.359 92.917 92.348 92.318 92.013 91.95 92.088 92.02 91.718 93.549 96.365 93.028 91.275 91.121 93.583 100.989 102.52 102.575 104.174 104.654 103.285 -9999 90.616 90.204 90.22 90.037 89.884 89.938 89.997 92.026 95.099 97.403 93.36 90.107 89.687 89.692 89.732 89.7 89.453 89.148 89.094 89.136 89.987 92.889 95.586 97.032 96.405 -9999 89.576 88.958 88.698 88.396 88.409 88.35 88.4 88.588 90.588 91.277 89.979 88.869 88.058 87.63 87.53 87.464 87.52 88.051 88.192 87.447 86.868 86.617 86.49 86.245 86.047 86.443 89.447 88.198 91.565 89.583 88.781 92.522 90.791 87.68 86.953 87.668 86.948 85.259 85.248 85.294 85.218 85.216 85.201 85.559 85.793 85.447 86.396 90.286 92.035 92.445 91.871 91.341 88.276 84.777 84.707 84.597 84.577 84.684 85.209 84.369 84.204 84.207 85.074 84.147 84.099 84.074 84.652 84.287 84.222 85.699 86.772 86.819 84.079 84.337 84.477 84.482 85.087 86.707 84.457 84.327 84.307 84.332 84.342 84.512 84.529 84.779 87.347 87.307 84.914 84.919 84.899 84.867 84.787 84.764 84.792 84.802 84.817 85.697 87.434 85.477 84.874 84.854 84.887 85.019 84.877 85.307 84.927 85.022 85.042 85.069 85.069 84.557 84.594 84.562 84.524 84.514 84.561 84.536 85.681 86.631 85.259 84.804 84.736 86.226 86.076 85.911 92.399 92.889 93.119 91.801 85.701 86.069 85.692 85.396 85.337 85.258 85.162 85.234 85.559 85.396 85.085 85.757 87.739 92.17 85.346 84.589 84.589 84.481 84.16 84.267 83.99 83.803 84.186 83.113 82.936 82.869 82.611 82.069 81.291 80.981 80.969 80.444 79.751 79.481 79.289 78.846 78.209 77.531 76.529 78.684 82.099 82.849 82.891 82.201 81.386 79.909 76.501 76.459 76.329 76.126 75.579 74.809 74.911 74.479 75.631 74.309 74.141 74.154 74.131 74.119 74.126 74.214 74.976 75.079 74.049 73.819 73.586 73.316 72.929 72.366 71.911 71.576 71.309 71.086 71.031 71.001 70.389 70.196 70.021 69.771 69.754 69.769 69.771 70.121 70.659 70.141 70.134 69.471 69.414 69.416 69.404 69.309 69.304 69.171 71.216 73.224 72.399 68.841 68.711 68.681 73.649 78.624 78.341 74.541 68.486 68.429 68.391 68.361 68.341 68.314 68.344 68.336 68.496 68.099 68.069 68.029 67.999 67.901 67.781 70.144
96.926 96.825 96.713 96.771 96.922 96.898 96.936 97.827 97.615 96.981 96.83 96.872 96.911 96.938 96.851 96.89 96.972 96.896 96.801 96.802 96.848 96.796 96.846 96.855 96.853 96.894 96.953 96.856 96.955 96.881 96.856 97.818 97.682 98.526 98.715 98.872 98.941 98.753 98.823 98.807 98.866 98.938 98.92 98.901 98.884 98.88 98.918 98.867 98.936 98.965 98.947 99.065 100.9 104.748 101.66 100.213 99.338 99.27 99.071 98.922 98.9 98.877 98.766 98.632 98.596 98.616 98.689 98.747 98.728 98.705 98.754 98.824 98.911 98.895 98.898 98.912 98.913 98.963 98.893 98.708 98.566 98.504 98.483 98.57 98.571 98.663 98.702 98.77 98.646 98.567 98.332 98.248 97.874 96.757 96.222 95.126 94.593 93.891 93.425 93.216 92.822 92.689 92.488 92.17 92.054 92.042 -9999 92.822 92.474 92.655 94.915 97.379 96.619 95.779 95.228 93.908 92.28 92.236 92.183 92.055 92.178 92.059 91.991 94.257 97.44 94.924 91.351 91.07 92.105 94.842 100.785 99.323 104.909 105.146 104.75 -9999 -9999 90.208 90.336 90.073 89.816 89.927 89.965 92.872 97.239 100.621 96.798 91.868 90.294 89.537 89.651 89.738 89.621 89.331 89.062 88.689 88.449 89.241 92.707 97.39 99.065 95.124 -9999 88.612 88.448 88.486 88.368 88.197 89.071 90.011 90.316 90.418 89.318 88.233 87.655 87.557 87.477 87.711 87.643 88.115 87.443 87.029 86.807 86.654 86.413 86.271 86.153 87.948 90.447 96.575 98.458 92.011 90.367 94.358 90.515 88.113 87.643 87.788 86.987 85.676 85.316 85.277 85.484 85.207 85.244 85.232 85.131 85.049 86.051 87.809 91.012 90.837 89.629 86.454 84.9 84.741 84.607 84.837 84.719 84.474 85.369 84.217 84.182 84.122 84.357 84.054 84.034 84.059 84.207 86.459 90.739 90.872 90.644 90.377 84.234 84.014 84.092 84.904 86.709 86.659 86.092 84.182 84.207 84.202 84.199 84.207 84.309 84.587 86.172 86.582 84.847 84.557 84.599 84.617 84.657 89.489 90.907 91.062 91.247 91.432 90.964 85.149 84.684 84.739 84.752 84.762 84.974 84.894 84.902 84.929 84.972 85.024 85.219 84.449 84.467 84.439 84.424 84.331 84.474 84.404 86.089 85.156 84.674 84.681 84.584 85.601 85.526 85.469 92.099 92.469 92.404 92.596 85.651 85.534 85.552 85.357 85.273 85.156 85.08 85.015 85.137 85.084 84.974 85.007 84.857 86.033 85.338 84.389 84.279 84.3 84.597 84.354 84.035 83.7 83.668 82.791 82.654 82.309 81.831 81.209 80.786 80.729 80.616 79.754 79.041 78.756 78.419 77.844 76.514 76.514 76.541 79.426 83.354 82.466 81.909 80.964 76.689 76.459 76.421 76.399 76.284 76.019 75.429 77.479 74.451 74.239 74.176 74.151 74.171 74.169 74.069 74.014 74.034 74.799 76.161 74.069 73.791 73.561 73.259 72.744 72.176 71.826 71.516 71.469 72.059 72.796 70.716 72.774 70.404 70.054 69.846 69.786 69.729 69.754 69.749 70.291 70.284 69.874 69.526 69.464 69.429 69.489 69.464 69.346 69.339 69.301 69.186 72.744 70.216 68.921 68.824 68.766 68.744 70.271 69.969 70.759 68.596 68.529 68.484 68.476 68.419 68.359 69.429 68.351 68.291 68.241 68.189 68.159 68.089 67.996 67.891 69.606
96.968 96.811 96.875 96.878 96.93 96.882 96.935 97.04 97.529 97.663 97.018 96.912 96.841 96.881 96.888 96.825 96.923 96.882 96.78 96.826 96.802 96.809 96.846 96.946 96.803 96.828 96.829 96.729 96.91 97.136 97.243 98.068 98.375 98.832 98.773 99.199 99.011 98.978 98.904 98.86 98.871 98.901 98.927 98.858 98.851 98.923 98.87 98.941 98.843 98.985 98.939 98.837 99.286 100.785 103.765 101.247 100.053 99.277 98.989 98.771 98.802 98.703 98.496 98.464 98.572 98.695 98.816 98.749 98.81 98.795 98.844 98.885 98.978 99.043 98.89 98.934 98.903 98.847 98.81 98.584 98.508 98.493 98.505 98.536 98.477 98.582 98.64 98.612 98.662 98.589 98.496 98.428 98.318 97.72 96.982 96.485 95.207 94.543 93.974 93.342 93.151 93.101 92.737 92.474 92.402 92.284 92.189 92.326 92.809 93.803 96.368 94.535 94.598 95.271 95.254 94.228 92.448 92.213 92.183 92.133 92.091 92.054 91.876 92.118 93.281 92.269 91.243 90.94 90.944 95.892 103.968 105.7 105.42 106.027 103.554 97.349 92.869 90.203 90.097 89.969 89.803 89.854 89.924 90.691 95.576 100.308 96.205 95.775 90.91 90.066 89.745 89.71 89.567 89.58 89.362 88.783 88.541 89.393 91.779 97.022 100.04 97.435 94.363 89.788 88.77 88.39 88.299 88.313 90.28 91.033 89.926 88.687 88.196 87.948 87.801 87.588 87.403 88.012 87.691 87.308 87.081 87.002 86.771 86.565 86.473 86.284 86.18 87.891 94.572 97.321 95.764 94.126 87.865 88.543 86.866 88.48 90.321 88.553 87.322 86.409 85.634 85.622 85.412 85.126 85.062 84.98 84.91 84.782 84.235 85.261 88.208 89.277 88.935 87.016 84.824 84.725 86.197 86.912 85.164 84.954 85.229 84.374 84.149 84.139 83.984 83.939 83.922 83.959 90.239 91.209 90.682 92.007 91.672 90.989 87.862 83.974 84.429 86.229 86.369 86.577 84.154 84.039 84.054 84.062 84.039 84.039 84.067 84.404 86.487 86.584 86.057 84.537 84.582 84.409 84.497 90.092 91.797 92.282 92.469 92.354 91.432 90.292 84.707 84.649 84.677 84.699 84.734 84.777 84.797 84.877 85.957 85.202 85.599 84.379 84.339 84.329 84.299 84.234 84.356 84.306 84.836 85.399 84.801 84.624 84.651 84.686 85.319 86.201 91.734 92.819 92.466 92.061 86.261 85.45 85.449 85.363 85.304 85.153 85.153 85.11 84.961 84.995 84.67 84.582 85.092 85.103 86.086 84.202 84.072 84.063 84.425 84.083 83.794 83.543 83.28 82.42 82.032 81.546 81.026 80.619 80.521 80.444 80.214 79.169 78.404 78.054 76.989 76.556 76.511 76.986 84.574 85.444 84.126 82.894 76.984 76.509 76.461 76.414 76.349 76.256 76.161 75.929 75.404 74.819 74.401 74.276 74.154 74.114 74.071 74.391 74.251 73.911 73.959 75.931 74.834 73.696 73.369 73.079 72.539 71.984 71.634 71.449 71.294 71.291 74.784 74.189 72.031 72.211 70.396 72.791 69.804 69.784 69.696 69.754 69.791 70.641 69.659 69.636 69.599 69.549 69.479 69.456 69.544 69.551 69.456 69.474 69.389 69.344 70.769 69.089 68.954 68.929 68.899 68.859 68.946 71.614 68.754 68.636 68.534 68.511 68.541 68.479 69.301 70.459 68.391 68.364 68.306 68.271 68.196 68.091 68.039 68.584
96.899 96.909 96.926 96.855 96.858 96.88 96.858 96.888 97.008 97.388 97.684 97.591 96.873 96.835 96.859 96.85 96.842 96.911 96.844 96.667 96.772 96.872 96.968 96.931 96.84 96.882 96.813 96.793 97.306 98.335 98.678 98.681 98.817 98.884 99.548 100.401 100.037 99.534 98.995 98.862 98.931 98.85 98.948 98.88 98.912 98.887 98.89 98.972 98.904 98.928 98.903 98.966 98.869 99.62 101.348 102.19 103.59 101.822 98.926 98.67 98.655 98.782 98.776 98.56 98.633 98.762 98.85 98.874 98.879 98.818 98.881 98.876 98.976 98.974 98.887 98.887 98.829 98.68 98.516 98.401 98.436 98.459 98.508 98.382 98.454 98.465 98.428 98.505 98.61 98.623 98.572 98.546 98.499 98.485 97.914 97.632 97.567 95.752 94.79 93.761 93.298 93.162 93.048 92.875 92.61 92.305 92.283 92.061 92.063 93.617 94.795 94.136 94.043 94.63 94.852 93.687 92.191 92.22 92.184 92.123 92.085 92.046 91.998 91.879 91.75 91.427 91.286 91.103 91.462 92.598 102.439 99.19 101.208 103.046 99.044 94.652 91.662 90.598 -9999 89.931 89.95 89.926 89.922 90.057 92.025 94.398 91.739 93.057 91.768 90.338 89.649 89.589 89.516 89.576 89.411 89.565 89.797 90.138 90.646 93.488 96.658 97.195 96.741 93.71 89.727 88.274 88.21 88.459 90.411 89.882 88.823 88.455 87.879 87.862 87.821 87.573 87.576 87.568 87.312 87.197 87.094 86.873 86.72 86.591 86.44 86.239 86.323 87.439 89.054 93.176 91.668 88.137 86.747 86.391 86.754 89.998 96.87 91.612 90.115 87.929 87.002 85.851 85.065 84.964 84.913 84.829 84.836 84.846 84.737 84.726 85.916 87.583 86.015 85.042 84.744 84.871 90.25 90.849 90.432 89.322 88.642 86.709 85.832 84.159 83.917 83.792 84.614 87.714 90.404 92.057 91.817 92.112 92.562 91.597 90.557 84.592 84.187 86.087 86.264 85.462 84.307 83.949 84.114 84.774 87.324 84.359 84.082 84.302 86.344 86.464 85.749 84.329 84.214 84.139 84.369 88.404 91.634 92.837 93.569 92.687 92.279 91.147 84.649 84.899 86.124 85.034 84.562 84.634 84.964 84.682 85.254 85.409 84.904 84.272 85.207 84.224 84.209 84.124 84.224 84.196 84.294 84.976 84.821 84.601 84.704 84.639 85.331 85.299 92.579 92.991 91.441 85.61 85.379 85.607 85.742 86.007 85.437 84.776 84.74 84.533 84.534 84.324 84.281 84.59 85.426 84.784 85.75 84.052 83.886 84.051 84.065 83.488 83.484 82.888 82.781 82.052 81.44 80.877 80.509 80.336 80.249 80.044 79.731 78.676 77.791 76.591 76.586 76.561 76.539 81.886 83.891 85.159 84.894 83.634 80.061 77.464 76.481 76.384 76.296 76.196 76.066 75.894 75.441 75.006 74.516 74.251 74.139 74.084 74.079 74.149 73.816 73.831 74.801 74.144 73.334 72.921 72.589 72.096 71.744 71.426 71.311 71.194 71.009 71.381 74.024 72.121 70.649 71.754 81.836 80.856 69.821 69.804 69.694 69.714 69.836 69.874 71.326 69.651 69.624 69.604 69.514 69.659 69.674 69.639 69.649 69.601 69.571 69.771 72.284 69.784 69.169 69.101 69.044 69.066 68.939 71.634 69.149 68.741 68.694 68.649 68.644 68.584 68.694 71.559 68.514 68.484 68.421 68.391 68.306 68.206 68.226 71.011
