ncols 402
nrows 32
xllcorner    427012
yllcorner    438350
cellsize     2
NODATA_value -9999
-9999 -9999 -9999 -9999 -9999 -9999 -9999 -9999 -9999 -9999 -9999 -9999 -9999 -9999 -9999 -9999 -9999 -9999 -9999 -9999 -9999 -9999 -9999 -9999 -9999 -9999 -9999 -9999 -9999 -9999 -9999 -9999 -9999 -9999 -9999 -9999 -9999 -9999 -9999 -9999 -9999 -9999 -9999 -9999 -9999 -9999 -9999 -9999 -9999 -9999 -9999 -9999 -9999 -9999 -9999 -9999 -9999 -9999 -9999 -9999 -9999 -9999 -9999 -9999 -9999 -9999 -9999 -9999 -9999 -9999 -9999 -9999 -9999 -9999 -9999 -9999 -9999 -9999 -9999 -9999 -9999 -9999 -9999 -9999 -9999 -9999 -9999 -9999 -9999 -9999 -9999 -9999 -9999 -9999 -9999 -9999 -9999 -9999 -9999 -9999 -9999 -9999 -9999 -9999 -9999 -9999 -9999 -9999 -9999 -9999 -9999 -9999 -9999 -9999 -9999 -9999 -9999 -9999 -9999 -9999 -9999 -9999 -9999 -9999 -9999 -9999 -9999 -9999 -9999 -9999 -9999 -9999 -9999 -9999 -9999 -9999 -9999 -9999 -9999 -9999 -9999 -9999 -9999 -9999 112.615 112.742 112.852 112.955 113.09 113.217 113.337 113.41 113.44 113.45 113.477 113.575 113.567 113.542 113.5 113.482 113.47 113.445 113.437 113.42 113.407 113.372 113.335 113.272 113.22 113.167 113.155 113.167 113.202 113.242 113.272 113.3 113.262 113.202 113.137 113.075 113.035 113.2 112.412 112.322 112.27 112.177 112.43 114.19 113.775 113.887 113.73 115.172 117.235 118.022 118.105 117.797 116.092 116.777 118.427 118.712 118.062 118.145 115.917 115.122 115.28 116.327 124.457 121.595 127.11 129.455 119.582 124.097 133.017 132.77 126.095 115.842 116.012 119.247 126.885 121.727 127.52 132.67 124.412 117.717 116.55 116.502 118.08 116.507 120.965 117.68 121.477 123.53 121.357 124.062 121.545 119.452 119.467 120.202 121.997 119.177 117.01 117.807 116.775 116.672 116.74 116.702 116.667 116.642 117.77 119.037 116.477 119.187 121.705 119.642 116.425 116.23 116.14 116.127 116.307 116.232 116.18 118.582 117.327 116.407 116.387 117.257 118.885 116.705 116.745 119.46 116.652 116.672 116.642 116.617 117.39 124.155 125.62 125.615 124.35 123.102 116.77 118.412 119.287 116.625 116.757 116.832 117.55 116.977 118.8 117.075 119.502 117.85 117.782 117.852 117.819 117.799 117.749 118.192 119.444 117.869 117.854 117.914 118.054 118.112 118.147 118.167 118.239 118.094 118.307 118.264 118.274 118.524 117.867 117.892 117.884 118.067 119.807 121.407 118.749 118.387 118.909 117.459 116.367 114.607 111.994 111.242 111.337 126.287 124.779 116.744 110.887 117.277 127.384 117.459 116.782 111.422 118.632 125.757 121.457 123.297 111.552 122.944 123.119 110.824 111.629 111.727 111.374 111.389 111.534 111.097 111.894 114.829 117.984 114.784 114.254 112.427 111.057 110.984 114.329 117.824 112.427 108.989 108.387 109.799 108.489 108.759 108.124 107.244 106.839 108.579 108.182 108.602 111.429 105.149 103.019 102.957 102.897 102.784 102.239 101.449 100.689 100.844 99.094 97.962 97.464 100.614 99.514 101.942 94.624 93.979 97.969 96.554 98.102 96.887 93.009 90.397 90.332 93.072 91.424 92.192 91.729 91.024
-9999 -9999 -9999 -9999 -9999 -9999 -9999 -9999 -9999 -9999 -9999 -9999 -9999 -9999 -9999 -9999 -9999 -9999 -9999 -9999 -9999 -9999 -9999 -9999 -9999 -9999 -9999 -9999 -9999 -9999 -9999 -9999 -9999 -9999 -9999 -9999 -9999 -9999 -9999 -9999 -9999 -9999 -9999 -9999 -9999 -9999 -9999 -9999 -9999 -9999 -9999 -9999 -9999 -9999 -9999 -9999 -9999 -9999 -9999 -9999 -9999 -9999 -9999 -9999 -9999 -9999 -9999 -9999 -9999 -9999 -9999 -9999 -9999 -9999 -9999 -9999 -9999 -9999 -9999 -9999 -9999 -9999 -9999 -9999 -9999 -9999 -9999 -9999 -9999 -9999 -9999 -9999 -9999 -9999 -9999 -9999 -9999 -9999 -9999 -9999 -9999 -9999 -9999 -9999 -9999 -9999 -9999 -9999 -9999 -9999 -9999 -9999 -9999 -9999 -9999 -9999 -9999 -9999 -9999 -9999 -9999 -9999 -9999 -9999 -9999 -9999 -9999 -9999 -9999 -9999 -9999 -9999 -9999 -9999 -9999 -9999 -9999 -9999 -9999 -9999 -9999 -9999 -9999 112.695 112.827 112.942 113.05 113.187 113.325 113.435 113.55 113.642 113.692 113.695 113.797 113.787 113.74 113.715 113.672 113.657 113.642 113.635 113.617 113.61 113.58 113.55 113.485 113.417 113.375 113.342 113.337 113.355 113.392 113.435 113.437 113.42 113.367 113.31 113.24 113.237 113.405 112.675 112.512 112.467 112.392 112.357 114.32 113.972 113.927 113.977 114.117 114.017 115.087 114.292 117.395 118.255 117.815 116.425 117.832 123.755 123.237 116.3 115.557 115.287 125.2 117.995 118.975 118.217 119.027 120.727 119.65 126.095 125.227 129.115 118.012 116.097 116.372 125.222 131.675 130.697 123.117 120.54 116.592 116.595 116.542 119.902 124.402 118.517 121.002 123.875 121.747 122.96 125.027 124.79 121.252 119.32 119.095 118.675 122.41 122.935 120.987 116.837 116.797 116.772 116.787 116.762 116.735 117.537 121.99 121.13 120.142 116.917 117.83 116.41 116.302 116.31 116.26 116.167 116.177 116.197 118.875 119.637 116.452 116.462 116.982 116.707 116.757 116.787 117.297 117.375 118.665 116.64 116.637 116.622 116.602 118.25 125.677 124.4 123.117 116.662 116.565 116.597 116.632 116.71 116.785 116.875 116.642 116.492 117.755 118.547 117.845 117.805 117.812 117.832 117.844 117.799 117.739 117.749 118.064 120.202 117.919 117.949 117.997 118.092 118.159 118.197 118.172 118.189 118.237 118.244 118.662 119.664 117.954 117.929 117.932 118.537 120.882 123.164 121.909 119.644 121.722 118.394 115.492 115.342 112.814 111.739 111.347 128.182 121.132 111.229 111.719 112.972 124.902 123.919 119.924 111.257 111.862 118.429 127.164 117.909 110.697 109.984 110.424 110.917 114.287 116.574 111.114 111.247 111.704 111.984 111.797 112.927 114.079 114.997 114.312 113.177 111.744 110.809 114.254 120.037 121.594 115.114 109.009 109.539 109.764 108.657 107.679 107.674 107.294 110.479 108.192 112.372 114.452 112.197 103.162 103.047 102.977 102.954 102.839 102.934 103.382 101.007 100.032 99.039 97.877 99.699 103.417 102.809 97.152 95.704 97.342 96.117 97.559 97.157 94.829 90.867 92.039 91.297 91.132 89.099 93.649 89.457
-9999 -9999 -9999 -9999 -9999 -9999 -9999 -9999 -9999 -9999 -9999 -9999 -9999 -9999 -9999 -9999 -9999 -9999 -9999 -9999 -9999 -9999 -9999 -9999 -9999 -9999 -9999 -9999 -9999 -9999 -9999 -9999 -9999 -9999 -9999 -9999 -9999 -9999 -9999 -9999 -9999 -9999 -9999 -9999 -9999 -9999 -9999 -9999 -9999 -9999 -9999 -9999 -9999 -9999 -9999 -9999 -9999 -9999 -9999 -9999 -9999 -9999 -9999 -9999 -9999 -9999 -9999 -9999 -9999 -9999 -9999 -9999 -9999 -9999 -9999 -9999 -9999 -9999 -9999 -9999 -9999 -9999 -9999 -9999 -9999 -9999 -9999 -9999 -9999 -9999 -9999 -9999 -9999 -9999 -9999 -9999 -9999 -9999 -9999 -9999 -9999 -9999 -9999 -9999 -9999 -9999 -9999 -9999 -9999 -9999 -9999 -9999 -9999 -9999 -9999 -9999 -9999 -9999 -9999 -9999 -9999 -9999 -9999 -9999 -9999 -9999 -9999 -9999 -9999 -9999 -9999 -9999 -9999 -9999 -9999 -9999 -9999 -9999 -9999 -9999 -9999 -9999 112.797 112.917 113.03 113.16 113.29 113.427 113.54 113.677 113.777 113.84 113.88 113.955 113.987 113.96 113.942 113.867 113.865 113.825 113.817 113.802 113.795 113.78 113.74 113.687 113.635 113.567 113.522 113.51 113.515 113.55 113.602 113.637 113.602 113.555 113.492 113.425 113.41 113.392 112.997 112.725 112.662 112.605 112.497 113.257 114.207 114.24 114.16 114.175 114.262 114.302 114.6 114.83 114.805 115.002 117.107 116.592 119.29 118.587 120.972 120.617 117.845 117.052 118.615 123.985 116.57 116.9 117.24 117.777 118.25 120.655 117.455 117.03 116.197 118.71 123.402 132.977 133.075 127.987 132.81 130.66 116.637 116.612 116.72 120.332 123.237 121.535 120.817 120.087 120.26 116.687 116.645 116.675 117.582 119.28 117.29 119.515 121.875 122.817 123.597 116.875 116.932 116.81 116.81 116.857 117.162 124.462 123.5 122.455 121.11 116.642 116.48 116.417 116.437 116.45 116.482 116.4 116.23 116.642 118.412 116.5 116.5 116.887 116.74 116.77 116.772 116.805 116.8 116.782 116.73 119.2 116.902 116.66 116.64 116.602 117.175 123.172 117.83 116.587 116.59 116.65 116.702 116.77 116.827 116.902 116.935 117.34 118.862 117.722 117.742 117.757 117.795 117.797 117.814 117.782 117.767 118.034 118.289 118.364 119.207 117.969 118.284 118.742 118.142 118.152 118.137 118.189 118.229 118.224 118.197 118.147 118.007 117.962 117.959 117.949 118.929 120.822 120.784 118.302 119.624 121.847 116.507 126.649 119.492 112.037 114.714 117.327 126.109 114.034 111.227 110.794 117.017 125.277 113.537 112.227 122.309 111.859 115.839 111.582 116.272 110.272 110.159 112.402 111.869 111.604 111.027 111.724 111.682 111.972 112.004 112.962 115.197 115.267 114.372 113.609 112.532 111.482 114.717 119.737 120.044 113.884 111.074 109.374 113.442 112.902 108.794 109.037 108.572 107.427 111.054 114.689 110.857 108.094 104.037 103.209 103.079 103.022 103.009 103.234 103.782 101.647 100.907 100.567 99.089 97.912 102.044 97.337 95.439 95.969 94.662 96.924 98.354 95.014 91.562 90.867 90.579 89.649 89.122 91.144 91.514 93.967
-9999 -9999 -9999 -9999 -9999 -9999 -9999 -9999 -9999 -9999 -9999 -9999 -9999 -9999 -9999 -9999 -9999 -9999 -9999 -9999 -9999 -9999 -9999 -9999 -9999 -9999 -9999 -9999 -9999 -9999 -9999 -9999 -9999 -9999 -9999 -9999 -9999 -9999 -9999 -9999 -9999 -9999 -9999 -9999 -9999 -9999 -9999 -9999 -9999 -9999 -9999 -9999 -9999 -9999 -9999 -9999 -9999 -9999 -9999 -9999 -9999 -9999 -9999 -9999 -9999 -9999 -9999 -9999 -9999 -9999 -9999 -9999 -9999 -9999 -9999 -9999 -9999 -9999 -9999 -9999 -9999 -9999 -9999 -9999 -9999 -9999 -9999 -9999 -9999 -9999 -9999 -9999 -9999 -9999 -9999 -9999 -9999 -9999 -9999 -9999 -9999 -9999 -9999 -9999 -9999 -9999 -9999 -9999 -9999 -9999 -9999 -9999 -9999 -9999 -9999 -9999 -9999 -9999 -9999 -9999 -9999 -9999 -9999 -9999 -9999 -9999 -9999 -9999 -9999 -9999 -9999 -9999 -9999 -9999 -9999 -9999 -9999 -9999 -9999 -9999 112.775 112.875 113.012 113.147 113.27 113.397 113.547 113.672 113.8 113.902 113.99 114.067 114.132 114.185 114.132 114.135 114.092 114.092 114.05 114.012 113.982 113.96 113.95 113.925 113.895 113.837 113.775 113.72 113.685 113.685 113.692 113.745 113.782 113.807 113.767 113.697 113.63 113.58 113.56 113.575 112.99 112.87 112.825 112.722 112.937 114.905 114.362 114.252 114.33 114.45 114.515 114.877 117.777 114.97 115.312 116.657 115.975 118.732 115.607 115.472 117.215 119.64 119.205 117.905 116.595 117.962 116.625 117.357 118.76 116.262 121.68 131.665 127.09 124.707 128.18 133.242 129.757 133.127 133.345 131.537 133.72 134.697 118.757 116.622 116.875 121.172 120.872 125.292 117.997 116.642 116.61 116.607 116.625 116.647 116.675 117.142 120.847 121.722 122.907 125.427 125.662 124.865 117.617 117.032 116.912 116.862 121.86 126.13 124.67 123.575 122.625 115.88 116.537 116.502 116.42 116.38 116.39 116.475 116.48 119.342 116.502 116.525 116.895 116.765 116.81 116.83 116.8 116.815 116.81 116.782 116.76 116.752 118.98 117.01 116.645 116.62 116.602 116.625 117.367 116.59 116.65 116.7 116.757 116.82 116.867 116.885 117.39 120.095 117.79 117.717 117.73 117.755 117.762 117.77 117.764 117.742 117.729 117.872 118.332 117.747 117.762 119.632 120.052 119.794 119.207 118.112 118.114 118.159 118.149 118.169 118.137 118.092 118.024 117.992 117.994 117.987 117.952 119.107 118.209 118.249 118.259 119.317 122.147 126.742 123.362 126.884 126.629 111.189 111.237 110.779 110.927 110.709 110.617 120.384 110.844 111.777 111.047 114.439 111.094 111.494 111.659 111.452 110.052 110.592 111.357 111.432 111.002 111.239 111.592 111.657 111.567 113.042 114.489 115.472 114.502 113.907 112.919 112.177 111.802 116.794 116.917 114.157 110.519 112.572 113.329 115.194 111.232 111.049 108.707 110.187 115.644 112.737 107.272 105.762 106.747 105.117 103.227 103.124 103.084 102.977 102.834 102.437 101.727 101.349 100.239 98.452 97.572 96.837 96.052 95.262 97.747 101.177 101.157 97.224 93.959 91.249 91.469 94.732 93.254 94.137 89.739 90.697
-9999 -9999 -9999 -9999 -9999 -9999 -9999 -9999 -9999 -9999 -9999 -9999 -9999 -9999 -9999 -9999 -9999 -9999 -9999 -9999 -9999 -9999 -9999 -9999 -9999 -9999 -9999 -9999 -9999 -9999 -9999 -9999 -9999 -9999 -9999 -9999 -9999 -9999 -9999 -9999 -9999 -9999 -9999 -9999 -9999 -9999 -9999 -9999 -9999 -9999 -9999 -9999 -9999 -9999 -9999 -9999 -9999 -9999 -9999 -9999 -9999 -9999 -9999 -9999 -9999 -9999 -9999 -9999 -9999 -9999 -9999 -9999 -9999 -9999 -9999 -9999 -9999 -9999 -9999 -9999 -9999 -9999 -9999 -9999 -9999 -9999 -9999 -9999 -9999 -9999 -9999 -9999 -9999 -9999 -9999 -9999 -9999 -9999 -9999 -9999 -9999 -9999 -9999 -9999 -9999 -9999 -9999 -9999 -9999 -9999 -9999 -9999 -9999 -9999 -9999 -9999 -9999 -9999 -9999 -9999 -9999 -9999 -9999 -9999 -9999 -9999 -9999 -9999 -9999 -9999 -9999 -9999 -9999 -9999 -9999 -9999 -9999 -9999 -9999 112.83 112.967 113.105 113.252 113.382 113.52 113.675 113.827 113.96 114.067 114.16 114.232 114.295 114.38 114.355 114.322 114.25 114.26 114.242 114.245 114.22 114.192 114.15 114.11 114.072 114.07 114.005 113.917 113.882 113.87 113.867 113.895 113.925 113.967 113.947 113.9 113.81 113.782 113.745 113.83 113.25 113.06 113.027 112.945 112.89 114.54 114.855 114.767 114.745 114.947 114.647 114.867 115.24 115.26 116.972 119.985 120.945 121.725 117.03 115.487 116.05 117.735 119.045 118.875 117.77 116.192 116.39 124.887 117.402 127.425 126.32 128.08 125.95 126.85 129.307 129.92 130.537 128.525 133.647 125.582 123.345 132.73 120.917 116.655 116.642 116.767 116.665 116.675 118.257 116.995 116.612 116.657 116.665 116.635 116.655 117.007 119.36 117.625 122.515 124.822 126.792 126.485 125.835 125.182 122.157 123.392 124.357 125.635 127.36 127.21 124.892 124.387 123.875 116.792 116.757 116.86 119.887 116.487 116.425 117.405 116.65 116.535 116.555 116.792 116.875 117.41 117.082 116.947 116.937 116.86 116.982 116.737 116.752 116.737 118.475 117.115 116.665 116.61 116.615 116.607 116.65 116.7 116.745 116.797 116.912 116.87 117.345 119.542 120.082 118.625 117.767 117.787 117.762 117.747 117.752 117.737 117.732 117.722 117.967 117.872 117.682 117.667 117.717 118.982 120.684 120.219 119.647 118.082 118.084 118.102 118.089 118.067 118.007 117.969 118.034 118.024 117.994 117.987 117.957 118.204 118.152 118.212 118.239 118.602 124.989 118.699 128.164 116.209 111.734 116.889 122.054 111.284 110.772 110.937 111.364 111.609 111.532 111.344 111.719 111.942 111.324 112.324 111.469 110.417 111.167 111.232 111.937 112.044 111.104 111.257 111.872 112.044 112.779 115.329 115.597 114.829 114.147 115.434 112.704 120.019 121.882 118.494 119.247 118.767 116.019 116.287 115.029 113.422 109.502 108.499 107.934 111.362 108.097 106.842 106.717 108.679 104.284 103.532 103.227 103.157 103.144 103.144 102.772 102.237 102.029 101.167 99.237 97.952 97.397 97.949 97.304 98.794 94.749 98.879 96.089 92.632 91.644 92.194 92.314 89.362 90.144 88.207 87.877
-9999 -9999 -9999 -9999 -9999 -9999 -9999 -9999 -9999 -9999 -9999 -9999 -9999 -9999 -9999 -9999 -9999 -9999 -9999 -9999 -9999 -9999 -9999 -9999 -9999 -9999 -9999 -9999 -9999 -9999 -9999 -9999 -9999 -9999 -9999 -9999 -9999 -9999 -9999 -9999 -9999 -9999 -9999 -9999 -9999 -9999 -9999 -9999 -9999 -9999 -9999 -9999 -9999 -9999 -9999 -9999 -9999 -9999 -9999 -9999 -9999 -9999 -9999 -9999 -9999 -9999 -9999 -9999 -9999 -9999 -9999 -9999 -9999 -9999 -9999 -9999 -9999 -9999 -9999 -9999 -9999 -9999 -9999 -9999 -9999 -9999 -9999 -9999 -9999 -9999 -9999 -9999 -9999 -9999 -9999 -9999 -9999 -9999 -9999 -9999 -9999 -9999 -9999 -9999 -9999 -9999 -9999 -9999 -9999 -9999 -9999 -9999 -9999 -9999 -9999 -9999 -9999 -9999 -9999 -9999 -9999 -9999 -9999 -9999 -9999 -9999 -9999 -9999 -9999 -9999 -9999 -9999 -9999 -9999 -9999 -9999 -9999 112.805 112.905 113.037 113.162 113.325 113.485 113.66 113.82 113.975 114.097 114.225 114.325 114.412 114.46 114.58 114.555 114.517 114.465 114.457 114.447 114.427 114.4 114.39 114.362 114.332 114.295 114.227 114.212 114.155 114.085 114.05 114.05 114.067 114.08 114.11 114.127 114.08 114 113.912 113.892 113.877 113.77 113.282 113.232 113.162 113.052 113.275 118.142 117.362 115.1 115.08 115.185 115.517 115.255 116.082 115.435 115.88 118.772 118.962 119.532 120.252 117.435 120.155 121.617 118.887 117.137 117.367 116.562 118.155 122.065 118.195 126.06 127.832 123.167 116.455 117.73 129.795 127.322 127.672 129.105 122.215 119.002 116.722 116.89 116.757 116.67 116.66 116.672 116.652 116.652 116.715 116.88 117.37 116.895 116.762 116.72 116.752 117.285 119.292 119.375 117.577 127.142 127.992 127.352 126.7 126.025 125.355 123.427 123.45 124.327 125.29 127.252 127.487 124.887 124.3 123.272 120.4 120.682 120.685 120.027 116.542 116.48 116.507 116.535 117.025 116.92 117.092 116.772 116.76 116.837 116.967 117.017 116.84 120.175 122.817 116.74 116.727 119.045 117.055 116.665 116.657 116.667 116.69 116.732 116.78 116.885 117.792 117.942 118.635 119.862 122.375 120.902 122.012 123.05 117.745 117.867 117.74 117.797 118.362 117.712 118.094 118.577 117.652 117.664 117.689 117.699 118.534 120.797 120.259 119.904 118.124 118.032 117.999 117.917 117.934 117.987 118.002 118.049 117.997 117.994 117.974 117.974 118.157 118.179 118.169 118.284 122.767 130.289 128.799 111.797 111.139 111.779 113.444 111.009 111.514 111.977 112.122 112.569 113.439 113.177 112.647 112.357 112.244 114.577 111.214 110.857 110.174 111.292 111.977 112.649 111.419 111.459 111.442 112.652 113.292 116.429 115.889 115.662 116.537 115.467 115.287 119.022 122.104 118.802 118.689 119.739 121.332 117.547 114.667 111.937 110.027 109.237 109.742 108.499 108.237 107.739 108.389 109.299 111.112 109.602 103.909 103.207 103.149 103.119 103.009 102.992 102.417 101.702 100.162 103.417 105.147 105.194 107.319 103.587 103.184 106.064 103.419 101.384 95.747 91.317 90.397 89.659 91.604 89.522 88.817
-9999 -9999 -9999 -9999 -9999 -9999 -9999 -9999 -9999 -9999 -9999 -9999 -9999 -9999 -9999 -9999 -9999 -9999 -9999 -9999 -9999 -9999 -9999 -9999 -9999 -9999 -9999 -9999 -9999 -9999 -9999 -9999 -9999 -9999 -9999 -9999 -9999 -9999 -9999 -9999 -9999 -9999 -9999 -9999 -9999 -9999 -9999 -9999 -9999 -9999 -9999 -9999 -9999 -9999 -9999 -9999 -9999 -9999 -9999 -9999 -9999 -9999 -9999 -9999 -9999 -9999 -9999 -9999 -9999 -9999 -9999 -9999 -9999 -9999 -9999 -9999 -9999 -9999 -9999 -9999 -9999 -9999 -9999 -9999 -9999 -9999 -9999 -9999 -9999 -9999 -9999 -9999 -9999 -9999 -9999 -9999 -9999 -9999 -9999 -9999 -9999 -9999 -9999 -9999 -9999 -9999 -9999 -9999 -9999 -9999 -9999 -9999 -9999 -9999 -9999 -9999 -9999 -9999 -9999 -9999 -9999 -9999 -9999 -9999 -9999 -9999 -9999 -9999 -9999 -9999 -9999 -9999 -9999 -9999 -9999 -9999 112.808 112.957 113.115 113.257 113.417 113.595 113.747 113.93 114.115 114.272 114.385 114.49 114.59 114.647 114.775 114.76 114.742 114.667 114.665 114.642 114.625 114.625 114.587 114.545 114.507 114.482 114.46 114.4 114.34 114.302 114.22 114.215 114.227 114.25 114.27 114.285 114.267 114.2 114.105 114.055 114.015 114.312 113.565 113.425 113.385 113.3 113.302 115.245 114.85 117.177 115.14 115.225 115.247 115.757 115.912 115.487 115.557 115.447 116.015 117.517 127.885 127.665 122.907 119.427 116.892 117.427 116.537 116.18 116.407 116.41 120.735 120.897 119.955 120.037 116.952 117.162 116.597 129.907 129.832 124.702 120.322 116.86 118.237 120.007 117.535 116.74 116.707 116.667 116.71 116.857 116.797 116.755 116.857 116.92 116.95 116.832 116.855 116.83 116.825 119.09 119.64 119.222 129.19 128.855 128.237 127.547 127.522 126.177 125.5 124.085 123.72 124.232 125.04 126.347 127.385 125.512 124.187 121.39 120.005 120.495 120.82 120.172 116.825 116.51 116.532 116.54 116.575 116.6 116.627 116.677 118.18 117.51 117.377 120.975 124.902 124.117 121.877 116.742 116.74 118.582 116.682 116.695 116.705 116.72 116.742 116.78 118.197 123.982 119.98 117.825 120.765 122.52 122.36 122.487 123.187 123.485 123.537 123.562 123.622 123.637 122.839 118.169 119.342 117.677 117.699 117.692 117.689 117.707 118.832 120.907 120.362 118.212 117.752 117.839 117.807 117.932 117.987 118.019 118.019 118.012 118.022 117.994 117.967 118.037 118.117 118.142 119.897 119.927 128.797 115.639 112.149 111.512 111.202 111.314 111.529 111.477 112.874 114.424 114.179 114.814 114.479 114.399 112.809 112.814 113.434 113.782 110.754 110.749 111.114 111.847 111.602 111.539 111.724 111.904 112.204 113.164 116.194 115.737 116.012 116.182 116.477 116.097 118.447 116.302 113.172 114.822 115.752 116.884 118.012 113.679 112.832 111.064 111.134 110.789 109.434 109.864 108.154 108.089 107.014 112.887 111.219 105.324 103.477 103.197 103.127 103.072 103.282 102.912 102.042 102.412 105.399 107.594 108.399 102.827 101.572 101.674 105.499 103.309 103.382 98.554 91.659 90.932 89.837 90.167 92.199 90.944
-9999 -9999 -9999 -9999 -9999 -9999 -9999 -9999 -9999 -9999 -9999 -9999 -9999 -9999 -9999 -9999 -9999 -9999 -9999 -9999 -9999 -9999 -9999 -9999 -9999 -9999 -9999 -9999 -9999 -9999 -9999 -9999 -9999 -9999 -9999 -9999 -9999 -9999 -9999 -9999 -9999 -9999 -9999 -9999 -9999 -9999 -9999 -9999 -9999 -9999 -9999 -9999 -9999 -9999 -9999 -9999 -9999 -9999 -9999 -9999 -9999 -9999 -9999 -9999 -9999 -9999 -9999 -9999 -9999 -9999 -9999 -9999 -9999 -9999 -9999 -9999 -9999 -9999 -9999 -9999 -9999 -9999 -9999 -9999 -9999 -9999 -9999 -9999 -9999 -9999 -9999 -9999 -9999 -9999 -9999 -9999 -9999 -9999 -9999 -9999 -9999 -9999 -9999 -9999 -9999 -9999 -9999 -9999 -9999 -9999 -9999 -9999 -9999 -9999 -9999 -9999 -9999 -9999 -9999 -9999 -9999 -9999 -9999 -9999 -9999 -9999 -9999 -9999 -9999 -9999 -9999 -9999 -9999 -9999 -9999 112.822 113 113.155 113.327 113.507 113.7 113.855 114.035 114.22 114.397 114.54 114.675 114.797 114.842 114.992 114.97 114.947 114.892 114.86 114.862 114.825 114.807 114.795 114.737 114.707 114.675 114.617 114.567 114.512 114.48 114.437 114.41 114.412 114.42 114.44 114.45 114.442 114.397 114.312 114.23 114.165 114.232 113.812 113.615 113.587 113.517 113.422 114.225 114.722 114.77 114.952 115.24 116.047 115.402 115.37 115.495 115.647 115.615 115.585 115.99 119.395 122.132 123.135 123.012 121.132 116.745 122.047 117.265 119.005 120.565 121.225 116.562 118.835 120.675 117.225 116.822 116.515 121.427 117.695 125.567 125.592 116.89 116.827 120.515 120.01 117.76 116.752 116.772 116.75 116.8 119.6 118.925 117.97 116.955 116.995 117.015 116.96 116.962 116.887 116.87 116.835 117.572 123.127 126.085 127.852 128.955 128.372 127.692 127.022 126.312 125.694 128.242 125.137 124.257 124.614 125.822 127.419 125.909 124.039 116.627 118.257 120.372 120.882 119.717 116.509 116.544 116.562 116.579 116.604 116.622 116.849 116.702 119.177 123.789 124.059 124.252 125.059 124.159 123.089 116.759 116.769 118.674 116.947 116.734 116.727 116.749 116.754 117.692 117.769 117.529 119.067 119.684 121.582 122.427 120.814 120.387 124.549 124.609 124.647 124.677 124.687 124.692 119.134 117.867 117.659 117.709 117.694 117.684 117.694 117.684 117.829 120.962 117.394 118.084 117.889 117.842 117.974 118.684 118.024 118.069 118.057 118.049 117.989 117.982 117.952 120.584 120.142 120.019 118.324 118.119 113.057 117.244 123.292 111.459 111.837 111.682 112.952 113.859 115.057 115.914 115.794 115.397 114.507 113.597 112.782 113.519 112.459 110.979 110.882 111.507 111.314 111.362 112.082 111.967 112.174 112.774 113.859 114.612 115.734 115.684 116.267 116.357 116.979 116.747 114.977 113.722 113.432 115.954 115.989 113.099 112.317 111.199 112.054 111.309 112.154 112.589 111.977 112.637 109.959 108.749 112.197 109.739 105.554 104.332 103.382 103.159 103.074 103.077 103.517 102.849 102.974 105.319 102.997 101.407 98.054 98.777 101.267 99.582 98.899 100.824 99.162 91.787 91.279 90.259 89.459 92.117 88.297
-9999 -9999 -9999 -9999 -9999 -9999 -9999 -9999 -9999 -9999 -9999 -9999 -9999 -9999 -9999 -9999 -9999 -9999 -9999 -9999 -9999 -9999 -9999 -9999 -9999 -9999 -9999 -9999 -9999 -9999 -9999 -9999 -9999 -9999 -9999 -9999 -9999 -9999 -9999 -9999 -9999 -9999 -9999 -9999 -9999 -9999 -9999 -9999 -9999 -9999 -9999 -9999 -9999 -9999 -9999 -9999 -9999 -9999 -9999 -9999 -9999 -9999 -9999 -9999 -9999 -9999 -9999 -9999 -9999 -9999 -9999 -9999 -9999 -9999 -9999 -9999 -9999 -9999 -9999 -9999 -9999 -9999 -9999 -9999 -9999 -9999 -9999 -9999 -9999 -9999 -9999 -9999 -9999 -9999 -9999 -9999 -9999 -9999 -9999 -9999 -9999 -9999 -9999 -9999 -9999 -9999 -9999 -9999 -9999 -9999 -9999 -9999 -9999 -9999 -9999 -9999 -9999 -9999 -9999 -9999 -9999 -9999 -9999 -9999 -9999 -9999 -9999 -9999 -9999 -9999 -9999 -9999 -9999 -9999 112.83 113.035 113.227 113.38 113.54 113.74 113.95 114.137 114.317 114.527 114.685 114.837 114.935 115.027 115.187 115.197 115.162 115.097 115.065 115.052 115.04 115.02 114.99 114.96 114.922 114.855 114.797 114.762 114.712 114.66 114.615 114.592 114.592 114.615 114.615 114.622 114.605 114.572 114.51 114.417 114.377 114.34 114.425 113.837 113.767 113.732 113.627 113.715 115.697 115.007 114.977 115.122 115.37 115.467 115.83 115.517 118.747 115.742 115.777 115.617 115.682 119.287 119.175 120.207 122.387 118.38 117.75 123.692 120.08 117.445 120.472 122.14 116.702 116.525 117.995 117.917 116.595 116.66 116.725 116.732 116.852 131.33 127 125.28 122.435 130.082 116.98 116.882 116.882 116.902 116.932 120.177 118.502 116.997 116.98 116.98 116.99 117 117.007 116.97 116.895 116.87 118.865 116.967 120.81 127.545 127.452 130.392 128.515 127.83 127.187 126.739 128.782 127.057 125.902 124.674 123.467 125.379 127.187 122.137 116.512 116.519 117.359 120.214 116.589 116.529 116.559 116.574 116.579 116.604 116.639 116.659 116.692 121.634 124.292 124.907 125.464 124.664 123.757 116.929 116.777 116.777 116.769 117.449 117.269 116.752 116.797 116.727 117.819 117.849 120.767 120.257 122.367 120.657 119.072 117.699 118.427 124.074 124.044 123.977 123.947 123.907 123.082 119.192 117.687 117.749 117.677 117.659 117.779 117.674 117.697 117.674 120.327 120.072 117.329 117.822 117.987 118.014 118.052 118.072 118.112 118.102 118.044 118.039 117.982 117.962 117.927 118.224 119.157 118.219 118.014 114.344 113.189 112.377 112.102 112.367 112.649 112.977 114.707 116.492 117.324 116.889 116.214 114.709 113.079 112.024 111.629 110.622 110.719 110.457 110.774 111.432 111.574 112.722 112.052 112.117 112.642 114.559 115.452 116.044 115.817 116.174 116.304 116.192 115.254 115.657 115.119 114.442 116.592 116.652 115.509 113.224 112.752 111.214 111.934 111.782 114.094 117.702 115.967 115.252 111.324 112.409 113.269 111.537 108.389 106.059 103.302 103.082 102.997 103.107 102.877 102.434 101.649 100.127 99.387 97.747 99.854 104.169 102.839 103.897 102.949 100.277 92.289 91.542 93.024 93.449 89.439 89.504
-9999 -9999 -9999 -9999 -9999 -9999 -9999 -9999 -9999 -9999 -9999 -9999 -9999 -9999 -9999 -9999 -9999 -9999 -9999 -9999 -9999 -9999 -9999 -9999 -9999 -9999 -9999 -9999 -9999 -9999 -9999 -9999 -9999 -9999 -9999 -9999 -9999 -9999 -9999 -9999 -9999 -9999 -9999 -9999 -9999 -9999 -9999 -9999 -9999 -9999 -9999 -9999 -9999 -9999 -9999 -9999 -9999 -9999 -9999 -9999 -9999 -9999 -9999 -9999 -9999 -9999 -9999 -9999 -9999 -9999 -9999 -9999 -9999 -9999 -9999 -9999 -9999 -9999 -9999 -9999 -9999 -9999 -9999 -9999 -9999 -9999 -9999 -9999 -9999 -9999 -9999 -9999 -9999 -9999 -9999 -9999 -9999 -9999 -9999 -9999 -9999 -9999 -9999 -9999 -9999 -9999 -9999 -9999 -9999 -9999 -9999 -9999 -9999 -9999 -9999 -9999 -9999 -9999 -9999 -9999 -9999 -9999 -9999 -9999 -9999 -9999 -9999 -9999 -9999 -9999 -9999 -9999 112.655 112.787 113.025 113.255 113.4 113.6 113.805 114.017 114.235 114.407 114.61 114.77 114.945 115.097 115.202 115.345 115.377 115.347 115.327 115.27 115.25 115.225 115.21 115.177 115.152 115.13 115.065 115.017 114.945 114.91 114.867 114.825 114.805 114.777 114.777 114.765 114.78 114.78 114.76 114.695 114.617 114.555 114.502 114.742 114.1 113.957 113.925 113.847 113.83 116.257 114.94 115.077 115.182 115.335 115.465 115.547 115.667 115.707 115.882 115.83 115.82 115.652 118.055 117.075 116.287 121.202 120.505 121.322 121.322 119.79 119.29 117.14 116.687 118.062 120.867 116.677 116.64 116.55 116.642 121.077 117.942 122.345 122.94 130.09 134.152 131.135 118.92 118.09 116.965 116.972 116.975 116.977 116.99 116.997 117.002 117.015 117.015 116.982 116.962 116.967 116.982 117.007 116.985 116.942 116.925 116.887 117.765 119.79 125.455 127.032 128.645 128.652 128.014 128.642 127.382 125.019 117.194 116.889 116.882 123.194 119.847 116.527 116.497 117.122 117.427 116.594 116.522 116.557 117.414 116.662 116.609 116.622 116.649 116.662 117.889 124.732 123.732 125.364 124.002 123.734 121.572 116.814 116.757 116.779 116.747 116.717 117.899 116.812 116.759 117.089 118.987 117.602 122.322 122.354 121.567 118.659 117.704 117.717 117.692 120.104 119.677 119.924 120.347 118.119 118.782 119.939 117.664 119.969 120.074 119.037 117.679 117.704 117.684 117.669 117.652 117.689 120.462 118.032 118.082 118.034 118.089 118.134 118.174 118.144 118.129 118.087 117.997 117.959 117.934 120.567 119.489 118.054 124.752 125.334 113.937 113.587 113.287 114.429 113.982 113.797 116.517 116.639 117.727 117.697 116.862 115.807 113.622 111.702 111.314 113.514 110.764 111.382 111.989 112.437 111.697 111.717 111.707 112.589 113.997 115.257 116.142 116.127 116.022 115.949 116.887 116.494 116.349 116.227 115.682 114.587 114.559 116.194 114.374 113.904 113.059 112.147 114.337 119.762 116.717 116.392 116.152 117.692 114.672 114.262 113.377 112.097 113.004 105.534 103.649 103.139 102.957 102.932 102.869 102.622 102.219 100.877 99.289 98.017 97.152 99.192 100.237 102.857 104.304 101.127 92.952 91.644 90.754 89.827 89.002 90.304
-9999 -9999 -9999 -9999 -9999 -9999 -9999 -9999 -9999 -9999 -9999 -9999 -9999 -9999 -9999 -9999 -9999 -9999 -9999 -9999 -9999 -9999 -9999 -9999 -9999 -9999 -9999 -9999 -9999 -9999 -9999 -9999 -9999 -9999 -9999 -9999 -9999 -9999 -9999 -9999 -9999 -9999 -9999 -9999 -9999 -9999 -9999 -9999 -9999 -9999 -9999 -9999 -9999 -9999 -9999 -9999 -9999 -9999 -9999 -9999 -9999 -9999 -9999 -9999 -9999 -9999 -9999 -9999 -9999 -9999 -9999 -9999 -9999 -9999 -9999 -9999 -9999 -9999 -9999 -9999 -9999 -9999 -9999 -9999 -9999 -9999 -9999 -9999 -9999 -9999 -9999 -9999 -9999 -9999 -9999 -9999 -9999 -9999 -9999 -9999 -9999 -9999 -9999 -9999 -9999 -9999 -9999 -9999 -9999 -9999 -9999 -9999 -9999 -9999 -9999 -9999 -9999 -9999 -9999 -9999 -9999 -9999 -9999 -9999 -9999 -9999 -9999 -9999 -9999 -9999 -9999 112.62 112.782 113.015 113.195 113.405 113.65 113.865 114.047 114.277 114.48 114.697 114.852 115.02 115.195 115.33 115.532 115.567 115.535 115.512 115.452 115.435 115.425 115.405 115.387 115.347 115.302 115.255 115.217 115.137 115.095 115.042 115.002 114.972 114.955 114.962 114.955 114.94 114.932 114.907 114.877 114.822 114.727 114.662 114.652 114.337 114.14 114.097 114.042 113.955 115.027 115.31 115.095 115.275 115.415 115.507 115.862 117.477 117.495 117.767 117.747 116.09 115.987 115.985 116.225 119.265 121.035 121.09 123.865 117.05 116.48 120.44 118.94 119.83 124.252 119.41 116.792 116.752 116.725 116.667 116.75 130.762 117.2 116.88 116.99 119.595 124.017 117.302 117.817 117.297 117.01 116.977 116.98 116.997 117.027 117.125 120.037 119.71 117.107 117.035 117.372 117.005 116.987 116.957 116.977 117.02 116.982 116.945 116.91 117.467 119.49 124.402 126.582 128.292 128.847 128.039 126.814 119.642 116.882 116.642 116.897 116.789 116.559 116.552 116.492 116.504 118.542 116.532 116.537 116.812 116.944 116.637 116.627 116.652 116.659 116.662 123.417 124.269 125.164 124.774 123.859 120.564 120.542 119.182 116.747 116.729 116.714 116.682 118.967 123.982 117.279 119.862 121.994 118.479 118.222 120.832 119.419 117.929 119.984 117.699 117.692 117.682 117.669 117.669 117.704 117.709 118.609 120.344 118.192 120.069 120.072 120.119 120.359 117.687 117.702 117.664 117.684 117.632 117.707 119.949 118.092 118.102 118.119 118.142 118.197 118.199 118.174 118.169 118.057 118.032 117.937 121.397 125.932 119.142 125.904 124.714 115.509 114.959 115.519 116.269 114.772 114.582 115.789 117.222 118.167 118.059 117.712 116.247 113.802 112.424 111.419 110.549 115.269 110.309 118.234 112.187 113.264 114.542 112.109 113.182 114.679 117.044 116.592 116.892 116.499 116.699 116.862 116.297 116.549 117.212 116.637 115.289 114.529 114.339 114.547 114.487 113.664 114.057 118.152 116.252 114.139 115.577 117.369 115.479 117.102 112.484 116.302 114.004 110.502 105.484 104.269 103.249 102.992 102.877 102.834 102.774 102.287 101.044 99.714 98.619 97.322 100.707 98.484 104.009 98.852 95.394 92.664 92.312 91.374 92.174 94.354 88.922
-9999 -9999 -9999 -9999 -9999 -9999 -9999 -9999 -9999 -9999 -9999 -9999 -9999 -9999 -9999 -9999 -9999 -9999 -9999 -9999 -9999 -9999 -9999 -9999 -9999 -9999 -9999 -9999 -9999 -9999 -9999 -9999 -9999 -9999 -9999 -9999 -9999 -9999 -9999 -9999 -9999 -9999 -9999 -9999 -9999 -9999 -9999 -9999 -9999 -9999 -9999 -9999 -9999 -9999 -9999 -9999 -9999 -9999 -9999 -9999 -9999 -9999 -9999 -9999 -9999 -9999 -9999 -9999 -9999 -9999 -9999 -9999 -9999 -9999 -9999 -9999 -9999 -9999 -9999 -9999 -9999 -9999 -9999 -9999 -9999 -9999 -9999 -9999 -9999 -9999 -9999 -9999 -9999 -9999 -9999 -9999 -9999 -9999 -9999 -9999 -9999 -9999 -9999 -9999 -9999 -9999 -9999 -9999 -9999 -9999 -9999 -9999 -9999 -9999 -9999 -9999 -9999 -9999 -9999 -9999 -9999 -9999 -9999 -9999 -9999 -9999 -9999 -9999 -9999 -9999 112.571 112.83 113.03 113.197 113.392 113.587 113.822 114.155 114.38 114.522 114.735 114.952 115.105 115.242 115.367 115.615 115.722 115.727 115.707 115.65 115.63 115.615 115.582 115.582 115.562 115.5 115.45 115.375 115.315 115.255 115.215 115.18 115.145 115.145 115.127 115.125 115.115 115.095 115.077 115.037 114.99 114.922 114.82 114.832 115.157 114.377 114.285 114.232 114.145 114.22 116.305 115.297 115.312 115.39 115.452 115.552 115.625 118.712 118.71 118.702 118.687 116.207 116.152 116.082 118.652 118.472 118.227 120.615 116.932 117.305 116.875 116.882 117.152 117.192 120.372 116.997 116.925 116.85 117.017 116.89 116.892 117.382 117.78 116.932 128.382 121.367 117.645 117.42 117.325 116.987 117.017 117.027 117.035 117.057 117.057 117.06 117.017 118.957 120.64 120.84 117.225 117.052 117.025 116.915 116.912 116.977 117.005 116.975 116.945 117.412 121.51 119.042 125.41 127.65 128.284 126.402 119.789 116.867 116.669 116.649 116.652 116.622 116.579 116.557 116.492 116.517 116.522 116.524 117.157 117.604 121.614 120.637 116.657 116.669 116.679 116.727 116.709 123.132 124.269 123.914 119.639 116.752 117.962 116.749 116.757 116.757 116.714 116.842 119.159 119.057 117.457 123.049 124.429 117.412 117.402 117.654 117.497 117.477 119.344 117.684 117.692 117.652 117.659 117.674 117.687 117.687 119.292 120.149 118.527 120.072 120.074 120.467 123.252 123.459 118.512 117.677 117.697 117.634 117.629 117.682 118.779 118.357 118.189 118.127 118.169 118.207 118.204 118.194 118.124 118.034 117.974 121.177 121.239 118.484 117.964 117.632 117.689 117.647 117.899 117.884 117.847 117.794 117.477 117.692 119.537 118.174 118.372 116.979 113.652 112.482 111.357 110.999 113.489 112.124 113.837 114.112 114.562 111.672 114.192 113.654 117.752 118.042 118.729 117.092 116.887 117.049 120.382 120.624 117.357 122.724 118.459 115.314 114.612 114.587 116.034 115.447 114.247 114.077 113.442 118.024 118.089 114.262 113.002 113.899 108.224 110.429 115.054 111.162 105.629 105.274 104.682 103.517 103.024 102.844 102.789 102.784 102.704 101.562 101.992 98.912 97.649 97.054 98.674 95.379 99.522 102.802 92.572 92.042 95.422 90.222 90.864 88.549
-9999 -9999 -9999 -9999 -9999 -9999 -9999 -9999 -9999 -9999 -9999 -9999 -9999 -9999 -9999 -9999 -9999 -9999 -9999 -9999 -9999 -9999 -9999 -9999 -9999 -9999 -9999 -9999 -9999 -9999 -9999 -9999 -9999 -9999 -9999 -9999 -9999 -9999 -9999 -9999 -9999 -9999 -9999 -9999 -9999 -9999 -9999 -9999 -9999 -9999 -9999 -9999 -9999 -9999 -9999 -9999 -9999 -9999 -9999 -9999 -9999 -9999 -9999 -9999 -9999 -9999 -9999 -9999 -9999 -9999 -9999 -9999 -9999 -9999 -9999 -9999 -9999 -9999 -9999 -9999 -9999 -9999 -9999 -9999 -9999 -9999 -9999 -9999 -9999 -9999 -9999 -9999 -9999 -9999 -9999 -9999 -9999 -9999 -9999 -9999 -9999 -9999 -9999 -9999 -9999 -9999 -9999 -9999 -9999 -9999 -9999 -9999 -9999 -9999 -9999 -9999 -9999 -9999 -9999 -9999 -9999 -9999 -9999 -9999 -9999 -9999 -9999 -9999 -9999 112.562 112.787 113.01 113.225 113.425 113.622 113.807 114.04 114.297 114.552 114.757 115.045 115.145 115.302 115.58 115.822 115.862 115.867 115.867 115.845 115.78 115.802 115.79 115.785 115.75 115.707 115.652 115.605 115.535 115.44 115.402 115.352 115.302 115.295 115.29 115.302 115.29 115.265 115.23 115.205 115.162 115.107 115.035 114.987 115.105 114.627 114.467 114.425 114.352 114.287 114.407 114.6 115.377 115.45 115.49 115.52 116.237 115.87 118.695 118.687 118.702 118.69 116.332 118.22 116.447 119.282 116.74 116.85 116.675 116.515 118.665 116.875 118.04 118.28 122.137 117.48 116.937 117.032 117.167 116.867 116.96 117.007 117.102 125.167 127.842 127.157 131.73 125.085 117.032 117.012 117.02 117.025 117.047 117.092 117.087 117.065 117.05 117.035 116.995 116.957 118.617 121.155 118.527 117.17 116.905 116.9 116.94 116.955 116.965 116.95 116.927 116.937 119.172 121.947 127.875 126.339 123.887 116.844 116.674 116.649 116.679 116.644 116.644 116.612 116.552 117.594 118.514 119.239 117.259 117.374 121.244 122.322 121.657 120.692 116.677 116.727 116.749 117.962 120.132 123.102 120.149 117.372 116.777 116.779 116.794 116.767 118.127 125.099 124.624 117.164 117.534 117.344 117.387 118.637 117.422 117.352 117.604 117.454 117.439 119.584 118.999 117.654 117.687 117.624 117.652 117.662 117.652 117.857 117.972 117.647 117.839 118.842 123.037 124.887 124.257 123.554 119.099 117.687 117.674 117.627 117.607 117.627 118.279 118.727 118.162 118.124 118.154 118.214 118.189 118.134 118.079 117.989 117.877 117.834 117.974 117.984 118.049 117.979 118.039 118.072 118.042 117.912 117.824 117.859 117.992 118.109 118.344 118.244 115.519 113.617 113.034 112.822 110.964 111.774 110.847 110.767 111.189 112.677 111.912 113.642 114.882 121.637 119.337 118.059 118.789 116.919 117.089 123.479 122.339 122.762 123.999 119.352 116.074 121.994 123.092 122.417 116.689 114.437 114.182 119.154 123.129 121.392 115.464 111.822 112.084 108.272 107.784 107.267 106.602 105.764 105.354 104.909 103.714 103.069 102.844 102.787 102.759 102.887 102.322 100.939 102.539 97.857 97.029 102.512 96.394 98.914 103.839 93.984 92.274 91.227 90.369 89.407 88.719
-9999 -9999 -9999 -9999 -9999 -9999 -9999 -9999 -9999 -9999 -9999 -9999 -9999 -9999 -9999 -9999 -9999 -9999 -9999 -9999 -9999 -9999 -9999 -9999 -9999 -9999 -9999 -9999 -9999 -9999 -9999 -9999 -9999 -9999 -9999 -9999 -9999 -9999 -9999 -9999 -9999 -9999 -9999 -9999 -9999 -9999 -9999 -9999 -9999 -9999 -9999 -9999 -9999 -9999 -9999 -9999 -9999 -9999 -9999 -9999 -9999 -9999 -9999 -9999 -9999 -9999 -9999 -9999 -9999 -9999 -9999 -9999 -9999 -9999 -9999 -9999 -9999 -9999 -9999 -9999 -9999 -9999 -9999 -9999 -9999 -9999 -9999 -9999 -9999 -9999 -9999 -9999 -9999 -9999 -9999 -9999 -9999 -9999 -9999 -9999 -9999 -9999 -9999 -9999 -9999 -9999 -9999 -9999 -9999 -9999 -9999 -9999 -9999 -9999 -9999 -9999 -9999 -9999 -9999 -9999 -9999 -9999 -9999 -9999 -9999 -9999 -9999 -9999 112.547 112.755 112.997 113.212 113.42 113.607 113.795 114.05 114.297 114.522 114.79 115.015 115.21 115.435 115.575 115.907 115.947 115.987 115.995 115.997 115.97 115.927 115.955 115.967 115.947 115.912 115.87 115.805 115.712 115.642 115.587 115.532 115.485 115.452 115.44 115.465 115.452 115.445 115.412 115.387 115.327 115.262 115.225 115.185 115.137 115.04 114.655 114.607 114.552 114.445 115.47 115.33 115.497 115.472 115.51 115.547 115.532 116.28 115.892 117.372 117.427 117.282 117.265 119.025 117.84 118.012 117.017 116.24 116.78 116.497 116.462 117.83 119.015 117.215 118.302 119.04 117.247 117.067 117.155 118.29 120.385 117 117.037 117.705 118.55 118.325 127.412 133.12 129.027 118.472 116.98 117.047 117.717 121.962 121.337 121.45 121.34 117.905 117.01 116.975 116.972 116.93 117.327 119.545 121.065 118.237 116.895 116.887 116.902 116.902 116.9 116.902 116.885 117.312 121.485 121.537 123.459 117.247 119.214 116.674 116.662 116.677 116.649 116.644 116.629 116.562 116.672 127.024 131.849 130.322 117.804 120.117 121.387 122.349 121.482 120.219 117.072 116.779 117.762 119.742 120.094 116.722 116.779 116.812 116.859 116.832 116.777 118.242 125.667 125.862 119.192 117.374 117.352 117.402 117.397 117.429 117.622 117.749 117.724 117.397 117.404 120.794 117.634 117.639 117.582 117.619 117.629 117.617 121.687 118.724 119.979 117.642 118.192 123.709 124.414 124.924 124.317 123.617 120.037 117.714 117.717 117.632 118.012 117.604 117.704 119.709 118.137 118.142 118.142 118.184 118.182 118.124 118.067 117.914 117.822 117.842 118.824 118.364 120.044 118.067 118.759 118.199 117.889 118.232 117.822 118.467 118.034 118.277 117.177 115.099 113.187 112.354 111.657 110.539 110.609 110.537 111.202 111.379 111.512 111.927 121.492 116.667 118.417 121.572 121.024 116.617 116.604 116.307 118.087 120.254 125.304 126.872 129.717 127.267 124.944 128.087 121.759 114.294 114.254 113.197 118.344 123.512 122.462 111.757 109.952 112.002 109.012 107.762 107.302 106.719 106.102 105.489 104.974 103.994 103.159 102.857 102.747 102.737 102.612 101.882 102.977 103.069 100.284 97.369 103.944 100.189 96.337 94.687 95.099 91.637 91.269 90.409 89.542 88.942
-9999 -9999 -9999 -9999 -9999 -9999 -9999 -9999 -9999 -9999 -9999 -9999 -9999 -9999 -9999 -9999 -9999 -9999 -9999 -9999 -9999 -9999 -9999 -9999 -9999 -9999 -9999 -9999 -9999 -9999 -9999 -9999 -9999 -9999 -9999 -9999 -9999 -9999 -9999 -9999 -9999 -9999 -9999 -9999 -9999 -9999 -9999 -9999 -9999 -9999 -9999 -9999 -9999 -9999 -9999 -9999 -9999 -9999 -9999 -9999 -9999 -9999 -9999 -9999 -9999 -9999 -9999 -9999 -9999 -9999 -9999 -9999 -9999 -9999 -9999 -9999 -9999 -9999 -9999 -9999 -9999 -9999 -9999 -9999 -9999 -9999 -9999 -9999 -9999 -9999 -9999 -9999 -9999 -9999 -9999 -9999 -9999 -9999 -9999 -9999 -9999 -9999 -9999 -9999 -9999 -9999 -9999 -9999 -9999 -9999 -9999 -9999 -9999 -9999 -9999 -9999 -9999 -9999 -9999 -9999 -9999 -9999 -9999 -9999 -9999 -9999 112.485 112.567 112.737 112.942 113.187 113.41 113.61 113.782 114.007 114.237 114.522 114.752 115.01 115.257 115.452 115.627 115.817 115.95 116.017 116.065 116.267 116.162 116.12 116.122 116.115 116.13 116.107 116.062 116.02 115.955 115.87 115.79 115.707 115.65 115.61 115.61 115.595 115.612 115.6 115.582 115.572 115.502 115.442 115.387 115.34 115.312 115.677 114.907 114.792 114.735 114.652 114.687 116.102 115.435 115.505 115.69 117.327 117.307 117.125 117.245 115.937 116.14 116.137 116.137 116.172 117.47 118.74 118.737 117.787 116.5 116.475 116.402 116.472 119.145 122.66 119.855 117.875 117.112 117.097 117.122 117.125 117.1 117.147 117.075 117.06 117.522 118.115 123.905 133.285 133.142 128.142 116.927 117.152 120.817 122.925 122.452 119.24 121.557 121.432 121.607 120.977 118.23 116.935 116.925 116.922 116.88 117.112 120.58 119.467 121.782 117.052 118.055 116.84 116.837 116.86 116.817 116.82 116.847 116.937 117.172 118.267 118.442 116.644 116.629 116.617 116.654 116.614 116.552 118.147 129.779 132.959 135.412 127.714 116.714 120.032 118.479 122.472 125.482 124.632 121.119 116.827 117.249 117.344 116.822 116.852 116.859 116.882 116.847 116.794 116.722 119.769 120.947 118.657 117.487 117.379 117.394 117.384 117.372 117.374 117.329 117.874 119.752 117.402 119.462 118.609 117.597 117.607 117.599 119.272 121.907 122.407 117.829 119.914 117.649 117.672 121.119 123.629 124.334 124.927 124.357 123.692 119.452 117.809 117.692 117.639 117.719 117.674 118.259 119.884 118.104 118.112 118.167 118.169 118.119 118.039 117.902 117.782 117.782 118.009 118.182 118.237 118.117 117.994 117.892 117.969 119.039 117.787 123.777 119.482 117.864 114.874 112.599 112.682 111.992 110.684 110.362 110.327 111.029 112.282 112.184 112.409 113.639 127.897 120.262 117.827 120.389 120.067 117.992 116.389 116.232 118.077 117.572 118.644 125.667 130.814 127.467 123.249 129.919 129.409 116.574 116.814 117.032 113.822 117.779 114.152 110.779 109.699 109.324 108.562 107.807 107.307 106.717 106.237 105.614 105.392 109.179 103.197 102.882 102.782 102.649 102.527 102.024 101.212 100.899 98.999 97.994 100.617 101.074 95.834 94.417 92.777 91.797 91.282 90.517 89.732 89.199
-9999 -9999 -9999 -9999 -9999 -9999 -9999 -9999 -9999 -9999 -9999 -9999 -9999 -9999 -9999 -9999 -9999 -9999 -9999 -9999 -9999 -9999 -9999 -9999 -9999 -9999 -9999 -9999 -9999 -9999 -9999 -9999 -9999 -9999 -9999 -9999 -9999 -9999 -9999 -9999 -9999 -9999 -9999 -9999 -9999 -9999 -9999 -9999 -9999 -9999 -9999 -9999 -9999 -9999 -9999 -9999 -9999 -9999 -9999 -9999 -9999 -9999 -9999 -9999 -9999 -9999 -9999 -9999 -9999 -9999 -9999 -9999 -9999 -9999 -9999 -9999 -9999 -9999 -9999 -9999 -9999 -9999 -9999 -9999 -9999 -9999 -9999 -9999 -9999 -9999 -9999 -9999 -9999 -9999 -9999 -9999 -9999 -9999 -9999 -9999 -9999 -9999 -9999 -9999 -9999 -9999 -9999 -9999 -9999 -9999 -9999 -9999 -9999 -9999 -9999 -9999 -9999 -9999 -9999 -9999 -9999 -9999 -9999 -9999 -9999 112.491 112.577 112.735 112.945 113.14 113.362 113.567 113.74 113.962 114.202 114.487 114.712 114.96 115.2 115.482 115.675 115.857 115.965 116.03 116.097 116.432 116.285 116.252 116.262 116.285 116.287 116.305 116.267 116.227 116.16 116.1 115.99 115.932 115.867 115.802 115.745 115.72 115.74 115.727 115.717 115.692 115.647 115.6 115.55 115.505 115.52 115.62 115.175 114.972 114.927 114.847 114.987 115.972 115.537 115.582 115.657 115.775 116.565 118.735 118.73 118.727 116.16 116.142 116.115 116.13 116.16 117.48 118.72 118.702 118.74 118.737 118.762 117.452 116.907 118.71 117.905 118.56 117.59 117.902 119.155 117.025 117.007 117.055 117.21 117.11 118.237 121.017 117.795 118.122 117.362 125.66 124.772 117.012 121.797 122.072 122.285 121.267 121.177 117.842 117.715 119.11 123.435 120.535 119.345 116.99 116.895 117.142 122.022 116.83 118.735 129.55 130.112 125.98 118.655 116.792 116.812 116.765 117.05 117.405 116.764 116.874 118.549 123.889 116.989 116.599 116.579 116.634 116.632 116.527 116.809 129.454 132.469 133.094 125.207 116.634 117.094 120.764 124.722 125.894 125.517 120.334 116.829 116.854 116.884 116.892 116.857 116.872 116.889 116.859 116.807 118.319 120.049 118.944 125.207 126.417 117.407 117.359 117.314 117.509 118.722 122.969 123.339 123.742 117.389 118.019 120.412 117.589 117.592 119.907 117.592 119.464 117.489 117.582 117.599 117.619 117.672 117.664 121.219 123.552 124.244 124.864 122.864 117.727 117.869 117.777 117.699 118.162 117.822 118.304 118.632 120.354 120.127 118.137 118.119 118.087 117.999 117.934 117.779 117.742 119.092 118.197 118.149 118.139 118.122 119.299 119.337 119.394 116.862 124.194 123.407 116.164 112.039 122.652 112.244 111.417 110.582 110.509 111.212 112.444 112.957 113.514 113.419 113.647 124.757 121.399 117.587 117.459 116.779 117.994 118.974 119.267 118.512 118.262 115.924 125.464 123.662 117.999 124.942 123.517 118.812 114.332 115.809 119.199 114.142 111.964 111.119 110.384 109.799 109.009 108.389 107.849 107.404 106.707 106.207 105.542 106.092 105.367 103.217 102.932 102.814 102.659 102.764 102.159 101.009 99.672 99.107 99.759 96.902 97.119 97.807 96.049 93.247 95.079 91.237 90.742 90.207 89.247
-9999 -9999 -9999 -9999 -9999 -9999 -9999 -9999 -9999 -9999 -9999 -9999 -9999 -9999 -9999 -9999 -9999 -9999 -9999 -9999 -9999 -9999 -9999 -9999 -9999 -9999 -9999 -9999 -9999 -9999 -9999 -9999 -9999 -9999 -9999 -9999 -9999 -9999 -9999 -9999 -9999 -9999 -9999 -9999 -9999 -9999 -9999 -9999 -9999 -9999 -9999 -9999 -9999 -9999 -9999 -9999 -9999 -9999 -9999 -9999 -9999 -9999 -9999 -9999 -9999 -9999 -9999 -9999 -9999 -9999 -9999 -9999 -9999 -9999 -9999 -9999 -9999 -9999 -9999 -9999 -9999 -9999 -9999 -9999 -9999 -9999 -9999 -9999 -9999 -9999 -9999 -9999 -9999 -9999 -9999 -9999 -9999 -9999 -9999 -9999 -9999 -9999 -9999 -9999 -9999 -9999 -9999 -9999 -9999 -9999 -9999 -9999 -9999 -9999 -9999 -9999 -9999 -9999 -9999 -9999 -9999 -9999 -9999 -9999 112.515 112.63 112.747 112.927 113.147 113.342 113.532 113.722 113.91 114.15 114.385 114.652 114.937 115.167 115.457 115.7 115.88 116.042 116.115 116.162 116.227 116.282 116.34 116.382 116.385 116.402 116.422 116.41 116.422 116.367 116.305 116.207 116.135 116.062 115.99 115.947 115.92 115.902 115.865 115.842 115.82 115.802 115.752 115.692 115.647 115.652 115.682 115.685 115.19 115.117 115.047 118.922 115.14 116.002 116.67 118.417 115.817 115.895 115.897 118.762 118.74 118.752 116.157 116.127 116.1 116.12 116.155 117.242 118.667 118.622 118.717 118.742 118.78 118.802 118.837 118.885 119.095 118.577 117.45 118.577 118.01 116.902 117.062 117.135 117.26 120.362 119.877 119.205 118.595 117.335 116.905 116.907 116.902 118.507 122.35 122.082 120.632 122.242 121.045 117.745 117.45 118.835 121.772 118.607 120.947 121.502 127.625 128.255 126.985 117.292 117.422 121.747 128.44 130.345 124.187 116.775 116.77 116.685 119.165 118.917 119.474 120.832 122.977 122.997 121.874 122.387 120.677 116.589 116.537 116.537 116.534 123.929 129.177 129.289 122.842 122.922 118.272 117.122 120.699 124.169 124.314 118.612 116.827 116.862 116.897 116.899 116.882 116.854 116.872 116.794 118.699 119.629 119.677 119.702 128.659 127.874 117.382 117.314 120.634 123.154 123.524 123.899 124.277 124.484 119.572 117.379 118.427 117.699 117.919 124.004 123.614 117.464 117.414 117.484 117.749 117.992 117.664 117.689 117.669 123.872 124.147 124.149 117.694 117.857 117.724 117.779 117.697 119.004 118.609 117.814 118.472 125.429 129.432 124.112 118.029 118.042 118.187 117.932 117.744 117.689 117.837 118.177 118.049 119.739 117.957 118.892 118.552 118.872 114.979 115.554 112.019 111.939 123.872 128.319 121.962 111.032 110.527 110.354 111.767 113.114 113.792 113.934 113.947 114.374 115.534 116.919 117.064 116.887 116.307 116.084 119.247 119.284 120.459 121.917 117.052 122.917 119.692 118.512 125.689 126.047 119.314 114.244 113.984 113.534 112.987 112.204 111.402 110.464 109.599 108.954 108.444 107.902 107.492 106.704 106.112 105.584 105.064 104.157 103.319 102.967 102.822 102.707 102.952 102.214 101.179 99.782 98.919 99.512 97.072 96.402 98.032 99.644 96.404 97.227 92.267 90.792 91.207 93.379
-9999 -9999 -9999 -9999 -9999 -9999 -9999 -9999 -9999 -9999 -9999 -9999 -9999 -9999 -9999 -9999 -9999 -9999 -9999 -9999 -9999 -9999 -9999 -9999 -9999 -9999 -9999 -9999 -9999 -9999 -9999 -9999 -9999 -9999 -9999 -9999 -9999 -9999 -9999 -9999 -9999 -9999 -9999 -9999 -9999 -9999 -9999 -9999 -9999 -9999 -9999 -9999 -9999 -9999 -9999 -9999 -9999 -9999 -9999 -9999 -9999 -9999 -9999 -9999 -9999 -9999 -9999 -9999 -9999 -9999 -9999 -9999 -9999 -9999 -9999 -9999 -9999 -9999 -9999 -9999 -9999 -9999 -9999 -9999 -9999 -9999 -9999 -9999 -9999 -9999 -9999 -9999 -9999 -9999 -9999 -9999 -9999 -9999 -9999 -9999 -9999 -9999 -9999 -9999 -9999 -9999 -9999 -9999 -9999 -9999 -9999 -9999 -9999 -9999 -9999 -9999 -9999 -9999 -9999 -9999 -9999 -9999 -9999 112.535 112.635 112.752 112.902 113.117 113.327 113.545 113.72 113.902 114.125 114.347 114.607 114.825 115.115 115.39 115.65 115.902 116.09 116.197 116.267 116.332 116.387 116.402 116.432 116.475 116.517 116.582 116.535 116.537 116.545 116.5 116.447 116.362 116.275 116.195 116.147 116.092 116.067 116.052 116.04 115.992 115.947 115.885 115.832 115.775 115.79 115.807 116.012 115.445 115.312 115.23 115.155 115.265 116.3 118.405 115.837 115.875 115.957 116.01 115.97 118.752 118.752 118.51 116.155 116.14 116.14 116.15 116.185 116.517 117.66 117.525 118.607 118.747 118.78 118.782 120.027 118.877 118.95 118.965 118.975 119.107 119.03 117.137 117.38 120.232 117.422 120.712 124.92 120.817 119.177 118.432 116.88 116.892 117.287 121.547 122.24 119.997 122.795 118.442 118.54 117.065 117.065 116.985 116.98 119.397 118.03 120.365 129.365 132.5 132.21 122.27 116.797 116.757 118.045 125.672 119.897 116.662 116.697 116.627 116.747 117.632 116.937 118.314 123.032 123.502 122.192 123.344 120.729 116.532 116.534 116.512 116.507 116.507 116.514 116.524 122.682 124.929 125.352 119.989 116.714 119.312 118.967 117.197 116.887 119.987 119.302 117.172 116.839 116.852 116.812 117.524 118.819 119.447 119.669 119.672 119.884 117.514 117.357 117.309 119.134 124.082 124.424 124.439 124.079 123.959 123.027 117.387 118.012 121.317 117.547 118.399 117.394 117.372 117.422 117.447 117.532 118.172 118.059 117.652 117.677 117.669 122.902 117.699 120.017 118.614 117.789 118.119 117.607 117.547 117.577 117.582 117.582 118.862 127.914 121.314 117.997 117.979 117.939 119.484 117.612 117.619 117.957 120.017 118.152 121.032 121.209 118.907 118.462 118.174 113.134 112.124 111.872 114.519 123.744 132.392 132.717 112.192 110.392 110.977 120.159 115.019 114.139 114.062 116.479 114.679 115.647 117.054 117.149 116.762 116.057 116.937 119.284 119.279 122.429 122.252 122.249 121.207 115.682 117.847 123.384 128.362 118.827 115.604 114.147 113.622 113.059 112.234 111.544 110.689 109.637 108.892 108.354 107.792 110.962 107.162 106.107 105.537 104.882 104.282 103.634 102.989 102.824 102.714 102.674 102.242 101.187 101.324 98.349 99.994 97.997 96.514 96.064 104.377 101.012 99.664 91.314 90.839 91.322 93.604
-9999 -9999 -9999 -9999 -9999 -9999 -9999 -9999 -9999 -9999 -9999 -9999 -9999 -9999 -9999 -9999 -9999 -9999 -9999 -9999 -9999 -9999 -9999 -9999 -9999 -9999 -9999 -9999 -9999 -9999 -9999 -9999 -9999 -9999 -9999 -9999 -9999 -9999 -9999 -9999 -9999 -9999 -9999 -9999 -9999 -9999 -9999 -9999 -9999 -9999 -9999 -9999 -9999 -9999 -9999 -9999 -9999 -9999 -9999 -9999 -9999 -9999 -9999 -9999 -9999 -9999 -9999 -9999 -9999 -9999 -9999 -9999 -9999 -9999 -9999 -9999 -9999 -9999 -9999 -9999 -9999 -9999 -9999 -9999 -9999 -9999 -9999 -9999 -9999 -9999 -9999 -9999 -9999 -9999 -9999 -9999 -9999 -9999 -9999 -9999 -9999 -9999 -9999 -9999 -9999 -9999 -9999 -9999 -9999 -9999 -9999 -9999 -9999 -9999 -9999 -9999 -9999 -9999 -9999 -9999 -9999 112.515 112.575 112.68 112.772 112.912 113.085 113.302 113.492 113.69 113.882 114.09 114.3 114.547 114.802 115.037 115.292 115.585 115.807 116.04 116.225 116.352 116.425 116.477 116.547 116.562 116.582 116.615 116.66 116.642 116.627 116.955 116.65 116.597 116.612 116.512 116.42 116.357 116.272 116.24 116.245 116.225 116.175 116.14 116.082 116.012 115.92 115.905 115.905 116.005 115.695 115.492 115.415 115.35 115.287 116.085 116.057 115.895 115.932 115.995 116.06 116.087 116.075 117.867 118.112 117.56 116.132 116.18 116.182 116.197 116.21 116.227 116.22 116.217 116.21 116.185 116.185 118.095 118.3 118.597 118.935 118.965 119 120.617 119.045 119.077 119.097 119.16 119.205 119.365 119.415 120.01 122.05 117.962 116.842 116.835 119.692 121.147 121.487 117.437 121.667 119.137 116.92 117.035 117.032 116.972 117.15 117 117.28 122.925 131.692 128.04 131.572 126.992 117.22 116.752 116.73 116.71 116.67 116.652 118.755 123.557 124.985 121.767 125.204 127.129 128.039 123.909 124.657 123.794 117.874 116.534 116.524 116.502 116.472 116.459 116.439 116.434 121.977 122.037 123.014 123.984 123.324 118.979 118.742 116.919 116.804 116.919 116.967 117.552 116.944 116.817 116.897 119.669 117.229 117.502 119.494 119.662 118.584 117.359 117.429 117.307 117.274 124.267 123.862 123.512 123.177 123.902 123.364 117.382 119.097 122.674 117.757 117.319 117.314 117.377 117.419 117.444 117.442 117.507 118.297 117.827 117.659 117.697 117.739 118.004 117.887 118.854 119.954 117.559 117.549 117.557 117.557 117.822 117.824 117.547 128.449 122.309 117.834 117.932 117.922 117.852 117.537 122.802 121.249 121.037 118.872 119.277 120.457 118.912 118.087 117.989 116.199 112.914 112.072 112.392 130.869 131.357 131.187 126.749 110.687 113.824 122.112 121.684 119.407 128.382 121.552 116.404 116.237 117.294 117.039 116.542 116.029 119.267 119.304 121.832 122.294 122.352 122.339 122.232 122.232 119.099 118.149 115.547 116.872 122.297 119.584 114.354 113.119 112.197 111.492 110.469 109.884 114.629 108.234 107.647 111.349 106.724 106.054 105.479 104.837 104.379 103.679 103.007 102.854 102.719 102.652 102.264 103.987 100.052 99.364 104.084 99.964 96.437 95.997 101.114 98.707 97.512 91.404 90.894 93.059 95.002
-9999 -9999 -9999 -9999 -9999 -9999 -9999 -9999 -9999 -9999 -9999 -9999 -9999 -9999 -9999 -9999 -9999 -9999 -9999 -9999 -9999 -9999 -9999 -9999 -9999 -9999 -9999 -9999 -9999 -9999 -9999 -9999 -9999 -9999 -9999 -9999 -9999 -9999 -9999 -9999 -9999 -9999 -9999 -9999 -9999 -9999 -9999 -9999 -9999 -9999 -9999 -9999 -9999 -9999 -9999 -9999 -9999 -9999 -9999 -9999 -9999 -9999 -9999 -9999 -9999 -9999 -9999 -9999 -9999 -9999 -9999 -9999 -9999 -9999 -9999 -9999 -9999 -9999 -9999 -9999 -9999 -9999 -9999 -9999 -9999 -9999 -9999 -9999 -9999 -9999 -9999 -9999 -9999 -9999 -9999 -9999 -9999 -9999 -9999 -9999 -9999 -9999 -9999 -9999 -9999 -9999 -9999 -9999 -9999 -9999 -9999 -9999 -9999 -9999 -9999 -9999 -9999 -9999 -9999 -9999 112.538 112.635 112.722 112.822 112.92 113.07 113.265 113.462 113.655 113.822 114.025 114.257 114.48 114.74 115.02 115.24 115.5 115.77 115.975 116.202 116.342 116.455 116.547 116.61 116.662 116.712 116.725 116.755 116.78 116.772 116.757 116.94 116.7 116.687 116.715 116.675 116.605 116.512 116.445 116.42 116.39 116.36 116.315 116.245 116.18 116.107 116.047 116.027 116.1 116.27 115.71 115.6 115.542 115.445 115.685 116.312 116.02 117.365 116.02 116.462 119.385 119.44 117.657 116.92 116.395 116.617 117.817 116.855 118.042 118.217 118.225 116.267 116.265 116.267 116.285 116.262 116.347 116.532 116.21 116.237 116.95 116.617 118.552 119.032 119.052 119.087 119.095 119.145 119.202 119.207 119.212 118.637 116.855 118.252 118.922 116.955 120.862 119.982 119.89 118.34 120.62 117.99 116.87 116.907 116.937 116.927 117.257 117.092 117.14 126.697 131.58 130.982 131.147 131.73 121.357 116.752 116.712 116.697 116.667 116.637 116.607 121.817 126.307 128.665 130.809 130.787 131.634 126.084 122.764 121.814 117.069 116.604 116.499 116.467 116.437 116.402 116.379 116.347 116.359 119.812 125.062 126.949 124.667 123.597 123.684 120.792 119.609 116.997 117.449 117.132 118.347 117.114 117.262 117.589 117.142 117.304 117.372 117.634 117.224 117.187 117.454 117.297 117.284 121.397 122.889 118.332 120.882 123.234 119.917 117.519 117.369 119.634 117.354 117.282 117.314 117.364 117.399 117.419 117.424 117.427 117.467 117.752 117.752 117.764 118.187 118.022 117.809 117.564 117.559 117.562 117.597 117.634 118.197 117.887 117.559 117.857 117.987 117.642 117.709 117.889 117.879 117.522 121.492 125.719 122.434 120.124 120.069 122.712 118.932 118.522 118.567 118.062 116.749 114.279 112.857 113.977 128.357 130.017 129.557 110.494 110.719 112.619 122.584 122.922 120.837 123.517 125.764 121.604 117.977 117.077 116.924 116.169 118.514 119.267 119.452 122.294 122.304 122.329 122.297 122.427 122.269 122.229 122.217 116.229 115.812 119.247 124.344 121.582 119.057 117.917 112.687 110.237 112.067 110.059 108.309 107.689 107.327 106.789 106.152 105.472 105.689 108.722 107.629 103.022 102.822 102.692 102.634 102.312 101.099 102.162 104.087 110.037 100.599 103.674 103.139 101.704 93.829 94.017 91.664 91.019 91.097 95.942
-9999 -9999 -9999 -9999 -9999 -9999 -9999 -9999 -9999 -9999 -9999 -9999 -9999 -9999 -9999 -9999 -9999 -9999 -9999 -9999 -9999 -9999 -9999 -9999 -9999 -9999 -9999 -9999 -9999 -9999 -9999 -9999 -9999 -9999 -9999 -9999 -9999 -9999 -9999 -9999 -9999 -9999 -9999 -9999 -9999 -9999 -9999 -9999 -9999 -9999 -9999 -9999 -9999 -9999 -9999 -9999 -9999 -9999 -9999 -9999 -9999 -9999 -9999 -9999 -9999 -9999 -9999 -9999 -9999 -9999 -9999 -9999 -9999 -9999 -9999 -9999 -9999 -9999 -9999 -9999 -9999 -9999 -9999 -9999 -9999 -9999 -9999 -9999 -9999 -9999 -9999 -9999 -9999 -9999 -9999 -9999 -9999 -9999 -9999 -9999 -9999 -9999 -9999 -9999 -9999 -9999 -9999 -9999 -9999 -9999 -9999 -9999 -9999 -9999 -9999 -9999 -9999 -9999 -9999 112.598 112.63 112.742 112.84 112.962 113.057 113.255 113.437 113.617 113.792 113.97 114.16 114.402 114.662 114.922 115.212 115.482 115.717 115.94 116.18 116.335 116.457 116.572 116.662 116.732 116.775 116.832 116.882 116.887 116.915 116.917 116.892 116.852 116.812 116.777 116.725 116.7 116.707 116.702 116.69 116.597 116.535 116.495 116.452 116.372 116.29 116.217 116.2 116.205 116.482 115.957 115.792 115.722 115.625 115.625 116.845 116.1 116.097 116.085 116.105 121.84 125.52 125.515 125.515 125.512 125.517 125.505 125.515 125.497 125.502 125.5 125.482 124.31 119.285 119.225 116.907 116.302 116.262 116.585 116.21 116.245 116.287 116.307 116.357 116.392 116.422 117.92 118.725 118.47 119.205 119.21 119.202 118.807 116.765 116.827 116.795 118.125 120.837 121.867 117.01 116.94 117.005 117.037 116.84 116.882 116.882 121.48 117.42 116.907 126.205 129.582 131.532 131.462 131.082 130.92 124.4 117.6 116.692 116.672 116.64 116.617 116.607 116.577 118.802 119.735 126.909 124.622 127.537 119.799 118.237 117.474 117.529 116.509 116.497 116.434 116.409 116.584 120.634 118.824 116.314 116.384 125.507 125.534 123.924 123.827 124.564 122.819 116.982 117.727 117.149 117.197 117.459 118.742 117.147 117.152 117.097 117.129 117.222 117.167 117.462 117.167 117.214 117.279 117.272 117.304 117.347 117.364 117.377 117.354 117.404 117.874 117.744 117.357 117.322 117.262 117.304 117.349 117.379 117.387 117.399 117.397 117.434 117.544 117.567 117.572 117.584 117.837 120.024 120.017 120.017 117.564 117.767 118.137 117.959 117.564 117.667 117.604 117.554 117.917 117.802 117.869 117.517 118.619 125.569 127.077 124.249 120.037 122.154 118.712 119.004 118.944 117.352 117.107 116.689 115.204 113.529 117.402 124.442 125.669 124.129 110.684 110.817 112.104 120.949 122.352 119.142 126.199 129.677 124.284 118.114 117.457 116.634 115.932 117.487 118.424 122.137 122.414 122.322 122.314 122.327 122.324 122.297 122.414 122.252 122.217 121.504 117.694 121.994 120.107 113.447 113.804 112.257 118.194 115.219 111.027 108.302 107.874 107.162 106.649 107.389 105.339 107.297 104.407 103.684 102.994 102.764 102.687 102.607 104.739 106.539 103.272 109.857 106.417 100.664 107.487 101.789 104.829 95.139 92.359 91.649 91.157 90.789 94.342
-9999 -9999 -9999 -9999 -9999 -9999 -9999 -9999 -9999 -9999 -9999 -9999 -9999 -9999 -9999 -9999 -9999 -9999 -9999 -9999 -9999 -9999 -9999 -9999 -9999 -9999 -9999 -9999 -9999 -9999 -9999 -9999 -9999 -9999 -9999 -9999 -9999 -9999 -9999 -9999 -9999 -9999 -9999 -9999 -9999 -9999 -9999 -9999 -9999 -9999 -9999 -9999 -9999 -9999 -9999 -9999 -9999 -9999 -9999 -9999 -9999 -9999 -9999 -9999 -9999 -9999 -9999 -9999 -9999 -9999 -9999 -9999 -9999 -9999 -9999 -9999 -9999 -9999 -9999 -9999 -9999 -9999 -9999 -9999 -9999 -9999 -9999 -9999 -9999 -9999 -9999 -9999 -9999 -9999 -9999 -9999 -9999 -9999 -9999 -9999 -9999 -9999 -9999 -9999 -9999 -9999 -9999 -9999 -9999 -9999 -9999 -9999 -9999 -9999 -9999 -9999 -9999 -9999 112.657 112.717 112.792 112.887 112.967 113.065 113.21 113.417 113.582 113.762 113.935 114.112 114.337 114.587 114.887 115.137 115.405 115.675 115.925 116.135 116.322 116.482 116.587 116.695 116.79 116.842 116.88 116.945 116.99 117.017 117.035 117.025 117.007 116.975 116.922 116.877 116.847 116.815 116.772 117.362 116.96 116.782 116.755 116.672 116.565 116.5 116.395 116.35 116.342 116.517 116.237 115.967 115.895 115.822 115.72 116.537 116.325 116.15 116.162 116.16 116.117 122.82 125.815 126.42 126.39 126.402 126.395 126.407 126.415 126.41 126.417 126.425 125.917 124.225 119.292 119.23 116.892 116.315 116.282 116.247 116.227 116.247 116.277 116.307 116.357 116.397 116.842 116.687 116.525 116.887 117.33 117.627 117.14 117.465 116.785 117.897 116.822 118.425 119.49 120.495 121.267 117.212 117.21 117.005 116.962 117.02 120.69 124.94 123.552 118.86 126.752 129.022 131.102 129.885 130.462 128.875 121.235 116.727 116.677 116.64 116.632 116.672 116.617 116.54 116.522 116.502 116.497 116.464 116.427 116.412 116.467 117.109 116.514 116.469 116.399 116.439 117.252 121.309 122.089 122.429 117.342 116.287 117.119 121.799 123.564 123.092 120.507 119.824 117.157 117.229 117.204 117.534 117.672 117.199 117.029 117.024 117.239 117.147 117.202 117.169 117.109 121.964 117.074 117.069 117.299 117.547 119.479 117.372 117.374 117.357 117.349 117.404 118.217 117.342 117.294 117.252 117.302 117.332 117.339 117.344 117.342 117.422 117.714 117.589 117.579 117.587 117.604 118.659 120.029 120.019 120.012 117.554 117.547 117.524 117.509 117.514 117.572 117.534 117.582 118.019 119.479 117.477 117.814 123.664 126.697 127.244 125.089 119.217 120.144 118.532 118.647 117.284 117.409 117.414 116.949 115.489 113.599 129.317 131.029 111.969 110.847 120.347 122.332 113.822 116.904 120.317 128.357 127.089 127.772 121.272 117.152 117.412 116.139 115.742 115.779 116.099 120.882 122.237 122.279 122.434 122.299 122.317 122.297 122.292 122.344 122.354 122.234 122.234 118.582 116.137 117.662 116.482 118.334 119.427 115.989 108.927 108.237 107.614 106.987 106.452 105.922 105.317 104.744 104.337 103.532 102.932 102.734 102.622 102.549 104.479 106.297 107.922 100.627 100.652 96.574 98.544 98.039 100.999 97.479 93.894 93.714 91.264 90.917 92.694
-9999 -9999 -9999 -9999 -9999 -9999 -9999 -9999 -9999 -9999 -9999 -9999 -9999 -9999 -9999 -9999 -9999 -9999 -9999 -9999 -9999 -9999 -9999 -9999 -9999 -9999 -9999 -9999 -9999 -9999 -9999 -9999 -9999 -9999 -9999 -9999 -9999 -9999 -9999 -9999 -9999 -9999 -9999 -9999 -9999 -9999 -9999 -9999 -9999 -9999 -9999 -9999 -9999 -9999 -9999 -9999 -9999 -9999 -9999 -9999 -9999 -9999 -9999 -9999 -9999 -9999 -9999 -9999 -9999 -9999 -9999 -9999 -9999 -9999 -9999 -9999 -9999 -9999 -9999 -9999 -9999 -9999 -9999 -9999 -9999 -9999 -9999 -9999 -9999 -9999 -9999 -9999 -9999 -9999 -9999 -9999 -9999 -9999 -9999 -9999 -9999 -9999 -9999 -9999 -9999 -9999 -9999 -9999 -9999 -9999 -9999 -9999 -9999 -9999 -9999 -9999 112.675 112.682 112.767 112.83 112.932 113.01 113.11 113.227 113.375 113.535 113.715 113.895 114.07 114.265 114.522 114.777 115.082 115.33 115.632 115.857 116.107 116.312 116.467 116.597 116.722 116.81 116.9 116.955 117.01 117.05 117.087 117.097 117.122 117.132 117.11 117.085 117.03 116.992 116.99 116.937 116.9 116.88 116.847 116.787 117.095 116.847 116.752 116.647 116.505 116.477 116.542 116.79 116.195 116.072 115.997 115.9 116.137 117.03 116.405 116.3 116.235 116.217 116.125 121.85 125.665 125.675 125.682 125.692 125.68 125.715 125.697 125.722 125.725 125.725 125.722 123.957 119.287 119.235 116.43 116.302 116.28 116.242 116.225 116.232 116.26 116.305 116.342 116.385 116.452 116.652 116.53 116.582 116.635 116.66 116.697 116.712 116.79 116.745 116.84 116.925 117.912 118.775 119.875 121.155 119.22 118.55 119.572 120.415 117.875 119.367 119.055 119.177 129.86 131.967 131.605 131.997 122.79 120.575 122.875 116.695 116.655 116.76 116.797 117.06 117.49 119.187 116.907 119.335 116.579 116.567 116.554 116.712 117.507 117.247 116.447 116.432 116.834 117.202 120.564 122.152 122.324 120.687 118.097 116.274 116.267 116.262 120.044 116.902 116.419 116.767 118.612 117.127 117.827 117.514 119.947 116.977 117.017 117.022 117.064 117.069 117.117 117.089 122.737 123.394 121.494 117.079 117.072 123.554 129.374 119.399 117.337 117.342 117.334 117.417 117.342 117.374 117.184 117.252 117.279 117.294 117.299 118.277 117.604 117.597 117.894 117.597 117.762 118.062 119.792 119.244 120.282 120.147 119.464 117.552 117.534 117.529 117.519 117.507 117.527 117.582 117.942 117.707 117.457 117.424 117.384 122.969 123.637 126.022 122.849 119.644 120.082 121.549 129.909 119.047 119.797 117.362 116.962 115.314 113.617 122.832 114.904 110.622 115.952 128.377 127.597 113.297 111.587 113.797 120.567 126.267 123.987 117.907 117.052 116.777 118.392 115.544 115.592 116.172 115.549 116.534 122.232 122.247 122.282 122.397 122.294 122.314 122.309 122.282 122.362 122.277 122.247 117.064 117.462 121.887 124.199 117.939 112.389 109.134 109.329 107.617 106.917 106.304 105.689 105.144 104.712 104.202 103.452 102.884 102.687 102.579 102.499 102.202 105.989 104.609 97.997 102.464 101.049 100.214 99.684 98.182 97.709 96.272 92.914 91.354 91.004 90.882
-9999 -9999 -9999 -9999 -9999 -9999 -9999 -9999 -9999 -9999 -9999 -9999 -9999 -9999 -9999 -9999 -9999 -9999 -9999 -9999 -9999 -9999 -9999 -9999 -9999 -9999 -9999 -9999 -9999 -9999 -9999 -9999 -9999 -9999 -9999 -9999 -9999 -9999 -9999 -9999 -9999 -9999 -9999 -9999 -9999 -9999 -9999 -9999 -9999 -9999 -9999 -9999 -9999 -9999 -9999 -9999 -9999 -9999 -9999 -9999 -9999 -9999 -9999 -9999 -9999 -9999 -9999 -9999 -9999 -9999 -9999 -9999 -9999 -9999 -9999 -9999 -9999 -9999 -9999 -9999 -9999 -9999 -9999 -9999 -9999 -9999 -9999 113.695 -9999 -9999 -9999 -9999 -9999 -9999 -9999 -9999 -9999 -9999 -9999 -9999 -9999 -9999 -9999 -9999 -9999 -9999 -9999 -9999 -9999 -9999 -9999 -9999 -9999 -9999 -9999 112.735 112.77 112.817 112.902 112.96 113.05 113.145 113.245 113.41 113.58 113.697 113.845 114.012 114.2 114.412 114.657 114.97 115.25 115.495 115.82 116.032 116.26 116.467 116.612 116.715 116.825 116.93 117.01 117.055 117.122 117.167 117.195 117.192 117.197 117.195 117.19 117.17 117.125 117.077 117.072 117.057 117.032 117.015 116.972 116.93 116.882 116.82 116.73 116.72 116.697 116.655 116.86 116.43 116.24 116.172 116.077 116.025 117.835 116.422 116.357 116.38 116.347 116.235 116.232 118.997 120.705 122.205 120.39 122.017 120.777 119.9 121.31 121.697 119.575 121.402 121.16 121.5 119.287 119.225 116.525 116.307 116.322 116.26 116.237 116.237 116.262 116.295 116.347 116.487 116.452 116.492 116.527 116.592 116.64 116.67 116.682 116.72 116.752 116.757 116.88 116.882 116.87 116.837 119.037 120.265 116.895 116.822 117.722 117.485 117.135 116.815 116.817 121.252 130.76 131.537 132.007 130.882 128.617 121.612 117.097 116.705 116.69 117.17 116.945 116.747 119.352 122.362 126.842 127.057 122.437 118.087 116.722 116.512 116.454 116.379 116.329 119.407 121.174 120.689 122.267 122.272 120.607 117.357 116.307 116.267 116.272 116.277 116.272 116.289 116.372 122.104 121.934 118.762 117.817 119.242 117.032 116.954 116.969 117.012 117.032 117.037 117.049 117.202 120.597 123.182 123.429 120.417 117.072 118.394 124.119 118.259 117.274 117.304 117.487 117.362 117.359 117.234 117.167 117.222 117.222 117.242 117.297 118.047 117.509 117.584 117.597 117.607 117.602 120.184 123.609 124.534 120.902 120.407 117.767 117.527 117.512 117.509 117.504 117.499 117.577 118.442 117.647 117.437 117.389 117.367 119.277 122.474 123.217 122.564 118.739 118.634 117.857 120.162 122.507 119.994 117.552 117.317 116.482 114.857 113.164 111.452 110.904 122.307 130.737 122.772 115.194 112.347 113.852 113.342 120.027 120.609 117.794 116.999 116.167 116.334 115.762 115.467 117.222 119.439 117.854 115.362 115.544 117.899 122.229 122.252 122.324 122.327 122.292 122.329 122.287 122.299 117.869 116.184 117.129 116.072 115.339 114.109 110.244 114.209 115.592 107.804 110.057 106.302 105.532 104.947 104.557 104.089 103.362 102.894 102.654 102.544 102.437 102.189 101.277 99.029 97.869 98.294 102.032 104.224 96.019 94.367 94.299 93.052 92.064 95.957 91.137 91.162
-9999 -9999 -9999 -9999 -9999 -9999 -9999 -9999 -9999 -9999 -9999 -9999 -9999 -9999 -9999 -9999 -9999 -9999 -9999 -9999 -9999 -9999 -9999 -9999 -9999 -9999 -9999 -9999 -9999 -9999 -9999 -9999 -9999 -9999 -9999 -9999 -9999 -9999 -9999 -9999 -9999 -9999 -9999 -9999 -9999 -9999 -9999 -9999 -9999 -9999 -9999 -9999 -9999 -9999 -9999 -9999 -9999 -9999 -9999 -9999 -9999 -9999 -9999 -9999 -9999 -9999 -9999 -9999 -9999 -9999 -9999 -9999 -9999 -9999 -9999 -9999 -9999 -9999 -9999 -9999 -9999 -9999 -9999 -9999 -9999 -9999 113.76 113.78 -9999 -9999 -9999 -9999 -9999 -9999 -9999 -9999 -9999 -9999 -9999 -9999 -9999 -9999 -9999 -9999 -9999 -9999 -9999 -9999 -9999 -9999 -9999 -9999 -9999 -9999 112.785 112.817 112.855 112.955 113.022 113.15 113.175 113.257 113.385 113.557 113.74 113.865 114.002 114.162 114.335 114.572 114.812 115.125 115.412 115.682 115.967 116.202 116.392 116.6 116.727 116.837 116.935 117.04 117.11 117.16 117.222 117.272 117.29 117.275 117.272 117.262 117.22 117.205 117.192 117.177 117.165 117.165 117.155 117.127 117.082 117.02 116.98 116.892 116.83 116.795 116.732 116.745 116.755 116.412 116.357 116.272 116.17 117.122 116.69 116.425 116.465 116.42 116.405 116.347 116.327 116.357 116.342 116.345 116.327 116.28 116.295 116.23 116.255 116.252 116.24 116.187 116.187 118.435 119.287 119.22 116.827 116.325 116.357 116.31 116.295 116.28 116.28 116.302 116.347 116.485 116.947 117.01 116.595 116.57 116.62 116.655 116.667 116.74 118.12 117.267 118.375 117.427 116.912 116.792 116.755 116.78 116.792 116.822 116.857 116.872 116.85 116.815 116.812 119.47 124.875 130.822 130.325 126.917 117.002 117.515 117.082 116.817 116.83 117.272 116.732 116.712 116.71 118.902 128.345 128.207 124.582 118.544 116.464 116.379 116.509 117.262 122.319 123.097 122.034 122.554 122.159 120.549 117.687 116.332 116.297 116.287 116.219 116.279 116.272 116.262 116.379 119.774 121.817 118.907 116.894 119.127 118.269 116.932 117.024 116.969 116.994 117.012 118.689 120.139 122.792 123.609 124.239 123.669 117.652 117.057 118.604 118.624 117.272 117.284 117.339 117.312 117.219 117.154 117.177 117.162 117.259 117.344 117.409 117.462 117.602 117.539 117.584 117.594 117.939 122.564 124.097 124.894 124.152 122.829 117.809 117.507 117.492 117.462 117.447 117.477 118.037 117.807 117.417 117.364 117.332 117.897 119.689 120.472 123.029 122.367 117.502 117.437 117.424 117.384 123.037 117.697 117.337 117.122 115.957 114.012 112.362 111.282 110.789 131.362 130.174 115.197 110.679 121.604 128.394 125.789 128.144 123.332 120.264 116.804 116.577 115.649 115.462 115.524 119.684 120.574 119.992 119.067 116.469 114.712 115.392 121.582 122.244 122.279 122.387 122.289 122.294 120.407 116.327 116.247 115.619 113.444 112.957 111.972 110.334 108.952 110.319 107.899 111.584 109.437 108.527 106.117 104.499 103.997 103.377 102.904 102.644 102.517 102.397 101.934 100.499 100.189 98.129 97.937 98.014 95.437 96.397 94.024 93.097 92.532 92.042 93.544 91.284 94.637
-9999 -9999 -9999 -9999 -9999 -9999 -9999 -9999 -9999 -9999 -9999 -9999 -9999 -9999 -9999 -9999 -9999 -9999 -9999 -9999 -9999 -9999 -9999 -9999 -9999 -9999 -9999 -9999 -9999 -9999 -9999 -9999 -9999 -9999 -9999 -9999 -9999 -9999 -9999 -9999 -9999 -9999 -9999 -9999 -9999 -9999 -9999 -9999 -9999 -9999 -9999 -9999 -9999 -9999 -9999 -9999 -9999 -9999 -9999 -9999 -9999 -9999 -9999 -9999 -9999 -9999 -9999 -9999 -9999 -9999 -9999 -9999 -9999 -9999 -9999 -9999 -9999 -9999 -9999 -9999 -9999 -9999 -9999 -9999 -9999 113.825 113.912 114.145 114.332 -9999 -9999 -9999 -9999 -9999 -9999 -9999 -9999 -9999 -9999 -9999 -9999 -9999 -9999 -9999 -9999 -9999 -9999 -9999 -9999 -9999 -9999 -9999 -9999 112.822 112.84 112.9 112.955 113.042 113.147 113.22 113.26 113.377 113.525 113.695 113.85 114.015 114.152 114.307 114.517 114.727 114.975 115.247 115.54 115.837 116.082 116.347 116.547 116.697 116.837 116.945 117.032 117.142 117.19 117.272 117.315 117.352 117.372 117.35 117.355 117.335 117.302 117.262 117.247 117.232 117.242 117.247 117.245 117.215 117.185 117.142 117.08 117.01 116.94 116.907 116.872 117.14 116.65 116.522 116.455 116.345 116.435 118.095 116.52 116.582 116.565 116.487 116.482 116.47 116.43 116.412 116.425 116.39 116.395 116.397 116.387 116.302 116.352 116.332 116.26 116.262 116.275 117.807 116.35 116.342 116.365 117.205 117.627 116.38 116.357 116.377 116.76 116.347 116.375 116.945 119.115 119.137 118.22 116.595 116.622 116.64 116.682 116.837 116.85 120.53 120.257 121.492 122.032 122.157 118.055 116.752 116.792 116.827 116.845 116.875 117.07 116.992 116.83 116.895 122.515 124.035 125.74 119.875 117.377 117.767 116.845 116.817 117.01 116.822 116.722 116.635 116.705 116.617 120.322 125.71 123.082 116.387 117.699 119.859 121.997 122.852 123.679 124.184 122.887 121.637 120.332 116.899 116.357 116.314 116.262 116.272 116.307 116.217 116.287 116.254 117.997 120.184 118.207 116.764 119.114 119.162 119.149 118.729 117.502 117.319 116.949 117.447 120.864 123.029 123.799 124.214 123.499 122.757 118.434 117.077 118.272 117.557 117.707 117.827 118.662 117.227 117.109 117.174 117.144 117.202 117.327 117.952 117.829 117.422 117.619 117.509 117.544 117.554 122.719 123.684 124.592 124.574 123.652 117.577 117.522 117.497 117.442 117.407 117.409 118.042 117.889 117.442 117.349 117.294 117.442 118.239 118.904 117.977 118.492 121.532 117.704 117.344 117.347 117.617 123.209 118.479 118.612 117.089 115.384 113.784 112.212 111.314 111.127 128.967 127.877 117.272 110.654 113.284 129.032 128.914 122.194 126.054 118.812 117.529 115.524 115.469 115.462 116.034 116.899 119.137 120.097 120.497 119.612 118.634 114.267 114.177 116.357 122.224 122.249 122.332 122.362 116.352 116.304 116.227 114.787 113.469 113.209 112.372 110.984 109.477 110.614 111.237 112.144 111.382 107.492 104.822 104.374 103.817 103.439 103.057 102.637 102.514 102.374 102.204 108.689 102.662 105.994 101.089 96.104 99.574 98.689 95.517 93.994 92.932 92.294 91.762 91.399 91.182
-9999 -9999 -9999 -9999 -9999 -9999 -9999 -9999 -9999 -9999 -9999 -9999 -9999 -9999 -9999 -9999 -9999 -9999 -9999 -9999 -9999 -9999 -9999 -9999 -9999 -9999 -9999 -9999 -9999 -9999 -9999 -9999 -9999 -9999 -9999 -9999 -9999 -9999 -9999 -9999 -9999 -9999 -9999 -9999 -9999 -9999 -9999 -9999 -9999 -9999 -9999 -9999 -9999 -9999 -9999 -9999 -9999 -9999 -9999 -9999 -9999 -9999 -9999 -9999 -9999 -9999 -9999 -9999 -9999 -9999 -9999 -9999 -9999 -9999 -9999 -9999 -9999 -9999 -9999 -9999 -9999 -9999 -9999 -9999 113.98 114.12 114.207 114.442 114.525 114.392 -9999 -9999 -9999 -9999 -9999 -9999 -9999 -9999 -9999 -9999 -9999 -9999 -9999 -9999 -9999 -9999 -9999 -9999 -9999 -9999 -9999 -9999 112.867 112.915 112.962 113 113.04 113.107 113.187 113.255 113.355 113.48 113.642 113.807 113.947 114.107 114.28 114.455 114.67 114.892 115.13 115.395 115.675 115.957 116.197 116.45 116.632 116.79 116.917 117.042 117.137 117.23 117.305 117.365 117.425 117.432 117.47 117.457 117.42 117.407 117.39 117.355 117.337 117.317 117.322 117.325 117.32 117.302 117.277 117.23 117.18 117.107 117.062 117.022 117.05 116.865 116.7 116.637 116.532 116.48 118.187 118.462 116.672 116.652 116.587 116.57 116.56 116.532 116.472 116.472 116.475 116.435 116.412 116.455 116.445 116.387 116.397 116.39 116.292 116.372 116.35 117.27 116.395 116.415 116.412 117.44 117.617 116.432 116.405 116.457 117.095 116.545 116.675 116.595 119.095 119.12 117.61 116.6 116.61 116.607 116.687 118.377 117.565 120.85 119.285 121.107 122.39 122.285 121.767 117.132 117.652 116.827 117.48 116.76 116.657 116.705 116.727 116.795 116.88 117.16 117.48 117.2 119.027 117.25 116.825 116.842 116.845 117.02 116.93 116.585 118.44 117.062 116.607 119.527 116.469 116.864 123.564 123.047 123.417 124.234 125.059 125.029 123.624 122.267 120.927 118.434 116.334 116.312 116.274 116.222 116.232 116.199 116.257 116.997 119.614 117.417 117.329 116.594 118.164 119.189 119.164 116.927 116.679 118.774 120.269 116.899 121.064 123.957 124.059 123.327 119.732 117.174 116.999 117.049 117.164 117.234 117.419 117.269 117.392 117.084 117.122 117.069 117.212 117.494 117.389 117.372 117.942 118.077 117.999 117.459 117.507 121.949 124.124 124.152 124.897 124.074 122.199 117.517 117.524 117.474 117.427 117.369 118.592 117.559 117.474 117.314 117.284 117.359 117.552 118.029 117.652 117.499 117.362 117.647 119.644 118.009 117.274 117.227 118.412 119.262 126.282 117.717 117.279 113.152 112.159 111.667 111.347 116.834 117.034 110.899 110.719 110.684 123.249 113.489 119.614 122.572 117.482 115.559 115.492 115.449 115.447 115.429 115.384 116.674 118.364 119.539 121.072 120.239 119.322 117.227 113.947 113.857 119.397 122.227 118.634 116.259 116.232 116.169 113.639 113.457 114.534 112.532 111.202 109.722 109.317 107.994 107.252 109.267 109.142 104.877 104.349 103.617 103.309 104.504 102.669 102.504 102.307 102.579 108.094 109.117 99.607 103.992 102.524 103.434 95.787 97.299 98.674 94.767 92.352 91.959 91.574 91.237
-9999 -9999 -9999 -9999 -9999 -9999 -9999 -9999 -9999 -9999 -9999 -9999 -9999 -9999 -9999 -9999 -9999 -9999 -9999 -9999 -9999 -9999 -9999 -9999 -9999 -9999 -9999 -9999 -9999 -9999 -9999 -9999 -9999 -9999 -9999 -9999 -9999 -9999 -9999 -9999 -9999 -9999 -9999 -9999 -9999 -9999 -9999 -9999 -9999 -9999 -9999 -9999 -9999 -9999 -9999 -9999 -9999 -9999 -9999 -9999 -9999 -9999 -9999 -9999 -9999 -9999 -9999 -9999 -9999 -9999 -9999 -9999 -9999 -9999 -9999 -9999 -9999 -9999 -9999 -9999 -9999 -9999 114.215 114.12 114.512 114.187 114.515 114.64 114.627 114.415 114.428 -9999 -9999 -9999 -9999 -9999 -9999 -9999 -9999 -9999 -9999 -9999 -9999 -9999 -9999 -9999 -9999 -9999 -9999 -9999 112.905 112.95 112.98 113.032 113.067 113.1 113.155 113.212 113.272 113.357 113.467 113.622 113.775 113.922 114.062 114.205 114.41 114.605 114.822 115.052 115.3 115.555 115.82 116.077 116.317 116.522 116.68 116.86 116.985 117.095 117.222 117.312 117.405 117.47 117.517 117.542 117.54 117.54 117.507 117.482 117.465 117.442 117.442 117.42 117.422 117.405 117.385 117.385 117.347 117.315 117.227 117.17 117.142 117.135 117.275 116.862 116.792 116.705 116.585 117.095 117.27 116.795 116.752 116.63 118.112 125.702 125.687 124.53 116.522 116.477 116.502 116.517 116.5 116.54 116.52 116.497 116.472 116.445 116.417 116.357 116.34 119.655 121.07 119.047 122.497 120.575 119.275 119.022 118.197 120.082 119.412 120.74 120.74 121.362 119.085 119.105 117.565 116.565 116.575 116.61 116.745 117.227 118.812 119.202 118.69 119.65 120.67 121.062 117.755 117.257 116.97 116.67 116.672 116.667 116.615 116.61 116.667 116.71 116.722 116.757 116.76 116.752 117.242 116.795 116.8 116.825 116.762 116.675 117.477 121.035 116.53 116.57 116.562 116.97 117.537 122.394 123.059 123.979 124.784 125.484 124.842 123.209 123.137 122.329 117.507 116.339 116.347 116.337 116.294 116.244 116.219 116.232 119.322 118.617 120.974 119.389 116.829 116.572 116.597 117.017 118.189 116.702 116.667 116.617 117.004 117.319 116.972 123.377 123.562 123.174 117.054 117.004 117.032 117.094 117.209 117.214 117.187 117.097 117.039 117.094 117.082 117.159 117.637 119.877 121.954 120.534 117.314 117.414 118.329 120.004 117.452 122.432 123.832 124.652 124.464 123.597 118.104 117.597 117.517 117.472 117.362 117.924 118.227 117.547 117.314 117.277 117.299 118.284 117.537 117.409 117.407 117.317 117.422 117.592 121.477 117.224 117.212 117.162 117.237 126.024 131.557 120.864 118.062 115.094 113.254 112.497 112.712 112.104 116.749 111.182 111.177 113.864 115.167 116.727 124.904 119.979 115.622 115.527 115.439 115.394 117.079 115.414 115.342 115.367 115.412 117.544 124.119 122.397 119.274 113.749 113.617 113.727 114.692 114.289 114.409 115.907 115.252 113.654 113.507 114.152 113.714 112.652 111.264 109.819 109.312 110.764 107.427 106.057 105.322 104.829 104.239 103.504 103.219 103.042 102.667 102.507 102.287 101.647 107.489 108.377 105.492 104.329 102.267 95.337 94.427 95.824 100.029 94.412 92.522 92.129 91.767 91.302
-9999 -9999 -9999 -9999 -9999 -9999 -9999 -9999 -9999 -9999 -9999 -9999 -9999 -9999 -9999 -9999 -9999 -9999 -9999 -9999 -9999 -9999 -9999 -9999 -9999 -9999 -9999 -9999 -9999 -9999 -9999 -9999 -9999 -9999 -9999 -9999 -9999 -9999 -9999 -9999 -9999 -9999 -9999 -9999 -9999 -9999 -9999 -9999 -9999 -9999 -9999 -9999 -9999 -9999 -9999 -9999 -9999 -9999 -9999 -9999 -9999 -9999 -9999 -9999 -9999 -9999 -9999 -9999 -9999 -9999 -9999 -9999 -9999 -9999 -9999 -9999 -9999 -9999 -9999 -9999 -9999 114.471 114.397 114.697 114.372 114.585 114.747 114.782 114.54 114.54 114.522 -9999 -9999 -9999 -9999 -9999 -9999 -9999 -9999 -9999 -9999 -9999 -9999 -9999 -9999 -9999 -9999 -9999 -9999 112.965 112.995 113.04 113.097 113.142 113.172 113.207 113.292 113.322 113.372 113.47 113.605 113.74 113.89 114.03 114.19 114.31 114.487 114.715 114.965 115.175 115.447 115.72 115.97 116.205 116.437 116.615 116.752 116.902 117.04 117.16 117.3 117.397 117.487 117.545 117.587 117.622 117.642 117.597 117.597 117.567 117.56 117.535 117.532 117.537 117.54 117.52 117.492 117.465 117.407 117.385 117.312 117.26 117.217 117.405 117.097 116.942 116.875 116.765 116.797 118.215 116.855 116.892 116.805 116.655 117.512 126.127 126.625 126.61 126.642 122.897 116.535 116.5 116.53 116.587 116.585 116.567 116.51 116.472 116.442 116.41 116.372 121.082 125.84 125.922 125.9 125.925 125.922 125.897 125.91 125.882 125.887 125.877 125.867 125.252 119.1 119.115 118.245 116.552 116.515 116.612 117.13 117.01 119.822 119.8 117.172 116.782 117.105 117.082 116.752 116.705 117.067 116.6 116.597 116.582 116.56 116.52 116.567 116.61 116.685 116.687 116.695 116.877 119.062 116.785 116.77 116.755 116.647 116.542 116.847 116.195 116.435 116.522 116.487 121.527 126.617 123.902 122.482 123.812 125.054 124.324 123.459 122.449 121.169 116.322 116.367 116.377 116.347 116.342 116.274 116.214 117.757 116.412 117.549 121.219 119.512 116.774 116.537 116.574 116.589 116.617 116.622 116.654 116.659 116.627 116.599 117.624 118.327 117.272 122.102 116.899 116.964 117.027 117.057 117.282 117.742 117.142 117.042 116.992 117.042 117.052 117.144 117.297 121.352 118.979 120.277 117.459 117.292 117.257 119.694 119.387 119.104 117.589 117.597 124.924 123.997 122.417 120.597 118.222 117.467 117.412 117.369 117.527 117.532 117.297 117.262 117.287 117.464 120.224 117.694 117.347 117.249 118.294 118.154 119.809 117.174 117.144 117.124 117.117 117.112 117.339 119.549 117.909 117.924 117.707 115.232 125.729 116.677 128.922 130.499 116.282 116.882 120.222 117.502 118.762 119.459 115.662 115.604 115.527 115.409 115.409 117.857 116.182 115.444 115.459 115.484 124.684 126.384 125.414 123.712 119.214 113.084 113.239 115.717 113.607 113.669 113.619 113.694 113.939 113.579 113.762 113.699 112.802 111.397 109.609 109.709 112.167 108.242 106.772 107.434 105.534 104.307 103.599 103.192 102.987 102.659 102.484 102.287 101.792 100.257 107.532 104.127 102.522 102.512 98.752 96.234 94.037 93.989 94.522 92.694 92.319 94.769 91.352
-9999 -9999 -9999 -9999 -9999 -9999 -9999 -9999 -9999 -9999 -9999 -9999 -9999 -9999 -9999 -9999 -9999 -9999 -9999 -9999 -9999 -9999 -9999 -9999 -9999 -9999 -9999 -9999 -9999 -9999 -9999 -9999 -9999 -9999 -9999 -9999 -9999 -9999 -9999 -9999 -9999 -9999 -9999 -9999 -9999 -9999 -9999 -9999 -9999 -9999 -9999 -9999 -9999 -9999 -9999 -9999 -9999 -9999 -9999 -9999 -9999 -9999 -9999 -9999 -9999 -9999 -9999 -9999 -9999 -9999 -9999 -9999 -9999 -9999 -9999 -9999 -9999 -9999 -9999 -9999 114.702 114.497 114.83 115.037 114.61 114.882 114.9 114.712 114.667 114.655 114.63 114.615 -9999 -9999 -9999 -9999 -9999 -9999 -9999 -9999 -9999 -9999 -9999 -9999 -9999 -9999 -9999 -9999 112.99 113.055 113.107 113.137 113.185 113.232 113.262 113.32 113.37 113.442 113.495 113.587 113.727 113.857 113.987 114.115 114.265 114.432 114.612 114.81 115.045 115.307 115.59 115.847 116.097 116.322 116.517 116.695 116.862 116.975 117.125 117.222 117.34 117.467 117.56 117.62 117.665 117.692 117.7 117.662 117.66 117.637 117.645 117.647 117.66 117.657 117.647 117.625 117.595 117.557 117.485 117.452 117.407 117.35 117.46 117.345 117.105 117.04 116.937 116.847 117.992 117.297 116.98 116.957 116.832 116.655 119.852 126.13 127.057 127.54 126.94 121.272 116.567 116.572 116.597 116.607 116.647 116.6 116.567 116.547 116.49 116.47 116.382 123.292 125.907 126.635 126.635 126.652 126.635 126.637 126.617 126.627 126.622 126.597 126.227 125.16 119.12 119.142 117.935 116.517 116.537 116.697 117.532 118.742 119.792 121.602 118.77 117.237 116.925 118.635 116.797 116.58 116.58 116.925 116.515 116.492 116.407 116.432 116.427 116.51 116.595 116.612 116.64 117.027 117.335 116.82 116.707 116.635 116.525 116.432 116.197 116.027 116.75 120.552 116.425 125.572 128.727 127.052 119.649 123.009 123.817 122.534 121.489 119.442 119.947 117.917 116.344 116.317 116.332 116.319 116.247 116.144 116.334 120.234 119.107 119.279 118.714 116.439 116.489 116.534 116.554 116.572 116.572 116.622 119.632 120.547 116.619 116.614 116.662 116.877 116.942 116.859 116.942 116.999 117.082 118.232 117.074 117.099 116.939 116.999 117.009 117.089 117.247 117.497 122.642 119.362 118.477 117.557 117.274 119.149 119.684 119.674 119.664 117.844 119.219 117.432 118.059 118.487 120.239 117.549 117.467 117.417 117.674 117.517 117.282 117.252 117.227 117.407 117.517 117.517 119.254 124.987 118.512 117.169 117.452 117.464 117.102 117.107 117.094 117.084 117.084 117.072 118.124 117.547 117.464 117.559 117.539 126.232 117.454 125.724 123.394 117.334 117.729 117.144 115.974 116.822 115.709 115.654 115.587 115.514 115.497 115.507 116.609 116.709 115.462 115.512 119.482 125.449 126.279 125.887 126.379 124.959 127.437 120.584 113.317 113.412 114.017 113.714 113.597 113.562 113.482 114.154 113.672 113.304 111.482 109.762 110.279 112.752 106.759 106.092 105.119 104.702 104.254 103.647 103.232 104.212 103.024 102.454 102.334 101.989 102.362 100.939 99.084 97.062 95.809 95.404 96.939 94.204 93.507 93.302 92.904 92.534 92.049 91.559
-9999 -9999 -9999 -9999 -9999 -9999 -9999 -9999 -9999 -9999 -9999 -9999 -9999 -9999 -9999 -9999 -9999 -9999 -9999 -9999 -9999 -9999 -9999 -9999 -9999 -9999 -9999 -9999 -9999 -9999 -9999 -9999 -9999 -9999 -9999 -9999 -9999 -9999 -9999 -9999 -9999 -9999 -9999 -9999 -9999 -9999 -9999 -9999 -9999 -9999 -9999 -9999 -9999 -9999 -9999 -9999 -9999 -9999 -9999 -9999 -9999 -9999 -9999 -9999 -9999 -9999 -9999 -9999 -9999 -9999 -9999 -9999 -9999 -9999 -9999 -9999 -9999 -9999 -9999 114.877 114.66 114.585 115.407 114.637 114.94 115.06 114.915 114.792 114.785 114.762 114.73 114.952 -9999 -9999 -9999 -9999 -9999 -9999 -9999 -9999 -9999 -9999 -9999 -9999 -9999 -9999 -9999 113.077 113.107 113.155 113.172 113.222 113.27 113.297 113.372 113.412 113.472 113.552 113.64 113.727 113.84 113.982 114.1 114.212 114.34 114.505 114.72 114.967 115.197 115.427 115.685 115.955 116.205 116.432 116.605 116.795 116.952 117.062 117.187 117.275 117.402 117.512 117.597 117.68 117.745 117.76 117.75 117.74 117.73 117.75 117.74 117.735 117.742 117.755 117.762 117.727 117.675 117.637 117.55 117.552 117.515 117.472 117.827 117.307 117.21 117.105 116.987 117.147 118.675 117.067 117.085 117.002 116.847 116.665 117.942 126.14 127.067 127.91 125.597 121.225 116.617 116.6 116.6 116.617 116.625 116.612 116.607 116.582 116.54 116.5 116.44 119.607 125.737 125.745 125.74 125.752 125.762 125.74 125.735 125.75 125.715 125.747 125.732 125.307 119.125 119.152 117.432 116.475 116.542 116.562 116.687 120.095 119.5 116.74 117.415 116.647 116.59 117.365 116.512 116.49 116.46 118.202 116.4 116.372 116.327 116.662 116.317 116.675 116.475 116.507 116.545 117.102 118.58 116.992 116.615 116.537 116.45 116.362 116.212 116.042 116.037 117.337 116.567 122.747 125.799 121.972 117.114 122.242 122.402 117.904 116.282 116.607 117.129 116.294 116.284 116.262 116.257 116.232 117.224 118.352 116.517 120.492 119.004 117.019 116.329 116.377 116.392 116.457 116.532 116.564 116.567 117.412 122.577 122.949 122.612 117.342 116.622 116.604 118.362 118.289 116.924 117.207 117.364 117.009 117.082 116.869 116.932 116.952 117.047 117.197 117.207 117.922 117.252 117.294 117.377 123.109 123.159 120.417 119.777 119.664 118.489 117.312 118.922 119.394 117.442 117.489 117.454 117.467 117.447 117.472 118.312 117.294 117.242 117.197 117.242 117.254 117.347 117.392 124.544 122.622 117.584 117.227 117.064 117.042 117.057 117.072 117.077 117.069 117.394 117.529 116.984 116.962 117.274 117.354 117.304 121.982 119.099 119.942 125.912 116.492 116.059 118.157 118.122 117.224 115.684 115.632 115.582 115.582 115.569 115.557 115.792 116.924 115.497 116.262 123.507 126.314 125.407 124.234 125.259 126.362 126.114 124.102 116.279 113.324 113.247 113.677 113.619 115.184 115.427 113.889 113.404 112.537 111.327 109.684 108.922 112.659 109.632 105.739 105.079 104.564 104.034 103.577 103.177 102.882 102.574 102.417 102.302 102.149 102.717 98.784 97.269 96.799 95.717 95.309 94.264 93.832 93.379 93.087 92.982 92.757 92.129 94.782
-9999 -9999 -9999 -9999 -9999 -9999 -9999 -9999 -9999 -9999 -9999 -9999 -9999 -9999 -9999 -9999 -9999 -9999 -9999 -9999 -9999 -9999 -9999 -9999 -9999 -9999 -9999 -9999 -9999 -9999 -9999 -9999 -9999 -9999 -9999 -9999 -9999 -9999 -9999 -9999 -9999 -9999 -9999 -9999 -9999 -9999 -9999 -9999 -9999 -9999 -9999 -9999 -9999 -9999 -9999 -9999 -9999 -9999 -9999 -9999 -9999 -9999 -9999 -9999 -9999 -9999 -9999 -9999 -9999 -9999 -9999 -9999 -9999 -9999 -9999 -9999 -9999 -9999 115.035 114.945 114.792 115.662 114.785 115.007 115.117 115.077 114.907 114.917 114.885 114.86 115 115.28 114.99 -9999 -9999 -9999 -9999 -9999 -9999 -9999 -9999 -9999 -9999 -9999 -9999 113.225 113.165 113.157 113.205 113.21 113.247 113.297 113.345 113.36 113.465 113.535 113.59 113.662 113.757 113.857 113.98 114.082 114.202 114.332 114.452 114.612 114.832 115.085 115.327 115.612 115.832 116.052 116.265 116.497 116.7 116.855 116.992 117.127 117.262 117.395 117.515 117.6 117.677 117.735 117.77 117.797 117.802 117.805 117.815 117.82 117.835 117.827 117.842 117.827 117.827 117.81 117.782 117.707 117.662 117.647 117.617 117.927 117.542 117.38 117.285 117.167 117.142 119.037 117.145 117.19 117.152 117.032 116.875 116.69 119.375 126.127 127.077 127.922 127.082 121.652 116.645 116.63 116.665 116.665 116.67 116.637 116.602 116.567 116.537 116.75 116.727 116.442 116.432 117.572 118.07 116.74 117.762 117.517 116.445 116.427 117.757 117.857 119.645 119.325 119.13 119.16 117.68 116.52 116.56 116.545 117.84 120.892 121.385 117.002 116.65 116.98 117.842 116.45 116.435 116.415 116.357 116.965 117.06 116.677 116.725 116.492 116.255 116.342 116.395 116.425 116.455 118.635 116.927 116.49 116.495 116.432 116.352 116.257 116.172 116.097 116.082 116.597 117.957 116.22 116.237 116.242 116.222 116.184 116.224 116.294 116.282 116.292 116.284 116.254 116.224 116.192 116.187 116.172 116.149 116.147 119.969 119.362 118.664 116.264 116.307 116.339 116.357 116.422 116.487 116.519 116.549 116.989 121.517 122.372 123.062 123.714 122.324 116.627 116.597 117.669 119.407 118.992 116.972 117.122 116.799 116.854 116.882 116.934 117.139 117.139 118.739 117.167 117.202 117.237 121.482 123.709 124.609 124.829 121.329 119.754 117.359 117.402 117.317 118.122 119.449 119.762 118.067 117.467 117.504 117.577 117.307 117.234 117.207 117.239 117.329 117.399 117.364 117.332 117.172 117.904 117.072 117.017 116.989 117.007 117.029 117.044 117.057 117.059 117.014 118.692 116.959 116.739 116.627 116.559 116.479 119.269 119.012 116.294 116.239 116.154 116.049 115.914 115.812 115.709 115.654 115.632 115.619 115.604 115.609 115.597 115.589 115.414 115.514 121.342 125.112 126.027 124.389 124.107 125.682 125.704 125.384 125.287 116.744 116.377 114.062 113.244 113.597 114.037 113.317 113.324 113.079 112.817 115.827 116.719 114.647 111.617 106.782 105.912 105.174 104.557 104.019 103.494 103.259 102.922 102.542 102.414 102.294 110.219 101.072 98.869 97.172 96.704 95.504 94.852 94.297 93.959 93.422 93.172 92.987 92.767 92.222 95.742
