ncols 433
nrows 32
xllcorner    427106
yllcorner    430058
cellsize     2
NODATA_value -9999
59.737 59.588 58.556 57.943 57.862 58.453 58.054 57.787 57.861 57.886 57.515 57.436 57.385 57.343 57.33 57.266 57.305 57.395 57.351 57.364 57.425 57.423 57.435 57.389 57.392 57.865 57.54 58.349 57.653 57.419 58.28 57.62 57.5 58.811 62.382 62.699 63.133 61.751 61.891 60.638 58.073 63.107 61.616 58.023 57.578 57.705 57.662 57.654 57.705 57.73 57.732 57.729 57.897 57.773 57.763 60.522 63.829 64.927 64.53 61.068 57.772 57.693 57.64 57.581 57.56 57.566 57.54 57.499 57.474 57.423 57.391 57.35 57.28 57.25 57.205 57.22 57.422 57.229 57.059 56.666 58.576 56.74 54.915 54.407 58.135 59.779 56.776 52.467 52.1 51.731 52.059 52.749 52.917 52.925 52.767 52.787 52.846 52.869 52.921 53.155 53.398 53.901 54.318 54.963 55.3 55.799 56.194 57.242 57.562 57.471 58.084 58.226 58.042 58.021 58.599 59.567 60.792 62.241 62.457 62.915 62.908 62.842 62.772 62.647 62.538 62.233 61.096 59.644 59.284 58.711 59.988 66.788 66.781 64.481 59.563 60.413 60.381 60.413 60.436 60.569 60.655 60.687 60.62 60.539 60.501 60.412 60.352 60.204 60.062 59.85 59.691 59.622 59.561 59.468 59.611 59.846 60.013 60.054 61.411 62.103 61.593 60.293 60.343 62.538 65.507 65.727 65.838 65.722 64.757 64.479 60.1 61.39 60.105 60.328 64.549 62.857 60.668 62.237 61.781 62.671 62.069 61.991 62.116 62.382 66.782 68.871 69.718 70.297 69.978 69.278 67.14 66.914 65.654 64.91 64.681 64.566 64.65 64.733 64.889 64.798 64.743 64.821 65.016 65.314 65.653 65.797 65.94 66.003 65.903 65.92 65.844 65.819 65.748 65.72 65.738 65.846 65.932 65.868 65.98 65.907 65.915 65.891 65.873 65.879 65.88 65.951 65.96 65.904 65.782 65.555 65.604 65.29 67.96 67.174 68.497 68.508 69.725 68.507 68.871 66.267 67.742 68.15 68.916 68.941 65.19 67.377 67.831 66.334 68.682 64.169 66.744 64.785 63.865 63.615 63.445 63.408 63.397 63.381 63.433 64.482 63.367 63.366 63.306 63.217 63.123 63.006 62.958 63.689 63.16 62.512 62.523 62.025 61.84 61.812 63.785 63.214 64.581 67.1 67.237 67.349 67.561 63.831 61.771 61.399 61.289 61.209 61.234 66.337 67.24 66 61.093 60.533 59.98 58.557 59.196 57.83 57.43 57.173 57.068 56.822 56.568 56.323 56.175 55.95 55.767 55.532 58.973 57.247 55.501 54.819 54.673 54.477 54.28 54.14 53.988 53.991 57.26 57.479 55.902 54.26 54.255 59.219 60.225 60.617 61.062 60.966 60.463 60.115 59.402 56.61 54.227 54.118 55.446 53.407 53.077 52.959 52.944 52.885 52.809 52.723 52.63 52.498 52.37 52.377 52.301 52.198 53.044 52.699 52.224 52.161 52.158 57.209 58.303 53.999 52.758 57.251 57.762 58.151 58.324 57.881 57.21 53.056 51.334 50.326 50.75 49.577 49.052 50.048 49.895 48.491 48.296 48.106 49.23 47.995 48.044 47.867 47.817 47.628 47.497 47.477 48.224 48.516 47.863 47.887 47.824 47.722 47.385 47.148 47.036 46.945 47.081 47.092 47.044 46.993 46.952 47.154 47.242 47.13 47.147 47.183 47.141 47.095 47.062 47.021 46.959 46.876 46.736 46.615 46.468 46.371 46.367 46.376 46.278 46.367 46.477 46.518 46.465 46.414 46.332 46.218 46.093 46.048 46.079 46.02 46.158 46.164 46.146 46.168 46.141 46.035 46.041 45.995 45.983
62.433 63.669 59.406 58.17 59.113 58.345 58.142 58.123 57.837 57.809 57.581 57.488 57.493 57.501 57.461 57.391 57.403 57.413 57.365 57.375 57.334 57.292 57.29 57.321 57.289 57.324 57.323 57.686 57.356 57.379 57.354 57.406 57.423 57.544 57.561 61.507 61.628 61.204 62.162 58.475 63.627 64.693 64.004 62.725 58.762 57.548 57.619 57.619 57.705 57.711 57.687 57.756 58.002 57.745 58.299 63.013 64.844 64.723 63.782 60.281 57.674 57.648 57.651 57.626 57.605 57.627 57.593 57.624 57.583 57.554 57.496 57.378 57.314 57.28 57.272 57.198 57.068 57.063 57.385 57.102 56.751 56.458 56.049 55.225 58.212 61.372 58.987 59.119 52.69 52.288 51.4 51.591 52.2 52.76 52.649 52.659 52.708 52.9 52.941 53.014 53.252 53.557 53.884 54.45 54.85 55.387 56.05 56.848 57.653 57.285 58.039 58.095 58.056 57.871 58.168 58.973 60.102 61.406 62.51 62.65 62.913 62.894 62.809 62.735 62.578 62.513 62.423 61.034 59.74 58.697 59.707 64.927 64.455 59.317 60.141 59.343 59.769 60.561 60.506 60.398 60.538 60.726 60.572 60.435 60.417 60.387 60.318 60.215 60.09 59.96 59.643 59.549 59.509 59.481 59.424 59.527 59.785 60.003 60.877 60.78 60.647 60.373 60.454 60.427 59.867 64.023 65.188 65.707 65.898 65.649 62.759 60.161 59.925 62.974 64.232 62.457 60.211 60.375 61.391 60.84 60.881 61.278 61.601 64.361 67.679 68.644 69.116 70.529 69.609 68.831 64.614 64.016 63.851 63.8 64.078 64.254 64.393 64.666 64.782 68.137 69.555 66.248 64.877 64.942 64.94 65.109 65.074 65.308 65.186 65.394 65.33 65.367 65.379 65.4 65.544 65.606 65.667 65.59 65.799 65.763 65.899 65.715 65.672 65.544 66.516 66.633 65.606 65.517 66.563 65.846 65.428 69.774 70.78 70.628 70.632 70.938 71.197 71.149 70.756 69.715 70.378 70.405 70.511 70.118 69.817 70.284 70.324 70.457 69.476 68.959 69.575 65.125 63.76 63.478 63.389 63.412 63.608 63.253 63.405 63.384 63.742 63.354 63.94 63.286 63.929 63.196 62.654 62.676 64.14 62.82 62.437 64.044 66.463 65.747 66.795 67.284 67.444 67.562 67.605 67.349 67.435 62.602 61.717 61.855 61.162 61.086 61.027 64.862 67.13 66.731 64.052 60.755 60.152 58.273 58.259 57.896 57.417 57.233 56.962 56.762 56.564 56.571 57.395 56.47 55.755 57.641 59.98 61.702 56.556 55.745 54.544 54.369 54.13 54.008 53.89 53.825 53.719 53.863 55.834 56.595 54.064 59.156 60.797 61.121 60.589 60.375 59.527 55.764 54.139 54.206 55.182 53.818 53.845 54.626 53.104 52.947 52.897 52.791 53.806 52.832 52.574 52.523 52.395 52.373 52.454 52.263 52.365 52.291 52.171 52.126 51.978 52.65 54.904 55.712 57.179 57.86 58.645 58.377 58.152 57.377 53.935 51.667 51.107 50.125 50.528 49.733 49.776 50.319 49.384 48.495 48.092 48.911 52.879 52.81 48.621 47.886 47.753 47.625 47.478 48.018 47.898 47.833 47.94 47.925 47.885 47.629 47.245 47.127 46.985 47.12 47.093 47.085 46.985 46.921 47.104 47.345 47.173 47.093 47.101 47.106 47.112 47.079 47.017 46.999 46.967 46.818 46.758 46.666 46.471 46.317 46.322 46.358 46.33 46.229 46.368 46.466 46.388 46.387 46.324 46.326 46.251 46.176 46.19 46.108 46.256 46.271 46.195 46.24 46.207 46.32 45.985 45.956 45.983
64.821 64.418 62.013 61.126 60.205 58.267 58.231 58.46 57.925 57.885 57.706 57.566 57.53 57.522 57.515 57.46 57.457 57.467 57.418 57.394 57.36 57.342 57.291 57.286 57.266 57.287 57.169 57.249 57.219 57.239 57.302 57.598 58.167 57.405 57.404 60.903 63.046 62.001 61.564 62.752 64.651 64.517 64.74 63.854 61.776 58.134 57.682 57.677 57.665 57.7 57.732 58.641 64.957 58.423 60.049 61.822 64.551 63.868 60.523 58.088 57.65 57.675 57.68 57.686 57.806 57.788 57.742 57.72 57.711 57.661 57.576 57.56 57.492 57.438 57.344 57.225 57.155 57.076 56.982 57.051 57.041 56.728 56.533 56.225 59.879 60.916 59.811 56.043 56.007 52.96 52.424 51.751 51.643 51.997 52.133 52.286 52.589 52.81 52.967 53.101 53.089 53.346 53.671 54.196 54.413 54.838 55.373 56.301 57.095 57.23 57.642 57.865 57.897 57.749 57.743 58.459 59.562 62.477 62.546 62.473 62.82 62.868 62.847 62.74 62.598 62.536 63.253 61.812 60.533 58.979 58.232 60.895 62.359 59.539 65.873 62.882 59.724 60.332 60.364 60.629 60.516 60.607 60.59 60.44 60.378 60.337 60.273 60.227 60.117 59.959 59.825 59.482 59.493 59.393 59.337 59.313 59.397 60.793 62.765 60.848 60.553 61.497 60.9 60.476 59.777 59.952 60.009 63.021 65.105 65.696 61.086 59.7 59.615 59.542 60.817 61.262 59.841 60.116 60.244 60.61 60.705 60.685 60.917 65.848 67.422 68.712 68.799 68.093 64.403 63.908 62.942 62.914 64.407 67.003 66.007 63.751 63.937 66.312 67.439 70.039 70.813 71.495 69.69 66.299 64.829 65.925 65.376 66.533 67.758 65.729 65.167 65.428 66.038 65.944 66.998 67.64 66.994 65.611 66.958 66.881 66.886 65.855 65.619 65.48 67.226 68.519 65.39 65.653 68.806 69.389 69.243 71.475 71.442 71.692 71.672 71.875 72.025 71.993 71.991 71.095 71.217 71.272 71.398 71.296 71.068 71.133 71.174 71.407 71.455 70.366 70.337 67.076 63.708 63.411 63.232 63.159 63.68 63.138 63.252 63.292 63.21 63.362 64.416 62.99 63.126 65.17 62.84 64.054 65.798 66.372 66.578 67.484 67.72 67.698 67.741 67.481 67.562 67.189 64.199 63.012 63.007 62.737 61.575 62.567 60.915 60.726 60.989 65.572 67.102 66.637 61.333 60.111 59.116 58.285 58.184 57.571 57.415 57.255 60.261 59.354 56.833 56.509 56.343 56.3 56.491 58.174 59.596 57.813 58.074 57.183 54.65 54.443 54.239 53.992 53.794 53.609 53.601 53.423 54.018 54.694 53.89 56.574 60.79 60.419 60.056 56.966 54.282 54.38 54.035 53.577 55.037 53.432 54.148 53.901 52.984 52.977 53.918 52.96 52.792 52.567 52.524 52.431 52.362 52.357 52.9 52.654 52.37 52.282 52.19 52.139 52.04 51.61 54.986 57.005 57.784 58.316 58.161 57.513 57.131 56.468 51.814 51.218 51.4 50.774 49.266 49.177 49.113 48.602 48.476 48.736 48.347 52.594 53.842 53.861 50.275 47.842 47.676 47.575 47.559 47.752 47.886 47.938 47.977 47.895 47.819 47.442 47.133 47.056 47.073 47.117 47.12 47.068 47.021 47.072 47.144 47.07 47.065 47.053 47.023 47.05 47.008 47.007 46.994 46.961 46.884 46.798 46.772 46.708 46.532 46.304 46.33 46.352 46.298 46.228 46.226 46.253 46.28 46.319 46.355 46.301 46.266 46.241 46.276 46.19 46.207 46.195 46.165 46.202 46.151 46.927 46.018 45.984 46.026
66.418 65.299 63.83 62.986 59.149 59.609 61.138 58.806 58.523 57.949 57.877 57.648 57.61 57.56 57.547 57.658 57.703 57.645 57.589 57.555 57.4 57.356 57.323 57.316 57.28 57.251 57.2 57.144 57.136 57.104 57.198 57.205 57.295 57.771 57.279 58.024 58.975 61.944 57.897 64.003 64.101 63.492 64.473 60.034 58.495 57.554 57.847 57.679 57.708 57.697 57.86 64.155 66.715 65.178 59.547 61.072 59.321 58.37 57.873 57.684 57.724 57.759 57.804 57.863 57.783 57.709 57.7 57.816 58.177 57.718 57.541 57.504 57.461 57.438 57.454 57.35 57.194 57.106 57.048 56.936 57.117 57.152 56.921 56.693 56.94 58.6 55.471 54.453 53.936 53.37 53.131 52.904 52.038 51.645 51.437 51.598 51.885 52.234 52.776 53.11 53.202 53.322 53.378 53.628 53.936 54.348 55.112 56.067 56.746 57.449 57.152 57.739 57.834 57.688 57.545 57.853 58.656 61.225 61.968 62.525 62.602 62.923 62.926 62.855 62.73 62.443 62.544 62.339 61.696 59.681 58.422 58.767 63.917 65.187 67.262 67.122 65.779 62.217 59.739 60.525 60.451 60.831 60.552 60.491 60.342 60.291 60.284 60.233 60.17 60.063 59.905 59.611 59.43 59.362 59.286 59.252 59.179 61.479 62.916 63.38 62.054 60.315 61.778 60.37 60.221 59.966 59.7 59.986 61.252 61.423 59.951 59.481 59.359 59.243 60.833 59.739 59.957 59.717 59.986 63.297 61.427 61.938 61.678 66.223 67.36 68.543 68.495 67.872 65.902 63.415 62.255 63.686 65.828 67.878 66.94 63.13 63.597 65.256 66.652 69.958 71.145 71.472 70.729 69.702 66.035 66.213 65.499 65.987 67.977 66.434 65.17 65.156 65.199 65.745 70.795 70.468 68.235 66.156 66.832 65.863 68.51 67.086 69.171 69.31 70.125 69.838 70.683 71.117 71.083 71.291 71.419 72.143 71.97 71.996 71.941 71.887 71.778 71.6 71.455 71.189 71.239 71.121 71.048 70.98 71.575 71.627 71.435 71.402 71.438 71.05 70.989 67.154 63.528 63.238 63.081 62.982 62.95 62.927 64.758 65 63.286 63.478 65.73 63.142 66.532 67.774 67.961 68.033 68.092 68.198 68.199 67.609 67.272 67.037 66.867 66.771 63.191 62.444 61.571 61.527 61.474 61.286 61.187 62.022 60.925 60.862 60.558 63.734 65.748 65.482 62.733 59.731 59.555 58.254 57.939 57.783 58.919 59.986 60.509 57.464 58.167 56.608 56.415 56.205 56.032 56.471 58.552 58.503 56.635 55.455 55.165 55.033 54.399 54.111 53.813 53.558 53.364 53.305 53.331 53.254 53.311 53.281 59.091 59.528 56.96 55.05 54.337 53.801 53.66 53.25 53.091 53.388 53.08 53.72 53.552 53.155 52.877 52.738 52.587 52.566 52.522 52.413 52.4 52.289 53.02 52.373 52.389 52.277 52.227 53.041 52.265 56.927 56.641 57.577 58.278 58.36 57.712 57.147 51.977 51.221 51.088 52.351 49.989 49.826 49.686 48.904 48.68 48.455 48.26 48.237 51.897 53.686 53.8 53.182 48.061 48.03 47.682 47.515 47.579 47.662 48.457 47.99 47.929 47.791 47.529 47.218 47.101 47.095 47.161 47.158 47.092 47.037 47.034 47.22 47.121 47.083 47.025 46.997 46.947 46.965 46.96 46.979 46.975 46.937 46.856 46.772 46.775 46.723 46.791 46.299 46.281 46.305 46.268 46.233 46.189 46.175 46.154 46.19 46.126 46.095 46.117 46.141 46.118 46.073 46.127 46.042 46.037 46.035 45.986 46.017 45.996 46.002 45.981
66.436 66.832 65.922 64.832 58.827 65.283 65.326 62.379 58.926 58.017 57.914 57.761 57.719 57.698 57.781 57.764 57.745 57.817 57.688 57.661 57.598 57.508 57.47 57.381 57.314 57.288 57.241 57.225 57.165 57.141 57.095 57.146 57.151 57.202 57.42 57.433 57.591 57.346 57.484 58.084 61.195 61.319 59.68 58.513 57.602 57.608 57.662 57.677 57.713 57.87 64.855 66.725 67.516 68.128 65.546 58.384 58.452 57.766 57.759 57.7 57.76 57.8 57.91 57.699 57.701 57.682 57.735 61.851 63.351 63.417 61.5 57.717 57.346 57.415 57.389 57.398 57.387 57.159 57.05 56.993 56.942 56.856 57.055 56.887 56.678 56.324 55.968 55.455 54.899 54.306 53.735 53.731 53.187 51.76 51.253 51.222 51.324 51.406 51.898 52.644 52.914 53.25 53.298 53.419 53.605 54.181 54.725 55.539 56.4 58.247 57.055 57.588 57.719 57.492 57.381 57.491 58.232 60.532 61.514 61.646 62.427 62.799 62.894 62.921 62.808 62.747 62.434 62.447 61.714 60.549 59.25 58.012 64.354 66.99 67.563 67.931 66.644 63.445 60.458 60.156 60.46 60.248 60.772 60.546 60.369 60.254 60.235 60.195 60.157 60.083 60.019 59.834 59.595 59.35 59.277 59.19 59.104 59.096 61.524 62.832 63.505 61.509 61.756 60.006 59.965 59.74 59.594 59.659 59.949 59.891 59.507 59.317 59.121 59.013 59.024 59.636 59.674 59.525 59.749 67.457 68.498 66.467 67.513 67.033 67.43 67.739 66.945 66.462 64.026 63.146 62.015 62.06 64.116 66.467 64.274 63.225 66.341 63.653 68.447 69.387 70.492 70.915 70.072 67.081 64.526 64.567 64.563 66.973 67.258 65.328 64.761 65.898 65.265 68.18 70.949 70.978 69.777 65.411 69.221 70.978 71.043 71.26 71.265 71.333 71.219 71.29 71.242 71.244 70.986 70.991 70.698 71.203 71.387 71.089 71.055 70.902 70.721 70.69 67.816 70.457 70.464 70.194 70.1 69.955 71.029 70.822 70.747 70.591 70.475 70.475 70.331 69.655 63.454 63.157 62.925 62.831 64.751 62.923 66.167 67.486 66.703 67.059 68.306 68.165 68.362 68.204 68.159 68.002 68.067 67.794 67.695 67.384 63.16 62.612 61.668 61.483 61.441 61.81 61.401 61.236 61.117 61.04 61.69 60.839 60.468 60.185 60.206 60 65.575 65.624 63.003 59.584 58.709 58.378 57.979 57.72 59.824 60.87 61.61 59.915 57.13 56.71 56.535 56.327 56.505 58.978 58.485 57.332 55.951 57.328 57.652 56.395 54.765 54.261 53.952 54.075 53.641 53.219 53.178 53.121 53.054 53.04 54.125 53.666 54.49 53.784 54.207 53.745 53.867 53.001 53.003 53.668 53.579 53.177 52.843 52.822 52.78 52.716 52.634 52.622 52.545 52.407 52.318 52.304 52.202 52.314 52.321 52.279 53.977 54.868 56.876 58.036 58.25 58.365 58.551 57.869 57.42 53.853 51.153 50.843 50.863 51.006 53.781 50.387 49.432 49.151 48.607 48.315 48.043 50.769 53.557 53.873 53.382 51.005 49.567 47.754 47.607 47.573 47.572 47.617 48.572 48.149 47.866 47.677 47.299 47.119 47.117 47.155 47.173 47.171 47.104 47.117 47.219 47.235 47.15 47.051 46.946 46.886 46.877 46.896 46.859 46.939 46.915 46.936 46.862 46.773 46.736 46.685 47.008 46.292 46.264 46.262 46.21 46.23 46.185 46.23 46.247 46.234 46.163 46.126 46.115 46.092 46.167 46.129 46.119 46.137 46.106 46.079 46.088 46.096 46.067 46.061 46.062
64.354 65.661 66.32 60.43 65.489 67.163 66.595 65.828 63.48 59.409 57.92 57.922 57.823 57.846 58.776 57.977 58.126 58.415 58.356 58.295 57.941 57.697 57.589 57.577 57.501 57.437 57.277 57.25 57.213 57.202 57.154 57.094 56.999 57.066 57.155 57.187 57.307 57.335 57.357 57.457 58.265 58.853 57.764 57.591 57.748 57.759 57.685 57.719 57.747 63.433 66.603 67.544 68.212 67.789 67.042 61.345 59.2 57.83 57.724 57.77 57.825 57.969 57.866 57.75 57.605 57.703 62.955 64.319 64.842 65.024 64.426 62.629 59.035 60.112 59.284 57.482 57.384 57.336 57.177 57.014 56.968 56.893 56.825 56.804 56.797 56.813 56.29 56.054 55.455 54.899 54.203 54.103 53.909 52.403 51.759 51.509 51.489 51.29 51.288 51.747 52.424 52.745 53.093 53.35 53.517 53.903 54.632 55.503 56.185 56.717 56.884 57.05 57.608 57.487 57.262 57.261 57.681 59.477 60.444 60.852 62.329 64.173 62.974 62.964 62.945 62.815 62.585 62.494 62.115 61.262 60.023 58.704 63.016 66.62 67.251 66.267 65.851 61.797 59.007 59.541 60.023 60.2 60.473 60.311 60.264 60.166 60.151 60.141 60.108 60.098 60.044 59.877 59.728 59.493 59.185 59.184 59.096 59.012 58.944 60.127 63.444 63.925 60.639 59.635 59.986 59.781 59.796 59.656 62.638 62.216 59.899 59.38 58.899 58.947 58.939 58.985 59.172 59.316 59.414 65.756 66.892 69.704 70.505 69.854 67.885 67.368 66.628 63.32 63.214 61.082 61.442 61.797 61.941 62.795 61.961 62.071 63.129 67.136 68.962 69.797 70.136 69.522 68.988 63.746 64.256 65.428 65.935 67.299 66.387 64.529 64.236 64.263 64.53 70.624 71.405 70.698 67.888 65.764 69.277 71.194 71.075 70.929 70.726 70.793 70.528 70.553 70.157 69.414 65.658 66.616 68.341 70.3 69.41 66.889 66.462 65.891 66.071 65.111 65.901 66.04 66.102 66.099 66.35 64.834 69.13 69.869 69.89 67.04 65.899 68.668 69.377 69.032 63.781 63.06 62.777 62.757 64.588 63.245 67.474 68.847 68.759 68.9 68.735 68.892 68.796 67.463 63.944 63.776 64.262 63.204 63.123 62.023 61.661 61.605 61.443 61.328 61.224 62.03 61.11 60.968 61.587 60.689 61.411 60.333 60.394 59.998 59.925 63.525 65.596 65.649 61.794 58.752 58.354 58.247 58.003 57.848 60.214 61.695 60.751 57.082 56.843 56.667 56.558 56.41 56.2 56.963 58.47 55.623 57.881 59.907 60.295 60.102 55.18 54.401 54.286 54.25 53.652 53.303 53.15 53.014 52.93 52.902 52.865 52.908 53.445 53.242 53.065 54.432 53.073 53.228 54.038 53.187 52.92 52.774 52.848 52.88 52.939 52.974 52.825 52.752 52.685 52.516 52.394 52.303 52.26 52.298 52.316 52.327 54.254 56.262 57.798 58.402 59.081 58.715 58.167 57.466 54.034 52.175 52.325 50.595 51.408 57.624 56.443 51.122 50 48.991 49.361 48.283 48.034 53.218 54.01 53.587 48.902 48.601 48.253 47.737 47.668 47.633 47.633 48.327 48.258 48.663 48.6 47.631 47.28 47.144 47.208 47.245 47.184 47.184 47.095 47.162 47.223 47.182 46.998 46.805 46.801 46.719 46.698 46.721 46.728 46.784 46.778 46.83 46.792 46.727 46.656 46.668 46.413 46.211 46.268 46.258 46.223 46.209 46.245 46.242 46.273 46.223 46.239 46.251 46.179 46.203 46.159 46.196 46.183 46.189 46.158 46.1 46.105 46.096 46.109 46.104 46.066
60.61 63.519 61.359 61.528 65.552 66.396 67.616 67.219 62.25 58.366 57.984 57.98 57.937 57.932 58.071 58.293 58.52 58.625 58.727 58.867 63.344 59.393 58.329 57.606 57.595 57.526 57.483 57.387 57.25 57.22 57.183 57.134 57.09 57.044 56.995 57.058 57.128 57.235 57.76 57.604 57.468 58.135 57.59 57.676 57.97 58.513 57.715 57.839 65.031 66.469 67.579 67.948 67.636 66.854 66.108 61.395 59.641 58.858 57.771 57.811 57.912 57.993 57.817 57.727 57.684 60.754 64.101 64.759 64.365 64.092 64.746 60.141 61.25 60.68 61.432 59.866 58.547 57.344 57.29 57.146 56.999 57.948 57.119 56.802 56.747 56.838 56.664 56.647 56.227 55.705 57.711 54.87 55.254 53.558 52.751 52.548 52.258 51.819 51.319 51.145 51.274 51.714 52.863 52.645 53.341 53.803 54.554 55.137 55.976 56.387 56.715 56.885 57.524 57.275 57.134 57.12 57.341 58.425 61.54 61.064 63.226 64.169 63.235 62.918 62.934 62.883 62.801 62.661 62.54 62.64 61.322 59.828 60.004 64.648 65.511 64.989 63.274 59.39 58.544 59.202 59.538 59.735 60.091 59.846 60.073 60.065 60.137 60.061 60.102 60.076 60.025 60.011 59.794 59.568 59.37 59.123 59.055 58.983 58.991 60.929 62.225 60.867 59.765 59.516 59.448 59.566 59.423 59.533 63.862 65.947 63.465 60.476 58.882 58.845 58.83 58.888 58.967 59.167 59.239 60.325 67.043 70.149 71.017 63.914 69.468 69.627 66.111 61.187 60.733 60.777 61.084 61.353 61.37 61.412 61.592 64.433 65.373 67.285 68.628 69.115 69.999 69.069 64.186 63.326 63.516 66.145 67.099 67.2 64.579 63.886 64.072 64.022 63.955 67.796 70.249 68.262 67.955 64.954 68.817 70.232 66.809 66.543 68.49 67.297 65.222 65.188 65.387 65.242 64.962 65.062 64.916 65.183 65.006 64.837 64.902 64.732 64.723 64.938 64.952 64.749 64.477 65.278 64.991 65.887 66.606 64.903 64.671 64.532 64.795 66.882 64.644 66.662 67.371 62.947 62.64 62.51 64.182 62.729 66.712 68.514 68.417 68.124 68.067 65.478 65.131 62.838 62.299 62.162 62.575 62.268 61.982 61.614 61.522 61.475 61.328 61.12 61.026 61.009 60.983 61.888 60.622 60.683 60.234 60.14 60.261 59.878 59.828 60.602 65.33 65.707 63.766 58.688 58.234 58.089 57.909 57.698 58.332 58.227 57.477 58.712 56.978 56.767 56.957 56.359 56.163 57.373 56.326 58.573 60.014 60.695 60.811 60.401 56.653 55.009 54.646 54.156 54.433 53.698 53.398 52.968 52.875 52.81 52.797 52.814 52.828 52.824 52.882 53.073 53.922 53.004 52.799 52.839 52.797 52.907 52.947 52.896 55.97 54.664 53.624 52.694 52.677 52.601 52.406 52.255 52.238 52.311 52.385 52.219 52.258 57.05 58.419 59.015 58.783 58.252 57.579 53.631 52.005 51.097 50.72 52.387 52.879 56.108 55.183 50.356 48.912 48.471 48.368 48.373 52.677 53.816 53.682 53.171 49.908 48.098 47.922 47.698 47.719 52.296 47.919 52.25 48.102 48.383 48.797 47.4 47.145 47.222 47.27 47.242 47.188 47.163 47.153 47.223 47.114 46.981 46.684 46.527 46.526 46.58 46.494 46.457 46.504 46.552 46.617 46.646 46.581 46.607 46.584 46.581 46.417 46.224 46.213 46.275 46.251 46.184 46.224 46.247 46.246 46.161 46.243 46.234 46.178 46.226 46.142 46.124 46.145 46.196 46.161 46.076 46.163 46.187 46.601 46.143 46.671
60.273 61.306 58.607 58.731 63.105 64.891 65.856 67.201 59.809 58.288 58.079 58.098 58.038 58.072 58.201 58.408 58.596 58.822 59.05 63.993 65.737 61.154 59.681 59.069 59.305 57.881 57.801 57.481 57.415 57.325 57.191 57.15 57.119 57.081 57.054 56.958 57.026 57.133 57.185 57.952 58.052 57.561 57.718 57.764 57.792 57.801 57.942 64.918 66.82 67.409 68.095 67.784 66.846 62.986 60.386 58.691 58.835 57.698 57.778 57.838 57.973 57.917 57.793 59.115 59.961 58.787 61.204 63.453 59.961 58.548 62.042 58.659 63.06 63.505 63.054 63.568 59.964 57.315 57.191 57.198 57.2 57.121 57.682 56.847 56.763 56.66 56.662 56.745 56.592 55.949 56.283 56.906 57.325 55.022 53.889 53.44 53.033 52.743 51.977 51.564 51.26 51.195 51.303 52.511 53.328 53.658 54.278 55.062 55.902 56.238 56.498 56.675 57.29 57.141 56.995 56.925 57.07 57.252 59.053 60.482 61.79 61.936 62.545 62.719 62.92 62.994 62.845 62.725 62.513 62.598 62.017 61.689 59.261 58.216 62.255 62.336 60.853 58.831 59.764 59.396 59.156 59.62 59.786 59.76 59.958 60.062 60.123 60.076 60.019 60.073 60.053 59.968 59.853 59.667 59.487 59.173 59.061 58.94 58.879 60.146 60.264 59.107 59.204 61.885 61.563 59.22 59.042 59.026 62.333 65.414 64.515 60.165 58.653 58.674 58.761 58.78 59.545 59.977 59.208 60.326 64.19 67.692 69.649 69.369 70.942 69.891 62.751 60.051 60.145 60.409 60.43 60.568 60.594 60.775 62.39 63.96 66.914 68.082 68.681 68.39 67.732 65.011 63.004 63.147 66.481 67.428 68.085 64.956 63.155 63.576 63.897 63.895 66.856 69.49 70.025 69.24 64.362 64.419 64.519 65.193 65.149 66.836 68.105 66.53 65.012 64.623 64.594 64.794 64.764 64.373 64.27 65.555 64.794 64.24 64.226 64.029 64.306 63.888 64.647 64.599 66.265 64.893 63.96 64.449 65.626 64.501 64.186 64.11 64.444 66.837 64.685 67.238 65.606 64.833 62.48 62.379 62.29 62.237 63.465 64.127 63.298 62.762 62.899 62.684 62.584 62.242 62.107 61.867 62.464 61.871 61.61 61.419 61.285 61.15 61.065 60.895 60.892 60.854 60.818 61.113 61.65 60.54 60.167 59.906 60.801 59.748 59.88 59.945 59.521 59.163 58.732 58.353 58.199 59.432 58.052 57.796 57.487 57.272 57.103 59.876 59.533 57.393 56.652 56.568 56.251 60.493 60.464 61.917 61.166 60.648 59.75 56.292 55.676 54.952 54.484 56.494 56.494 57.067 57.341 53.739 52.93 52.742 52.677 52.674 52.697 53.415 54.234 52.827 52.695 52.691 52.707 52.801 52.874 52.938 54.219 57.099 59.117 58.201 54.446 52.726 52.65 52.628 52.534 52.268 52.275 52.24 53.024 52.231 55.256 58.103 58.874 59.058 58.322 57.741 52.516 51.581 52.39 50.977 50.562 52.636 54.661 53.665 50.939 49.27 48.899 48.276 47.968 51.706 53.794 53.804 53.115 48.379 48.105 47.854 47.827 47.834 53.029 56.309 57.528 55.617 50.264 48.577 47.48 47.21 47.255 47.276 47.322 47.263 47.201 47.158 47.213 47.126 46.935 46.671 46.402 46.486 46.509 46.641 47.918 46.543 47.648 50.207 46.705 46.492 46.503 46.475 46.479 46.465 46.323 46.149 46.187 46.263 46.215 46.201 46.202 46.202 46.215 46.287 46.288 46.264 46.258 46.283 46.217 46.242 46.235 46.213 46.188 46.182 46.206 48.955 48.646 48.302 47.273
58.273 59.172 58.559 58.596 58.604 59.676 63.94 60.692 58.69 58.329 58.19 58.197 58.132 58.167 58.314 58.523 58.635 58.794 62.271 64.827 65.769 66.203 60.792 58.769 58.634 58.365 58.28 57.94 57.525 57.446 57.351 57.212 57.168 57.134 57.089 57.042 57.051 57.063 57.185 57.667 57.865 57.68 57.733 57.799 57.838 60.619 59.16 61.258 67.246 68.058 67.649 67.418 66.802 60.007 58.737 57.759 57.73 57.691 57.831 57.844 58.006 57.849 61.985 62.844 61.996 59.547 60.016 58.84 57.624 57.512 57.412 57.461 63.945 64.129 64.233 63.952 59.059 57.33 57.28 57.32 57.222 57.156 57.112 56.976 56.834 56.695 56.585 56.605 56.726 56.063 55.935 55.695 55.599 55.386 54.651 54.239 53.876 53.248 52.798 52.193 51.578 51.756 51.167 53.116 53.275 53.667 54.102 54.671 55.539 56.144 57.617 56.501 56.805 56.967 56.854 56.79 56.847 56.944 58.029 58.576 59.73 61.071 62.303 62.523 63.028 62.977 62.975 62.803 62.75 62.555 63.344 62.107 60.229 58.618 57.769 58.905 62.706 64.691 63.145 62.596 61.46 58.832 59.199 59.37 59.738 59.877 59.999 60.048 60.015 60.027 60.012 59.985 59.929 59.731 59.54 59.339 58.992 58.911 58.846 58.794 58.811 58.732 61.089 62.785 62.623 58.908 58.92 58.848 58.677 61.142 60.018 58.534 58.516 58.592 58.648 58.642 58.74 58.974 59.334 59.792 59.509 60.957 66.222 65.679 69.05 68.569 61.513 59.768 60.028 59.991 59.875 59.86 60.256 60.864 60.878 63.253 66.647 68.234 68.553 67.909 64.691 62.245 62.291 64.627 66.8 67.165 63.808 62.707 63.019 63.207 65.783 67.809 68.75 69.868 69.645 66.462 63.978 63.988 64.14 64.756 64.485 66.949 67.84 66.034 64.137 64.163 64.83 64.688 64.146 63.972 63.668 64.513 64.09 63.48 63.981 63.632 65.635 67.925 67.812 67.051 66.791 65.288 64.028 64.271 63.952 63.783 63.617 63.549 63.648 65.312 64.168 64.801 68.29 64.077 62.322 62.178 62.045 62.04 62.309 62.456 62.417 62.394 62.491 62.305 61.891 61.979 61.817 61.479 61.96 61.497 61.21 61.056 61.025 61.048 61.111 60.948 60.93 60.844 60.848 60.561 60.413 62.599 60.65 59.875 59.481 59.335 59.982 59.026 58.742 60.722 59.101 58.381 58.394 58.423 58.087 57.539 57.163 57.027 56.825 59.199 59.503 60.814 61.829 60.86 57.641 61.686 62.013 62.069 61.67 58.988 55.185 54.989 55.723 54.646 54.448 57.138 58.617 59.371 60.044 58.376 53.043 52.813 52.617 52.623 52.597 52.577 52.564 52.636 52.604 52.654 52.748 52.847 52.909 52.933 58.014 61.426 60.753 62.696 57.934 52.826 52.612 52.63 52.504 52.312 52.243 52.181 52.98 52.2 52.057 56.757 58.968 58.667 58.008 53.54 51.758 51.152 50.829 51.235 51.401 52.093 51.675 50.577 49.003 48.837 48.514 48.232 51.767 53.732 53.945 50.01 48.545 47.884 47.886 47.913 47.802 50.176 54.068 55.859 56.191 57.119 55.938 47.874 47.359 47.272 47.359 47.303 47.288 47.245 47.2 47.228 47.181 46.988 46.797 46.559 51.498 52.746 51.738 52.703 51.79 52.7 52.343 51.61 48.439 46.377 46.343 46.29 46.31 46.298 46.252 46.195 46.186 46.282 46.214 46.263 46.211 46.163 46.222 46.331 46.679 46.595 46.955 46.842 46.817 46.672 46.62 46.727 46.749 46.825 47.871 49.033 48.591 47.633 49.105
58.602 58.834 58.62 58.625 58.645 58.656 58.607 59.082 58.787 58.359 58.331 58.289 58.292 58.402 58.6 58.682 58.845 59.132 64.946 65.643 66.201 65.872 64.039 59.925 58.698 58.467 60.592 60.424 58.501 58.443 57.476 57.394 57.273 57.13 57.113 57.099 57.088 57.023 57.063 57.205 57.524 57.804 57.835 57.811 57.878 62.01 64.402 63.325 59.904 67.232 66.831 61.813 58.697 58.11 58.287 58.058 57.632 57.756 57.805 57.969 57.868 60.482 64.492 63.95 63.58 63.653 57.989 57.561 57.57 57.464 57.783 58.486 62.748 63.243 63.623 62.734 57.439 59.945 63.418 63.676 59.009 57.29 57.732 57.612 57.081 56.721 56.656 56.582 56.537 56.248 55.996 55.958 55.864 55.659 55.33 54.836 54.55 54.144 53.452 52.864 52.074 51.32 51.368 50.997 52.531 53.511 53.723 54.097 55.095 55.847 56.131 56.254 56.433 56.769 56.679 56.643 56.629 56.932 57.186 57.947 58.835 61.341 62.672 62.411 62.71 62.978 62.96 62.994 62.87 62.607 62.687 61.758 61.24 59.836 58.647 61.427 62.888 63.667 61.809 63.566 64.007 58.716 58.866 59.23 59.457 59.718 59.848 59.866 59.937 60.005 59.944 59.935 59.87 59.789 59.646 61.867 59.402 58.908 58.842 58.796 58.679 58.613 59.112 61.326 59.072 58.682 58.668 58.505 58.533 58.704 58.433 58.423 58.517 58.549 58.513 58.591 58.555 58.682 58.763 58.818 58.928 58.974 59.219 62.173 63.391 61.289 59.648 59.695 59.848 60.01 63.578 60.424 59.9 60.36 60.686 64.715 66.83 67.438 67.581 66.649 62.914 62.144 62.112 62.189 63.604 63.4 62.502 62.966 62.961 62.688 67.279 68.755 69.515 69.851 69.438 66.826 64.126 63.442 63.646 63.715 65.498 64.613 64.964 63.968 63.501 63.296 63.549 63.49 63.494 63.434 63.179 63.227 63.332 63.369 63.324 63.394 63.263 64.468 64.672 67.168 67.17 65.088 63.946 63.541 64.958 63.335 63.431 63.32 63.328 63.521 63.129 67.411 68.442 65.936 62.859 62.024 61.954 61.953 61.997 62.178 62.168 61.772 62.156 62.026 62.098 62.149 62.631 61.424 61.479 61.316 61.108 61.049 61.091 61.405 61.015 60.953 60.922 62.965 61.661 64.146 65.612 65.471 64.875 60.624 59.499 59.232 61.322 60.168 62.147 62.698 60.316 62.106 59.468 58.861 58.297 57.47 56.867 56.918 56.778 57.347 61.95 62.602 62.952 63.466 62.31 62.188 62.092 61.452 56.99 55.741 54.954 54.963 55.342 54.464 54.475 59.2 60.146 60.324 60.529 60.226 54.395 52.806 52.574 52.482 52.493 52.509 52.474 52.523 52.515 52.661 52.836 52.855 52.832 53.25 59.283 60.877 62.172 61.744 59.504 55.33 52.602 52.579 52.473 52.241 52.199 52.421 53.053 55.848 53.896 52.042 52.887 57.86 57.378 52.351 51.574 51.001 50.647 50.425 50.565 50.746 49.973 49.13 48.837 48.64 48.638 51.386 53.56 54.011 53.419 50.508 48.412 47.916 47.981 47.854 48.008 55.073 56.411 53.579 57.696 52.196 47.546 47.305 47.279 47.34 47.365 47.33 47.293 47.201 47.267 47.236 47.119 46.949 46.719 46.462 47.561 52.841 52.927 52.958 52.922 52.906 52.938 52.915 53.377 46.415 46.274 46.237 46.225 46.191 46.269 46.196 46.188 46.234 46.226 46.222 46.144 46.255 46.511 46.98 47.11 47.206 47.02 47.041 46.807 46.773 46.805 46.621 46.674 46.626 46.598 49.216 49.229 47.688 49.222
58.999 58.69 60.343 58.969 58.783 58.72 58.704 59.082 58.825 58.569 58.496 58.424 58.451 58.665 59.761 58.853 58.939 58.797 64.449 66.127 65.555 65.168 64.203 59.458 58.748 59.847 61.423 62.035 60.8 58.027 57.611 57.897 57.364 57.269 57.168 57.144 57.129 57.118 57.044 57.055 57.221 57.597 57.857 58.004 61.963 64.143 65.201 64.655 62.024 59.278 65.195 60.017 58.362 57.706 57.844 57.587 57.703 57.776 57.834 58.034 58.224 57.957 63.791 64.704 64.802 64.768 61.416 57.658 57.624 57.472 57.407 57.383 57.476 58.854 62.024 59.909 58.429 62.66 64.874 64.785 62.654 59.458 57.825 57.159 57.029 56.952 56.943 57.15 56.522 56.598 56.349 56.106 56.033 55.838 55.602 55.461 55.109 54.595 54.086 53.297 52.81 53.128 53.087 51.121 50.858 52.254 53.601 54.132 54.522 55.217 56.144 55.967 56.102 56.54 56.49 56.565 56.61 56.67 56.789 57.392 58.057 58.841 60.428 61.866 62.413 62.963 62.968 62.998 62.98 62.746 62.604 62.48 61.744 60.18 58.903 60.64 59.58 59.065 62.81 58.819 60.654 59.312 58.326 58.78 59.255 59.324 59.614 59.713 59.855 59.952 59.976 59.865 59.823 59.725 61.377 64.349 62.551 59.809 58.817 58.73 58.611 58.557 58.509 58.422 58.445 58.445 58.406 58.343 58.33 58.345 58.321 58.46 58.612 58.642 58.624 58.491 58.489 58.551 58.641 58.744 58.797 58.836 58.926 59.04 59.627 59.288 59.318 59.631 61.413 60.974 65.359 66.053 65.238 59.908 59.848 61.134 66.844 67.404 66.885 66.045 60.869 61.206 62.071 62.011 61.764 62.386 61.969 61.873 61.705 62.595 68.296 68.995 69.698 69.265 68.424 64.055 63.335 63.203 63.299 63.743 63.366 63.093 63.153 63.173 63.14 63.169 63.251 63.004 63.09 63.151 63.193 63.051 63.178 63.041 63.139 63.203 63.386 63.518 63.502 63.138 63.189 63.731 63.273 63.396 63.302 63.053 62.945 62.891 63.122 62.923 62.823 66.518 64.525 62.455 62.561 61.818 61.794 63.007 61.765 61.896 61.832 62.301 61.583 61.47 61.433 61.296 61.337 61.388 61.315 61.069 61.001 62.97 60.929 63.725 63.612 63.825 65.275 65.655 66.038 66.27 66.256 66.265 66.286 61.305 59.105 59.945 63.999 64.092 64.027 64.251 64.35 64.416 60.41 58.045 58.072 58.015 59.114 57.018 60.256 61.889 62.821 63.212 63.549 63.137 62.669 61.762 57.642 56.536 55.634 55.841 58.878 61.169 61.251 56.937 59.429 60.375 60.907 60.996 60.472 59.729 58.442 52.953 52.558 52.441 52.411 52.414 52.39 52.438 52.536 52.747 52.77 52.661 52.724 52.691 53.189 57.691 61.184 61.005 60.056 55.27 52.724 52.506 52.318 52.264 57.516 61.157 60.568 62.402 60.716 52.455 52.32 52.292 52.603 51.632 51.16 50.811 51.344 50.321 49.828 50.294 49.304 49.036 48.76 48.67 53.34 54.508 54.003 53.614 50.794 48.979 48.593 47.982 47.949 47.884 47.963 50.673 55.057 52.67 49.79 47.642 47.427 47.314 47.31 47.373 47.382 47.379 47.317 47.25 47.315 47.242 47.04 46.917 46.679 46.414 51.422 53.128 53.142 53.141 53.098 53.139 53.154 53.133 52.165 46.449 46.279 46.276 46.23 46.211 46.169 46.177 46.2 46.209 46.236 46.15 46.239 46.474 46.984 46.897 46.782 46.685 46.611 46.419 46.26 46.251 46.252 46.252 46.141 46.163 46.462 52.16 53.023 52.686 53.108
59.01 58.851 62.34 63.186 60.76 59.079 59.166 60.241 59.042 58.669 58.642 58.563 58.663 59.847 59.099 59.125 60.614 58.978 60.331 64.667 64.494 61.264 59.569 58.862 58.664 59.214 61.282 61.82 60.438 58.098 58.414 58.183 57.631 57.455 57.365 57.229 57.183 57.156 57.141 57.075 57.126 57.311 58.497 58.965 64.062 65.123 64.755 63.777 61.95 60.465 59.909 59.877 58.856 57.721 57.587 57.65 57.727 57.792 58.02 58.005 59.25 57.85 63.281 64.955 64.132 63.566 62.502 57.704 57.816 57.612 57.609 57.399 57.315 57.273 57.337 57.967 63.387 64.68 65.074 63.279 62.772 61.532 58.17 57.112 57.034 56.992 56.825 56.747 56.567 56.463 56.708 56.178 56.132 56.02 55.807 55.644 55.438 54.915 54.609 53.816 53.057 53.46 53.255 51.715 50.911 -9999 53.749 53.97 54.219 54.854 55.84 55.782 56 56.037 56.5 56.571 56.414 56.531 56.616 57.148 57.703 58.646 59.538 60.839 62.73 62.737 62.997 63.009 62.969 62.866 62.582 62.682 63.001 62.348 59.869 59.068 62.12 58.516 59.775 63.259 59.951 58.496 57.823 58.104 58.612 59.017 59.327 59.394 59.611 59.833 59.87 59.753 59.741 59.697 61.387 61.541 60.855 59.539 59.086 58.765 58.649 58.577 58.486 58.36 58.372 58.324 58.289 58.282 58.239 58.26 58.402 58.515 58.604 58.605 58.608 58.421 58.472 58.45 58.531 58.582 58.737 58.814 58.862 58.938 59.621 59.811 59.224 60.532 61.91 64.026 65.698 66.358 66.283 65.512 63.902 59.858 59.791 61.288 63.067 62.174 60.627 60.643 60.897 61.248 62.577 61.926 61.538 61.936 61.4 64.846 67.068 68.368 69.531 68.975 65.402 62.69 62.98 62.898 62.867 63.846 62.813 62.613 62.865 62.947 63.054 62.974 65.806 63.113 63.238 63.034 63.136 63.224 65.848 65.855 63.202 63.021 63.031 63.116 65.824 63.359 63.372 62.937 63.958 64.216 63.564 63.384 63.122 67.981 67.687 68.378 67.699 63.135 62.182 61.857 61.684 61.619 61.572 62.002 61.505 61.564 61.516 61.622 61.769 61.344 61.236 61.209 62.891 60.942 60.78 61.047 61.438 64.782 63.928 66.49 66.635 66.657 66.795 66.87 66.854 66.038 65.579 62.889 62.456 59.953 59.01 59.094 64.29 64.41 64.231 64.225 64.168 63.826 63.732 58.312 57.685 59.473 60.37 62.054 62.659 63.043 63.554 63.407 63.139 62.58 62.062 57.12 56.01 55.944 55.782 59.921 62.478 64.912 64.35 64.5 56.044 58.961 61.067 60.633 59.981 58.948 54.764 53.937 52.62 52.305 52.313 52.246 52.292 52.418 52.582 52.697 54.145 52.697 52.748 52.679 52.557 54.293 57.308 56.718 54.963 52.665 52.275 52.303 52.288 55.93 59.18 63.591 63.966 65.528 61.351 56.91 52.107 55.06 52.959 51.56 50.949 50.704 50.229 50.881 49.703 49.518 49.846 48.858 48.764 53.253 54.182 54.329 51.16 49.78 48.306 48.113 48.086 48.117 47.957 47.923 48.003 48.238 48.184 48.473 48.394 47.583 47.343 47.403 47.432 47.442 47.428 47.285 47.225 47.354 47.356 47.182 46.998 46.912 46.717 46.425 50.128 53.371 53.413 53.304 53.358 53.397 53.34 53.315 49.789 46.352 46.276 46.265 46.189 46.17 46.131 46.077 46.131 46.192 46.18 46.137 46.248 46.843 46.848 46.605 46.666 46.711 46.421 45.939 45.899 45.822 45.961 46.003 45.999 45.942 49.831 53.553 53.495 53.556 53.583
60.614 60.811 62.995 63.342 62.032 59.615 59.684 59.191 58.915 58.786 58.852 58.752 58.828 59.134 59.571 61.98 63.583 60.14 58.891 59.871 61.186 58.984 58.92 58.909 58.757 58.588 58.962 60.458 58.501 58.066 58.04 59.926 60.284 58.411 57.536 57.327 57.204 57.226 57.201 57.165 57.15 57.346 57.372 57.833 59.443 63.791 64.687 64.554 62.848 59.363 58.704 58.83 58.145 57.511 57.658 57.699 57.76 57.862 58.029 58.048 58.809 60.005 58.75 63.675 62.573 59.463 58.14 57.641 57.639 57.622 57.535 57.461 57.348 57.29 57.257 57.161 63.427 64.714 64.532 63.948 63.018 58.583 60.1 58.238 57.115 57.006 57.569 56.845 56.539 56.477 56.417 56.591 56.136 56.07 55.938 55.732 55.667 55.405 54.896 54.431 54.236 54.244 53.605 53.249 50.956 50.77 51.2 52.638 54.479 55.498 56.524 55.698 55.935 55.941 56.355 56.55 56.359 56.576 56.747 59.412 59.366 57.937 58.733 60.067 61.784 62.53 62.825 63.015 63.037 62.909 62.858 62.629 62.611 61.75 60.859 59.458 59.22 61.284 61.571 58.477 59.248 60.019 58.391 57.468 58.08 58.569 58.831 59.073 59.496 59.645 59.88 59.682 59.703 59.622 59.554 59.489 59.453 59.366 59.172 59.015 58.7 58.529 58.496 58.447 58.362 58.255 58.238 58.214 58.202 58.184 58.38 58.512 58.571 58.525 59.051 58.66 58.923 58.608 58.537 58.558 58.643 58.721 58.766 58.872 59.135 59.618 59.261 59.469 62.565 64.685 65.561 66.432 66.094 65.131 60.217 59.731 59.901 59.915 59.877 59.873 60.313 60.331 60.452 61.667 62.558 61.263 61.122 61.308 61.244 65.233 67.587 68.176 67.832 68.194 65.82 65.102 62.576 62.459 62.651 62.601 64.942 63.507 66.231 66.677 67.071 67.857 68.376 68.619 68.386 67.749 67.376 68.118 68.539 68.716 67.491 67.804 66.933 68.186 68.607 68.805 68.387 63.878 63.211 62.845 62.768 62.854 65.569 68.512 69.327 69.041 68.27 65.098 64.178 61.696 61.534 61.451 61.319 61.88 61.31 61.433 61.798 61.649 64.133 63.349 61.16 63.653 65.313 65.156 65.667 65.575 66.451 66.656 66.642 66.742 66.756 66.619 66.497 66.291 66.085 65.751 60.2 59.905 59.719 59.418 58.976 59.84 63.339 60.161 60.009 60.853 59.786 59.199 58.607 57.866 57.792 61.874 62.953 63.045 63.265 63.515 63.309 62.709 62.291 58.679 57.08 56.411 58.613 56.066 56.458 62.546 59.059 61.63 65.095 64.743 62.579 55.569 59.106 59.652 56.225 53.922 53.158 52.897 52.327 52.163 52.188 52.181 52.2 52.505 52.603 55.819 56.963 55.984 53.222 54.434 52.926 52.376 52.323 52.408 52.756 52.259 52.219 52.228 52.23 52.282 61.115 63.085 63.5 65.722 66.045 58.617 54.437 57.619 57.254 52.6 51.038 51.068 51.238 50.371 49.598 49.189 48.932 48.79 51.415 54.2 54.492 53.798 51.647 48.893 48.382 48.404 48.164 48.015 47.989 48.029 49.622 48.422 48.975 49.099 48.425 47.426 47.429 47.44 47.46 47.4 47.387 47.333 47.347 47.353 47.281 47.052 46.986 46.877 46.641 46.334 50.118 53.265 53.249 53.312 53.214 53.233 53.265 53.297 49.201 46.349 46.289 46.28 46.261 46.16 46.137 46.073 46.112 46.154 46.138 46.17 46.378 47.02 46.591 46.51 46.64 46.662 46.114 50.534 51.33 50.814 50.337 46.942 45.988 45.886 51.013 53.938 53.908 54.008 54
67.473 64.714 63.056 62.752 60.715 60.614 59.705 59.336 59.216 59.042 58.952 58.959 59.244 59.196 65.029 65.066 64.519 63.928 59.162 58.893 59.183 59.21 59.052 58.979 58.809 58.664 58.616 58.516 58.289 58.275 59.985 60.928 60.886 59.407 57.647 57.505 57.384 57.303 57.256 57.236 57.214 57.232 57.35 57.574 57.963 60.347 63.529 61.383 58.692 57.85 57.693 57.588 57.549 57.616 57.683 57.729 57.81 58.025 58.017 59.394 62.783 61.631 58.721 57.601 57.624 57.645 57.627 57.651 57.65 57.919 57.509 57.488 57.411 57.374 57.237 57.21 59.934 62.977 63.411 64.279 59.03 57.269 63.028 62.802 60.302 57.571 58.136 56.975 56.61 56.499 56.42 56.366 56.315 55.944 56.01 55.863 55.684 55.642 55.482 55.21 55.285 55.113 54.226 53.705 52.876 51.292 52.148 55.926 56.03 55.483 55.533 55.647 55.841 56.181 56.167 56.112 56.31 57.814 59.223 60.241 58.964 57.959 58.22 59.29 60.285 61.509 62.564 62.962 63.071 63 62.939 62.836 62.604 63.309 62.205 60.609 59.051 58.697 57.135 56.519 57.631 61.863 59.476 59.367 57.599 58.187 58.484 58.888 59.163 59.294 59.518 59.622 59.659 59.607 59.469 59.461 59.442 59.4 59.254 59.081 58.951 58.615 58.49 58.415 58.395 58.241 58.204 58.157 58.122 58.147 58.367 58.461 58.5 58.484 58.655 58.397 59.134 59.334 58.543 58.66 58.605 58.607 58.746 59.056 59.205 59.15 58.762 59.229 62.234 64.947 65.78 65.842 65.036 62.356 59.691 59.648 59.728 61.312 61.401 60.025 60.03 59.986 60.083 61.864 60.861 60.552 60.809 61.046 61.264 63.124 66.455 68.084 67.543 66.738 64.434 62.76 61.544 62.256 66.788 68.104 68.112 68.104 68.754 69.055 68.811 68.781 68.809 68.822 68.86 69.026 68.832 68.805 68.844 68.845 68.882 69 68.859 68.954 68.819 68.793 67.492 63.915 63.135 62.632 62.629 62.644 63.998 68.41 69.196 69.325 68.327 65.381 63.514 61.952 61.781 61.343 61.131 62.034 61.297 62.852 64.039 61.263 63.961 64.978 65.404 66.019 66.914 66.808 66.972 66.923 66.667 66.749 66.697 66.386 62.117 60.966 61.901 62.223 60.409 60.672 59.824 59.555 59.374 58.969 58.796 58.698 58.74 58.49 58.375 58.529 58.256 58.211 57.941 57.698 61.375 63.252 63.78 63.883 63.614 62.949 62.535 59.325 58.119 56.713 56.524 56.391 60.258 61.114 57.9 62.821 64.192 63.848 63.99 63.837 59.91 54.613 56.293 54.283 54.106 53.594 52.649 52.503 52.16 52.124 52.05 52.093 52.284 54.831 55.766 56.962 54.903 56.508 53.992 52.838 54.428 52.631 52.338 52.263 52.258 52.218 52.19 52.178 52.122 52.133 56.035 61.191 63.2 64.312 58.321 55.844 57.278 58.093 57.95 53.583 51.773 50.455 50.404 49.906 49.548 49.231 48.764 48.749 54.092 54.635 54.031 51.022 49.245 48.819 48.338 48.272 48.1 48.024 48.076 48.391 48.58 48.652 49.674 48.215 47.457 47.395 47.461 47.495 47.49 47.438 47.321 47.411 47.417 47.337 47.137 46.951 46.817 46.664 46.545 46.346 51.433 53.094 53.061 53.085 53.02 53.017 53.043 53.048 48.431 46.342 46.326 46.216 46.248 46.164 46.202 46.03 46.134 46.126 46.143 46.156 46.684 46.957 46.509 46.509 46.59 46.351 49.685 51.344 51.424 51.444 51.427 51.348 48.123 45.817 49.286 54.278 54.314 54.363 54.435
67.554 66.958 62.706 60.864 59.782 59.669 60.331 59.425 59.272 59.284 59.151 59.13 59.248 62.802 66.647 66.44 65.408 65.724 62.129 59.337 61.418 59.327 59.259 59.016 58.9 58.729 58.538 58.502 59.438 60.843 60.945 60.874 59.708 58.139 58.001 57.665 57.49 57.438 57.346 57.325 57.289 57.234 57.352 57.478 57.555 57.898 58.74 57.87 57.767 57.653 57.584 57.519 57.58 57.631 57.725 57.81 57.984 59 60.793 64.066 64.249 63.316 63.994 59.169 57.746 57.704 57.678 57.704 57.723 57.685 57.849 57.573 57.564 57.66 57.423 57.295 57.718 58.995 62.3 57.852 61.318 63.787 63.642 62.786 61.772 59.231 57.117 56.88 56.771 56.606 56.444 56.381 56.303 56.342 55.948 55.934 55.826 55.642 55.982 55.608 55.502 55.45 55.233 54.461 54.129 53.748 52.993 55.614 55.327 55.314 55.345 56.101 56.276 55.754 55.802 56.056 56.106 58.046 58.567 57.15 56.388 56.802 57.649 58.527 59.601 62.133 62.925 62.622 62.963 62.998 63.085 62.876 62.678 62.708 62.32 61.152 60.025 58.954 58.274 56.942 57.017 58.238 60.005 57.141 57.271 57.544 58.098 58.38 58.812 59.053 59.352 59.487 59.519 59.456 59.466 59.426 59.429 59.406 59.293 59.198 59.036 58.881 58.692 58.423 58.32 58.297 58.203 58.145 58.09 58.11 58.286 58.428 58.426 58.421 58.445 58.409 58.934 58.707 59.755 59.433 58.864 58.612 58.905 59.12 59.612 58.73 58.626 61.402 64.136 65.22 65.96 65.436 64.758 60.517 59.211 60.175 59.908 60.144 60.062 59.74 59.804 60.732 60.324 60.557 61.582 61.624 60.901 60.596 60.818 61.125 61.25 62.011 65.91 66.441 61.633 60.987 61.435 62.055 68.052 68.02 68.189 68.014 68.367 68.273 68.257 68.197 68.017 64.609 68.091 68.56 68.265 68.166 67.932 64.315 67.058 68.244 68.187 67.684 67.903 64.451 64.219 66.436 67.549 66.684 62.879 63.185 64.882 67.436 67.993 68.033 67.157 64.967 63.771 62.621 62.18 61.127 60.92 60.868 60.867 64.859 66.847 66.95 67.035 67.027 67.117 67.186 66.841 66.249 66.14 65.911 65.644 62.308 62.218 62.384 61.348 60.834 60.025 60.533 59.781 59.769 59.455 59.002 58.876 58.832 58.654 58.605 59.894 58.435 58.291 58.378 58.134 57.907 57.73 57.685 57.293 62.506 64.217 63.88 63.232 62.355 59.192 57.027 56.613 56.561 56.422 56.215 57.031 59.304 56.038 55.988 63.448 63.243 63.864 59.323 54.802 53.969 53.585 54.078 53.746 53.096 52.489 52.183 52.039 51.981 51.953 52.058 54.146 56.664 57.016 56.617 56.5 55.62 53.76 52.718 52.736 52.367 52.249 52.17 52.241 52.195 52.227 52.166 52.146 52.177 53.672 60.016 61.797 63.536 55.883 57.562 58.16 57.979 57.336 51.908 51.662 50.645 50.047 49.724 49.406 48.856 48.709 53.427 54.496 54.22 50.948 48.502 48.47 48.424 48.305 48.193 48.134 48.088 48.187 48.317 49.115 48.674 48.788 47.659 47.404 47.466 47.552 47.51 47.463 47.409 47.379 47.466 47.325 47.24 46.879 46.64 46.455 46.471 46.355 46.344 51.414 52.863 52.869 52.848 52.895 52.853 52.858 52.855 49.039 46.343 46.302 46.267 46.21 46.146 46.118 46.051 46.118 46.133 46.064 46.136 46.744 46.968 46.57 46.545 46.585 46.183 50.841 51.564 51.603 51.604 51.591 51.609 47.545 45.796 50.431 54.776 54.751 54.759 54.751
66.657 67.163 63.622 60.601 60.399 59.995 59.724 59.551 59.462 59.401 59.287 59.342 59.452 62.717 65.587 66.781 66.271 66.182 64.994 60.527 62.612 62.303 59.757 58.984 58.843 58.64 58.402 59.713 58.851 60.649 60.868 58.577 61.472 61.192 58.614 57.979 57.634 57.522 57.425 57.399 57.384 57.315 57.273 57.428 57.53 57.577 57.955 57.798 57.564 57.436 57.507 57.553 57.606 57.672 57.803 58.038 58.045 58.017 59.506 64.012 64.888 64.79 65.22 63.271 57.841 57.777 57.728 57.703 57.622 57.62 57.733 58.859 57.533 57.545 57.524 57.464 57.294 57.182 58.847 57.124 60.858 62.909 63.839 63.424 62.709 58.942 56.988 56.89 56.797 56.677 56.551 56.405 56.343 56.291 56.162 55.928 55.819 55.756 55.901 55.748 55.621 55.503 55.349 55.044 54.54 55.277 55.264 55.228 55.285 56.608 56.07 55.914 55.684 55.694 55.675 55.759 55.947 56.218 56.276 55.834 55.879 56.312 57.238 57.967 58.874 60.87 61.542 62.412 62.8 63.041 63.084 63.023 62.889 62.623 62.742 62.83 61.549 59.215 58.413 57.297 56.904 57.525 56.847 56.427 56.544 57.254 57.718 57.946 58.389 58.743 58.988 59.188 59.472 59.544 59.489 59.518 59.392 59.361 59.301 59.212 59.098 58.954 58.826 58.578 58.368 58.284 58.18 58.15 58.076 58.042 58.111 58.3 58.393 58.317 58.301 58.442 58.588 58.796 58.653 59.278 59.308 58.985 58.59 58.64 58.636 59.261 60.777 63.064 64.423 65.097 65.546 64.734 64.366 60.103 59.047 59.15 61.385 61.065 60.274 59.772 59.894 59.871 60.05 63.72 62.456 60.629 61.313 61 60.384 60.558 60.733 60.938 60.95 61.258 60.166 60.192 60.652 61.758 65.632 63.738 65.532 63.73 63.689 63.066 63.58 62.549 62.525 62.485 63.243 63.75 62.626 62.566 62.667 62.782 62.961 63.032 64.35 62.963 62.878 62.85 63.242 65.872 68.872 63.77 61.873 62.411 61.858 65.908 67.729 68.03 67.395 63.432 61.947 61.332 61.172 60.802 60.74 60.655 60.628 65.031 67.24 67.022 66.993 66.88 66.73 66.55 63.169 60.708 60.708 60.712 60.912 60.584 60.294 60.303 62.625 60.346 62.626 62.678 61.456 59.265 59.114 58.685 59.737 59.756 59.603 58.453 58.406 59.112 58.266 58.293 57.874 57.679 57.569 57.407 57.262 58.52 63.374 63.11 62.57 59.107 57.201 56.642 56.433 56.301 56.244 55.933 55.575 55.193 54.984 54.714 60.671 62.265 61.361 56.534 55.542 56.764 54.399 53.156 53.141 52.943 52.669 52.048 51.902 51.829 51.847 52.104 55.47 57.268 56.379 56.343 54.321 53.198 52.556 52.284 52.282 52.246 52.217 52.189 52.238 52.095 52.158 52.159 52.143 52.159 52.033 51.935 54.053 60.607 57.976 58.009 58.03 57.406 52.407 51.8 50.86 50.313 49.743 49.442 49.222 49.036 53.176 54.441 54.275 53.763 48.931 48.472 48.485 48.421 48.254 48.758 48.401 48.158 48.245 48.713 48.75 48.695 48.153 47.475 47.525 47.555 47.55 47.488 47.476 47.435 47.449 47.401 47.297 47.102 46.673 46.505 50.852 48.988 51.74 51.7 51.95 52.731 52.623 52.704 52.582 52.679 52.698 52.688 48.369 46.379 46.304 46.307 46.259 46.211 46.207 46.008 46.058 46.06 45.988 46.066 46.546 46.933 46.481 46.54 46.596 46.264 51.582 51.579 51.538 51.6 51.582 51.543 48.536 45.766 49.692 55.1 55.12 55.176 55.074
65.716 64.432 61.794 60.581 60.481 60.26 59.98 59.751 59.665 59.549 59.521 59.745 60.94 60.258 63.815 65.943 66.76 65.35 61.692 59.511 60.873 62.139 59.669 58.965 58.753 58.763 59.525 60.955 60.617 59.094 59.285 61.896 61.601 61.473 60.78 58.049 57.816 57.679 57.584 57.475 57.451 57.438 57.389 57.363 57.452 57.534 57.522 57.429 57.49 57.484 57.543 57.604 57.669 58.783 58.111 58.115 58.126 58.13 58.32 63.277 65.168 65.124 64.324 63.173 58.997 57.764 57.784 57.763 57.678 57.787 58.146 57.72 57.546 57.618 57.539 57.507 57.386 57.375 57.222 57.027 57.149 60.214 63.052 63.754 59.959 60.33 61.762 59.599 56.941 57.125 57.36 56.488 56.37 56.303 56.211 56.243 55.861 55.755 56.02 55.788 55.644 55.576 55.535 55.392 55.079 55.431 55.261 55.258 55.353 55.27 51.703 52.774 55.881 55.516 55.478 55.525 55.899 55.943 55.658 55.732 55.798 55.922 56.671 57.372 58.251 59.408 62.065 62.176 62.582 63.007 63.063 63.13 62.902 62.817 62.599 62.69 62.612 62.059 59.422 57.963 57.01 56.327 55.975 56.527 56.306 56.745 57.115 57.769 58.019 58.234 58.703 59.073 59.292 59.449 59.434 59.384 59.407 59.337 59.273 59.238 59.184 59.033 58.908 58.746 58.532 58.335 58.181 58.268 58.045 57.928 58.073 58.157 58.279 58.279 58.252 58.194 58.289 58.357 58.434 58.651 59.022 58.777 58.538 58.576 58.496 59.867 61.012 63.644 64.647 65.31 64.988 64.085 59.401 59.187 58.925 59.023 60.698 60.452 59.324 64.303 63.158 60.095 60.001 64.896 66.078 66.644 61.265 60.471 59.903 59.898 60.11 60.082 60.109 60.221 59.444 60.135 60.115 61.478 61.752 61.782 62.151 62.157 62.004 61.959 62.041 61.918 61.913 62.344 61.976 61.949 61.977 61.625 61.97 62.565 62.892 62.074 63.558 61.938 62.348 63.131 63.501 62.512 63.126 61.715 62.667 61.975 62.554 65.594 67.423 67.697 66.869 63.595 61.204 61.325 60.906 60.698 60.514 60.457 60.36 64.488 65.31 63.455 63.263 62.374 61.917 61.387 61.235 60.538 60.342 60.296 60.014 59.762 59.697 61.635 63.338 63.063 63.331 64.018 59.917 59.727 60.492 60.403 60.756 59.39 59.812 58.399 58.214 58.114 58.035 57.852 57.689 57.532 57.622 57.436 57.303 57.156 61.137 61.308 60.854 59.774 56.594 56.612 56.369 56.136 55.814 55.666 55.254 54.894 54.614 54.466 55.744 57.195 56.307 57.946 58.489 59.057 58.869 53.82 53.011 52.86 52.427 51.909 51.807 51.751 51.722 51.987 52.194 54.187 55.508 53.44 52.809 52.361 52.25 52.244 52.251 52.241 52.207 52.242 52.13 52.155 52.15 52.125 52.131 52.077 52.046 52.096 52.43 55.646 57.725 58.209 57.677 52.561 51.704 51.027 50.453 50.086 50.633 50.094 50.562 49.104 53.207 54.483 53.936 51.98 50.396 48.469 48.426 48.357 48.352 53.541 49.621 48.145 48.293 48.228 48.112 47.89 47.526 47.517 47.607 47.58 47.553 47.535 47.452 47.471 47.468 47.398 47.278 46.904 46.541 47.742 52.741 52.827 52.816 52.827 52.808 52.798 52.847 52.788 52.825 52.835 52.846 52.837 49.679 46.375 46.27 46.214 46.203 46.197 46.148 46.079 46.021 45.991 45.971 46.078 46.728 46.707 46.45 46.52 46.582 46.479 51.016 51.37 51.418 51.449 51.448 51.377 47.326 45.79 50.831 55.627 55.541 55.561 55.491
63.092 61.927 60.55 60.593 60.545 60.333 60.156 59.99 59.881 59.769 59.773 60.574 60.066 61.563 61.893 64.006 66.506 62.213 59.931 59.212 59.55 59.823 59.152 59.129 58.836 60.195 60.406 60.695 59.313 59.849 62.239 61.737 61.808 61.987 61.238 58.073 57.916 57.787 57.754 57.579 57.524 57.528 57.478 57.457 57.388 57.389 57.39 57.404 57.453 57.503 57.593 57.686 57.843 58.499 58.266 58.212 58.212 58.175 58.078 59.884 63.401 63.845 61.016 60.58 57.84 57.847 57.775 57.762 57.655 57.833 57.844 57.668 57.718 58.73 57.558 57.537 57.412 57.743 57.154 57.08 56.962 56.859 61.524 58.644 61.487 63.347 63.912 62.378 59.051 57.842 56.873 56.595 57.218 56.667 56.227 56.162 56.145 55.83 55.73 55.672 55.648 55.645 55.549 55.508 55.475 55.394 55.345 55.317 55.418 51.984 51.413 50.791 53.201 55.334 55.297 55.308 55.639 55.778 55.729 55.411 55.501 55.506 55.999 56.927 57.71 58.6 59.703 61.379 61.951 62.654 63.165 63.093 63.02 62.902 62.648 62.617 64.594 64.372 59.94 58.574 57.488 56.491 55.845 55.805 56.624 56.538 56.978 57.368 57.705 58.007 58.196 58.518 58.87 59.11 59.201 59.311 59.342 59.343 59.259 59.233 59.15 59.065 58.915 58.789 58.641 61.147 58.283 58.159 58.078 58.01 57.909 57.879 58.089 58.159 58.181 58.189 58.091 58.144 58.469 58.395 58.564 58.574 60.735 58.813 58.3 57.906 61.082 63.584 64.5 65.041 64.726 63.826 59.149 58.626 58.776 58.826 59.883 59.206 59.272 60.549 59.236 60.343 60.642 65.742 66.427 66.566 65.912 61.587 59.898 59.773 59.633 60.696 60.23 60.131 59.307 59.008 59.227 61.635 61.41 61.712 61.326 60.936 62.175 61.78 61.53 61.586 61.733 61.658 61.674 63.048 61.462 61.301 61.157 61.374 61.539 61.955 61.624 61.674 61.516 61.431 62.169 62.005 61.78 61.471 61.149 61.088 61.07 65.064 66.903 67.51 67.05 65.744 62.698 60.744 60.911 60.577 60.382 60.248 60.179 60.615 61.864 62.475 60.783 61.939 60.54 60.408 60.354 60.017 59.777 59.578 59.597 59.327 59.161 59.762 62.589 62.403 62.166 60.317 59.086 59.598 58.418 58.296 59.598 59.928 58.147 58.274 58.13 57.723 57.683 57.464 57.435 57.284 57.36 59.851 59.225 57.31 57.92 58.43 58.006 56.78 57.215 56.539 57.944 56.014 55.487 55.096 54.737 54.705 55.473 55.854 54.398 54.256 56.605 59.499 59.809 59.846 60.116 58.186 54.008 52.765 52.216 51.787 51.682 51.853 51.66 52.225 52.519 52.379 52.427 52.578 52.409 52.239 52.181 52.205 52.252 52.195 52.172 52.145 52.119 52.161 52.13 52.07 52.062 52.097 52.133 52.11 52.465 57.513 58.272 57.855 54.458 51.756 51.32 50.729 50.299 50.529 50.142 49.417 49.278 50.899 48.734 52.745 50.013 48.508 48.53 48.528 48.559 48.344 49.115 50.552 48.562 48.187 48.367 48.089 47.805 47.597 47.501 47.569 47.591 47.614 47.525 47.433 47.524 47.504 47.427 47.302 47.169 46.869 46.479 50.106 53.053 53.033 53.013 53.081 53.028 53.041 53.046 53.029 53.058 53.028 53.067 53.052 50.14 46.348 46.224 46.189 46.161 46.114 46.303 46.024 45.997 46.042 45.999 46.055 46.687 46.956 46.475 46.584 46.681 46.566 46.037 51.085 51.173 51.283 51.325 48.306 45.795 45.823 46.321 55.802 56.01 55.993 55.958
62.2 61.25 60.722 60.726 60.635 60.423 60.348 60.201 60.058 59.983 59.988 60.54 62.504 63.216 61.487 61.436 59.713 59.578 59.278 59.08 59.367 60.018 59.007 58.926 58.86 59.275 63.617 61.015 61.342 61.449 61.519 61.554 62.147 59.36 58.214 58.147 57.992 58.092 58.33 57.74 57.654 57.617 57.605 57.638 57.526 57.494 57.472 57.481 57.541 57.689 57.769 57.865 58.197 63.37 58.323 58.263 58.232 58.221 58.13 59.811 59.221 59.419 57.911 57.881 57.852 57.78 57.811 57.713 57.908 57.639 57.619 57.74 57.632 57.607 57.775 57.736 57.518 57.321 57.244 57.191 57.103 56.868 57.957 57.2 63.354 64.154 63.139 62.211 59.76 57.007 56.718 56.632 56.563 56.403 56.251 56.149 56.081 56.127 55.878 55.857 55.643 55.58 55.581 55.591 55.829 55.549 56.484 55.5 55.294 54.614 52.207 51.382 52.941 55.233 55.036 54.989 55.307 55.369 55.308 54.851 54.754 54.88 55.411 56.277 57.06 58.157 58.676 60.263 60.985 62.348 62.921 63.098 63.131 63.011 62.877 62.731 63.242 62.391 60.52 59.404 58.377 57.377 56.493 55.847 55.895 56.708 56.638 56.958 57.216 57.569 58.147 58.436 58.664 58.84 58.914 59.121 59.357 59.29 59.339 59.212 59.117 59.035 59.009 58.864 58.707 58.56 58.423 58.275 58.074 57.962 57.942 57.824 57.835 57.934 58.08 58.092 57.972 57.991 61.237 62.781 59.665 60.698 63.669 63.011 58.719 57.806 61.813 63.955 64.627 64.351 63.716 61.43 59.782 58.761 58.702 59.859 59.671 58.888 59.949 58.927 58.867 58.747 63.383 64.957 66.494 66.124 65.551 61.073 60.71 59.578 59.519 59.243 59.515 59.493 59.57 58.524 60.902 63.527 63.754 60.718 60.261 59.563 59.903 60.27 60.505 60.184 60.368 60.965 61.461 61.074 60.579 60.765 60.802 61.563 60.944 61.604 61.198 61.846 61.166 61.602 62.903 61.871 61.286 61.014 60.962 60.872 60.721 64.297 66.686 67.506 66.9 65.808 63.174 61.865 60.327 60.154 60.094 60.059 59.992 60.042 60.805 60.881 60.43 60.606 59.935 59.727 60.031 59.945 60.389 59.709 59.205 59.165 59.086 59.023 58.931 60.051 58.865 60.147 59.151 59.214 59.236 60.925 61.376 62.695 63.045 59.219 58.081 57.785 57.336 57.268 57.265 59.677 57.178 61.875 62.612 62.762 61.867 58.444 57.324 56.339 57.886 60.913 60.859 56.534 55.008 54.778 54.841 54.674 56.447 57.148 56.793 59.322 59.919 60.353 60.652 60.119 59.654 59.182 54.053 53.47 51.856 51.64 51.61 52.584 51.704 53.461 53.474 52.367 52.35 52.357 52.208 52.193 52.224 52.211 52.167 52.135 52.149 52.14 52.115 52.089 52.092 52.086 52.102 52.455 52.632 52.348 56.391 52.243 56.716 54.56 52.024 51.364 50.788 50.271 50.739 51.007 49.575 49.38 49.222 49.189 53.23 49.181 48.481 48.665 48.588 48.458 48.495 48.619 48.956 48.999 48.267 48.278 48.274 48.009 47.688 47.577 47.607 47.647 47.627 47.608 47.525 47.518 47.542 47.399 47.264 47.174 47.012 46.785 46.451 46.459 53.208 53.239 53.271 53.239 53.265 53.258 53.251 53.252 53.215 53.229 53.274 53.265 50.825 46.406 46.307 46.174 46.148 46.67 46.492 45.966 46.037 46.008 45.936 46.052 46.647 46.9 46.508 46.6 46.694 46.808 46.501 46.865 46.883 48.262 47.225 45.741 45.757 45.749 50.92 56.023 55.949 56.001 55.887
61.587 61.34 61.113 60.867 60.718 60.569 60.482 60.349 60.239 60.18 61.771 66.391 65.14 65.891 67.038 60.802 60.653 59.483 59.171 59.301 59.428 59.365 59.093 59.406 58.972 59.347 64.092 64.223 61.987 62.143 62.141 61.428 59.458 58.334 59.832 58.667 58.11 58.968 58.377 58.248 57.773 57.713 57.682 57.673 57.622 57.53 57.565 57.557 57.692 57.85 57.952 63.01 65.655 64.51 60.436 58.239 58.225 58.319 60.949 61.889 59.026 57.962 57.944 57.958 57.905 57.876 57.825 58.264 57.764 57.63 57.601 57.741 57.598 57.555 61.52 58.789 57.557 57.437 57.312 57.244 57.236 56.902 56.836 61.374 62.939 63.922 63.827 62.615 57.588 57.272 56.755 56.714 56.578 56.459 56.35 56.161 56.117 56.033 55.896 55.73 55.651 55.617 55.741 55.563 55.557 55.725 56.024 56.124 55.445 55.072 54.707 52.991 50.747 51.767 54.81 54.68 54.608 54.9 54.204 53.696 53.465 53.809 54.59 56.025 56.578 57.861 58.591 60.383 61.295 61.321 62.559 63.037 63.105 63.117 62.959 62.875 62.653 62.558 61.688 60.161 59.008 57.927 56.922 56.146 55.799 55.626 56.426 56.484 56.677 57.261 57.753 58.08 58.011 58.681 59.008 58.964 59.033 59.115 59.163 59.188 59.058 59.014 58.979 58.862 58.781 58.637 58.528 58.429 58.105 57.984 57.904 57.88 57.78 57.755 57.871 57.955 57.947 57.897 60.563 63.127 60.343 60.002 63.171 59.282 58.804 60.027 62.967 63.953 64.606 64.06 60.901 58.136 58.62 59.861 59.528 60.04 58.762 58.73 58.731 58.416 58.524 58.722 64.302 65.156 65.271 64.871 64.735 62.413 60.694 59.323 59.337 59.002 58.635 58.191 58.297 58.339 60.406 60.633 63.155 62.391 59.348 59.193 59.307 59.471 59.664 59.893 60.06 60.257 60.335 60.282 60.186 61.072 61.211 62.118 63.325 62.438 60.921 60.622 60.759 60.949 61.486 61.662 61.865 61.179 60.841 60.854 60.517 64.121 66.126 66.798 66.47 65.773 63.003 61.817 60.38 60.26 59.896 59.805 59.776 60.087 60.284 60.881 61.87 60.542 60.754 59.972 59.85 60.401 59.369 59.868 60.23 59.246 59.134 59.169 61.336 61.546 61.609 62.857 59.501 63.629 63.825 63.814 64.093 63.992 64.199 59.834 57.794 59.945 59.984 60.927 61.361 62.516 62.575 63.007 62.982 62.976 58.724 56.495 56.679 56.042 58.322 60.125 61.096 57.624 54.817 54.766 54.606 54.534 57.034 59.507 60.149 60.573 60.754 60.639 60.477 59.962 58.972 58.468 53.234 52.38 51.739 51.571 52.118 51.994 52.167 52.834 53.878 52.784 52.278 52.341 52.279 52.181 52.168 52.156 52.166 52.158 52.198 52.142 52.113 52.059 52.113 52.198 52.298 54.024 55.89 57.762 58.191 57.758 52.454 53.202 51.454 52.738 50.652 51.394 52.307 52.875 50.361 49.348 49.163 53.142 55.015 54.007 48.653 48.525 48.541 48.428 48.829 49.252 48.658 48.327 48.223 48.922 48.283 47.696 47.595 47.592 47.663 47.663 47.649 47.543 47.478 47.557 47.476 47.335 47.224 47.06 46.923 46.75 46.505 49.42 53.331 53.344 53.349 53.341 53.442 53.354 53.382 53.36 53.327 53.35 53.331 53.365 48.557 46.321 46.56 46.571 46.476 46.404 46.116 45.883 46.002 46.008 45.939 46.029 46.564 46.813 46.52 46.674 46.772 46.935 46.89 46.642 46.427 46.402 47.648 47.941 46.816 48.077 48.228 55.386 55.589 55.551 55.499
61.708 61.48 61.257 61.09 60.888 60.779 60.615 60.482 60.479 60.524 61.444 66.427 66.329 67.775 68.449 67.504 60.906 60.85 59.175 59.383 59.473 60.029 59.643 60.514 62.211 61.569 60.329 63.601 63.735 60.124 61.278 58.605 58.858 59.597 59.152 58.32 58.414 58.41 60.252 59.027 57.922 57.788 57.781 57.796 57.734 57.674 57.694 57.64 58.11 58.405 62.358 65.084 65.992 65.275 63.357 58.453 58.199 58.77 60.937 62.118 61.407 58.478 57.977 57.965 58.032 57.944 57.921 57.859 57.887 57.801 57.684 57.972 57.715 63.131 64.908 66.049 61.531 57.866 57.422 57.31 57.27 57.26 56.911 56.963 62.17 62.886 63.912 58.82 60.551 61.792 59.51 56.763 56.667 56.92 56.455 56.341 56.475 56.218 55.941 55.764 55.633 55.589 55.592 55.536 55.641 55.609 55.588 55.608 55.942 55.081 54.555 53.933 51.486 51.129 52.853 54.128 54.246 54.081 53.454 53.278 53.064 53.324 54.405 55.553 56.611 57.502 57.864 59.228 59.8 60.83 62.388 62.76 63.108 63.106 63.146 62.92 62.857 62.718 62.12 60.8 59.727 58.676 57.797 56.778 56.219 55.651 56.069 56.178 56.319 56.933 56.969 57.156 58.12 58.617 58.959 58.799 58.951 58.889 59.094 59.049 58.995 58.959 58.895 58.89 58.807 58.73 58.629 58.501 58.287 58.058 57.91 57.861 57.799 57.79 57.65 57.717 57.857 57.846 57.791 57.723 58.285 57.809 57.596 58.356 60.032 62.486 63.333 64.007 64.064 63.301 62.072 58.225 58.157 58.299 58.316 59.041 59.34 58.884 58.746 58.14 58.087 61.927 64.27 65.429 64.97 64.256 61.021 60.559 59.46 59.146 59.072 58.601 58.203 57.988 58.026 58.101 58.237 59.292 62.015 59.611 58.87 59.299 59.799 59.381 59.515 59.715 60.562 64.724 64.354 60.516 60.272 60.313 61.859 62.63 64.79 64.625 61.27 60.509 60.491 60.746 64.874 61.593 60.553 60.472 60.56 60.41 60.406 63.859 66.033 66.665 66.623 65.814 61.498 59.973 59.977 59.86 59.714 59.628 59.986 59.699 60.406 60.8 59.72 59.636 59.496 59.427 59.521 61.114 59.876 59.585 61.092 61.93 60.341 63.536 63.969 64.207 63.765 64.317 64.411 64.234 64.057 64.011 63.803 63.744 63.573 61.12 57.538 62.284 62.906 62.978 63.106 62.9 62.901 62.462 59.484 59.301 58.173 56.344 55.963 55.701 55.314 56.046 56.325 55.398 55.754 56.67 54.589 58.294 60.031 60.351 60.817 61.218 61.179 60.448 59.958 59.225 57.374 54.188 53.088 53.523 51.706 51.515 51.467 51.651 53.21 55.281 54.954 52.391 51.999 52.041 52.257 52.192 52.179 52.243 52.901 52.22 52.126 52.093 52.783 52.451 52.423 52.245 52.255 56.115 57.334 58.166 57.959 53.665 52.1 52.876 51.157 52.779 52.659 50.411 49.875 50.9 50.25 49.412 52.938 54.851 55.064 54.492 49.377 48.64 48.509 48.504 48.768 48.751 48.428 48.259 48.303 49.263 48.204 47.665 47.675 47.669 47.746 47.728 47.629 47.507 47.604 47.551 47.38 47.155 47.085 46.889 46.812 46.683 46.414 50.148 53.167 53.153 53.192 53.169 53.169 53.193 53.18 53.183 53.155 53.153 53.234 53.196 48.478 46.317 46.282 46.179 46.094 46.075 45.975 45.941 45.972 45.971 45.948 46.089 46.624 46.823 46.559 46.662 46.811 46.915 46.904 46.856 46.735 46.319 48.274 48.936 48.942 48.971 53.447 55.111 55.171 55.146 55.19
62.717 61.635 61.388 61.172 61.078 60.926 60.79 60.712 60.713 60.765 61.038 65.908 67.945 68.153 67.722 66.179 63.143 60.318 59.142 59.506 59.603 59.735 59.446 60.515 62.022 62.106 61.391 60.014 64.226 62.715 58.854 58.656 58.777 58.928 58.601 58.484 58.52 58.896 58.175 58.03 59.264 57.921 57.89 57.891 57.865 57.817 57.761 57.934 58.084 58.309 61.934 64.191 65.534 65.481 64.393 60.56 58.217 58.202 60.397 61.752 59.25 58.372 58.009 57.992 57.967 57.943 58.274 58.456 58.018 58.021 58.137 59.31 62.321 64.83 66.317 67.117 64.836 59.392 57.94 57.538 57.455 57.132 57.38 56.929 57.131 61.578 57.475 60.711 63.2 63.718 62.6 59.303 56.956 56.583 56.971 56.353 56.934 56.954 55.999 55.89 55.76 55.666 55.621 55.603 55.638 55.738 55.611 55.476 55.989 55.233 54.722 54.217 53.631 52.594 52.525 53.28 54.293 53.074 53.001 52.817 52.744 52.934 53.407 54.855 55.054 56.586 57.321 58.531 59.519 62.419 63.073 62.867 62.76 63.118 63.145 63.014 62.986 62.756 62.597 61.844 60.772 59.46 58.467 57.61 56.566 56.039 55.923 56.141 56.318 55.952 56.262 56.963 57.574 58.274 58.593 58.854 58.779 58.82 58.788 58.822 58.86 58.897 58.853 58.863 58.844 58.816 58.755 58.594 58.464 58.287 58.077 57.83 57.744 57.722 57.638 57.582 57.536 57.747 57.696 57.66 57.659 57.568 57.451 58.936 61.823 63.024 63.656 64.302 63.617 62.778 60.133 59.227 58.843 58.274 60.143 59.843 59.704 58.544 58.71 58.661 58.384 63.309 64.416 64.697 64.156 63.785 58.61 58.55 58.611 58.833 58.731 58.226 58.517 57.923 57.84 57.873 58.077 60.415 61.436 58.789 58.814 59.863 59.717 59.705 59.099 59.286 59.668 64.006 63.916 61.677 62.43 60.275 60.264 60.556 61.693 60.678 59.891 60.045 60.229 63.808 65.732 63.616 60.679 60.494 60.483 60.314 60.08 63.527 64.736 65.813 62.929 61.324 59.72 59.757 59.695 59.662 59.487 59.447 59.339 59.36 60.582 59.932 59.677 59.604 59.473 59.391 59.655 62.111 60.368 61.59 63.731 64.322 64.567 64.633 64.801 64.805 64.703 64.617 64.582 64.339 62.403 62.626 59.852 59.444 58.016 59.795 57.89 61.6 62.603 62.408 62.504 62.285 62.229 59.399 56.832 56.854 56.441 55.9 55.726 55.427 55.173 55.004 54.972 54.922 56.278 56.938 59.381 60.179 60.589 61.196 61.313 60.961 60.66 60.236 59.138 54.382 53.391 53.596 53.295 52 51.609 51.486 51.382 51.387 52.628 57.585 57.124 56.794 56.998 55.707 52.379 52.633 52.533 52.302 53.232 52.956 52.246 53.334 53.075 52.298 53.471 53.879 56.963 58.048 58.101 57.78 57.331 51.881 51.575 51.437 50.87 54.226 52.57 52.984 50.499 49.446 49.262 49.259 54.769 55.196 54.473 52.302 49.479 48.812 48.622 48.536 48.569 48.556 48.361 48.314 48.803 48.132 47.669 47.65 47.729 47.808 47.741 47.657 47.594 47.613 47.595 47.427 47.259 47.04 46.777 46.683 46.666 46.484 46.374 47.684 52.894 52.927 52.979 53.006 52.971 53.017 52.94 52.961 52.926 52.953 52.97 52.802 48.19 46.285 46.232 46.191 46.104 46.056 45.949 45.936 46.009 45.919 45.94 46.03 46.673 46.818 46.571 46.638 46.778 46.851 46.894 46.751 46.61 46.054 49.418 50.179 48.987 48.913 51.225 54.8 54.77 54.77 54.781
62.131 61.663 61.428 61.353 61.248 61.091 60.958 60.909 60.881 60.929 60.973 61.27 66.3 67.265 65.827 62.552 63.137 59.987 59.174 59.679 59.777 59.793 59.538 60.416 60.858 62.009 62.091 61.458 60.73 58.943 58.859 58.763 58.692 58.763 58.818 58.594 58.403 58.434 58.262 58.133 60.077 58.148 58.01 57.94 57.954 57.924 57.853 58.042 58.128 58.354 58.775 63.205 64.89 66.021 60.565 58.963 59.105 58.244 59.199 58.384 58.37 58.31 58.167 58.17 57.936 58.85 58.122 58.066 58.102 58.086 58.117 58.353 65.241 65.925 67.419 66.579 65.62 62.562 59.697 57.774 57.397 57.25 57.125 56.967 56.923 57.169 56.932 64.251 63.845 62.912 62.054 59.666 57.477 56.594 57.542 56.563 56.311 56.204 56.01 55.921 55.809 55.656 55.65 55.623 55.617 55.649 55.849 55.538 55.663 55.247 54.772 54.322 53.737 53.092 52.135 50.667 50.732 51.56 52.426 52.859 52.479 52.496 53.333 53.79 56.115 57.108 57.878 58.399 58.993 60.489 62.652 62.641 62.608 63.076 63.089 63.196 62.995 62.949 62.685 62.417 61.517 60.22 59.169 58.317 57.525 56.611 55.732 55.859 56.079 55.704 55.729 56.262 56.842 57.637 57.828 58.28 58.522 58.533 58.519 58.64 58.704 58.898 58.782 58.805 58.796 58.778 58.743 58.691 58.561 58.413 58.261 57.942 57.787 57.731 57.663 57.627 57.52 57.505 57.574 57.624 57.501 57.492 57.66 57.189 60.992 63.31 64.007 63.909 63.225 61.937 58.116 59.296 58.146 62.166 64.687 63.731 58.402 57.936 57.774 58.069 62.235 63.886 64.634 64.457 63.618 58.855 58.203 58.318 58.509 58.616 58.219 57.787 57.893 57.639 57.684 57.732 57.878 57.92 58.079 58.217 58.325 58.561 58.84 58.926 60.024 59.489 59.189 59.324 61.769 61.396 63.436 62.17 60.067 59.911 59.76 60.021 60.098 59.666 59.819 59.987 60.125 60.223 60.178 60.401 60.062 60.15 59.767 59.721 60.127 60.837 63.22 62.478 60.236 59.695 59.551 60.431 59.364 59.29 59.186 59.261 60.615 61.796 59.333 59.42 61.837 62.782 62.222 64.888 65.161 65.234 65.152 65.351 65.367 65.179 64.245 63.961 64.002 63.78 60.321 60.274 59.053 58.124 58.051 57.775 57.662 58.867 59.361 57.943 58.411 57.882 57.496 56.977 56.962 56.928 56.432 56.129 55.92 55.708 55.637 55.258 55.191 55.4 54.805 54.561 54.714 55.857 60.385 60.857 61.209 61.21 60.859 60.234 59.866 56.429 53.641 53.465 53.003 53.391 52.998 52.856 51.556 51.418 51.328 51.376 56.405 58.508 58.472 58.347 58.275 57.346 57.551 57.123 57.399 56.008 52.837 53.254 53.268 53.345 52.424 51.806 52.238 55.676 57.816 58.139 57.506 53.599 52.088 51.724 51.498 51.365 51.472 51.11 50.898 50.121 49.858 49.294 50.151 54.197 55.173 54.672 51.455 49.489 48.882 48.685 48.96 50.854 49.023 48.399 48.412 48.875 48.582 47.76 47.667 47.737 47.749 47.779 47.698 47.628 47.621 47.68 47.463 47.346 47.139 46.881 46.497 47.157 50.166 47.169 46.301 47.914 52.74 52.719 52.746 52.766 52.769 52.762 52.745 52.793 52.715 52.782 52.715 52.717 48.348 46.285 46.229 46.143 46.112 46.058 45.968 45.918 45.908 45.963 45.918 46.037 46.68 46.676 46.511 46.587 46.753 46.799 46.822 46.749 46.539 47.245 52.008 51.943 51.556 47.776 46.045 54.23 54.367 54.409 54.282
62.131 61.726 61.546 61.502 61.372 61.304 61.174 61.141 61.004 61.049 61.037 61.192 60.886 65.367 60.595 60.145 60.468 59.958 60.017 60.019 59.987 59.872 59.906 59.63 60.576 61.34 62.03 60.446 59.126 59.089 59.169 58.937 59.064 59.065 59.318 58.601 58.467 58.375 58.357 59.138 58.521 58.221 58.136 58.076 58.07 58.048 58.017 58.017 58.23 58.332 58.427 59.569 61.953 59.978 58.934 58.59 58.522 61.471 60.201 58.596 58.501 58.417 58.278 58.212 58.129 58.893 58.124 58.103 58.133 58.491 62.57 66.769 67.548 67.403 66.452 65.051 63.861 58.79 57.672 57.922 57.783 57.332 57.183 57.076 56.812 56.722 60.587 63.004 63.785 63.658 62.505 57.495 58.836 57.753 56.826 56.51 56.367 56.176 56.001 55.944 55.854 55.747 55.646 55.647 55.624 55.694 55.71 55.603 55.855 55.191 54.857 54.424 53.984 53.238 52.484 50.881 50.732 50.852 51.668 52.542 52.413 52.209 52.906 54.307 55.667 57.874 57.384 57.83 58.652 59.606 60.241 61.616 63.481 62.778 63.168 63.083 63.161 63.016 62.847 62.763 62.717 62.317 60.168 58.935 58.12 57.284 56.221 55.607 55.456 55.825 55.641 55.656 56.02 56.462 57.102 57.718 57.952 58.101 58.317 58.29 58.457 58.701 58.742 58.688 58.697 58.665 58.695 58.698 58.635 58.443 58.337 58.156 58.007 57.723 57.661 57.594 57.527 57.471 57.435 57.503 57.494 57.429 57.387 57.476 61.847 63.308 64.191 63.718 62.815 59.456 58.496 59.313 58.759 63.338 64.526 60.982 58.405 58.845 57.615 57.503 62.395 63.669 64.276 64.001 62.416 60.709 58.868 58.227 58.42 58.292 57.867 57.505 57.357 57.366 57.484 57.559 57.695 57.841 57.95 58.095 58.21 58.415 58.469 58.634 58.754 58.894 59.055 59.214 59.899 61.144 62.783 62.966 60.21 60.878 63.085 65.36 65.498 63.68 59.877 59.753 59.909 60.048 60.093 60.551 60.562 60.565 60.161 63.384 65.502 66.375 66.306 65.488 63.809 59.705 59.402 60.277 59.485 59.047 58.945 58.935 61.498 64.086 64.226 64.252 64.918 64.883 65.044 65.195 65.323 65.044 65.035 64.894 64.741 64.547 59.264 58.647 58.763 58.506 58.436 59.1 58.993 57.762 57.656 57.532 57.542 57.615 58.581 56.99 57.022 56.992 56.932 56.814 56.85 56.674 56.474 56.605 55.653 55.574 55.797 55.085 55.089 54.982 56.305 58.608 57.381 55.454 59.84 61.295 60.951 60.593 60.073 57.001 56.205 53.924 53.404 52.941 52.432 52.041 52.9 51.981 51.505 51.373 51.286 51.426 57.057 58.129 58.307 58.336 58.232 58.325 58.412 58.234 58.238 58.091 52.358 52.25 53.533 52.998 51.869 52.181 51.724 56.548 58.091 57.62 52.663 52.035 51.719 51.514 51.354 51.354 51.016 53.933 50.858 49.858 49.395 49.311 53.976 55.028 54.909 50.709 49.272 48.991 48.8 48.949 49.302 49.259 48.545 48.455 48.456 48.663 48.075 47.74 47.767 47.804 47.814 47.744 47.677 47.686 47.699 47.567 47.44 47.284 47.012 46.704 50.279 52.714 51.655 52.703 52.195 52.908 52.726 52.67 52.717 52.705 52.704 52.755 52.653 52.74 52.691 52.732 52.712 52.711 52.293 46.432 46.218 46.163 46.112 46.007 45.88 45.933 45.972 45.957 45.885 45.938 46.448 46.689 46.46 46.604 46.713 46.763 46.777 46.719 46.563 46.975 53.597 54.046 54.719 49.413 51.145 53.992 53.943 53.976 53.949
62.233 61.848 61.768 61.587 61.529 61.69 61.363 61.281 61.201 61.192 61.162 61.163 60.998 59.958 60.015 60.039 60.118 60.196 60.272 60.287 60.349 59.999 60.113 59.853 60.059 60.864 59.789 59.354 59.318 59.254 59.138 59.094 59.786 60.329 59.953 58.675 58.593 58.53 59.998 58.802 58.334 58.426 58.601 58.181 58.138 58.151 58.162 58.122 58.305 58.418 58.509 58.418 58.542 58.579 58.501 59.431 62.757 65.395 66.297 61.958 59.056 58.453 58.376 58.223 58.202 58.234 58.138 58.148 58.254 63.977 67.008 67.641 68.395 67.955 65.734 64.899 58.801 57.688 57.682 57.639 57.741 58.007 57.303 57.248 56.831 56.677 58.396 61.822 62.972 63.395 57.068 59.888 61.567 59.564 57.319 56.571 56.453 56.291 55.988 55.893 55.848 55.799 55.744 55.653 55.653 55.661 55.697 56.161 56.053 60.807 58.406 54.512 54.037 53.443 52.381 51.492 50.867 50.763 50.899 52.633 52.218 52.276 53.322 53.124 55.103 57.214 56.807 57.165 58.002 59.514 62.192 62.617 63.249 62.74 62.987 63.155 63.201 63.153 63.034 62.855 63.097 63.359 61.006 59.666 58.693 57.856 56.927 55.98 55.293 54.984 55.569 55.497 55.683 56.047 56.258 56.92 57.273 57.611 57.934 57.863 58.011 58.284 58.435 58.517 58.618 58.6 58.613 58.634 58.6 58.518 58.425 58.307 58.167 58.008 57.813 57.586 57.513 57.458 57.403 57.305 57.332 57.407 57.313 57.29 57.273 57.196 59.177 63.032 60.091 57.252 57.477 58.302 58.777 59.695 62.429 59.536 57.921 57.666 57.845 60.972 63.187 64.08 63.915 63.152 61.215 60.309 59.288 58.146 58.165 57.939 57.56 57.16 57.166 57.277 57.302 57.513 57.605 57.712 57.828 57.907 58.074 58.177 58.35 58.473 58.617 58.824 58.912 59.073 59.147 59.803 59.455 59.615 60.645 62.451 64.863 65.882 66.337 65.812 65.137 59.664 59.907 59.922 60.365 60.314 59.868 59.789 59.732 63.268 65.23 66.052 66.515 65.652 64.272 62.173 59.929 59.1 58.907 58.861 58.769 58.796 63.261 65.299 65.371 65.459 65.26 65.257 65.167 64.835 61.108 60.809 60.852 60.669 60.001 59.039 59.159 58.555 58.292 58.148 58.082 58.133 58.783 57.554 57.515 57.436 57.476 58.085 59.024 56.931 56.912 56.93 56.773 56.453 56.366 56.081 55.91 57.154 55.873 55.893 55.437 55.118 54.547 57.714 59.938 60.396 58.351 55.625 55.592 60.716 60.276 59.525 56.761 54.35 55.552 53.87 52.95 52.798 54.028 52.552 53.19 51.814 51.422 51.307 51.209 51.381 56.384 56.389 57.156 57.402 57.652 58.133 58.311 58.401 58.421 57.244 52.069 54.793 54.96 52.358 51.71 54.099 56.935 57.625 57.321 54.188 51.877 51.815 51.592 51.065 51.116 50.76 50.765 51.88 51.284 49.698 50.168 52.893 55.059 55.098 54.383 51.192 49.077 48.951 48.764 48.859 48.67 48.573 48.514 49.087 48.285 47.876 47.825 47.823 47.764 47.899 47.774 47.721 47.633 47.708 47.685 47.523 47.398 47.252 47.09 46.643 47.86 52.894 52.94 52.966 52.95 52.922 52.929 52.923 52.975 52.899 52.948 52.975 52.949 52.926 52.933 52.959 52.978 52.958 48.461 46.308 46.242 46.186 46.061 46.02 45.939 45.882 45.925 45.883 45.853 45.972 46.486 46.642 46.508 46.652 46.7 46.658 46.608 46.579 46.537 48.343 51.397 51.411 51.273 48.641 47.202 53.484 53.518 53.506 53.607
62.152 62.103 61.889 61.8 61.775 62.088 63.245 61.643 61.459 61.334 61.226 61.232 61.255 61.055 60.235 60.294 60.381 60.405 60.474 60.494 60.57 60.453 61.263 60.831 59.524 59.976 59.603 59.522 59.807 60.844 60.832 59.26 59.387 59.298 60.749 60.351 60.013 59.303 58.678 59.691 59.048 59.048 58.782 58.463 58.228 58.228 58.245 58.215 58.233 58.367 58.523 58.506 58.474 58.445 62.436 65.189 66.051 66.119 65.37 63.932 58.857 58.45 58.453 58.546 58.243 58.224 58.192 58.368 62.57 66.895 67.876 68.467 68.131 67.472 66.061 58.931 57.723 57.712 57.699 59.788 61.378 60.652 57.67 57.373 57.257 56.787 58.387 59.867 61.153 58.491 60.368 63.407 62.73 61.639 58.942 56.724 56.514 56.33 56.13 55.931 55.895 55.757 55.713 55.633 55.63 55.594 55.765 55.931 60.652 62.976 58.616 55.241 54.051 53.726 52.969 52.229 51.657 50.975 50.734 50.999 52.233 52.186 52.998 52.953 53.605 54.364 54.944 56.496 56.991 59.827 62.304 61.466 61.26 61.363 62.386 63.074 63.135 63.18 63.103 63.093 62.771 62.537 61.628 60.721 59.344 58.403 57.784 56.759 55.601 55.116 55.228 55.643 55.331 55.505 55.892 59.852 61.267 58.318 57.498 57.243 57.71 58.006 58.212 58.371 58.503 58.491 58.532 58.541 58.572 58.536 58.454 58.334 58.252 58.13 58 57.725 57.671 57.502 57.42 57.368 57.249 57.274 57.318 57.31 57.23 57.346 57.375 58.217 58.417 57.476 57.445 57.499 57.538 57.571 57.884 57.808 57.447 57.292 57.062 61.804 63.141 64.903 63.656 62.8 58.066 58.225 57.748 58.009 58.635 57.561 57.076 56.967 56.975 57.118 57.4 57.622 57.617 57.599 57.689 57.847 57.94 58.102 58.243 58.37 58.429 58.584 58.738 58.916 59.04 59.192 59.271 59.497 59.499 63.083 64.913 65.891 66.337 65.588 62.591 59.729 59.758 59.751 59.767 60.053 60.037 60.025 59.789 60.476 65.16 65.68 65.995 65.216 64.547 61.68 59.805 58.948 59.066 58.664 58.597 58.482 61.351 64.768 64.646 64.454 64.19 64.499 61.74 60.329 59.233 59.045 58.746 58.754 58.727 58.384 59.438 58 57.894 57.691 57.679 57.843 59.491 59.112 59.328 58.346 58.169 57.666 57.055 56.866 56.868 56.737 56.497 56.306 56.164 56.217 55.885 55.601 55.639 56.519 59.228 59.583 59.255 60.235 60.567 60.973 60.637 57.556 54.275 56.999 59.582 54.916 54.3 54.632 53.707 55.293 52.605 53.023 52.588 52.004 56.507 53.288 51.397 51.265 51.122 51.35 52.13 51.995 51.961 51.975 52.524 57.199 57.426 57.591 57.586 54.842 52.04 54.896 55.361 52.799 51.551 55.235 57.488 57.464 55.212 51.577 51.536 51.948 51.377 50.869 51.246 51.921 50.673 50.159 49.546 50.561 49.494 50.999 53.865 54.436 50.251 51.281 49.041 48.818 48.75 48.707 48.674 48.592 49.196 48.953 48.453 47.872 47.788 47.847 47.85 47.862 47.758 47.686 47.714 47.766 47.62 47.471 47.4 47.227 47.028 46.733 50.085 53.144 53.144 53.125 53.197 53.143 53.176 53.149 53.156 53.155 53.124 53.148 53.199 53.12 53.137 53.175 53.109 53.151 49.8 46.359 46.211 46.155 46.076 46.016 45.951 45.858 45.915 45.932 45.856 45.931 46.579 46.703 46.488 46.63 46.691 46.574 46.519 46.553 46.474 46.419 48.267 47.994 48.298 46.14 50.864 53.089 53.212 53.176 53.165
62.345 62.177 62.056 62.004 62.124 63.4 65.912 64.751 66.42 61.937 62.813 61.315 61.338 61.296 60.609 60.345 60.398 60.436 60.507 61.123 63.147 64.651 63.652 61.195 61.374 59.573 61.354 60.142 62.01 62.311 62.21 59.879 59.176 59.599 60.103 58.913 59.37 58.629 58.892 61.867 59.075 58.688 58.797 58.56 58.401 58.378 58.36 58.308 58.308 58.415 58.557 58.646 58.598 58.553 59.972 65.993 65.739 65.436 65.523 63.626 59.608 58.445 58.602 58.455 58.291 58.263 58.202 58.317 61.335 67.591 68.439 68.154 67.82 66.892 63.3 58.385 57.731 57.733 57.732 60.528 61.278 61.254 60.557 57.903 57.398 56.96 57.283 59.148 57.953 59.749 62.542 63.375 63.252 62.602 62.553 58.149 56.509 56.373 56.191 56.023 55.823 55.811 55.758 55.725 55.593 55.59 55.612 55.658 63.217 63.611 60.58 54.62 55.262 53.863 53.599 52.876 52.288 51.459 50.887 50.676 51.721 52.261 51.966 52.308 53.196 53.87 54.258 55.451 56.296 57.936 58.841 59.686 59.926 62.173 62.391 62.738 63.136 63.134 63.157 63.048 63.057 62.787 62.042 61.02 60.019 59.264 58.596 57.782 56.479 55.504 54.84 55.308 55.059 55.038 54.789 63.097 63.202 59.254 56.449 57.131 57.556 57.82 57.837 58.072 58.278 58.419 58.421 58.421 58.466 58.519 58.451 58.358 58.277 58.21 58.082 57.981 57.798 57.488 57.437 57.334 57.271 57.21 57.175 57.217 57.263 57.236 57.221 58.917 59.142 57.496 57.458 57.448 57.508 57.674 57.986 57.859 57.27 58.417 60.918 62.612 63.388 63.52 62.59 59.525 57.188 57.416 57.645 61.368 61.825 59.421 56.868 56.865 56.887 57.075 57.416 57.541 57.49 57.533 57.648 57.713 57.842 57.97 58.056 58.222 58.349 58.49 58.612 58.724 58.844 59.01 59.226 59.754 58.993 63.501 65.211 65.861 65.477 65.022 61.023 59.485 59.636 59.659 59.605 61.509 60.567 60.467 60.551 62.296 64.671 65.4 66.057 65.201 64.075 60.234 58.911 59.178 58.841 58.482 58.437 58.385 59.264 60.636 59.667 59.399 59.26 58.982 58.907 59.042 58.653 58.398 60.154 59.114 58.021 58.126 57.692 57.586 57.59 57.493 57.545 57.437 57.899 58.496 57.593 57.349 58.061 57.035 56.906 56.785 56.764 56.564 56.406 56.235 56.47 55.809 55.695 55.877 55.276 60.308 60.731 61.271 61.247 60.846 60.782 60.394 59.912 56.764 54.238 54.192 54.724 54.333 55.307 54.492 53.11 53.739 54.969 56.915 52.742 56.519 55.813 56.776 51.383 51.209 51.141 51.134 51.938 51.855 51.732 51.88 51.921 52.075 52.027 54.569 53.625 52.615 52.77 52.274 54.821 53.74 55.138 57.216 57.595 57.094 52.193 51.568 51.48 51.338 51.075 51.805 52.916 52.136 50.433 51.008 49.769 52.263 53.299 50.04 50.241 49.703 49.068 49.029 48.921 48.784 48.777 48.765 48.839 48.827 48.654 48.603 47.972 47.858 47.886 47.931 47.855 47.859 47.728 47.775 47.844 47.689 47.53 47.46 47.349 47.183 46.963 46.655 51.508 53.399 53.389 53.407 53.344 53.336 53.331 53.384 53.294 53.341 53.386 53.4 53.387 53.409 53.362 53.329 53.334 53.302 49.806 46.308 46.258 46.162 46.059 46.015 45.898 45.878 45.903 45.848 45.849 45.927 46.612 46.717 46.493 46.564 46.628 46.57 46.532 46.395 46.307 46.268 46.915 48.461 47.04 45.864 49.707 53.334 53.307 53.253 53.367
62.494 62.372 62.364 63.286 62.526 65.962 68.743 69.914 69.856 69.564 63.571 61.455 61.464 61.43 61.423 60.634 60.405 61.17 61.572 62.001 64.001 62.879 61.117 61.102 61.211 60.436 59.549 60.17 62.085 62.444 62.275 61.204 59.541 59.528 59.102 58.928 58.838 59.116 61.808 64.24 60.053 59.481 58.855 58.629 58.521 58.403 58.409 58.425 58.374 58.503 58.612 58.675 58.71 58.673 60.307 63.969 63.776 64.833 65.547 64.793 58.586 59.179 58.389 58.344 58.313 58.315 58.229 58.251 59.671 65.539 68.189 67.636 67.005 59.468 58.959 58.08 57.935 57.752 57.628 58.05 59.968 61.18 57.647 57.344 57.199 57.158 56.959 57.909 56.791 56.675 58.378 62.452 63.228 63.181 59.311 56.556 56.466 56.49 56.388 56.141 55.86 55.797 55.701 55.95 55.648 55.602 55.561 56.672 62.783 62.383 55.788 54.893 54.851 54.463 53.886 53.436 52.818 51.98 51.432 50.843 50.831 51.793 52.22 52.416 52.915 53.046 53.945 54.299 55.458 56.675 57.63 58.656 60.066 60.574 60.925 62.305 62.781 63.144 63.21 63.252 63.138 62.894 62.751 62.997 60.782 59.809 60.696 60.7 58.358 56.007 55.257 54.81 54.645 54.622 57.474 60.444 60.305 57.731 55.849 56.477 57.172 57.412 57.724 57.734 58.038 58.182 58.299 58.349 58.452 58.447 58.424 58.335 58.297 58.244 58.174 58.048 57.907 57.763 57.546 57.335 57.291 57.216 57.144 57.098 57.129 57.177 57.213 57.504 57.124 57.177 59.761 57.595 57.283 58.28 57.689 57.399 58.407 59.658 61.773 62.968 63.546 63.093 62.302 57.478 56.932 57.443 59.363 60.659 61.134 57.263 56.692 56.683 56.691 57.069 57.297 57.386 57.822 58.616 57.581 57.648 57.726 57.836 57.955 58.067 58.259 58.352 58.483 58.635 58.72 58.924 58.998 59.664 58.656 64.551 65.405 65.635 65.045 61.669 59.112 61.072 60.505 59.659 59.422 61.158 59.276 59.554 61.194 61.765 64.355 65.25 66.063 65.419 62.425 58.972 61.037 58.914 58.462 58.358 58.207 58.158 58.184 58.867 58.965 58.715 58.76 58.523 58.409 58.343 57.951 58.069 58.325 58.043 57.684 57.65 57.59 57.532 57.452 60.101 62.795 63.279 63.567 61.875 57.363 57.266 57.253 56.954 56.683 56.564 56.447 56.359 56.068 55.975 55.696 56.99 59.855 60.125 60.54 61.02 61.42 61.532 61.184 60.624 60.085 59.599 55.815 54.272 54.515 54.109 55.493 53.148 53.494 53.524 55.179 52.46 55.25 55.87 51.873 56.18 57.915 53.047 51.214 51.161 51.061 51.035 51.3 52.013 51.373 51.496 51.558 51.824 54.63 55.916 55.847 55.656 51.889 54.277 54.933 55.265 57.071 57.664 57.026 53.881 52.5 51.607 51.468 51.179 50.853 51.24 51.041 53.007 52.544 52.009 49.813 54.614 55.363 55.072 50.717 49.037 48.998 48.913 48.862 48.883 48.841 48.986 48.979 48.805 48.308 48.016 47.935 47.924 47.925 47.916 47.879 47.763 47.734 47.856 47.696 47.43 47.421 47.367 47.295 47.189 46.965 46.697 49.096 53.251 53.396 53.325 53.286 53.283 53.286 53.266 53.281 53.256 53.249 53.301 53.252 53.28 53.253 53.28 53.279 53.296 49.823 46.31 46.244 46.142 46.076 46.016 45.994 45.879 45.862 45.87 45.889 45.958 46.588 46.686 46.442 46.549 46.645 46.593 46.598 46.477 46.175 46.152 46.554 49.244 45.886 45.791 45.66 53.617 53.755 53.746 53.745
62.703 62.583 62.554 63.295 63.823 69.25 70.108 70.083 70.215 70.163 63.87 61.698 61.599 61.588 61.527 61.517 61.187 61.496 62.196 62.07 61.702 62.119 61.194 61.215 61.163 61.195 59.9 59.593 60.434 62.344 61.633 61.145 61.348 60.53 59.264 59.811 59.645 63.372 63.691 61.33 58.974 58.888 58.794 59.964 58.699 58.558 58.496 58.52 58.491 58.488 58.652 58.73 58.809 58.761 58.68 61.852 64.162 63.911 59.245 58.593 58.534 58.475 58.366 58.336 58.374 58.311 58.223 61.942 63.173 60.514 64.211 66.443 62.317 59.052 58.451 58.869 57.908 57.799 57.719 57.658 58.238 58.723 57.913 57.411 57.235 57.185 57.039 56.862 56.759 56.691 56.801 60.851 62.587 58.443 56.523 56.639 60.623 56.922 56.532 56.271 55.976 55.778 55.758 55.771 55.703 55.584 55.508 55.439 55.474 56.002 55.011 55.273 54.694 54.441 54.335 53.797 53.351 52.835 52.821 51.995 51.125 51.45 52.015 52.451 53.102 52.913 53.856 54.638 54.796 55.905 56.874 58.594 58.552 59.543 60.499 61.619 62.546 63.135 63.187 63.209 63.118 63.065 62.822 62.608 62.835 63.815 64.604 64.236 63.65 58.169 55.602 54.917 54.628 54.593 54.514 57.938 56.524 55.459 55.88 56.539 56.722 57.262 57.657 57.666 57.919 57.949 58.296 58.338 58.391 58.383 58.347 58.36 58.292 58.217 58.166 58.111 57.996 57.849 57.71 57.59 57.304 57.212 57.159 57.096 57.069 57.005 56.963 57.099 57.124 57.008 62.604 60.977 57.399 58.78 57.766 57.459 59.032 60.794 62.461 63.242 63.593 62.786 60.781 59.265 57.35 57.183 59.581 61.454 59.112 56.581 56.604 56.579 56.659 56.97 57.188 58.61 58.437 57.352 57.414 57.462 57.595 57.804 57.904 58.02 58.089 58.221 58.302 58.479 58.617 58.747 59.738 60.655 62.82 64.548 65.122 64.96 64.415 59.57 58.997 59.395 59.703 61.36 60.78 61.25 61.804 61.636 61.511 62.518 64.402 65.265 65.532 64.215 58.934 58.464 58.419 58.367 58.243 58.147 58.037 57.991 58.015 58.474 58.445 58.169 58.522 58.328 58.006 57.762 57.798 57.804 57.753 57.751 57.718 57.671 58.444 57.418 57.346 59.041 62.787 63.79 63.49 62.642 57.403 57.243 57.321 56.984 56.445 56.223 56.15 56.015 55.787 55.597 58.427 60.959 61.503 61.919 61.578 61.523 61.275 60.84 60.444 57.617 59.395 54.958 54.397 54.878 54.067 53.626 53.657 53.638 52.739 53.043 55.293 53.435 52.858 51.903 51.853 53.536 52.847 51.293 51.232 51.09 50.961 50.887 51.042 51.068 51.107 51.158 51.235 51.353 52.019 56.79 57.107 56.12 54.976 54.035 52.671 56.406 57.611 57.252 53.097 51.506 51.474 51.362 51.226 51.292 51.654 50.606 50.31 50.692 52.445 52.281 54.157 55.213 55.11 54.456 50.614 50.284 49.01 48.906 48.977 49.072 49.094 49.137 48.908 48.483 48.124 47.916 47.922 47.966 47.982 47.941 47.846 47.826 47.931 47.924 47.641 47.309 47.194 47.162 47.096 47.06 46.923 46.588 49.392 53.112 53.05 53.054 53.06 53.053 53.041 53.057 53.09 53.061 53.073 53.043 53.069 53.068 53.073 53.045 53.043 53.06 50.643 46.367 46.232 46.139 46.086 46.035 45.983 45.83 45.872 45.803 45.857 45.89 46.46 46.619 46.409 46.552 46.61 46.6 46.582 46.517 46.201 47.258 45.945 47.894 46.704 46.616 45.712 53.96 54.078 54.157 54.13
62.885 62.848 62.789 62.786 63.795 64.402 69.84 68.684 68.343 68.406 62.812 61.871 61.741 61.711 61.636 61.591 61.544 61.545 61.797 61.503 62.844 66.782 67.566 66.284 61.574 61.249 61.243 60.021 59.626 61.582 60.025 61.489 61.923 59.507 59.93 61.462 60.052 61.536 61.157 60.13 59.396 58.926 58.881 60.058 59.221 58.649 58.621 58.639 58.599 58.588 58.604 58.787 58.872 58.819 58.627 60.314 58.899 59.559 59.055 58.971 58.728 58.562 58.421 58.373 58.371 58.614 61.893 64.088 65.028 65.995 63.889 61.176 58.896 58.382 58.418 58.189 57.891 57.834 57.788 57.745 57.72 57.718 57.767 57.666 57.322 58.02 57.074 56.957 56.784 56.736 58.772 59.558 57.359 57.218 58.219 63.104 63.018 61.937 57.122 56.251 56.03 55.832 55.781 55.682 55.694 55.567 55.537 55.434 55.411 55.292 55.058 54.948 54.786 54.632 54.437 54.377 53.696 53.496 53.114 52.879 52.741 51.438 50.955 52.229 52.731 53.302 53.821 54.083 54.806 56.012 56.552 57.213 58.662 58.501 60.653 61.11 61.904 62.74 63.163 63.228 63.261 63.067 63.077 62.837 62.672 64.477 65.553 65.262 63.775 61.067 56.46 55.438 54.792 54.38 56.173 56.295 55.755 54.783 55.313 55.876 56.122 56.69 57.317 57.532 57.704 57.927 58.096 58.165 58.24 58.341 58.393 58.381 58.266 58.218 58.165 58.102 58.016 57.916 57.783 57.671 59.219 58.038 57.252 57.137 57.032 57.034 56.861 56.864 56.956 61.759 60.498 64.163 64.159 57.485 57.601 57.315 57.33 58.169 62.167 63.63 63.176 62.328 60.335 59.043 57.855 57.253 60.055 61.296 58.262 56.471 56.459 56.455 56.553 56.785 56.928 59.12 58.376 57.124 57.274 57.395 57.51 57.633 57.775 57.898 58.01 58.193 58.436 58.328 58.461 58.714 60.205 61.247 63.97 64.677 65.151 64.494 60.61 58.704 59.323 58.899 58.92 58.86 59.129 59.328 58.773 58.978 59.579 61.182 64.229 65.05 65.187 64.333 62.365 60.8 58.531 58.231 58.093 57.988 57.959 57.844 57.879 58.777 58.708 57.873 58.046 57.808 57.833 57.794 57.721 57.683 57.646 57.648 57.628 57.594 57.526 58.33 58.337 58.656 62.844 63.514 63.721 62.8 58.05 57.152 57.799 56.493 56.219 56.137 56.049 55.938 55.668 58.392 61.385 61.633 62.086 61.929 61.546 61.035 60.62 60.055 55.475 54.869 54.646 54.433 56.034 53.901 53.526 53.18 52.701 52.94 52.423 52.303 52.142 52.03 51.869 51.738 51.627 51.492 51.328 51.254 51.116 51.029 50.938 50.826 50.806 50.932 50.993 51.082 51.16 51.2 51.244 51.792 52.142 51.765 53.996 54.288 56.196 57.537 57.458 56.836 52.205 51.579 51.439 51.141 51.023 52.064 51.015 50.459 50.24 50.065 50.059 55.557 55.129 55.37 54.69 52.744 52.046 49.408 49.043 49.031 49.277 49.727 49.245 49.09 48.715 48.234 48.012 47.954 48.022 48.01 48 47.926 47.838 47.94 47.863 47.694 47.447 47.301 47.198 47.297 47.098 47.052 47.021 46.651 50.169 52.92 52.813 52.853 52.841 52.901 52.875 52.856 52.868 52.818 52.811 52.851 52.853 52.816 52.886 52.841 52.78 52.859 49.655 46.359 46.254 46.158 46.083 45.993 45.971 45.838 45.834 45.841 45.841 45.914 46.495 46.561 46.383 46.463 46.547 46.538 46.489 46.484 46.206 45.963 45.878 49.732 46.497 45.69 51.4 54.517 54.54 54.573 54.536
63.142 63.157 63.079 63.079 63.688 63.751 64.689 63.09 63.104 63.589 62.928 62.882 61.932 61.83 61.807 61.718 61.695 61.625 61.657 61.658 64.6 67.144 68.382 67.827 63.09 61.376 61.393 62.296 59.847 59.693 59.926 60.009 59.743 61.295 61.972 61.998 61.516 59.407 61.684 60.861 59.651 59.035 59.636 59.733 59.445 58.821 58.761 58.773 58.738 58.694 58.656 58.755 58.89 58.907 59.069 59.516 59.278 59.147 59.028 58.98 59.045 58.642 58.503 58.384 58.319 58.509 63.134 64.344 65.924 65.346 63.837 60.234 58.244 58.289 58.778 58.207 57.943 57.902 57.873 58.639 59.057 57.728 57.633 57.794 57.432 57.266 57.336 57.038 56.919 56.866 57.131 59.082 57.87 57.326 62.571 64.017 63.747 63.005 61.749 56.535 56.144 55.933 55.788 55.714 55.689 55.607 55.544 55.491 56.74 55.891 55.482 55.054 54.984 54.687 54.456 54.271 54.031 53.837 53.368 52.975 52.54 52.092 51.271 52.089 52.416 52.769 52.364 52.827 54.111 54.354 55.415 56.667 57.352 58.118 60.913 62.142 61.455 62.357 62.838 63.196 63.212 63.205 63.106 62.872 62.795 63.215 64.638 64.823 62.526 58.532 57.123 55.968 55.263 54.884 55.676 55.231 54.674 54.206 54.76 55.277 55.356 56.065 56.385 56.82 57.059 57.299 57.939 57.818 58.038 58.024 58.121 58.249 58.229 58.146 58.091 57.998 58.023 57.949 57.813 58.268 61.502 62.326 57.699 57.149 57.07 57.006 56.95 56.895 59.67 64.703 66.023 65.436 62.206 58.91 56.848 56.871 57.183 56.965 56.988 58.241 61.561 62.01 57.25 57.066 56.962 57.725 60.453 60.988 58.313 56.363 56.358 56.437 56.438 56.61 56.752 59.665 57.18 57.05 57.164 57.241 57.388 57.576 57.637 57.724 57.844 58.043 58.881 58.289 58.385 58.842 58.976 63.102 64.42 65.094 65.068 64.036 59.173 58.507 58.439 58.873 58.531 58.8 59.788 58.669 58.558 58.37 58.272 62.018 64.075 64.835 64.847 63.91 62.691 60.415 58.124 58.063 57.889 57.843 57.775 57.7 57.765 57.794 57.795 57.809 57.772 57.752 57.65 57.57 57.482 57.418 57.472 57.403 57.375 57.407 57.336 57.158 56.855 57.705 62.508 63.546 63.632 62.9 59.066 57.183 56.931 56.41 56.016 56.001 55.996 55.812 55.574 55.58 61.804 62.194 61.749 61.214 60.763 56.816 55.614 55.007 54.966 54.784 54.502 57.523 57.085 53.444 52.897 52.675 52.435 52.367 52.184 52.069 51.941 51.778 51.742 51.611 51.466 51.421 51.303 51.181 51.115 50.963 50.854 50.745 50.715 50.655 50.727 50.777 50.804 50.799 51.034 51.198 51.21 51.276 53.669 55.874 57.209 57.524 56.687 54.578 55.247 52.023 51.816 51.445 51.356 51.106 50.811 50.56 50.171 50.194 54.821 55.806 55.488 54.674 50.882 50.711 50.419 49.101 49.072 49.108 49.137 49.849 49.65 48.954 48.308 48.1 48.029 48.062 48.091 48.036 47.998 47.904 47.897 48.103 47.839 47.599 47.409 49.026 52.152 51.746 47.241 47.066 47.011 46.867 50.177 51.492 52.381 51.435 52.619 51.751 52.598 52.522 52.514 52.591 53.249 52.652 52.856 50.41 51.475 53.117 52.59 49.564 49.122 46.391 46.292 46.271 47.355 46.147 46.018 45.804 45.837 45.807 45.764 45.815 46.552 46.618 46.406 46.438 46.525 46.48 46.43 46.45 46.249 46.145 46.565 47.374 45.748 45.63 47.342 54.779 54.963 55.01 54.965
63.363 65.326 66.623 70.378 68.643 66.09 65.749 63.129 63.109 63.159 62.898 62.607 61.987 61.968 61.92 61.901 61.926 61.824 61.851 61.72 66.728 67.788 68.5 67.423 62.808 61.379 61.319 61.206 61.346 59.746 60.381 60.094 59.95 60.143 61.719 61.657 61.665 61.357 60.572 59.302 59.17 60.243 59.325 61.371 62.086 59.196 58.851 58.813 58.804 58.823 58.742 58.837 58.931 59.068 59.755 65.759 65.747 63.178 59.174 59.119 59.01 58.83 58.488 58.317 61.771 63.246 64.246 64.422 63.841 64.34 63.222 58.832 58.306 58.298 58.967 58.153 58.025 57.947 58.121 57.87 57.891 57.668 57.664 57.785 57.489 57.379 57.335 57.175 57.143 56.825 57.309 60.292 59.504 58.749 62.052 63.275 64.191 63.881 62.82 56.839 57.275 55.997 55.769 55.749 55.722 55.707 55.586 55.501 55.408 56.389 55.239 55.175 55.019 54.825 54.885 54.381 54.32 54.222 53.882 53.436 52.963 52.2 51.654 51.048 51.647 52.459 52.427 52.951 53.565 54.007 54.726 56.575 56.769 57.597 58.825 59.555 61.147 61.837 62.566 63.04 63.233 63.278 63.232 63.083 62.876 64.438 65.361 64.445 60.492 58.406 57.676 56.956 55.654 55.27 54.615 54.562 54.192 54.424 54.17 54.834 54.987 55.306 55.579 56.201 56.604 56.898 57.315 57.61 57.873 57.746 57.964 58.003 57.939 58.055 57.996 57.939 57.93 57.878 57.838 57.678 60.169 61.21 57.538 57.364 57.125 57.007 56.961 56.838 57.787 61.907 62.372 58.663 62.136 56.961 56.909 56.855 56.806 58.299 56.999 57.035 57.095 57.379 56.846 56.903 56.941 58.685 60.661 58.149 57.428 56.275 56.227 56.329 56.355 56.445 56.582 56.668 56.788 56.924 57.031 57.177 57.308 57.863 58.179 57.647 57.808 58.523 58.906 59.605 58.275 57.955 58.974 64.007 64.603 65.146 64.564 63.726 59.614 58.407 58.373 58.441 58.512 59.159 58.96 58.636 58.332 59.211 58.005 58.688 63.315 64.224 64.806 63.955 62.091 58.571 57.914 57.907 57.77 57.695 57.698 57.631 57.582 57.725 57.746 57.658 57.588 57.485 57.259 57.139 57.133 57.113 57.106 57.077 57.114 57.064 57.116 57.918 56.788 57.496 60.876 63.258 63.796 62.874 58.186 56.515 56.546 56.091 56.103 55.98 55.864 55.737 55.607 55.446 57.073 61.287 61.045 57.927 55.938 55.262 55.178 55.269 54.73 54.215 53.748 55.401 56.651 53.234 52.707 53.079 53.196 52.439 52.125 51.999 51.866 51.791 51.711 51.534 51.422 51.329 51.211 51.089 50.974 50.88 50.744 50.65 50.572 50.535 50.486 50.468 50.412 50.418 50.601 50.676 50.821 50.909 51.186 51.312 52.81 56.797 52.356 52.695 55.82 55.162 53.712 51.729 51.825 50.623 50.664 50.369 50.549 55.367 56.018 55.711 52.094 50.389 50.074 49.506 49.177 49.118 49.138 49.127 49.574 49.725 50.028 49.832 48.168 48.022 48.089 48.113 48.087 48.04 47.986 47.955 48.096 48.088 47.9 47.683 51.11 54.523 55.822 54.788 51.956 47.295 46.938 48.007 46.726 47.673 46.842 46.541 46.605 46.563 46.624 46.852 47.736 46.762 47.719 47.016 47.936 46.705 46.427 46.64 46.36 46.464 46.592 46.28 46.586 54.868 53.929 52.76 46.769 45.814 45.772 45.786 45.772 45.779 46.478 46.605 46.366 46.407 46.508 46.517 46.48 46.529 46.537 47.566 54.316 53.11 51.018 47.589 45.869 55.244 55.333 55.271 55.361
