ncols 433
nrows 32
xllcorner    428132
yllcorner    431912
cellsize     2
NODATA_value -9999
45.87 45.733 45.577 45.402 45.272 45.178 44.949 41.13 37.995 40.251 38.111 37.655 37.659 37.646 37.589 37.571 37.543 37.514 37.571 37.588 37.581 37.705 37.7 37.738 37.77 37.777 37.822 37.84 37.877 37.899 37.925 43.071 45.417 45.734 46.064 46.326 46.702 47.012 47.359 47.219 47.25 46.992 47.127 47.288 46.97 46.619 46.24 45.957 45.658 45.341 42.013 42.276 41.091 40.221 38.648 39.299 37.967 38.579 39.222 39.079 39.01 39.844 38.246 38.05 37.511 37.37 38.227 38.161 39.619 41.264 41.708 41.238 39.995 39.877 39.257 40.035 41.662 42.005 41.193 39.396 42.42 41.991 38.769 38.785 39.287 39.544 40.936 38.908 38.045 36.991 36.893 36.728 36.75 36.625 36.597 36.555 36.494 36.499 36.442 36.435 36.348 36.347 36.335 36.334 36.361 36.395 36.37 36.352 36.393 36.389 36.317 36.332 36.334 36.29 36.321 36.33 36.297 37.639 36.476 36.29 36.226 36.2 36.209 36.165 36.142 36.162 36.083 36.122 36.134 36.072 36.044 36.022 36.025 35.986 36.008 35.951 35.945 35.916 35.885 35.915 35.904 35.863 35.846 35.88 35.79 35.942 35.968 42.849 44.781 44.031 40.368 44.702 44.867 44.903 44.868 44.783 44.712 41.533 39.926 40.544 41.31 42.074 42.066 41.364 40.595 39.915 36.995 35.887 35.911 36.002 36.114 36.208 36.22 36.268 36.504 42.723 42.792 42.698 42.703 42.769 42.759 42.717 42.735 42.713 42.68 42.668 42.691 42.13 39.388 41.845 42.342 42.945 40.444 40.056 39.866 39.89 40.041 40.248 41.006 41.805 41.66 41.135 40.647 38.107 37.409 36.918 36.964 37.101 37.165 37.288 38.212 37.679 40.52 38.528 37.066 36.94 37.242 43.695 49.675 49.633 49.641 49.635 49.626 49.639 49.429 39.989 39.832 39.787 39.798 39.791 39.81 39.802 41.391 44.157 45.323 45.389 45.411 45.444 45.399 45.384 45.448 45.447 45.422 45.409 45.383 45.363 45.349 44.637 45.428 44.197 43.87 43.882 43.889 43.914 43.923 48.357 50.18 50.196 50.168 50.226 50.173 50.19 50.046 39.885 37.394 40.063 42.665 44.037 43.828 41.577 41.552 41.612 41.591 41.565 41.571 41.635 41.556 41.59 41.641 41.589 41.684 39.698 38.053 38.149 38.199 38.293 38.183 38.134 38.13 38.092 38.122 39.701 41.449 41.789 40.395 39.934 40.577 41.445 42.429 42.52 41.641 40.516 40.478 40.394 40.342 40.304 40.262 40.262 40.259 40.316 40.362 40.455 40.477 40.552 40.627 40.652 40.663 40.715 40.742 40.806 40.806 40.856 40.864 40.929 41.251 43.42 44.872 45.039 43.724 42.153 41.921 42.074 42.072 42.055 42.173 42.455 42.353 42.376 42.254 42.087 45.181 48.639 48.446 43.535 42.786 43.005 42.996 43.377 43.335 43.253 44.275 43.498 43.663 44.857 47.881 49.725 50.661 49.465 45.316 44.032 44.065 46.873 50.327 51.913 55.075 52.459 49.509 48.749 48.235 49.723 49.448 50.148 50.278 49.211 52.775 47.82 46.004 46.774 46.306 46.309 46.473 46.531 46.565 46.638 46.772 46.777 48.318 49.04 49.874 47.614 46.964 46.986 47.034 47.945 50.93 47.787 47.404 52.798 54.239 54.913 53.847 49.269 47.49 47.885 47.51 47.908 47.057 46.814 46.829 46.994 47.11 46.834 46.829 46.727 46.713 46.701 47.568 48.998 48.847 48.847 53.666 55.44 54.136 53.64 53.889 54.291 54.823 54.085 55.033 54.623 54.891 54.587 55.204
46.239 46.069 45.941 45.799 45.662 45.474 45.188 38.092 39.865 38.802 37.913 37.666 37.632 37.638 37.594 37.568 37.52 37.52 37.525 37.611 37.644 37.659 37.701 37.711 37.805 37.794 37.82 37.88 37.878 37.893 38.026 45.144 45.581 45.803 46.12 46.49 46.773 47.082 47.442 47.699 47.61 47.492 47.337 47.257 46.895 46.553 46.224 45.863 45.511 41.501 41.125 41.284 40.461 40.039 40.233 40.186 39.517 38.159 39.154 39.252 38.474 37.93 38.904 37.746 37.287 37.376 37.885 39.231 39.47 39.759 40.303 39.556 40.133 39.757 39.614 40.413 40.84 41.617 41.293 41.116 42.178 42.335 40.891 39.833 39.371 40.682 41.202 39.866 37.796 36.996 37.01 38.635 39.951 37.198 39.259 38.82 37.181 36.455 36.38 36.335 36.326 36.284 36.34 36.346 36.316 36.346 36.33 36.372 36.356 36.322 36.318 36.313 36.283 36.283 36.316 36.459 36.481 36.448 36.313 36.256 36.258 36.261 36.22 36.139 36.133 36.119 36.082 36.115 36.096 36.106 36.11 36.085 36.006 36.028 36.008 35.957 35.924 35.886 35.893 35.922 35.87 35.86 35.829 35.845 35.799 36.006 36.034 39.078 42.161 44.392 44.523 44.271 42.835 42.928 44.612 44.596 44.564 41.779 39.792 40.648 41.355 42.065 42.054 41.272 40.552 39.795 36.937 35.844 35.991 35.979 36.075 36.228 36.205 36.355 36.538 42.82 42.847 42.855 42.898 42.845 42.907 42.861 42.899 42.902 42.85 42.859 42.901 42.17 41.867 42.367 43.091 41.46 39.9 39.864 39.855 39.925 40.046 40.284 41.384 42.351 43.175 42.414 40.935 38.233 37.065 36.882 36.959 37.138 37.161 39.824 41.751 40.674 40.24 41.472 37.465 37 37.524 46.973 49.668 49.614 49.623 49.681 49.621 49.651 49.414 37.495 37.258 37.531 37.72 37.224 37.615 38.06 41.266 44.259 45.389 45.367 45.338 45.427 45.457 45.416 45.414 45.47 45.432 45.37 45.386 45.386 45.353 45.395 45.412 44.403 43.787 43.807 43.756 43.771 43.753 47.021 50.187 50.208 50.172 50.145 50.172 50.185 50.014 40.833 39.651 39.635 40.296 42.842 42.435 41.593 41.573 42.208 41.615 41.807 41.946 41.692 41.586 41.949 41.633 41.614 41.59 39.402 38.061 38.155 38.15 38.228 38.179 38.135 38.116 38.104 38.253 38.877 41.979 42.694 41.876 40.102 40.573 43.451 43.618 42.663 40.856 40.544 40.474 40.419 40.351 40.265 40.229 40.232 40.266 40.285 40.35 40.468 40.509 40.55 40.588 40.634 40.673 40.752 40.915 40.767 40.794 40.843 40.858 40.891 41.092 43.362 44.433 44.852 43.531 42.153 41.925 42.004 42.047 42.057 42.131 42.338 42.31 42.312 42.507 47.256 47.88 48.438 48.287 44.035 42.69 42.791 42.977 46.339 47.357 45.778 45.903 44.829 43.851 44.024 47.357 49.137 49.345 48.683 43.995 43.97 48.234 53.146 51.399 54.173 60.529 58.27 51.341 47.3 47.465 48.168 48.266 49.707 52.693 54.681 53.246 50.84 47.412 46.529 47.217 48.774 47.015 47.512 46.643 47.534 47.993 47.503 50.952 49.064 49.169 46.914 46.997 47.034 47.063 47.754 47.335 47.414 47.402 52.807 54.683 54.707 53.752 49.957 48.833 48.7 48.744 48.533 47.299 46.822 46.819 47.65 47.174 46.72 46.819 46.749 46.638 46.78 46.764 46.713 46.913 46.533 46.468 46.455 47.354 46.757 46.726 50.109 48.076 48.829 49.775 49.728 53.012 52.931 53.035
46.608 46.436 46.324 46.201 45.981 45.707 38.867 37.956 38.199 38.299 37.687 37.647 37.671 37.592 37.599 37.559 37.626 37.56 37.571 37.598 37.602 37.658 37.686 37.743 37.74 37.791 37.828 37.861 37.899 37.917 38.047 45.199 45.572 45.947 46.272 46.554 46.897 47.248 47.612 47.965 48.041 47.762 47.419 47.114 46.681 46.368 46.086 45.8 45.422 44.991 39.583 40.187 40.178 38.527 39.072 39.672 39.998 39.576 39.843 39.439 39.114 39.316 39.58 37.555 37.252 37.731 39.077 39.598 40.946 40.256 40.434 39.945 40.303 40.678 41.643 41.379 42.347 41.561 42.343 41.887 41.892 41.785 41.401 38.912 38.836 40.134 40.63 39.853 37.482 36.998 37.052 37.28 39.286 39.458 40.475 39.81 38.871 36.502 36.402 36.348 36.316 36.269 36.254 36.279 36.33 36.323 36.352 36.353 36.345 36.338 36.348 36.274 36.314 38.047 36.638 39.817 37.368 36.32 36.236 36.261 36.221 36.19 36.246 36.097 36.197 36.147 36.194 36.032 36.1 36.096 36.053 36.07 36.005 35.983 35.989 35.986 35.907 35.922 35.912 35.9 35.921 35.899 35.813 35.817 35.82 35.906 35.858 42.045 43.348 43.877 43.995 43.927 43.998 44.002 44.074 44.023 44.027 42.129 39.998 40.724 41.484 42.163 42.014 41.366 40.602 39.872 36.855 35.832 35.913 36.014 36.1 36.175 36.228 36.401 36.512 42.543 42.643 42.698 42.683 42.647 42.717 42.691 42.707 42.667 42.691 42.744 42.744 42.567 41.683 43.413 44.551 44.395 39.929 39.849 39.896 39.942 40.081 40.314 41.356 42.752 44.016 41.36 44.132 37.318 36.927 36.869 36.931 37.103 37.195 42.342 43.607 41.887 42.91 43.598 37.029 36.853 36.706 45.977 49.669 49.618 49.575 49.586 49.607 49.644 46.4 37.816 37.252 37.245 37.235 37.227 37.2 37.256 41.558 45.04 45.453 45.406 45.438 45.471 45.484 45.44 45.419 45.437 45.453 45.434 45.393 45.404 45.443 45.431 41.345 39.505 37.189 37.232 37.277 37.244 37.25 39.756 50.07 50.179 50.17 50.133 50.194 50.218 50.154 39.331 37.778 37.924 37.909 38.904 40.835 41.62 41.619 41.607 41.588 41.565 41.594 41.635 41.564 41.722 41.605 41.591 41.588 40.577 38.101 38.132 38.93 39.379 38.39 38.21 38.175 38.21 38.274 38.339 39.668 41.609 40.085 40.143 42.095 44.121 42.705 40.813 40.75 40.485 40.505 40.421 40.335 40.251 40.225 40.228 40.269 40.32 40.365 40.424 40.479 40.544 40.562 40.627 40.601 40.685 40.735 40.73 40.763 40.814 40.82 40.86 41.561 42.584 43.265 44.037 43.98 42.047 41.887 42.032 42.012 43.012 42.309 42.443 42.276 42.741 43.288 48.015 48.832 48.844 48.386 43.192 42.713 42.862 43.103 45.324 43.962 45.395 46.48 44.428 43.935 44.556 44.872 44.721 46.436 44.823 44.499 44.459 45.719 47.934 53.822 57.702 51.296 54.085 49.129 45.885 46.539 49.566 51.28 52.458 53.216 54.666 53.23 53.114 48.78 49.29 50.387 51.198 50.011 47.19 46.537 46.904 47.389 47.129 48.779 48.902 47.91 46.895 47.001 46.934 47.021 47.437 47.335 47.304 50.205 53.221 54.69 54.687 53.383 48.275 47.398 48.732 48.988 49.016 46.844 46.797 46.79 48.248 46.863 46.778 46.813 46.683 46.65 46.585 46.532 46.491 46.405 46.352 46.287 46.687 46.315 46.182 46.245 46.254 46.008 46.419 46.096 46.54 46.116 46.443 46.312
46.925 46.838 46.648 46.496 46.359 45.116 38.964 37.993 37.877 37.817 37.7 37.689 37.629 37.586 37.682 41.786 39.134 37.545 37.555 37.619 37.668 37.709 37.696 37.705 37.743 37.799 37.836 37.847 37.895 37.913 44.148 45.418 45.767 46.017 46.39 46.73 47.011 47.384 47.627 47.995 48.034 47.65 47.291 46.948 46.676 46.315 45.996 45.674 45.327 41.229 41.136 41.045 40.891 41.253 41.18 41.202 40.333 39.777 39.819 39.988 39.994 39.83 38.485 37.312 37.343 37.681 39.983 40.831 40.566 41.049 39.931 40.657 41.158 41.091 41.439 40.772 41.015 41.71 41.01 41.27 42.149 41.959 41.504 39.004 38.441 38.751 38.891 39.018 38.274 38.054 36.719 37.884 39.273 39.302 39.415 37.689 36.785 36.461 36.492 36.689 36.332 36.461 36.357 36.528 36.342 36.362 36.348 36.277 36.379 36.345 36.346 36.35 36.36 36.302 41.043 41.137 36.911 36.251 36.235 36.228 36.201 36.296 36.322 36.307 36.364 36.234 36.353 36.287 36.289 36.28 36.233 36.179 36.14 36.119 36.032 35.99 35.964 35.986 35.948 35.902 35.942 35.887 35.843 35.83 35.798 35.878 35.866 41.787 44.061 44.078 44.12 44.053 44.084 44.052 44.081 44.035 44.025 42.311 39.874 40.67 41.411 42.169 42.171 41.318 40.528 39.732 36.774 35.88 35.964 36.034 36.162 36.202 36.294 36.342 36.485 42.401 42.458 42.49 42.436 42.487 42.492 42.451 42.511 42.452 42.485 42.488 42.525 38.395 38.587 38.761 43.396 41.623 39.861 39.909 39.942 39.994 40.123 40.34 42.257 45.35 41.941 39.754 38.718 37.078 36.914 36.816 36.888 37.095 37.105 37.852 40.582 39.607 38.532 41.111 37.029 36.881 36.809 45.876 49.614 49.627 49.591 49.602 49.644 49.635 44.937 37.284 37.248 37.25 37.213 37.224 37.205 37.805 41.556 45.424 45.444 45.417 45.405 45.52 45.48 45.462 45.442 45.454 45.457 45.439 45.464 45.457 45.483 45.475 41.159 37.226 37.24 37.263 37.259 37.263 37.217 46.263 50.192 50.195 50.232 50.243 50.187 50.222 50.241 39.719 37.257 37.281 37.265 37.251 41.039 41.632 41.605 41.593 41.603 41.616 41.567 41.591 41.708 41.592 41.606 41.601 41.611 38.979 38.049 38.176 38.328 42.391 42.349 42.503 42.927 42.645 39.661 38.578 39.335 39.628 39.929 40.088 40.102 41.062 41.366 40.777 41.089 40.538 40.479 40.448 40.332 40.279 40.232 40.237 40.269 40.255 40.345 40.426 40.459 40.496 40.529 40.585 40.612 40.654 40.675 40.724 40.739 40.776 40.788 40.823 41.373 43.694 44.174 44.577 43.581 42.255 41.943 42.018 42.069 43.248 42.484 42.499 42.348 42.333 43.147 48.168 49.288 49.414 48.179 44.252 42.722 42.803 43.067 43.236 43.573 43.612 45.685 44.142 44.034 45.418 44.781 44.702 44.534 44.731 44.967 44.852 45.755 46.072 50.057 52.901 51.285 52.317 47.298 44.95 45.091 46.964 51.356 51.898 53.637 54.463 52.385 52.887 50.556 49.218 51.084 51.529 49.88 47.034 46.743 46.672 46.5 46.735 47.634 47.45 46.811 46.853 46.929 47.036 46.991 47.454 47.39 47.291 50.915 53.735 54.876 54.318 53.182 49.368 47.991 47.447 47.251 47.554 46.821 46.843 46.818 46.917 46.792 46.738 46.731 46.691 46.603 46.577 46.544 46.505 46.413 46.341 46.575 46.572 46.358 46.552 48.054 47.8 45.885 45.884 45.813 45.765 45.657 45.92 45.604
47.146 47.224 47.029 46.835 46.711 46.129 38.101 38.009 37.82 37.689 37.659 37.671 37.618 37.622 38.68 40.3 37.839 37.519 37.582 37.637 37.663 37.658 37.716 37.762 37.799 37.819 37.805 37.892 37.881 38.386 45.156 45.434 45.766 46.204 46.521 46.884 47.116 47.493 47.836 48.088 47.825 47.585 47.233 46.918 46.537 46.209 45.846 45.626 45.102 38.102 41.642 42.038 41.834 41.786 41.711 41.519 41.106 41.652 40.907 39.391 39.879 39.928 38.944 37.42 37.835 38.208 39.081 39.984 40.086 39.965 38.887 39.136 40.709 40.84 39.533 41.472 42.036 40.781 39.862 40.629 40.573 41.323 40.942 38.446 38.245 39.148 39.057 39.773 39.464 37.819 36.763 36.979 37.307 37.929 36.578 36.449 36.506 36.581 36.479 36.458 36.954 36.397 36.729 39.149 36.882 36.538 36.435 36.386 36.362 36.393 36.354 36.37 36.324 36.307 39.657 40.986 36.211 36.245 36.248 36.293 36.329 36.456 36.451 36.513 36.488 36.502 36.507 36.523 36.581 36.516 36.271 36.105 36.085 36.071 36.111 36.057 35.997 36.03 36.002 35.989 35.868 35.878 35.849 35.801 35.816 35.858 35.913 42.516 42.65 44.643 44.542 44.559 44.488 44.468 44.582 44.474 44.526 40.833 40.004 40.711 41.406 42.207 41.926 41.147 40.54 39.671 36.65 35.986 36.047 36.098 36.203 36.25 36.278 36.344 36.444 42.208 42.232 42.251 42.196 42.311 42.266 42.275 42.275 42.262 42.364 42.29 42.33 39.184 37.397 39.404 40.418 39.996 39.886 39.896 39.967 40.053 40.226 40.378 43.913 46.164 40.686 38.42 40.345 37.23 38.057 36.795 36.893 37.078 37.044 37.076 37.149 37.089 37.062 37.016 36.921 36.83 36.741 47.892 49.654 49.635 49.645 49.636 49.596 49.65 46.645 37.314 37.222 37.193 37.221 37.204 37.207 37.917 41.411 44.605 45.418 45.447 45.47 45.486 45.499 45.461 45.425 45.54 45.395 45.432 45.387 45.447 45.411 45.424 39.786 37.248 37.302 37.275 37.263 37.237 37.218 46.294 50.187 50.184 50.226 50.184 50.189 50.206 50.094 38.959 37.245 37.261 37.237 37.235 40.659 41.533 41.525 41.512 41.519 41.518 41.54 41.531 41.546 41.536 41.576 41.537 41.573 39.132 38.072 38.097 38.297 43.192 43.344 43.383 43.318 43.201 40.728 41.326 40.475 39.729 40.029 40.002 40.077 40.686 41.869 43.301 42.742 40.569 40.451 40.377 40.297 40.216 40.203 40.244 40.243 40.292 40.311 40.376 40.432 40.507 40.5 40.561 40.608 40.635 40.669 40.703 40.734 40.737 40.757 40.828 41.736 43.815 43.565 43.924 42.852 42.094 41.874 42.004 41.985 42.23 42.036 42.486 42.333 42.553 42.655 48.13 49.429 49.427 48.353 43.618 42.822 43.614 43.34 43.18 44.796 43.1 44.144 43.968 44.108 44.684 44.646 44.558 44.459 44.472 44.524 44.498 44.53 45.624 45.379 44.966 47.706 46.111 45.062 45.076 45.202 46.69 50.297 49.289 50.841 53.143 48.959 53.266 48.476 49.081 51.074 51.022 48.352 45.695 46.234 46.536 46.864 47.468 48.62 48.328 46.86 46.922 46.987 46.878 47.021 47.56 47.341 47.464 52.163 53.842 54.849 54.026 52.969 50.755 49.921 49.414 49.432 48.125 46.756 46.829 46.783 47.381 46.751 46.776 46.798 46.676 46.649 46.615 46.77 46.491 46.523 46.401 46.345 46.265 46.22 46.106 46.124 46.012 45.96 45.821 45.804 45.701 45.725 45.668 45.555
46.892 47.103 47.167 47.171 47.091 40.59 38.016 38.383 37.696 37.671 37.669 37.656 38.082 38.583 38.701 38.477 37.536 37.543 37.582 37.634 37.656 37.73 37.729 37.747 37.8 37.833 37.823 37.911 37.933 41.633 45.259 45.614 45.92 46.18 46.554 46.926 47.258 47.673 47.876 48.154 47.791 47.405 47.067 46.752 46.516 46.138 45.751 45.458 43.743 40.404 39.83 39.431 40.515 40.616 40.985 40.195 40.687 40.016 40.546 39.759 39.569 38.168 37.596 37.399 37.696 38.265 39.47 39.57 39.348 39.506 38.87 38.879 38.323 39.668 40.242 39.553 40.886 39.863 39.86 40.173 40.631 40.522 40.314 38.535 39.317 40.566 40.889 40.13 37.953 37.267 36.565 36.482 36.413 36.249 36.339 36.404 36.672 36.244 36.067 36.965 36.433 36.624 38.532 39.164 38.598 36.937 36.724 36.617 36.409 36.382 36.366 36.383 36.415 36.358 36.219 36.192 36.262 36.264 36.223 36.316 36.386 36.535 36.65 36.551 36.53 36.545 36.546 36.626 37.528 37.733 36.824 36.141 36.094 36.073 36.086 36.051 36.003 35.975 35.926 35.976 35.927 35.839 35.823 35.822 35.852 35.865 35.911 41.041 44.085 44.557 39.079 43.146 44.808 44.709 44.784 44.851 44.739 41.99 40.038 40.61 41.41 42.159 42.055 41.149 40.327 39.564 36.385 36.026 36.069 36.173 36.241 36.253 36.312 36.337 36.546 42.041 42.072 42.121 42.123 42.082 42.08 42.121 42.139 42.081 42.055 42.089 42.179 41.999 38.806 39.997 40.023 39.974 39.881 39.938 40.044 40.132 40.357 40.452 41.463 45.422 43.199 43.554 46.785 39.083 36.783 36.771 36.884 37.045 37.042 37.019 37.616 37.622 36.969 36.984 36.936 36.824 37.09 47.237 49.642 49.639 49.721 49.649 49.626 49.627 47.278 37.379 37.205 37.208 37.198 37.174 37.188 37.363 41.427 44.889 45.367 45.416 45.448 45.463 45.437 45.454 45.458 45.45 45.461 45.435 45.433 45.357 45.385 45.377 45.319 37.339 37.285 37.27 37.26 37.248 37.217 48.092 50.164 50.195 50.187 50.172 50.151 50.205 49.956 38.678 37.219 37.258 37.225 37.183 40.275 41.491 41.435 41.514 41.462 41.568 41.532 41.535 41.525 41.551 41.542 41.54 41.511 40.568 38.115 38.101 38.305 43.195 43.322 43.356 43.316 43.222 40.564 41.109 40.94 39.706 39.963 40.008 41.244 44.276 43.358 42.933 41.776 40.557 40.462 40.373 40.303 40.234 40.189 40.218 40.262 40.255 40.312 40.373 40.458 40.465 40.488 40.533 40.613 40.591 40.675 40.663 40.717 40.696 40.736 40.799 41.314 43.745 44.097 43.432 43.227 42.1 41.901 41.958 42.091 41.971 42.034 42.322 42.293 42.472 45.599 48.397 49.485 49.433 48.317 44.128 42.601 42.748 42.938 43.115 43.08 43.079 43.526 44.008 44.21 44.425 44.516 44.474 44.425 44.45 44.463 44.441 44.482 45.547 45.106 47.961 50.246 50.925 46.901 47.212 45.447 49.309 50.977 46.52 50.737 52.059 51.36 47.382 45.456 45.511 46.803 45.452 45.452 45.441 45.462 45.7 47.795 48.35 50.071 48.496 47.379 46.888 46.889 46.852 47.091 47.459 47.751 47.359 48.78 49.063 49.497 50.269 51.263 50.51 49.541 49.026 49.405 47.594 46.775 46.819 47.721 47.349 46.761 46.771 46.783 46.661 46.68 46.698 46.865 47.817 47.018 46.33 46.294 46.234 46.221 46.114 46.015 45.946 45.898 45.821 45.845 45.797 45.681 45.604 45.59
46.532 46.666 46.825 46.982 42.409 38.017 38.062 37.792 37.653 37.67 37.628 37.626 37.803 38.136 37.782 37.55 37.507 37.571 37.629 37.66 37.686 37.692 37.73 37.775 37.824 37.869 37.856 37.895 37.926 42.762 45.282 45.662 46.046 46.37 46.694 47.048 47.287 47.695 48.062 48.027 47.713 47.304 47.062 46.72 46.318 45.997 45.653 45.319 40.089 41.718 41.774 41.072 41.067 39.916 39.148 38.594 39.231 39.077 39.606 39.608 39.638 38.662 37.319 37.59 37.963 38.146 40.16 41.328 40.107 38.793 38.399 39.405 40.003 39.823 41.277 40.771 41.008 39.97 39.843 40.244 40.829 40.458 39.618 38.226 38.126 40.202 41.046 39.859 38.18 37.776 36.956 36.975 36.401 36.642 36.393 36.535 36.657 36.769 36.128 36.406 36.375 36.338 37.653 39.115 38.828 37.684 37.233 37.254 36.615 36.515 36.515 37.386 40.783 37.873 36.399 36.256 36.253 36.267 36.223 36.356 36.462 36.72 38.062 39.765 38.226 40.306 39.329 39.377 39.311 39.545 40.197 36.598 36.851 36.422 37.265 36.025 36.021 35.943 35.935 35.937 35.998 35.826 35.82 35.825 35.797 36.341 36.148 42.118 42.237 44.069 43.671 44.219 44.286 44.253 44.262 44.366 44.289 41.173 40.075 40.712 41.444 42.197 41.873 41.255 40.372 39.557 36.383 36.06 36.098 36.123 36.181 36.308 36.342 36.357 37.105 42.21 42.219 42.172 42.179 42.255 42.152 42.144 42.116 42.133 42.131 42.079 42.129 41.416 40.703 40.513 40.118 39.97 40.29 40.004 40.119 40.318 42.267 42.761 43.275 44.477 40.829 41.547 43.885 41.477 36.922 36.757 36.878 37.049 37.057 37.416 37.927 37.389 36.894 36.907 36.859 36.808 36.825 47.236 49.634 49.617 49.639 49.664 49.63 49.628 40.971 37.197 37.16 37.189 37.155 37.18 37.149 37.878 38.491 44.739 45.334 45.434 45.444 45.479 45.463 45.317 45.466 45.473 45.445 45.409 45.416 45.388 45.339 45.36 39.818 37.221 37.255 37.292 37.266 37.21 37.183 46.24 50.165 50.149 50.174 50.235 50.168 50.235 50.027 38.413 37.204 37.215 37.233 37.23 38.469 38.919 40.78 40.828 39.698 41.391 41.488 41.397 40.737 41.149 41.508 41.532 41.45 39.194 39.123 38.219 38.41 43.233 43.391 43.393 43.301 43.22 40.952 40.966 40.79 39.63 39.936 40.035 42.398 42.339 43.092 43.798 41.514 40.53 40.474 40.368 40.324 40.232 40.19 40.203 40.234 40.272 40.323 40.375 40.393 40.412 40.468 40.515 40.559 40.58 40.643 40.669 40.695 40.707 40.689 40.782 41.064 42.29 42.359 43.49 42.713 41.967 41.876 41.985 42.005 41.994 42.051 42.401 42.42 42.341 45.023 48.263 49.61 49.361 48.237 43.692 42.579 42.689 43.081 43.225 43.131 43.025 43.711 44.014 44.19 44.256 44.336 44.379 44.391 44.431 44.416 44.422 44.567 45.769 45.67 52.474 52.358 53.643 54.948 54.309 50.769 52.53 51.028 51.494 50.8 52.081 49.027 47.913 46.088 45.573 45.613 45.507 45.528 45.456 46.586 48.264 48.431 49.917 50.364 49.44 46.821 46.897 46.918 46.917 47.119 47.252 47.295 47.418 50.437 47.828 48.124 47.338 48.206 47.674 47.286 47.317 49.126 47.635 46.814 46.792 47.637 47.028 46.678 46.763 46.793 46.769 50.558 51.767 50.77 50.555 50.165 46.736 46.514 46.437 46.39 46.307 46.184 45.952 45.899 45.811 45.775 45.623 45.614 45.556 45.525
46.235 46.35 46.476 46.604 42.232 37.996 37.981 37.728 37.683 37.646 37.628 37.64 37.62 37.568 37.542 37.476 37.544 37.594 37.632 37.656 37.696 37.729 37.747 37.786 37.781 37.861 37.865 37.928 38.795 45.161 45.489 45.79 46.139 46.484 46.79 47.166 47.471 47.854 48.048 47.968 47.585 47.248 46.934 46.536 46.214 46.006 45.577 45.076 39.279 40.83 41.815 41.982 41.333 39.914 38.207 38.774 39.819 39.186 39.521 40.325 40.194 38.026 37.391 37.671 39.127 38.302 41.535 41.313 39.577 39.034 41.381 40.731 41.231 41.52 41.568 41.019 39.233 39.065 39.815 40.477 41.124 40.291 38.976 38.84 39.483 41.018 40.908 38.235 38.128 37.792 36.735 36.749 36.458 36.61 36.321 36.506 36.672 36.488 36.303 36.213 36.265 36.291 38.704 39.2 39.425 40.034 40.766 41.741 41.529 40.045 36.436 37.1 40.151 40.994 40.005 36.307 36.282 36.271 36.232 37.049 41.951 41.39 39.744 40.248 41.085 41.823 41.841 41.074 40.471 41.886 41.927 41.971 41.92 41.978 41.498 36.136 36.056 35.908 35.869 35.912 35.926 35.835 35.813 35.791 35.831 35.907 36.129 42.767 43.869 43.881 43.861 43.87 43.954 43.878 43.827 42.477 43.811 40.694 39.979 40.79 41.547 42.177 41.85 41.177 40.379 39.513 36.603 36.059 36.293 36.27 36.269 36.264 36.326 36.382 39.516 42.42 42.411 42.398 42.414 42.375 42.366 42.405 42.302 42.358 42.313 42.262 42.321 38.685 40.585 41.408 41.17 39.895 39.952 40.036 40.208 40.446 42.884 43.842 44.157 44.737 47.493 42.476 41.914 39.069 37.081 36.781 36.797 36.979 37 36.971 37.071 36.889 36.874 36.84 36.81 36.846 36.819 47.177 49.653 49.563 49.645 49.644 49.604 49.639 42.637 37.156 37.16 37.204 37.176 37.171 37.116 37.153 37.15 38.604 39.387 39.396 37.967 37.966 39.413 38.652 38.048 37.988 39.491 41.175 39.635 40.056 39.994 39.606 40.904 37.206 37.255 37.267 37.25 37.231 37.24 46.535 50.268 50.25 50.246 50.162 50.206 50.215 50.001 38.683 37.228 37.204 37.222 37.198 37.63 38.002 38.026 38.025 38.018 38.007 38.006 37.982 38.011 38.033 38.096 38.555 38.659 38.023 39.742 39.523 38.861 43.282 43.342 43.338 43.294 43.216 41.285 41.499 39.96 39.557 41.748 44.81 44.77 44.49 43.5 42.672 42.211 40.518 40.44 40.35 40.276 40.221 40.174 40.194 40.183 40.251 40.331 40.373 40.398 40.448 40.438 40.493 40.55 40.622 40.62 40.614 40.688 40.694 40.702 40.73 41.14 44.439 43.592 44.258 43.224 41.947 41.836 41.964 41.965 41.953 42.011 42.234 42.271 42.143 42.096 47.973 49.256 49.179 48.183 43.766 42.566 42.59 43.113 43.085 43.005 43.952 43.777 44.007 44.143 44.206 44.278 44.326 44.358 44.384 44.383 44.411 44.465 45.746 46.507 52.9 52.692 53.24 54.609 53.979 48.577 52.499 52.052 52.439 51.083 51.665 50.561 49.869 47.694 48.457 48.773 45.734 47.471 46.091 50.252 51.197 51.679 52.257 52.492 50.625 46.866 46.871 46.89 46.842 47.626 47.29 47.296 49.997 52.62 53.757 53.951 52.359 49.959 47.325 48.823 49.104 49.237 47.459 46.727 46.782 47.03 46.799 46.814 46.787 46.717 46.877 54.582 54.791 54.571 54.454 54.376 54.371 53.481 53.714 49.18 52.49 48.788 46.925 47.357 49.365 49.569 45.85 45.72 45.751 45.659
45.836 45.932 46.049 46.059 38.922 37.938 38.095 37.672 37.611 37.64 37.636 37.627 37.566 37.562 37.525 37.531 37.539 37.585 37.589 37.706 37.739 37.758 37.75 37.787 37.82 37.886 37.866 37.881 38.06 45.187 45.602 45.883 46.233 46.59 46.953 47.272 47.621 47.892 48.157 47.808 47.442 47.103 46.811 46.44 46.162 45.799 45.461 44.472 38.227 39.621 42.146 41.866 41.448 40.425 39.883 40.562 39.343 39.17 39.581 39.458 38.255 37.326 37.441 38.199 40.503 41.028 41.675 39.44 40.802 40.49 40.541 40.473 40.36 40.83 40.996 40.803 40.102 42.228 39.058 41.863 41.036 40.922 40.14 39.355 40.567 41.874 40.579 38.776 38.457 37.455 36.644 36.431 36.556 36.645 36.609 36.836 36.47 36.354 36.225 36.261 36.254 37.573 39.024 39.216 39.571 40.283 41.051 41.725 41.874 41.183 40.436 39.81 37.291 37.416 36.629 36.249 36.264 36.234 36.271 39.66 42.654 42.746 40.622 40.358 41.089 41.804 41.668 40.944 40.271 40.901 41.897 41.969 41.945 41.968 41.828 36.313 36.215 36.02 35.922 35.912 35.924 35.763 35.768 35.744 35.744 35.918 36.614 40.104 43.441 43.988 44.298 44.26 44.267 44.281 44.187 44.183 44.088 40.395 39.925 40.761 41.472 42.289 41.878 41.182 40.362 39.469 35.995 36.184 36.505 36.465 36.45 36.427 36.445 36.371 39.646 42.613 42.61 42.571 42.612 42.593 42.571 42.533 42.546 42.555 42.476 42.514 42.532 38.637 39.969 41.907 41.607 40.146 40 40.074 40.236 40.481 42.903 43.177 43.059 43.856 42.245 42.402 38.999 37.478 37.004 36.762 36.738 36.882 36.965 36.971 36.933 36.941 36.823 36.841 36.782 36.751 36.999 49.148 49.583 49.525 49.747 49.626 49.64 49.682 42.969 36.87 36.853 36.86 36.863 36.813 36.826 37.163 37.185 37.172 37.142 37.155 37.133 37.156 37.158 37.178 37.149 37.206 37.206 37.192 37.2 37.234 37.229 37.23 37.192 37.233 37.282 37.311 37.271 37.27 37.249 47.315 50.162 50.134 50.214 50.248 50.144 50.179 45.891 39.551 37.223 37.236 37.23 37.171 37.286 38.178 38.096 38.085 38.065 38.084 38.024 40.322 38.393 41.027 41.7 42.808 39.738 39.544 39.667 40.361 38.428 43.189 43.316 43.363 43.297 43.048 42.409 42.767 42.081 39.546 43.189 45.01 45.524 45.663 43.526 43.844 41.204 40.502 40.402 40.351 40.246 40.209 40.187 40.149 40.233 40.235 40.316 40.328 40.37 40.421 40.456 40.481 40.557 40.57 40.585 40.653 40.65 40.671 40.706 40.743 41.911 43.169 42.917 43.863 43.177 41.999 41.824 41.929 41.921 41.914 42.013 42.553 42.184 42.071 44.4 47.916 48.853 48.794 47.866 43.252 42.263 42.529 42.816 43.024 43.226 43.154 43.754 44.031 44.097 44.186 44.243 44.32 44.349 44.359 44.329 44.401 44.498 46.662 46.191 46.983 45.262 46.636 48.771 47.621 48.217 49.75 51.737 52.128 52.021 51.488 50.298 49.762 50.332 49.824 50.034 48.982 48.447 48.103 51.142 53.251 54.692 54.016 53.159 50.445 46.847 46.835 46.848 46.913 47.242 47.327 47.335 50.994 53.5 54.684 54.373 53.235 48.846 47.263 47.821 48.785 48.763 46.832 46.78 46.8 47.194 46.777 46.696 46.731 46.748 46.75 53.157 55.904 55.753 55.653 55.549 55.454 55.446 55.945 55.292 55.236 54.521 46.265 46.711 51.348 54.075 52.789 52.059 51.813 48.26
45.443 45.589 45.743 45.065 38.177 38.327 38.136 37.655 37.636 37.622 37.605 37.619 37.559 37.516 37.532 37.522 37.58 37.586 37.67 37.673 37.704 37.737 37.821 37.838 37.878 37.884 37.907 37.953 42.951 45.35 45.63 46.069 46.342 46.734 46.977 47.337 47.7 48.067 48.005 47.777 47.407 46.985 46.718 46.338 46.01 45.66 45.462 41.317 39.505 41.535 42.816 42.43 41.763 39.814 41.124 41.937 39.364 39 38.829 38.411 38.153 37.324 37.816 40.795 41.909 42.19 41.777 40.676 41.355 40.822 40.762 42.237 42.066 41.467 40.999 41.376 42.205 43.398 43.764 43.005 40.509 40.144 39.194 39.249 39.364 39.305 38.866 38.658 37.581 37.658 36.69 36.51 36.503 37.147 36.878 37.033 37.467 36.282 36.24 36.265 36.3 36.811 39.078 39.311 39.71 40.472 41.296 41.972 41.709 41.069 40.253 39.597 37.143 36.404 36.218 36.192 36.235 36.207 36.297 36.428 41.616 41.377 40.427 40.402 41.025 41.793 41.802 41.012 40.272 40.864 41.342 41.694 42.332 42.536 41.938 40.281 39.364 36.38 36.014 35.977 35.821 35.707 35.767 35.761 35.715 35.829 35.904 38.719 40.479 38.484 37.605 44.76 44.829 44.774 44.452 43.154 44.689 40.593 40.016 40.76 41.519 42.304 41.803 41.093 40.316 39.627 36.594 36.165 40.018 39.193 40.618 40.69 38.056 37.327 37.549 42.751 42.748 42.806 42.771 42.755 42.779 42.783 42.75 42.73 42.67 42.737 42.641 38.688 38.404 41.624 41.071 39.994 39.996 40.093 40.278 41.619 43.346 44.306 44.231 45.153 44.411 45.133 41.897 39.658 36.884 36.777 36.752 36.754 36.798 36.837 36.977 36.765 36.693 36.635 36.581 36.597 36.838 48.245 49.637 49.632 49.679 49.686 49.665 49.684 42.34 36.713 36.698 36.777 36.729 36.73 36.68 36.956 37.183 37.166 37.143 37.125 37.1 37.133 37.143 37.132 37.135 37.173 37.158 37.188 37.187 37.216 37.246 37.193 37.255 37.278 37.276 37.287 37.263 37.262 37.215 46.243 50.187 50.11 50.186 50.224 50.222 50.197 49.296 37.397 37.226 37.239 37.239 37.213 37.511 38.029 38.286 39.116 40.58 38.496 38.722 38.728 40.064 43.895 43.697 48.721 46.495 43.227 43.081 38.95 38.327 43.228 43.393 43.382 43.367 43.296 49.685 43.575 42.132 39.881 40.861 44.785 45.594 46.22 44.188 44.164 42.276 40.481 40.435 40.363 40.284 40.192 40.134 40.201 40.23 40.261 40.295 40.307 40.367 40.381 40.391 40.438 40.52 40.568 40.579 40.563 40.629 40.687 40.692 40.722 41.477 42.996 43.098 43.091 43.65 41.875 41.82 41.91 41.896 41.858 41.978 42.123 42.976 42.884 43.204 47.899 49.077 49.054 47.712 43.605 42.576 42.515 42.666 42.937 43.153 43.428 43.767 44.019 44.107 44.154 44.207 44.253 44.296 44.353 44.384 44.412 44.469 46.351 46.078 45.599 44.952 45.95 45.283 45.254 45.488 45.585 46.553 50.352 50.846 49.962 48.073 48.677 48.336 47.506 48.375 48.224 47.66 48.013 51.943 52.789 55.25 54.556 53.239 51.819 47.303 46.805 46.772 46.896 47.332 47.179 47.216 51.123 53.658 54.803 54.282 50.727 47.431 47.35 47.357 47.221 47.634 47.469 47.019 46.75 47.955 46.728 46.768 46.785 46.717 46.93 54.51 55.359 55.433 55.546 55.56 55.581 55.896 55.907 55.991 55.909 50.085 47.166 46.885 52.076 54.665 55.374 54.412 54.253 48.167
45.031 45.274 45.365 41.097 37.987 38.589 37.752 37.682 37.652 37.653 37.632 37.918 37.589 37.513 37.52 37.533 37.562 37.59 37.659 37.71 37.731 37.777 37.777 37.829 37.89 37.909 37.952 38.084 44.336 45.479 45.792 46.14 46.45 46.76 47.154 47.48 47.798 48.089 47.928 47.516 47.238 46.916 46.544 46.245 45.931 45.546 45.271 42.441 41.751 40.943 41.467 42.426 40.93 40.096 41.223 42.083 40.544 40.53 40.523 38.449 37.359 37.508 39.307 41.594 42.423 42.471 41.623 41.407 41.413 41.175 42.164 43.052 42.996 43.469 42.384 41.772 42.686 43.555 43.89 42.954 40.236 39.779 38.526 38.462 38.216 37.957 39.349 38.553 36.854 36.893 37.936 36.568 36.735 36.669 36.977 37.552 36.964 36.366 36.312 36.242 36.248 38.293 39.151 39.344 40.037 40.746 41.37 42.088 41.536 40.741 39.947 37.862 36.489 37.009 36.227 36.197 36.243 36.21 36.335 36.339 36.407 37.469 38.101 40.487 41.169 41.927 41.678 41.019 40.218 40.538 41.158 41.723 42.329 42.55 42.113 41.463 40.941 38.162 36.036 35.976 35.849 35.729 35.785 35.742 35.729 35.887 35.967 39.476 38.979 40.448 39.37 44.316 43.054 44.628 43.757 44.638 44.514 40.052 40.083 40.739 41.568 42.322 41.748 41 40.296 39.478 36.032 39.489 41.526 42.07 42.615 42.145 41.572 37.884 37.509 42.713 42.837 42.819 42.754 42.892 42.779 42.838 42.826 42.847 42.877 42.836 42.916 40.691 40.866 42.148 42.036 40.006 39.987 40.102 40.309 40.517 43.127 44.164 44.212 44.942 45.885 41.937 43.634 42.002 37.597 36.772 36.733 36.769 36.887 37.39 37.816 37.893 39.133 37.41 36.552 36.565 36.846 49.488 49.621 49.644 49.68 49.631 49.624 49.696 49.446 36.87 36.726 36.725 36.745 36.682 36.71 36.81 37.136 37.109 37.114 37.135 37.105 37.088 37.088 37.075 37.134 37.15 37.151 37.153 37.149 37.142 37.214 37.233 37.239 37.276 37.29 37.29 37.298 37.261 37.244 46.262 50.172 50.198 50.137 50.2 50.17 50.199 43.442 37.511 37.254 37.258 37.255 37.239 37.606 38.46 41.297 43.163 44.271 43.061 43.074 43.51 43.317 46.101 47.593 49.253 48.346 47.747 41.696 38.548 40.849 43.274 43.287 43.379 43.374 45.399 45.84 42.687 41.949 39.628 39.723 44.635 44.894 44.4 44.807 43.975 41.667 40.442 40.402 40.357 40.221 40.203 40.124 40.168 40.204 40.212 40.278 40.351 40.338 40.369 40.412 40.418 40.523 40.569 40.573 40.629 40.625 40.674 40.696 40.69 41.518 42.124 42.636 43.923 43.44 41.842 41.802 41.864 41.875 41.897 41.932 42.189 42.249 42.124 44.78 48.03 48.984 48.861 47.676 43.098 43.226 42.66 44.253 44.445 42.883 43.392 43.856 43.989 44.08 44.13 44.174 44.25 44.259 44.264 44.307 44.386 45.14 45.108 44.784 44.768 44.668 45.235 45.292 45.205 45.709 45.289 45.28 45.456 48.176 47.442 47.642 45.985 45.821 45.833 46.1 45.925 46.54 47.529 49.281 50.891 53.573 53.027 52.293 50.346 47.105 46.795 46.755 46.873 47.329 47.252 47.24 51.152 53.978 55.015 54.062 52.759 47.357 47.545 47.751 48.511 48.656 47.265 46.722 46.688 47.12 46.821 46.743 46.681 46.674 46.833 54.368 54.255 54.237 54.446 55.326 55.704 55.217 56.067 55.661 55.472 51.582 46.736 48.214 52.976 54.742 54.805 54.765 54.733 47.945
44.726 44.802 44.847 38.601 38.413 38.234 37.722 37.663 37.664 37.614 37.609 38.326 37.774 37.532 37.512 37.519 37.617 37.645 37.664 37.722 37.707 37.769 37.815 37.847 37.877 37.924 37.969 38.092 45.19 45.512 45.879 46.267 46.588 46.939 47.18 47.577 47.872 48.146 47.841 47.435 47.164 46.779 46.491 46.127 45.79 45.436 41.447 40.224 41.225 40.714 41.045 40.981 40.895 40.232 38.683 37.754 39.105 40.283 40.912 39.102 37.326 37.435 39.631 39.954 39.915 40.371 40.839 42.037 42.271 41.215 41.494 41.905 42.749 43.496 42.647 41.283 42.666 43.632 43.64 41.5 39.944 39.658 38.298 38.251 37.983 40.077 40.671 39.084 36.9 36.698 37.015 36.637 36.778 37.15 37.208 37.094 36.439 36.263 36.281 36.315 36.328 38.971 39.173 39.506 40.082 40.94 41.686 41.939 41.236 40.569 39.824 36.92 36.248 36.383 36.716 36.207 36.164 36.175 36.333 36.365 36.355 36.416 38.682 40.371 41.202 42.011 41.693 41.007 40.228 40.308 41.226 41.805 42.263 42.602 42.105 41.587 41.09 36.836 35.923 35.962 35.874 35.718 35.76 35.718 35.676 35.853 35.891 41.115 43.455 43.451 44.058 44.058 44.045 44.106 44.14 44.121 44.06 42.425 41.987 42.049 42.225 42.372 41.867 41.094 40.208 39.486 36.068 39.452 41.395 42.158 42.56 42.029 41.457 37.328 37.528 42.547 42.639 42.631 42.603 42.654 42.673 42.62 42.692 42.647 42.699 42.697 42.763 40.436 41.16 43.601 42.652 40.001 39.959 40.099 40.328 40.435 42.965 43.761 44.448 43.313 41.625 44.381 42.611 41.99 40.02 36.768 36.708 36.731 36.95 36.888 38.18 38.46 40.078 39.979 38.6 36.806 36.932 47.22 49.644 49.646 49.668 49.643 49.631 49.653 47.183 36.885 36.692 36.724 36.701 36.709 36.66 36.712 36.854 36.838 36.838 36.829 36.897 36.871 36.875 36.91 36.925 36.964 36.937 36.925 36.942 37.013 36.957 36.978 37.307 37.234 37.229 37.271 37.263 37.252 37.228 45.651 50.186 50.171 50.168 50.206 50.173 50.142 49.927 38.342 37.263 37.302 37.275 37.248 37.992 41.353 43.45 44.313 44.585 42.162 44.168 41.311 41.278 45.421 48.614 42.818 47.573 47.339 46.349 39.971 38.305 43.224 43.308 43.371 43.351 43.596 40.092 39.703 38.926 39.252 39.638 42.753 42.67 44.544 44.402 42.558 42.048 40.475 40.382 40.297 40.203 40.182 40.129 40.148 40.174 40.202 40.236 40.306 40.344 40.38 40.424 40.409 40.499 40.494 40.547 40.576 40.625 40.637 40.669 40.744 41.018 42.204 42.989 44.157 43.466 41.875 41.782 41.875 41.879 41.857 41.932 42.386 42.94 43.035 46.1 47.99 49.041 48.869 47.576 42.219 42.34 46.285 48.101 48.836 43.142 44.514 43.896 43.941 44.017 44.049 44.113 44.174 44.178 44.237 44.312 44.363 45.724 46.363 46.195 46.325 44.755 46.878 47.904 47.784 48.461 46.911 45.332 45.77 45.635 46.233 46.76 45.753 45.67 45.663 46.098 45.718 45.932 47.713 47.975 49.559 49.551 49.901 48.913 46.668 46.726 46.779 46.767 47.663 47.152 47.21 47.369 52.295 54.134 54.782 53.706 50.021 47.246 48.09 48.857 49.022 48.532 46.722 46.719 46.693 47.157 46.705 46.703 46.788 46.695 46.693 48.044 48.14 49.921 48.26 52.831 53.546 53.862 53.71 54.222 53.692 48.695 46.777 48.475 53.024 54.374 55.395 54.625 54.132 48.322
44.313 44.467 41.073 38.017 38.855 37.976 37.666 37.649 37.63 37.594 37.63 38.944 38.885 37.544 37.551 37.589 37.606 37.63 37.651 37.707 37.724 37.756 37.797 37.818 37.853 37.945 37.935 41.652 45.329 45.69 46.034 46.35 46.614 47.009 47.323 47.7 48.091 48.159 47.757 47.349 47.063 46.704 46.343 46.053 45.744 45.199 43.714 40.554 40.607 40.704 41.012 41.032 40.871 39.842 38.181 37.312 37.194 37.359 37.702 37.532 37.278 38.977 39.718 38.959 39.275 40.106 41.299 42.102 42.456 40.951 41.414 41.775 41.897 41.997 39.803 41.002 42.892 43.866 43.674 42.651 40.067 40.382 38.639 38.127 39.876 38.794 39.049 37.456 36.723 36.67 36.748 36.928 36.825 37.249 37.38 36.394 36.265 36.276 36.25 36.296 37.722 39.11 39.27 39.618 40.294 41.116 41.886 41.953 41.161 40.276 39.658 37.13 36.29 36.307 36.19 36.204 36.135 36.225 36.273 36.307 36.39 36.398 38.211 40.284 41.206 42.003 41.733 40.76 40.089 40.746 41.192 41.765 42.49 42.495 42.137 41.556 40.976 36.907 35.945 35.971 35.883 35.794 35.769 35.719 35.755 35.877 36.066 44.013 44.084 44.058 44.038 44.038 43.999 44.059 44.009 43.981 43.778 42.499 42.23 42.304 42.334 42.446 41.844 41.161 40.202 39.48 36.342 37.066 41.44 42.137 42.529 42.136 41.392 37.363 40.562 42.387 42.455 42.397 42.432 42.456 42.431 42.449 42.47 42.485 42.532 42.517 42.48 40.416 41.655 42.902 43.178 40.191 40.012 40.107 40.259 40.4 42.239 43.839 43.505 43.367 43.095 43.356 39.083 40.079 36.745 36.712 36.666 36.68 36.747 36.731 37.546 37.636 39.994 41.504 39.881 36.631 37.083 49.463 49.606 49.625 49.639 49.583 49.594 49.639 43.118 36.715 36.724 36.697 36.668 36.693 36.696 36.719 36.812 36.755 36.807 36.817 36.824 36.868 36.878 36.891 36.882 36.903 36.895 36.914 36.869 36.911 36.875 36.831 37.035 37.246 37.383 37.238 37.263 37.267 37.249 46.512 50.14 50.185 50.181 50.22 50.201 50.199 43.873 39.063 37.272 37.287 37.277 37.509 40.728 44.937 43.435 44.297 45.993 41.856 41.093 44.505 39.033 43.518 46.317 47.889 47.944 46.966 44.254 38.926 40.847 43.279 43.395 43.375 43.329 43.157 39.249 38.884 38.817 46.268 39.966 42.279 42.993 43.63 43.024 41.795 40.948 40.433 40.329 40.239 40.221 40.136 40.122 40.144 40.192 40.178 40.228 40.305 40.335 40.368 40.379 40.457 40.491 40.516 40.505 40.545 40.576 40.595 40.66 40.679 41.304 42.549 43.433 44.113 43.507 41.898 41.791 41.869 41.854 41.821 41.93 43.892 43.364 42.268 44.633 47.903 48.581 48.509 47.412 42.651 42.283 46.761 48.284 46.033 45.39 46.693 43.895 43.917 43.966 44.053 44.043 44.094 44.15 44.253 44.285 44.349 45.362 46.099 46.795 46.767 45.396 48.888 50.606 50.568 50.314 50.463 50.418 46.11 45.392 45.585 45.635 47.215 47.424 47.42 46.549 45.723 47.399 46.762 46.651 47.902 49.998 50.052 48.09 46.708 46.743 46.747 46.727 47.324 47.21 47.189 47.234 53.164 54.182 54.705 53.755 51.699 47.618 47.264 47.064 47.275 46.984 46.666 46.759 46.705 48.686 46.734 46.69 46.684 46.697 46.649 46.635 46.606 46.496 46.454 46.594 46.853 46.683 46.181 46.906 47.41 46.294 46.134 46.837 52.156 52.476 51.498 52.784 52.907 47.817
39.801 42.871 38.085 38.161 40.047 38.104 37.679 37.65 37.61 37.584 37.568 38.046 39.785 37.687 37.497 37.563 37.569 37.631 37.702 37.697 37.742 37.747 37.819 37.821 37.846 37.866 38.041 43.17 45.458 45.701 46.103 46.44 46.799 47.175 47.482 47.754 48.136 47.977 47.602 47.262 46.9 46.612 46.261 45.987 45.54 45.267 42.703 41.223 40.475 40.793 41.078 41.06 40.911 39.298 38.315 37.65 37.277 37.482 37.228 37.202 37.293 37.954 38.408 37.915 39.579 40.363 40.92 40.421 40.557 40.395 40.68 40.482 40.628 39.792 40.352 38.996 39.162 39.307 42.037 40.712 39.79 38.769 38.328 38.631 38.782 38.233 37.282 36.908 36.981 36.752 36.826 37.135 37.049 38.573 37.381 36.953 36.264 36.233 36.281 36.302 37.692 39.131 39.32 39.826 40.593 41.3 41.951 41.636 40.836 40.099 39.524 36.334 36.277 36.266 36.164 36.166 36.142 36.224 36.251 36.318 36.327 36.442 39.244 40.451 41.247 41.831 41.682 40.979 40.133 40.105 41.288 41.702 42.289 42.587 41.922 41.531 40.866 36.604 35.993 35.946 35.861 35.735 35.751 35.667 35.732 35.898 36.036 44.361 44.585 44.582 44.605 44.487 44.499 44.465 44.439 44.434 44.34 42.574 38.887 41.02 39.035 42.238 40.713 40.915 39.421 38.761 36.056 39.444 41.441 42.118 42.62 42.112 41.186 37.055 40.362 42.181 42.232 42.219 42.258 42.286 42.264 42.277 42.246 42.305 42.3 42.286 42.263 39.606 39.471 42.757 41.422 40.042 39.964 40.11 40.214 40.439 40.839 40.967 43.189 44.041 42.505 42.328 39.586 37.116 36.681 36.665 38.512 40.036 39.359 39.705 39.858 39.841 40.046 39.608 40.237 39.474 39.296 47.502 46.075 46.662 49.387 47.37 49.335 45.11 42.031 36.79 36.694 36.708 36.683 36.693 36.691 36.764 36.737 36.764 36.831 36.881 36.882 36.901 36.895 36.929 36.928 36.891 36.905 36.913 36.944 36.922 36.923 36.866 37.106 37.398 37.306 37.265 37.245 37.226 37.265 48.162 50.16 50.159 50.204 50.172 50.17 50.171 48.448 37.411 37.261 37.283 37.393 44.779 40.202 42.574 46.386 46.193 47.154 45.741 39.071 40.773 41.466 45.364 44.013 45.203 42.538 40.412 41.812 38.559 42.052 43.289 43.351 43.356 43.317 40.083 39.273 43.274 48.347 48.766 50.557 49.051 45.738 43.134 41.757 42.115 40.878 40.418 40.338 40.238 40.193 40.122 40.107 40.149 40.181 40.195 40.218 40.266 40.269 40.335 40.358 40.403 40.454 40.47 40.515 40.531 40.563 40.62 40.648 40.639 40.81 43.164 43.914 43.458 42.977 41.827 41.764 41.822 41.816 41.766 41.858 43.151 42.462 42.203 45.653 47.305 44.779 47.277 47.366 44.132 42.352 42.449 43.327 44.964 46.508 46.566 43.821 43.798 43.877 43.935 43.988 44.057 44.129 44.178 44.249 44.984 45.573 46.88 46.886 45.725 45.677 48.666 51.613 51.6 51.665 51.143 50.983 45.425 45.435 45.605 45.657 49.458 51.004 51.018 50.991 50.596 49.43 45.788 45.697 47.747 50.637 50.67 47.402 46.634 46.692 46.678 46.743 46.857 47.273 47.843 47.336 53.273 54.465 54.548 53.468 48.921 48.86 49.736 49.93 49.793 46.8 46.67 46.719 47.573 46.784 46.649 46.707 46.679 46.625 46.673 46.598 46.57 46.521 46.462 46.45 46.661 46.426 46.195 46.116 46.025 45.935 45.888 45.856 45.833 45.724 45.623 45.629 45.62 46.241
38.143 38.061 38.032 39.743 39.597 37.69 37.661 37.627 37.592 37.601 37.573 38.117 39.337 37.643 37.545 37.545 37.59 37.63 37.657 37.703 37.718 37.745 37.801 37.806 37.836 37.887 41.637 45.167 45.58 45.875 46.233 46.579 46.842 47.217 47.511 47.92 48.107 47.808 47.547 47.176 46.831 46.508 46.147 45.801 45.507 45.093 41.854 42.035 40.522 40.718 41.139 41.049 40.924 40.076 39.08 39.61 38.78 37.534 37.302 37.228 37.274 38.044 37.997 38.491 39.067 39.733 39.542 38.307 39.92 39.833 40.512 40.538 40.7 40.403 40.094 37.728 37.515 37.53 37.49 37.468 38.006 37.668 39.345 40.493 38.48 37.841 38.513 36.981 36.699 36.603 37.385 38.168 38.855 39.211 36.335 36.572 36.212 36.243 36.283 36.388 36.882 39.061 38.889 39.991 40.668 41.43 41.858 41.44 40.802 39.986 37.634 36.313 36.284 36.247 36.153 36.176 36.124 36.172 36.229 36.321 36.341 36.373 38.719 40.358 41.104 41.833 41.667 40.903 39.527 40.055 41.223 41.818 42.257 42.541 41.138 41.457 40.984 37.365 35.982 35.907 35.846 35.784 35.773 35.717 35.766 35.849 36.093 43.833 44.799 44.862 44.889 44.884 44.769 44.841 44.857 44.782 44.76 37.105 36.058 36.063 36.047 36.004 35.987 36.039 36.03 36.014 36.072 37.078 41.181 38.064 39.177 39.992 40.335 36.32 40.321 39.128 41.832 39.008 41.884 41.963 42.058 41.926 42.044 42.004 42.015 41.979 41.994 38.156 39.914 41.52 41.875 40.414 39.971 40.117 40.192 40.343 40.493 41.515 42.192 43.843 41.913 41.633 41.156 37.642 36.684 36.653 39.263 40.449 40.381 40.355 40.413 40.323 40.317 40.299 40.327 40.465 40.557 40.656 40.76 40.899 39.701 40.383 38.974 41.394 41.462 37.343 36.695 36.661 36.687 36.651 36.68 36.719 36.71 36.782 36.841 36.869 36.901 36.928 36.941 36.952 36.942 36.954 36.959 36.958 36.948 36.937 36.885 36.912 36.976 37.116 37.244 37.242 37.226 37.258 37.494 49.803 50.188 50.133 50.132 50.161 50.166 50.179 43.279 37.304 37.278 37.255 37.896 44.316 44.561 47.101 44.251 46.397 45.62 46.888 38.237 39.075 40.003 41.718 41.444 41.833 38.257 38.044 39.885 40.71 42.535 43.301 43.386 43.375 43.311 40.688 39.175 46.099 52.321 53.503 49.997 51.125 51.163 43.578 43.519 42.924 41.027 40.367 40.274 40.206 40.132 40.069 40.096 40.125 40.164 40.158 40.196 40.209 40.264 40.301 40.377 40.388 40.405 40.439 40.505 40.489 40.534 40.573 40.634 40.618 41.359 42.668 42.563 42.839 43.04 41.836 41.716 41.836 41.83 41.707 41.979 43.636 42.945 42.323 44.994 44.707 42.702 44.783 45.539 43.607 42.844 42.548 46.132 48.364 48.964 45.8 43.696 43.636 43.811 43.988 43.923 43.993 44.076 44.122 44.193 46.79 48.573 45.636 45.815 45.321 44.994 50.006 50.934 51.432 51.166 51.365 47.776 45.436 45.452 45.578 45.685 50.841 51.677 51.866 51.538 51.458 51.297 46.156 45.664 45.869 48.81 49.656 46.753 46.631 46.666 46.719 46.73 47.616 47.793 47.361 51.148 53.487 54.658 54.385 53.026 48.663 48.019 50.537 50.517 47.98 47.821 46.785 47.155 48.018 46.778 46.694 46.693 46.64 46.62 46.654 46.526 46.55 46.562 46.471 46.428 46.335 46.259 46.233 46.248 46.162 46.049 45.969 45.873 45.811 45.722 45.69 45.641 45.54 45.525
38.171 38.051 38.006 40.221 38.577 37.668 37.645 37.605 37.582 37.56 37.554 39.841 39.585 37.513 37.52 37.529 37.604 37.593 37.691 37.723 37.736 37.762 37.792 37.841 37.87 37.898 42.866 45.297 45.69 46.035 46.303 46.662 47.021 47.379 47.69 47.949 48.073 47.774 47.439 47.068 46.672 46.435 46.034 45.68 45.42 40.511 42.362 41.451 39.927 39.899 39.866 39.87 39.885 39.886 39.863 40.013 39.858 39.748 37.34 37.23 37.324 38.332 37.738 37.87 38.582 39.001 38.842 38.663 38.916 38.872 39.795 40.356 41.151 40.275 39.247 37.936 37.646 37.506 37.508 37.471 37.455 37.492 39.613 39.467 39.076 38.984 39.006 36.993 37.824 38.345 37.241 38.456 38.21 36.726 36.255 36.268 36.244 36.256 36.274 36.298 36.289 37.113 39.208 40.196 41.029 41.666 41.904 41.152 40.443 39.826 37.862 36.282 36.294 36.147 36.165 36.146 36.123 36.241 36.265 36.309 36.303 36.424 38.871 40.509 41.228 41.93 41.393 40.805 40.091 40.808 41.243 41.766 41.732 41.398 41.848 41.468 40.837 36.209 36.007 35.913 35.853 35.789 35.789 35.74 35.758 35.866 36.053 44.125 44.418 44.388 44.394 44.366 44.418 44.422 44.362 44.441 44.228 37.13 36.043 36.022 36.047 36.027 35.994 36.048 36.022 36.013 36.016 36.033 36.148 36.205 36.748 38.607 37.099 37.709 38.847 36.929 38.807 36.678 36.541 37.011 37.902 36.219 37.513 36.302 37.385 37.286 38.482 39.26 39.727 41.839 42.606 40.677 39.99 40.087 40.169 40.268 41.306 42.189 42.575 41.929 41.767 42.417 42.773 39.452 36.709 36.613 39.206 40.381 40.442 40.406 40.408 40.409 40.482 40.352 40.374 40.44 40.534 40.627 40.766 40.791 39.599 40.173 41.562 41.996 41.718 40.591 37.659 36.676 36.671 36.655 36.661 36.679 36.747 36.785 36.834 36.894 36.919 36.991 36.986 36.965 36.997 36.967 36.976 36.983 37.011 36.98 36.954 36.95 36.964 37.198 37.256 37.229 37.285 37.274 37.27 46.665 50.209 50.155 50.103 50.135 50.145 50.177 43.462 37.255 37.233 37.263 37.211 38.334 43.149 39.959 46.3 42.534 44.66 42.353 38.241 38.35 44.31 44.366 42.412 39.142 38.122 38.081 39.837 40.727 41.282 41.372 42.377 41.861 42.821 39.622 39.828 50.215 53.192 53.989 53.715 53.525 52.561 49.595 43.81 43.239 41.499 40.364 40.277 40.181 40.101 40.048 40.067 40.084 40.165 40.157 40.188 40.224 40.283 40.289 40.327 40.373 40.391 40.406 40.451 40.506 40.497 40.571 40.609 40.61 41.486 42.076 42.185 43.246 43.179 43.745 41.744 41.752 41.768 41.687 41.796 44.356 43.124 42.986 44.949 44.415 44.787 45.383 46.122 45.359 46.625 46.965 49.729 49.51 50.996 44.989 43.556 43.537 47.513 48.787 49.442 46.538 45.532 44.077 44.176 44.546 49.797 45.071 44.95 44.941 45.078 49.537 49.973 50.466 50.566 50.535 50.516 46.273 45.488 45.598 45.681 50.02 51.669 51.689 51.736 52.124 52.128 46.378 45.662 47.383 50.133 50.531 46.711 46.592 46.654 46.662 46.75 47.358 47.369 47.354 51.145 53.404 54.633 54.258 53.046 49.499 48.659 49.198 49.34 48.624 47.726 46.628 47.869 47.091 46.7 46.643 46.626 46.588 46.693 46.72 46.681 46.676 47.383 46.442 46.396 46.324 46.275 46.197 46.634 46.281 46.214 45.956 45.901 45.848 45.731 45.689 45.594 45.604 45.433
38.25 38.111 39.895 39.371 38.156 37.649 37.637 37.607 37.582 37.551 37.527 37.491 37.492 37.532 37.562 37.581 37.655 37.663 37.683 37.719 37.768 37.794 37.825 37.854 37.881 37.927 43.104 45.403 45.751 46.071 46.457 46.807 47.078 47.465 47.796 48.115 47.975 47.62 47.33 46.997 46.666 46.304 45.968 45.62 45.25 44.508 43.692 43.142 41.098 40.257 40.75 40.893 40.702 40.022 39.99 39.969 39.998 38.189 37.274 37.237 37.456 38.118 37.819 38.218 38.042 39.541 40.251 40.008 39.091 38.996 39.975 40.81 40.316 40.255 39.595 37.635 37.557 37.451 37.432 37.434 37.358 37.368 37.572 37.488 37.295 38.068 38.451 37.1 38.313 37.759 37.01 37.923 36.724 36.323 36.257 36.239 36.264 36.302 36.323 36.36 36.305 36.583 39.69 40.41 41.177 41.798 41.664 40.973 40.392 39.573 36.655 36.285 36.244 36.142 36.175 36.151 36.196 36.232 36.276 36.305 36.387 36.416 38.223 40.588 41.296 42.023 41.682 40.774 40.006 40.766 41.267 41.632 41.488 39.316 41.347 41.438 40.918 36.947 35.962 35.893 35.849 35.817 35.777 35.77 35.757 35.866 36.049 43.747 43.854 44.005 43.935 43.929 43.932 43.925 43.965 43.944 43.73 37.12 36.084 36.048 35.991 35.953 36.027 36.01 36.002 35.951 35.985 36.059 36.069 36.172 36.369 40.523 40.737 40.544 40.668 40.404 40.579 40.666 40.089 40.562 40.21 40.506 40.181 39.753 40.382 39.282 39.954 39.743 39.992 40.35 40.18 40.037 40.005 40.084 40.154 40.233 41.34 42.215 42.487 41.899 41.485 42.929 42.513 40.197 36.76 36.673 39.218 40.369 40.498 40.393 40.38 40.428 40.348 40.325 40.377 40.431 40.511 40.592 40.751 40.815 39.486 40.353 41.641 39.38 41.995 40.876 37.155 36.654 36.698 36.692 36.651 36.733 36.727 36.815 36.845 36.852 36.904 36.966 36.981 37.004 37.043 36.962 37.027 37.016 37.024 36.98 36.942 37 36.972 37.155 37.235 37.233 37.289 37.236 37.442 50.043 50.189 50.166 50.147 50.173 50.175 50.178 46.072 37.368 37.281 37.233 37.189 38.029 44.164 46.851 47.597 45.554 38.911 38.344 41.607 45.112 45.912 42.603 40.924 40.695 38.099 38.078 38.146 39.766 39.383 38.831 38.856 38.889 40.419 40.519 42.305 52.006 53.829 53.967 52.756 52.044 50.934 46.867 43.346 43.002 40.456 40.321 40.214 40.168 40.1 40.02 40.048 40.083 40.132 40.17 40.161 40.191 40.218 40.291 40.304 40.286 40.352 40.397 40.427 40.436 40.512 40.519 40.555 40.594 40.744 43.435 43.722 43.609 42.716 41.743 41.666 41.818 41.768 41.695 41.688 41.836 42.21 41.991 42.224 42.492 42.925 45.151 45.193 46.24 45.904 47.278 49.178 50.795 50.973 47.45 43.44 48.952 51.707 51.256 51.708 50.16 51.373 48.504 45.058 50.258 50.994 46.539 44.833 44.861 44.725 44.646 45.591 46.912 46.527 47.553 45.866 45.622 45.499 45.587 45.725 50.53 50.889 50.901 50.953 51.13 48.941 46.774 45.66 46.82 50.852 50.616 46.617 46.699 46.632 46.653 46.738 47.405 47.254 47.495 48.852 52.445 54.767 53.927 50.175 48.051 48.39 48.818 48.926 48.595 46.672 46.638 47.06 47.584 46.662 46.656 46.653 46.624 50.574 48.207 50.557 50.344 50.421 47.849 46.555 46.694 46.416 46.337 46.548 46.448 46.028 45.861 45.814 45.754 45.685 45.6 45.61 45.682 45.43
39.477 39.192 40.372 38.864 37.71 37.695 37.613 37.615 37.56 37.535 37.512 37.49 37.517 37.576 37.579 37.553 37.645 37.703 37.768 40.568 41.34 40.158 38.657 38.185 38.163 38.052 45.089 45.556 45.863 46.193 46.462 46.902 47.181 47.579 47.883 48.181 47.916 47.532 47.208 46.823 46.503 46.125 45.859 45.476 45.06 41.64 43.269 42.449 41.808 41.35 41.829 41.484 41.376 40.343 40.076 39.474 39.121 37.743 37.303 37.351 38.359 38.935 38.878 38.127 39.77 39.963 41.043 41.108 40.21 40.146 38.415 39.231 39.536 40.584 38.835 37.689 37.707 37.464 37.389 37.347 37.295 37.258 37.214 37.277 37.465 37.251 37.481 36.776 37.038 36.892 37.324 37.904 36.467 36.332 36.303 36.3 36.345 36.413 36.334 36.31 36.282 37.874 39.765 40.57 41.325 41.962 41.602 40.807 40.111 37.872 36.248 36.268 36.225 36.116 36.134 36.118 36.202 36.307 36.299 36.379 38.388 37.492 39.378 40.531 41.109 41.999 41.423 40.765 40.111 40.499 38.86 41.684 41.42 42.501 41.979 41.404 40.813 36.089 36.023 35.927 35.82 35.775 35.75 35.724 35.705 35.914 36.06 44.238 44.3 44.216 44.234 44.322 44.255 44.214 44.158 44.139 43.071 36.282 36.01 35.993 36.008 36.002 35.965 35.997 35.938 35.979 35.989 36.059 36.134 36.239 36.322 39.658 41.165 41.105 41.196 41.209 41.076 41.178 41.139 41.109 41.115 41.053 41.095 41.008 41.015 41.012 40.993 40.086 39.563 40.195 40.1 40.051 40.003 40.027 40.222 40.268 41.39 42.232 42.167 42.68 43.635 44.898 44.044 42.678 36.722 36.587 39.261 40.385 40.399 40.393 40.384 40.378 40.445 40.359 40.327 40.417 40.521 40.614 40.751 40.842 39.386 40.25 41.431 41.975 41.164 38.003 36.682 36.677 36.655 36.659 36.699 36.702 36.772 36.775 36.797 36.839 36.906 36.972 36.989 37.028 37.036 37.042 37.026 37.02 37.016 36.961 36.935 36.936 36.937 37.124 37.24 37.291 37.293 37.235 37.28 47.765 50.16 50.131 50.353 50.17 50.132 50.193 48.862 37.381 37.248 37.297 37.188 37.939 43.399 47.256 42.791 47.272 46.35 43.861 43.349 45.279 45.498 43.626 40.835 38.135 38.073 38.019 38.684 40.072 39.694 39.568 40.026 38.586 40.311 40.662 41.646 52.393 53.239 49.041 52.421 43.21 43.952 47.362 45.447 41.798 41.404 40.34 40.208 40.128 40.077 40.006 40.018 40.073 40.1 40.151 40.141 40.156 40.238 40.258 40.258 40.319 40.336 40.39 40.445 40.427 40.462 40.52 40.568 40.583 41.133 44.657 43.749 43.372 42.779 41.742 41.667 41.774 41.745 41.716 41.707 41.761 41.915 42.177 42.706 42.413 42.276 42.383 42.469 43.056 43.015 42.826 47.183 45.948 47.767 43.608 43.243 47.131 50.589 51.283 51.027 51.325 52.525 49.712 45.147 47.675 48.934 44.964 44.668 44.608 44.958 45.192 45.322 45.638 45.319 45.346 45.373 45.52 45.771 45.57 45.724 45.976 46.184 46.227 47.185 47.771 46.606 45.844 45.738 46.449 48.103 47.619 46.59 46.606 46.659 46.582 46.701 48.007 47.415 48.063 47.976 47.492 47.584 48.558 48.188 47.776 47.349 47.255 46.954 47.59 46.622 46.629 46.652 46.947 46.702 46.677 46.629 46.589 46.842 54.843 54.642 54.688 54.506 53.659 52.791 52.848 52.875 52.481 52.666 47.713 46.256 46.103 45.865 45.957 45.766 45.688 45.849 45.473 45.62
41.678 41.015 40.576 38.325 37.74 37.676 37.632 37.608 37.581 37.519 37.543 37.484 37.542 37.572 37.606 37.622 37.685 37.67 37.713 40.465 41.612 41.592 41.566 40.923 38.702 42.884 45.304 45.695 45.928 46.256 46.674 46.93 47.312 47.632 48.004 48.07 47.788 47.463 47.035 46.75 46.403 46.071 45.741 45.406 41.409 42.963 42.338 42.205 41.496 41.536 41.497 41.152 40.655 39.716 39.934 39.341 38.027 37.336 37.302 37.26 37.778 39.268 39.134 39.09 38.966 39.005 40.972 41.243 39.772 40.225 39.564 39.581 40.043 40.551 39.437 38.482 37.927 37.651 37.323 37.317 37.219 37.157 37.2 37.294 38.306 37.242 36.919 36.803 37.599 36.633 37.054 36.435 36.664 36.443 36.365 36.483 36.391 36.398 36.373 36.341 36.421 39.03 40.1 40.775 41.61 42.001 41.339 40.684 39.938 37.89 36.227 36.235 36.177 36.144 36.101 36.081 36.242 36.25 36.296 36.516 40.195 40.605 40.047 40.672 41.287 42.019 41.508 40.675 40.174 40.492 41.323 39.377 42.115 41.377 41.852 41.333 40.805 36.096 35.963 35.879 35.809 35.746 35.762 35.693 35.724 35.887 36.104 44.718 44.853 44.783 44.817 44.794 44.789 44.806 44.674 44.773 44.605 37.518 36 36.021 35.979 36.069 36.001 35.953 35.978 35.895 35.963 36.048 36.123 36.199 36.279 40.856 41.723 41.642 41.699 41.637 41.684 41.638 41.589 41.615 41.524 41.516 41.589 41.555 41.579 41.472 41.379 38.482 39.55 40.051 40.092 40.111 40.027 40.101 40.198 40.207 41.322 42.235 42.182 42.862 43.92 45.259 45.975 43.118 36.698 36.581 36.875 37.662 37.611 38.446 38.528 40.468 38.655 40.197 40.268 40.418 40.487 40.604 40.712 40.808 39.381 39.495 41.165 42.335 41.647 37.969 36.689 36.669 36.714 36.665 36.711 36.722 36.756 36.797 36.843 36.859 36.86 36.921 36.977 36.988 37.006 36.997 36.999 36.976 36.995 36.97 36.935 36.942 36.951 37.099 37.231 37.237 37.3 37.259 37.245 47.52 50.202 50.196 52.491 52.294 50.17 50.182 46.772 37.35 37.225 37.243 37.197 37.139 42.492 46.282 46.964 46.819 44.934 41.779 40.716 41.892 43.179 39.974 38.127 38.07 38.04 38.02 38.058 39.93 40.852 40.797 40.711 38.434 38.741 40.684 43.841 50.831 50.362 51.813 50.854 48.554 42.671 47.244 44.783 44.253 43.079 40.31 40.207 40.128 40.055 39.965 40.035 40.076 40.112 40.177 40.14 40.165 40.215 40.205 40.246 40.252 40.314 40.378 40.395 40.445 40.468 40.532 40.554 40.53 41.426 43.755 43.444 45.108 42.068 41.677 41.714 41.724 41.729 41.703 41.729 41.826 41.881 41.997 42.175 42.253 42.311 42.431 42.474 42.608 42.629 42.715 42.742 43.664 43.522 43.154 43.171 46.577 49.735 51.087 51.475 51.211 50.805 47.421 44.413 45.33 45.938 45.794 46.054 45.492 46.614 47.998 48.649 46.578 45.473 45.385 45.398 45.352 45.808 45.488 45.719 45.827 45.858 45.923 45.769 45.776 45.938 45.862 45.935 47.513 48.758 49.138 46.531 46.588 46.647 46.517 46.64 47.592 48.625 47.769 49.376 48.611 48.942 48.963 48.759 48.732 49.305 47.883 48.4 49.108 48.727 47.185 47.747 47.312 46.623 46.621 46.604 46.651 52.782 55.741 55.764 55.601 55.421 55.445 55.46 55.19 55.124 56.364 54.777 54.716 50.143 46.382 46.799 52.94 52.614 52.149 51.659 51.745 47.518
43.274 44.72 40.516 41.987 42.55 38.458 38.117 37.695 37.646 37.569 37.575 37.666 37.544 37.575 37.647 37.831 37.691 37.715 37.796 41.521 41.585 41.616 41.61 41.59 40.956 44.245 45.352 45.705 46.138 46.392 46.65 47.045 47.372 47.769 48.1 47.941 47.647 47.295 47.014 46.65 46.299 45.948 45.589 45.296 39.824 43.506 42.432 41.812 41.535 41.302 41.336 40.878 41.161 40.73 39.768 38.987 37.908 37.298 37.339 37.31 37.666 39.366 39.442 39.084 38.892 38.659 41.606 42.161 39.919 40.627 39.638 40.251 40.162 40.951 39.594 38.154 38.271 37.939 37.32 37.248 37.171 37.134 37.083 37.589 38.039 38.731 38.212 37.487 37.853 36.469 36.825 37.562 37.186 36.99 37.131 36.491 36.461 36.447 36.39 36.377 36.774 39.368 40.044 41.064 41.785 41.753 41.301 40.429 39.754 36.852 36.186 36.166 36.099 36.138 36.104 36.213 36.261 36.248 36.309 36.446 40.134 40.688 40.079 40.524 41.242 41.935 41.465 40.801 39.888 40.761 41.277 41.798 42.381 42.376 41.946 40.884 40.827 36.291 36.011 35.956 35.85 35.772 35.767 35.703 35.771 35.826 41.286 44.672 44.522 44.67 44.681 44.655 44.746 44.749 44.729 44.776 44.75 37.074 36.043 36.02 35.995 36.016 36.016 36.013 35.959 35.914 35.994 36.07 36.105 36.246 36.288 39.964 41.631 41.677 41.615 41.675 41.683 41.737 41.821 41.742 41.852 41.766 41.831 41.774 41.722 41.852 41.598 37.07 37.877 40.058 40.143 40.149 40.072 40.123 40.195 40.268 41.455 42.111 43.269 45.227 45.135 45.565 44.115 40.711 36.878 36.554 36.612 36.658 36.837 36.903 38.509 39.233 39.324 40.244 40.332 40.43 40.528 40.643 40.713 40.815 39.528 40.297 41.366 41.789 41.423 38.986 36.695 36.664 36.665 36.692 36.674 36.681 36.715 36.792 36.784 36.819 36.878 36.872 36.927 36.924 36.946 36.909 36.965 36.976 36.981 36.933 36.926 36.937 36.928 37.182 37.23 37.278 37.277 37.243 37.394 47.059 50.185 52.013 52.779 52.669 50.184 50.149 43.009 37.218 37.238 37.233 37.221 37.214 37.988 42.648 45.949 45.139 45.234 41.226 40.553 38.887 42.487 41.661 38.085 38.055 38.05 38.011 38.039 38.88 40.267 40.314 39.479 39.122 39.365 40.104 40.32 47.108 49.626 50.016 50.513 49.187 44.335 44.848 43.849 43.677 41.571 40.285 40.235 40.096 40.035 39.953 40.012 40.057 40.089 40.155 40.169 40.185 40.157 40.198 40.225 40.261 40.298 40.324 40.39 40.446 40.491 40.538 40.541 40.534 41.339 44.348 43.75 43.428 42.307 41.676 41.641 41.715 41.738 41.683 41.618 41.763 41.983 42.718 42.145 42.134 42.26 42.38 42.528 42.564 42.646 42.759 42.873 42.972 43.036 43.133 43.203 43.439 45.326 47.361 45.399 45.238 45.256 44.498 43.901 44.049 44.824 45.011 44.361 44.554 44.883 46.125 48.382 45.631 46.217 45.419 45.825 45.291 45.4 45.634 45.933 45.899 45.964 45.973 45.948 45.893 46.033 46.029 46.376 47.501 49.852 49.104 46.588 46.572 46.595 46.578 46.568 46.624 46.65 47.08 46.842 47.494 48.145 47.619 47.437 47.433 49.458 49.793 50.635 49.951 49.117 48.592 47.085 46.775 46.688 46.62 46.617 46.565 52.37 55.33 55.322 55.575 55.359 55.652 55.681 55.848 55.966 55.959 55.803 55.608 50.61 46.571 46.647 53.402 54.33 55.472 54.83 53.938 45.967
45.25 46.61 46.595 46.373 44.549 40.073 39.004 39.746 38.29 40.629 38.188 37.707 37.569 37.602 38.584 37.808 37.813 38.242 37.74 40.956 40.505 39.541 41.489 39.672 38.974 45.102 45.532 45.842 46.108 46.513 46.847 47.183 47.528 47.792 48.166 47.817 47.515 47.171 46.8 46.435 46.198 45.847 45.533 45.079 41.699 42.521 42.566 42.378 41.485 43.016 41.425 40.61 41.442 42.293 40.223 39.555 37.49 37.343 37.332 37.293 37.218 37.878 39.43 39.298 38.682 38.902 39.467 40.125 39.436 38.824 39.354 40.855 39.688 40.467 40.613 42.451 40.234 38.043 37.255 37.185 37.121 37.123 37.224 37.508 37.492 37.455 37.023 36.765 36.792 36.454 37.855 36.675 36.774 39.078 38.696 36.624 36.523 36.5 36.447 36.393 36.322 36.34 36.343 37.694 41.35 41.542 40.841 40.172 38.467 36.504 36.143 36.152 36.109 36.119 36.105 36.096 36.231 36.244 36.327 36.496 40.108 40.727 40.061 40.499 41.39 42.024 41.44 40.768 40.037 40.875 41.316 41.821 42.456 41.781 41.79 41.333 40.72 36.616 36.036 35.959 35.796 35.725 35.795 35.74 35.741 35.841 40.058 44.102 44.131 44.096 44.179 44.239 44.113 44.212 44.218 44.248 44.063 36.215 36.055 36.039 36.035 36.059 36.03 36.02 35.982 35.99 35.999 36.048 36.16 36.2 36.312 40.279 41.021 41.098 41.199 41.195 41.186 41.128 41.24 41.207 41.283 41.265 41.255 41.191 41.31 41.262 41.253 37.102 38.954 40.157 40.259 40.321 40.1 40.02 40.21 40.244 40.493 40.849 43.92 46.557 47.087 44.736 42.511 38.49 36.595 36.581 36.572 36.629 36.769 36.993 37.961 37.383 38.72 40.059 40.254 40.413 40.583 40.667 40.765 40.205 39.91 40.924 41.872 42.523 38.939 37.007 36.669 36.647 36.637 36.637 36.64 36.698 36.7 36.748 36.753 36.786 36.83 36.813 36.84 36.903 36.882 36.884 36.856 36.926 36.922 36.933 36.918 36.921 36.932 37.078 37.199 37.238 37.275 37.274 37.285 47.963 50.151 51.536 52.794 52.774 50.51 50.135 46.428 37.372 37.274 37.267 37.227 37.371 39.909 45.17 44.582 42.713 42.011 41.48 41.191 42.004 42.804 38.442 38.196 38.278 40.885 38.063 38.011 38.14 38.171 38.13 38.228 38.278 38.251 38.285 38.616 48.067 48.446 48.698 48.978 49.646 41.001 44 42.955 43.346 40.395 40.279 40.168 40.124 40.009 39.939 40.003 40.043 40.078 40.149 40.173 40.149 40.195 40.2 40.203 40.239 40.279 40.32 40.355 40.417 40.446 40.484 40.51 40.493 41.348 42.232 43.067 44.693 42.716 41.606 41.638 41.703 41.74 41.618 41.72 41.905 42.18 42.195 42.147 42.097 42.285 42.322 43.19 42.936 42.595 42.718 42.905 43.104 43.532 43.106 43.25 43.341 43.401 44.055 43.552 43.642 43.812 43.89 44.005 44.054 44.401 44.406 44.515 44.853 44.892 45.077 45.835 45.467 44.845 44.901 45.027 45.12 45.267 45.372 45.687 45.618 45.821 46.135 46.954 47.107 46.608 46.253 49.457 52.742 52.825 50.084 46.629 46.594 46.581 46.616 46.608 46.602 46.588 46.612 46.725 49.736 49.769 50.267 50.012 48.843 47.405 47.366 48.356 49.368 46.87 47.387 46.852 46.677 46.639 46.629 46.552 46.565 52.511 53.994 53.959 56.417 54.45 54.52 54.555 54.764 55.096 55.321 55.286 55.117 47.945 46.554 46.87 53.098 54.768 55.05 54.851 54.652 47.907
46.929 47.139 46.959 46.72 46.505 43.19 43.309 40.829 40.522 41.86 39.842 39.165 38.128 37.744 37.893 37.685 38.742 38.175 37.735 43.099 49.004 38.979 38.607 38.23 38.074 45.128 45.585 45.893 46.288 46.65 46.989 47.227 47.445 47.737 47.872 47.693 47.359 47.065 46.725 46.405 46.083 45.74 45.402 41.344 41.997 42.472 42.301 42.09 42.317 42.574 42.607 39.966 40.196 39.513 39.937 40.152 37.757 37.285 37.335 37.284 37.2 37.232 38.092 38.415 38.305 39.108 38.854 39.051 38.906 38.978 39.888 39.472 38.515 39.323 42.279 40.736 39.915 37.796 37.205 37.128 37.058 37.031 37.782 37.602 38.215 36.776 36.716 36.441 36.724 39.348 39.725 39.549 38.212 38.129 38.715 38.229 37.11 36.825 36.446 36.38 36.347 36.366 36.337 36.341 36.304 36.314 37.069 38.103 38.616 36.24 36.148 36.071 36.056 36.13 36.042 36.116 36.21 36.271 36.346 36.608 39.654 40.648 40.062 40.555 40.745 37.135 40.365 40.79 39.552 40.446 41.32 41.898 42.383 41.212 41.267 41.225 40.9 36.863 35.944 35.868 35.725 35.75 35.718 35.705 35.755 35.876 41.108 43.944 43.847 43.977 43.928 44 44.021 43.971 44.003 43.871 43.467 36.358 36.076 36.026 36.077 36.022 36.023 36.036 36.014 35.974 35.993 36.03 36.181 36.202 36.567 40.034 40.601 40.538 40.55 40.642 40.614 40.706 40.645 40.641 40.717 40.796 40.753 40.722 40.763 40.727 39.963 37.289 39.225 41.253 40.353 40.431 40.155 40.029 40.195 40.279 40.459 40.645 44.055 46.331 45.738 43.269 40.588 37.412 36.578 36.58 36.583 36.587 36.568 36.591 36.579 36.592 36.582 36.545 37.274 36.589 37.01 36.969 37.036 37.751 37.416 39.826 40.674 40.458 37.069 36.639 36.717 36.656 36.659 36.657 36.643 36.635 36.665 36.677 36.666 36.717 36.749 36.768 36.783 36.811 36.816 36.796 36.814 36.844 36.847 36.865 36.927 36.909 36.9 37.085 37.165 37.244 37.294 37.262 37.507 50.046 50.183 52.022 52.797 52.454 50.095 50.176 43.435 37.246 37.254 37.248 37.24 41.562 44.733 44.096 45.483 45.466 45.502 45.531 45.522 45.495 45.534 45.361 43.239 44.462 43.971 38.104 38.031 38.111 38.117 38.174 38.209 38.23 40.354 39.857 46.972 42.776 49.539 49.818 48.463 41.664 40.78 42.365 41.461 41.173 40.361 40.221 40.188 40.074 39.991 39.954 39.972 40.001 40.042 40.113 40.14 40.126 40.166 40.203 40.211 40.251 40.259 40.318 40.32 40.356 40.413 40.463 40.455 40.511 41.14 43.954 43.113 43.134 42.271 41.672 41.638 41.679 41.711 41.608 41.797 42.595 42.33 42.223 42.289 42.464 42.453 42.47 42.76 42.579 42.652 42.748 42.861 43.296 43.64 43.072 43.509 43.593 43.401 43.461 43.729 44.148 43.867 43.809 43.961 44.031 44.123 44.248 44.261 44.425 44.56 44.629 44.884 44.77 44.836 44.979 45.035 45.127 45.24 45.323 45.433 45.957 46.251 45.722 45.811 45.896 45.986 46.077 46.319 52.522 53.213 48.885 46.509 46.565 46.628 46.616 46.615 46.562 46.596 46.623 46.733 47.048 47.719 49.261 49.671 49.069 47.17 46.734 46.716 46.775 46.737 46.738 46.648 46.654 46.614 46.682 46.575 47.55 46.591 47.541 48.37 48.375 48.529 53.218 48.572 53.475 53.639 53.781 54.031 54.173 48.423 46.362 46.125 54.014 54.362 54.568 54.473 50.649 45.795
47.563 47.457 47.176 47.026 46.814 46.625 46.393 46.118 45.458 45.424 45.107 42.423 42.145 39.367 40.492 39.816 42.282 43.054 38.942 38.338 46.245 55.212 38.269 37.968 43.916 45.355 45.731 46.031 46.321 46.642 46.79 46.948 47.088 47.233 47.394 47.426 47.316 46.938 46.602 46.257 45.934 45.652 45.283 39.64 42.714 42.678 42.28 42.192 42.148 42.047 41.352 40.039 39.199 38.559 38.837 39.332 38.382 37.62 37.346 37.247 37.216 37.266 37.207 37.224 37.245 37.394 38.166 38.591 38.654 38.483 38.425 37.562 38.216 39.204 42.059 39.348 39.403 37.534 37.164 37.067 37.005 36.975 37.596 37.917 37.05 36.485 36.507 36.429 36.436 37.009 37.897 37.272 37.035 36.679 38.085 38.914 38.846 36.521 36.872 36.976 37.645 36.355 36.317 36.294 36.286 36.318 36.29 36.232 36.197 36.295 36.512 36.053 36.093 36.07 36.041 36.16 36.232 36.278 36.357 37.1 40.205 40.67 40.043 40.591 41.412 41.773 40.932 40.616 38.841 40.809 41.298 40.946 42.378 42.337 39.052 40.661 38.552 36.726 35.927 35.858 35.677 35.767 35.735 35.721 35.753 35.884 37.722 38.31 37.85 38.212 38.188 39.863 38.171 38.182 38.169 38.191 39.873 36.898 36.115 36.083 36.098 36.053 36.09 36.059 36.905 36.352 35.993 36.143 36.21 36.252 36.331 37.411 37.507 36.984 38.259 37.042 37.682 37.712 37.805 39.712 41.69 40.651 40.514 40.158 40.222 40.241 39.357 37.414 39.797 41.536 40.65 40.432 40.207 40.036 40.201 40.303 40.567 40.673 41.387 41.019 43.536 42.239 39.426 37.004 36.524 36.682 36.938 36.826 36.753 36.634 36.673 36.685 36.602 36.571 36.608 36.576 36.575 36.634 36.804 36.579 36.583 38.205 38.061 37.53 36.636 36.627 36.634 36.665 36.628 36.619 36.656 36.653 36.631 36.621 36.61 36.612 36.662 36.682 36.691 36.69 36.736 36.739 36.764 36.778 36.809 36.769 36.78 36.831 36.844 37.121 37.213 37.233 37.262 37.234 37.26 47.748 50.129 51.987 52.764 52.782 50.68 50.141 47.676 37.387 37.242 37.275 37.235 37.801 45.386 45.48 45.428 45.448 45.477 45.523 45.482 45.487 45.477 45.477 45.531 45.537 45.41 38.102 38.078 38.117 38.164 38.166 38.23 38.145 45.939 43.124 50.705 49.025 49.752 52.292 50.147 42.505 41.698 42.942 41.771 41.072 40.324 40.234 40.186 40.089 40.011 39.923 39.959 40.01 40.055 40.084 40.089 40.156 40.139 40.142 40.128 40.206 40.26 40.296 40.299 40.357 40.389 40.451 41.279 41.004 41.288 43.201 43.02 43.442 42.902 41.612 41.634 41.715 41.696 41.658 41.946 48.127 46.924 46.354 44.436 45.881 43.237 42.671 42.914 42.997 42.937 42.818 42.854 43.162 43.513 43.234 43.482 43.406 43.434 43.508 43.754 44.072 44.007 44.411 45.412 44.028 44.449 44.868 44.49 44.358 45.032 44.84 44.655 44.781 44.867 44.983 45.076 45.194 45.234 45.335 45.381 45.57 45.852 45.726 45.801 45.882 45.911 46.071 46.107 46.319 47.213 46.426 46.512 46.56 46.617 46.522 46.559 46.547 46.572 46.596 46.581 46.67 46.66 46.733 46.695 46.709 46.728 46.719 46.742 46.782 46.775 46.734 46.787 46.781 46.715 46.676 46.648 47.874 48.407 47.42 47.066 46.94 46.343 46.212 46.185 46.247 46.15 46.036 47.539 48.105 46.397 46.228 48.273 47.668 51.609 49.251 52.791 53.108 46.05
47.358 47.552 47.592 47.288 47.009 46.901 46.602 46.498 46.27 44.837 44.616 44.071 40.823 39.42 40.861 42.415 43.71 44.65 45.458 44.344 40.272 39.522 39.056 38.729 44.385 45.483 45.782 45.943 46.059 46.265 46.387 46.52 46.606 46.865 46.966 47.057 47.101 46.789 46.476 46.176 45.855 45.577 45.045 40.036 41.36 42.027 42.081 41.799 40.919 40.545 40.544 40.371 39.591 39.259 38.267 38.822 38.913 39.39 38.415 39.503 39.412 37.846 37.297 37.226 37.146 37.232 37.263 37.271 37.413 37.96 37.781 37.899 38.794 38.999 42.4 40.235 38.548 37.647 37.475 40.483 36.967 36.84 36.782 37.436 36.569 36.473 36.433 36.43 36.454 37.075 36.936 36.391 36.423 36.788 38.52 38.647 36.862 36.338 36.301 36.355 36.463 36.717 36.744 37.159 36.872 36.311 36.305 36.238 36.215 36.391 36.109 36.072 36.048 36.084 36.092 36.134 36.168 36.27 36.376 37.595 39.088 37.581 37.465 37.435 37.712 38.452 37.92 39.733 39.752 38.686 38.314 39.133 38.01 38.934 38.284 37.581 37.272 35.935 35.923 35.817 35.753 35.703 35.724 35.665 35.704 35.878 36.902 37.025 35.994 35.983 36.01 35.943 36.004 36.006 35.988 35.985 35.961 36.158 36.027 36.08 36.052 36.108 37.149 35.969 36.553 38.457 36.25 36.158 36.19 36.277 36.359 36.384 36.433 36.399 36.485 36.58 36.797 36.662 38.08 44.532 42.977 43.187 42.276 40.104 41.898 41.67 39.591 37.346 38.968 41.481 41.16 40.369 40.168 40.097 40.217 40.365 40.622 40.636 41.383 43.255 43.384 41.223 38.825 36.947 36.539 36.823 36.793 37.28 36.991 36.894 36.895 36.927 36.671 37.529 38.038 36.728 36.707 36.685 36.878 36.663 36.602 36.689 36.557 36.586 36.695 36.554 36.711 36.7 36.68 36.616 36.589 36.672 36.608 36.616 36.598 36.591 36.58 36.621 36.627 36.672 36.672 36.666 36.688 36.722 36.722 36.685 36.682 36.714 36.934 37.338 37.223 37.232 37.266 37.953 39.803 50.053 50.113 50.616 52.648 52.726 50.458 50.127 41.103 37.74 37.414 37.816 37.282 41.66 45.998 45.551 45.908 45.497 45.821 45.54 45.973 45.697 45.659 45.886 45.669 45.986 44.247 38.121 38.069 39.427 38.241 38.211 38.172 43.193 49.441 49.121 50.895 53.261 52.912 53.785 49.289 44.885 42.597 44.397 42.292 40.956 40.722 40.2 40.17 40.059 39.961 39.892 39.932 39.971 40.049 40.095 40.118 40.148 40.158 40.181 40.187 40.238 40.285 40.261 40.346 40.392 40.396 40.456 40.678 40.905 41.16 42.422 43.01 42.742 42.486 41.654 41.605 41.651 41.678 41.623 42.973 51.091 51.134 50.558 50.644 51.005 50.415 50.789 49.882 49.022 48.265 46.977 46.14 47.204 46.988 44.054 43.598 43.731 44.067 43.781 43.783 43.989 44.123 44.008 43.983 44.138 44.344 44.494 44.359 44.533 44.879 45.11 44.652 44.665 44.776 44.862 45.055 45.09 45.174 45.343 45.44 45.556 45.587 45.704 45.857 45.907 45.995 46.055 46.128 46.246 46.252 46.413 46.49 46.569 46.52 46.521 46.51 46.519 46.516 46.564 46.568 46.57 47.529 47.593 47.11 46.681 46.711 46.731 46.778 46.745 46.735 46.798 46.719 46.67 46.669 46.615 46.658 46.632 46.527 46.451 46.521 46.65 46.384 46.289 46.196 46.514 46.438 45.974 45.882 45.858 45.86 45.738 45.738 45.639 45.637 45.548 46.707 46.19 45.888
47.005 47.294 47.443 47.558 47.372 47.171 46.907 46.78 46.601 46.315 46.098 45.865 45.658 44.323 41.084 40.577 44.725 45.224 45.688 45.283 42.634 43.087 43.51 41.129 44.917 45.071 45.303 45.481 45.6 45.79 45.873 46.016 46.236 46.373 46.423 46.555 46.802 46.744 46.417 46.045 45.736 45.471 42.2 40.292 41.386 41.801 41.863 41.457 41.082 40.405 40.223 40.477 40.028 39.442 38.546 39.892 41.367 40.859 39.42 38.655 39.551 40.138 38.354 38.771 39.545 38.373 37.658 37.139 37.122 37.106 37.119 37.231 38.629 39.821 40.575 39.901 38.493 38.948 39.551 38.366 36.865 36.76 36.673 36.542 36.485 36.473 36.428 36.433 36.485 36.931 37.253 36.614 36.359 36.943 38.513 37.891 36.278 36.198 38.419 40.601 39.887 39.718 37.225 36.36 36.389 36.435 36.341 36.635 36.182 36.145 36.101 36.056 36.066 36.051 36.084 36.117 36.128 36.178 36.764 37.121 37.608 37.139 37.608 37.306 37.295 37.751 37.49 37.135 37.108 37.312 36.451 37.938 36.466 37.169 37.492 36.276 36.512 36.494 37.513 35.88 35.689 35.682 35.747 35.662 35.676 35.752 35.85 38.246 36.356 36.83 36.053 36.119 36.326 36.83 36.06 36.26 36.112 36.605 36.213 36.167 36.501 36.065 36.765 36.188 36.043 37.311 36.372 36.167 36.199 36.293 36.351 36.359 36.378 36.414 36.863 36.844 37.335 39.418 40.802 38.483 42.973 43.5 43.394 42.424 44.236 44.55 40.681 38.157 41.075 42.778 43.955 41.268 40.158 40.091 40.223 40.406 40.658 40.723 42.334 43.138 41.881 39.007 36.863 36.542 36.551 36.554 36.608 36.622 36.881 36.571 36.604 36.565 40.73 42.741 42.87 43.053 41.884 42.845 41.342 39.77 39.028 39.512 40.193 42.156 42.94 41.307 42.355 41.619 41.218 39.519 39.071 39.433 40.259 40.577 39.703 41.29 37.963 40.529 37.914 37.342 36.662 36.666 36.678 36.675 36.659 36.657 36.646 41.97 39.864 43.176 42.36 38.17 37.312 40.59 40.734 50.053 50.14 50.104 50.791 50.648 50.148 50.052 44.115 42.811 43.701 43.083 41.975 44.979 45.484 45.493 45.474 45.467 45.488 45.508 45.502 45.529 45.492 45.693 45.53 45.572 41.639 38.048 38.099 39.913 38.935 38.126 43.453 49.606 51.914 45.622 53.578 52.674 53.372 52.592 51.475 47.727 44.061 43.972 42.457 41.574 41.087 40.218 40.144 40.057 39.95 39.929 39.915 39.988 40.026 40.099 40.104 40.108 40.173 40.158 40.146 40.221 40.296 40.291 40.334 40.348 40.426 40.421 40.602 40.776 40.945 42.211 44.364 43.417 42.071 41.565 41.657 41.652 41.681 41.59 41.992 51.685 51.794 51.47 51.562 51.529 51.376 51.394 51.989 51.613 51.56 51.243 51.914 51.3 52.428 50.738 51.596 49.987 52.4 51.09 47.836 49.619 44.734 45.611 45.094 46.239 44.752 44.424 44.838 44.68 44.901 45.195 45.001 44.884 46.143 45.016 45.044 45.162 45.255 45.889 46.642 45.743 45.878 46.732 46.55 45.972 46.612 46.743 46.116 46.27 46.37 46.384 46.433 46.477 46.496 46.482 46.452 46.747 46.83 46.648 46.689 46.627 47.02 48.031 46.978 46.849 47.24 47.262 46.743 47.278 46.9 46.682 46.71 46.722 46.652 46.655 46.565 46.524 46.485 46.461 46.462 46.396 46.291 46.228 46.199 46.136 46.143 46.001 46.018 45.87 45.896 45.813 45.684 45.7 45.618 45.477 45.519 45.467 45.288
46.885 47.003 47.155 47.363 47.593 47.421 47.284 47.078 46.813 46.565 46.393 46.161 46.001 45.76 45.539 43.504 42.918 44.65 44.214 41.47 41.712 43.164 43.117 40.247 38.392 39.407 39.968 44.439 43.832 45.253 45.508 45.606 45.763 45.841 46.092 46.211 46.327 46.46 46.312 45.961 45.671 45.2 38.709 39.842 41.364 42.381 42.095 41.559 41.036 41.527 40.312 39.383 39.738 39.002 39.187 39.965 41.324 42.219 40.196 39.427 38.535 39.032 38.336 38.289 39.413 37.846 37.877 37.612 37.45 37.175 37.118 37.034 37.074 37.081 37.562 38.456 38.277 37.621 37.886 37.982 37.433 36.879 36.64 36.559 36.501 36.426 36.396 36.334 36.313 36.55 36.698 36.589 37.243 37.041 38.1 36.602 36.225 36.187 39.237 40.657 40.789 40.847 41.025 40.936 39.325 37.361 37.238 36.162 36.163 36.126 36.05 36.049 36.074 36.049 36.136 36.096 36.081 36.747 36.854 36.244 36.738 36.476 36.744 36.685 36.994 37.726 37.223 38.384 38.746 36.542 36.461 37.057 36.99 36.217 36.044 35.916 36.998 41.851 39.811 35.836 35.705 35.677 35.747 35.598 35.688 35.752 35.767 36.994 35.849 37.119 37.441 37.286 37.752 36.774 36.619 36.036 36.124 36.133 37.66 36.349 36.701 36.289 36.015 37.279 36.433 36.434 36.073 35.99 36.053 35.982 36.293 36.244 36.483 37.546 37.137 36.975 37.272 39.833 42.27 43.826 45.082 45.981 43.484 42.88 39.938 43.601 40.216 39.551 39.823 43.97 45.443 40.955 40.14 40.086 40.267 40.43 40.707 40.736 42.172 43.505 41.856 41.839 37.643 36.56 36.513 36.556 36.596 36.637 36.609 36.585 36.602 36.613 40.772 42.739 42.914 43.075 42.999 42.817 42.555 40.244 40.042 39.994 41.774 42.741 42.874 43.073 43.009 42.825 42.587 40.283 40.011 40.027 41.311 42.727 42.924 43.115 43.029 42.864 42.678 37.726 37.017 36.895 36.854 37.088 38.222 36.841 36.858 45.629 46.202 46.011 43.507 43.191 37.858 41.281 40.728 50.085 50.175 50.123 50.18 50.165 50.181 50.19 45.762 43.344 43.628 43.587 43.628 45 45.519 45.477 45.505 45.501 45.486 45.56 45.527 45.746 45.474 45.524 45.525 45.578 44.041 38.152 38.119 38.134 38.153 38.2 40.016 51.703 53.332 53.93 51.061 52.71 52.535 54.601 52.723 48.016 43.058 44.948 42.625 41.885 40.583 40.18 40.159 40.027 39.95 39.907 39.939 39.971 39.987 40.087 40.066 40.08 40.159 40.146 40.178 40.21 40.252 40.308 40.312 40.38 40.383 40.429 40.399 40.472 40.716 43.122 44.101 43.227 42.557 41.553 41.521 41.648 41.622 41.602 41.932 51.304 51.703 51.401 51.643 51.63 51.789 51.749 52.199 52.249 52.276 52.204 52.218 51.889 51.904 52.626 52.374 52.348 52.643 52.421 52.095 52.498 52.263 52.089 51.297 52.253 52.75 49.897 50.903 48.022 49.235 48.568 46.824 47.027 45.899 45.05 46.531 45.605 45.876 46.179 45.897 45.609 45.645 45.773 45.86 45.945 46.254 46.193 46.143 46.456 46.877 46.325 46.378 46.461 46.516 46.451 46.642 52.532 53.584 52.341 52.286 48.287 49.9 51.104 48.797 48.935 46.994 47.034 46.783 46.829 47.062 46.693 46.636 46.602 46.552 46.655 46.488 46.545 46.43 46.481 46.447 46.345 46.291 46.229 46.245 46.149 46.18 46.101 46.024 45.9 45.854 45.818 45.738 45.642 45.5 45.514 45.562 45.485 45.37
47.478 47.508 46.912 47.06 47.342 47.512 47.548 47.319 47.088 46.873 46.731 46.531 46.274 46.026 45.849 45.586 40.32 41.062 39.295 39.591 40.313 40.089 39.864 38.449 38.508 38.453 38.085 38.917 38.105 40.103 39.776 44.798 45.347 45.381 45.604 45.707 45.884 46.055 46.137 45.86 45.5 45.25 40.578 41.361 41.498 42.492 42.16 42.313 41.521 41.768 42.161 41.872 38.933 38.699 39.15 39.084 40.481 39.893 39.892 38.772 37.967 38.231 38.128 38.104 38.703 38.679 37.958 38.177 38.918 38.589 39.082 39.449 38.335 38.167 37.106 37.038 36.911 37.361 36.927 37.239 36.772 36.636 36.566 36.444 36.445 36.394 36.36 36.332 36.276 36.279 36.366 36.977 37.23 36.704 36.522 36.407 36.233 36.287 39.378 40.726 40.795 40.917 41.069 41.149 41.289 40.943 36.834 36.155 36.115 36.11 36.027 36.058 36.034 36.128 36.12 36.044 36.104 39.612 39.116 36.423 36.241 36.252 36.477 36.338 36.573 38.218 36.976 37.017 36.745 36.388 36.652 36.562 36.253 35.988 35.995 35.908 35.87 36.922 36.195 35.771 35.716 35.677 35.754 35.638 36.617 36.671 38.029 39.592 37.101 39.575 39.608 39.706 39.648 39.572 39.71 39.637 39.507 39.47 39.468 39.262 39.249 39.317 38.799 39.385 38.905 38.346 36.048 35.773 35.789 35.665 35.653 35.587 35.852 39.484 39.375 39.637 39.179 39.919 41.572 43.301 44.816 45.96 42.953 40.786 39.047 40.796 41.276 38.987 40.344 42.518 44.818 41.504 40.326 40.098 40.229 40.481 40.769 40.714 41.502 43.77 41.887 40.895 41.43 36.651 36.527 36.568 36.621 36.665 36.697 36.667 36.621 36.593 40.689 42.733 42.912 43.079 42.966 42.832 42.613 40.652 40.018 39.945 41.366 42.708 42.918 43.07 42.981 42.803 42.67 40.476 40.002 40.052 40.495 42.741 42.916 43.074 43.019 42.846 42.562 36.823 36.82 37.018 36.988 36.75 36.858 36.756 40.944 46.619 45.889 46.212 45.054 45.642 44.881 41.655 41.733 49.818 50.158 50.229 50.187 50.163 50.195 50.023 41.834 37.308 37.807 37.621 38.314 43.824 45.514 45.483 45.48 45.526 45.786 45.776 45.754 45.721 45.526 45.548 45.51 45.56 40.677 38.062 38.182 38.241 38.34 38.422 47.957 50.627 53.613 52.722 52.881 54.549 52.504 46.477 45.398 49.994 40.342 41.78 42.32 43.442 41.18 40.208 40.117 40.006 39.906 39.9 39.934 39.954 39.981 40.016 40.051 40.054 40.111 40.116 40.141 40.169 40.193 40.238 40.299 40.343 40.338 40.387 40.417 40.471 41.641 42.75 43.102 44.266 42.071 41.527 41.579 41.65 41.648 41.597 45.906 51.113 51.29 50.638 51.006 51.505 51.484 51.435 51.759 51.889 51.874 52.096 52.198 52.301 52.61 53.065 53.114 53.194 53.155 53.112 52.766 52.79 53.518 53.565 53.305 53.065 53.144 52.362 53.188 53.581 53.109 53.085 52.908 52.742 51.03 52.298 50.104 49.066 51.531 46.733 49.677 46.432 46.138 48.646 46.295 46.21 46.125 46.283 46.837 46.399 46.676 46.533 46.443 46.433 46.493 46.426 46.594 54.777 55.529 55.008 54.843 54.562 55.347 54.424 54.147 55.236 53.743 55.457 52.69 51.791 52.146 48.313 48.353 46.829 46.868 47.294 46.637 46.555 46.54 46.397 46.319 46.331 46.225 46.162 46.089 46.04 46.036 45.929 45.939 45.943 46.732 46.156 45.786 45.649 45.616 45.493 45.465 45.339 45.336
47.672 47.951 48.256 46.836 47.007 47.234 47.517 47.593 47.449 47.241 46.974 46.774 46.526 46.343 46.158 45.901 45.678 44.316 41.092 39.125 39.216 39.899 38.854 45.799 47.119 46.685 44.982 38.593 38.227 38.099 38.053 38.947 39.833 42.11 45.072 45.187 45.436 45.56 45.677 45.773 45.397 45.048 40.425 40.709 40.591 40.574 42.099 42.597 41.897 41.356 41.456 40.993 41.355 40.541 38.718 39.487 39.572 39.116 39.66 38.159 38.398 38.81 39.719 39.374 37.746 38.512 38.335 38.481 38.439 38.865 41.193 40.229 39.264 40.04 39.632 37.484 36.916 36.733 36.731 36.626 36.649 36.618 36.552 36.406 36.39 36.383 36.356 36.296 36.29 36.225 36.33 37.436 37.548 37.054 36.569 36.278 36.332 36.658 40.599 40.735 40.831 40.989 41.063 41.2 41.336 41.507 37.737 36.155 36.104 36.08 36.031 36.048 36.011 36.051 36.069 36.06 36.724 41.69 41.918 41.793 40.224 39.543 37.335 36.392 36.55 36.774 36.308 36.3 36.253 36.321 36.324 36.138 36.088 36.042 35.896 35.886 35.895 35.849 35.833 35.76 35.662 35.696 35.689 35.69 37.088 36.669 37.851 38.705 36.415 40.482 40.395 40.46 40.24 40.434 40.405 40.326 40.343 40.276 40.164 40.305 40.262 40.29 40.181 40.125 40.057 36.993 35.947 35.72 35.702 35.608 35.586 35.552 35.541 40.352 40.795 40.808 40.722 40.591 41.001 41.593 41.767 41.514 41.076 41.054 40.665 40.72 41.853 38.327 37.953 41.804 42.544 43.573 40.916 40.112 40.25 40.455 40.81 40.632 41.216 40.416 41.647 43.163 36.832 36.864 36.551 36.565 36.628 36.663 36.678 36.672 36.619 36.629 41.622 42.726 42.938 43.083 42.967 42.813 42.562 39.972 39.98 40.002 40.466 42.723 42.886 43.084 43.039 42.851 42.597 40.073 40.014 39.977 41.33 42.759 42.918 43.08 42.992 42.876 42.584 38.194 38.154 36.747 36.68 36.698 36.728 36.693 39.454 40.387 43.471 39.741 44.852 44.707 44.323 40.04 41.792 43.637 43.034 43.286 48.61 49.995 49.962 46.579 38.621 37.844 38.45 37.55 38.333 43.397 45.548 45.537 45.532 45.525 40.766 38.996 40.261 39.597 45.395 45.516 45.544 45.573 44.144 38.164 38.216 38.433 38.496 38.592 38.706 49.563 53.326 52.582 52.889 53.168 51.054 52.784 50.27 39.847 41.52 42.389 42.728 42.769 40.498 40.167 40.158 40.017 39.939 39.931 41.266 40.685 40.196 40.044 40.051 40.077 40.085 40.144 40.182 40.266 40.241 40.47 40.358 40.306 40.315 40.35 40.339 40.46 41.613 42.901 42.657 43.73 41.927 41.503 41.543 41.641 41.602 41.588 42.146 43.954 44.351 44.819 46.053 43.927 48.352 48.569 50.555 51.766 50.643 51.826 51.441 51.92 52.03 52.516 53.562 52.622 52.792 52.88 52.567 53.453 53.799 53.542 53.872 53.944 53.926 53.844 53.828 54.155 54.165 54.238 53.954 54.216 53.876 53.983 53.686 54.077 54.597 54.386 54.393 54.462 53.894 54.61 53.306 52.91 51.013 51.414 50.2 48.195 46.505 46.648 46.394 46.411 46.441 46.359 46.569 54.282 56.017 55.839 55.619 55.829 55.717 55.572 55.316 55.368 55.429 55.375 55.95 54.79 54.689 52.723 46.961 47.32 50.906 53.046 52.544 52 51.681 49.106 48.548 47.939 47.445 46.688 46.288 46.197 46.117 46.179 45.938 45.841 46.285 47.005 45.768 45.561 45.5 45.478 45.433 45.383 45.383
47.865 48.102 48.468 48.327 47.218 46.962 47.181 47.336 47.567 47.477 47.287 47.057 46.814 46.588 46.394 46.204 46.009 45.788 41.977 38.871 38.821 38.911 38.693 44.668 47.4 47.611 47.79 47.746 43.456 45.3 43.764 38.566 38.396 38.012 38.059 39.128 43.611 45.049 45.282 45.437 45.288 41.3 39.985 40.228 40.452 39.08 39.133 40.316 38.86 38.392 41.033 40.651 42.702 42.638 38.898 39.329 38.081 38.42 38.625 37.692 37.521 37.554 38.4 39.071 37.604 37.412 37.892 38.163 37.705 37.784 39.794 39.729 39.668 39.024 39.045 37.769 36.691 36.616 36.592 36.552 36.567 36.567 36.48 36.447 36.341 36.289 36.26 36.265 36.293 36.234 36.249 36.289 36.484 36.432 36.447 36.21 36.239 38.512 40.65 40.827 40.898 41.047 41.185 41.247 41.381 41.468 38.859 36.158 36.068 36.012 36.044 36.096 36.012 36.028 36.032 36.047 36.237 43.294 42.985 42.746 42.521 42.307 42.137 40.903 40.434 38.323 38.162 36.49 36.246 36.273 36.305 36.208 36.488 36.023 35.936 35.89 35.823 35.849 35.815 35.755 35.597 35.711 35.729 35.756 38.209 37.324 35.876 35.791 35.917 41.286 41.154 41.253 41.073 41.181 41.165 41.005 41.118 41.024 41.144 41 40.866 40.842 40.961 40.851 40.832 37.112 35.837 35.763 35.647 35.616 35.596 35.531 35.618 41.401 41.668 41.697 41.423 41.423 41.498 41.412 41.504 41.324 41.48 41.294 41.288 41.307 41.191 36.403 40.059 41.698 43.539 43.307 41.076 40.124 40.304 40.523 40.809 40.597 40.806 41.144 42.063 38.365 36.827 36.545 36.542 36.573 36.625 36.708 36.695 36.633 36.627 36.621 39.641 42.735 42.919 43.076 42.977 42.784 42.544 40.13 39.979 40.056 41.326 42.745 42.901 43.097 43.016 42.822 42.543 40.059 40.046 40.046 41.767 42.757 42.923 43.132 43.023 42.905 42.6 37.72 38.545 37.262 36.698 36.718 36.742 36.719 37.425 38.33 37.007 42.578 44.681 45.882 46.499 39.864 38.967 37.271 37.341 37.317 37.32 37.264 37.251 37.296 37.306 37.302 37.761 37.275 37.375 42.621 45.522 45.543 45.529 45.531 40.157 39.505 41.885 39.479 45.505 45.575 45.527 45.572 40.184 38.096 38.322 38.557 38.723 39.049 39.074 46.223 49.65 49.053 50.157 52.651 50.739 49.146 44.344 40.696 41.162 43.658 41.864 40.981 40.271 40.184 40.144 40.017 39.969 39.944 40.35 40.347 40.071 40.077 40.147 40.07 40.103 40.109 40.61 40.878 40.57 42.159 40.852 40.256 40.274 40.301 40.385 40.483 42.253 43.756 43.558 43.084 43.334 41.522 41.576 41.631 41.583 41.487 42.239 42.009 41.979 42.648 42.22 42.809 42.821 42.544 42.765 44.641 44.375 45.9 45.893 49.899 47.323 50.901 46.557 50.899 52.415 51.739 52.269 52.449 52.653 52.61 52.817 53.426 53.947 53.12 53.484 54.201 54.482 54.485 54.619 54.565 54.522 54.669 54.745 55.095 55.137 54.952 54.911 55.277 54.919 54.859 54.616 55.131 54.612 55.6 55.535 53.595 54.575 49.98 47.699 46.374 46.39 46.327 46.528 53.522 55.199 54.587 54.836 56.501 55.421 55.254 55.251 55.495 55.441 55.651 55.633 55.673 55.646 50.863 47.608 47.295 52.204 55.071 55.052 55.348 54.627 54.521 54.459 54.265 54.23 50.891 46.887 46.432 52.351 51.99 48.366 48.083 47.459 47.357 47.083 45.815 45.575 45.483 45.49 45.329 45.287
48.084 48.348 48.545 48.466 48.231 46.923 46.87 47.121 47.292 47.523 47.509 47.309 47.104 46.916 46.683 46.506 46.19 39.666 38.86 38.787 38.821 38.853 38.773 47.137 47.462 47.652 47.782 48.003 48.246 48.451 48.659 48.613 40.49 38.496 38.452 38.526 38.358 37.914 40.151 39.996 44.797 39.577 40.209 39.792 40.753 39.3 39.063 38.636 38.234 38.866 38.9 38.09 39.242 39.197 38.56 39.308 38.125 37.611 37.647 37.808 38.248 38.712 37.98 39.086 38.261 37.248 37.114 37.398 37.689 37.562 38.441 39.529 38.362 37.635 38.558 38.705 37.996 37.299 36.522 36.49 36.473 36.448 36.393 36.465 36.333 36.25 36.241 36.243 36.221 36.232 36.195 36.271 36.295 36.729 36.762 36.169 36.186 39.26 40.676 40.793 40.933 41.106 41.188 41.308 41.466 39.775 36.957 36.123 36.079 36.025 36.068 36.045 35.984 36.059 36.004 36.055 40.975 44.196 44.066 44.218 43.637 43.491 43.056 42.77 42.511 42.174 41.36 41.606 40.117 39.114 38.32 36.858 36.66 36.041 35.945 35.889 35.843 35.782 35.814 35.777 35.645 35.704 35.805 36.853 42.045 38.755 37.637 35.968 36.094 38.504 40.454 37.419 41.668 41.879 38.505 40.548 40.63 41.574 38.638 36.38 35.964 37.823 38.46 36.17 41.2 37.285 35.959 35.76 35.712 35.661 35.643 35.563 39.148 42.429 42.36 42.354 42.266 42.384 42.22 42.217 42.123 42.151 42.172 42.01 42.183 41.923 38.8 39.57 40.519 41.93 43.515 42.644 40.976 40.132 40.344 40.606 40.787 40.562 42.164 43.614 42.009 41.326 37.329 36.525 36.494 36.567 36.612 36.611 36.628 36.617 36.635 36.607 37.803 42.737 42.886 43.117 42.974 42.825 42.508 40.277 39.996 39.999 41.809 42.726 42.892 43.106 42.995 42.772 42.572 40.158 40.039 40.071 41.369 42.734 42.943 43.076 43.062 42.828 42.643 37.736 38.959 38.141 36.688 36.721 36.704 36.799 37.977 40.942 40.432 38.067 43.78 46.845 47.249 47.52 39.156 37.197 37.292 37.308 37.301 37.244 37.262 37.299 37.282 37.252 37.373 37.408 37.347 43.206 45.559 45.538 45.542 45.381 39.328 38.758 41.339 42.062 45.525 45.562 45.533 45.562 41.727 38.101 38.387 40.943 42.44 42.679 40.526 39.77 42.315 45.001 47.543 48.463 48.729 45.742 44.778 43.296 41.368 42.613 42.29 41.131 40.232 40.194 40.132 40.041 40.039 40.017 39.997 40.022 40.04 40.045 40.047 40.109 40.146 40.122 40.146 40.165 40.23 40.206 40.248 40.248 40.267 40.312 40.299 40.395 41.373 43.039 44.532 42.988 42.125 41.495 41.525 41.6 41.579 41.499 41.524 41.58 41.817 42.001 41.978 42.206 43.004 43.161 42.678 42.745 42.797 42.697 43.01 43.058 43.227 43.086 43.398 44.776 44.995 45.012 45.027 45.04 47.876 48.086 51.401 51.621 52.355 51.917 53.244 52.9 53.182 53.057 53.435 53.647 53.586 54.218 55.362 54.607 54.847 55.197 54.976 55.144 55.247 55.151 55.606 55.509 55.621 55.822 55.773 55.432 55.478 56.016 46.525 46.307 46.347 46.315 46.3 48.061 50.324 53.513 53.55 53.845 54.046 54.531 54.39 54.433 54.39 54.483 55.423 55.243 55.405 50.629 46.126 46.643 52.518 55.774 55.532 55.855 55.69 55.811 55.584 55.459 55.347 50.958 46.445 46.923 54.049 54.208 53.866 53.992 53.783 53.705 48.552 53.378 51.622 52.68 51.175 50.93 46.795
48.235 48.526 48.509 48.277 47.996 47.734 47.223 46.838 47.001 47.25 47.405 47.442 47.444 47.232 46.969 46.795 42.442 38.875 38.794 38.729 38.646 38.632 45.266 47.288 47.49 47.711 47.879 48.094 48.289 48.458 48.672 48.518 48.331 48.136 46.274 42.438 41.266 40.061 38.505 38.048 38.093 40.122 40.097 39.574 39.901 39.444 39.077 38.938 38.644 38.64 38.582 37.828 37.994 38.441 39.868 38.64 37.825 37.603 37.441 37.369 37.816 37.433 37.327 39.241 37.899 37.539 39.074 40.169 38.02 37.326 38.092 39.049 38.996 37.563 38.467 37.479 37.71 37.988 36.571 37.613 37.214 36.963 36.382 36.26 36.344 36.289 36.263 37.004 36.278 36.2 36.315 36.213 36.462 36.361 37.057 36.183 36.357 40.172 40.752 40.855 40.995 41.111 41.203 41.388 41.499 40.088 37.082 36.099 36.058 36.033 36.045 36.036 36.048 36.066 36.006 36.042 40.686 43.293 43.455 44 44.135 44.191 44.085 43.867 43.411 43.295 42.992 42.559 42.379 42.201 41.773 40.878 36.213 36.034 35.948 35.849 35.806 35.809 35.835 35.772 35.619 35.69 35.96 42.898 44.737 39.827 41.406 36.602 35.84 36.262 38.958 37.002 39.595 41.245 39.76 39.977 40.646 40.266 36.569 39.708 39.498 40.757 39.922 36.602 41.491 37.072 35.945 35.77 35.714 35.666 35.604 35.552 40.967 43.24 43.148 42.956 43.057 43.056 42.968 42.985 42.975 42.882 42.89 42.822 42.856 42.903 39.298 38.09 42.053 43.563 44.497 44.225 42.501 40.208 40.395 40.654 40.734 40.681 42.933 44.008 42.713 41.525 37.284 36.534 36.539 36.591 36.607 36.603 36.624 36.616 36.624 36.598 40.722 42.712 42.885 43.083 42.935 42.756 42.564 39.952 39.925 39.958 41.754 42.735 42.889 43.07 43.013 42.851 42.603 40.731 40.045 40.061 41.851 42.716 42.947 43.069 43.008 42.853 42.589 41.965 44.084 38.8 37.051 36.677 36.744 38.243 43.028 43.18 42.431 40.448 45.147 46.213 47.554 46.136 43.638 37.423 37.21 37.22 37.294 37.265 37.238 37.272 37.301 37.282 37.376 37.413 37.371 42.065 45.562 45.515 45.503 45.542 45.519 45.577 44.245 45.441 45.553 45.565 45.582 45.572 40.348 38.147 41.072 43.289 42.051 43.315 43.523 42.498 42.219 40.98 45.162 46.083 46.32 46.774 44.949 43.624 42.326 43.955 42.446 40.944 40.337 40.265 40.142 40.108 40.056 40.076 40.03 40.059 40.059 40.089 40.1 40.141 40.13 40.13 40.193 40.173 40.222 40.206 40.229 40.248 40.243 40.297 40.315 40.401 41.248 42.297 43.005 43.741 42.042 41.447 41.55 41.607 41.553 41.472 41.477 41.577 41.659 41.798 41.887 41.967 42.072 42.156 42.249 42.333 42.407 42.654 42.764 42.8 43.366 43.11 43.15 43.566 43.267 43.431 43.403 43.608 43.834 43.535 44.094 43.788 46.161 45.835 44.949 46.786 46.488 50.385 51.013 47.923 52.405 54.03 53.712 53.387 53.6 54.116 54.72 54.204 54.757 54.955 55.2 55.192 55.444 55.498 55.499 55.576 55.792 51.21 47.413 46.274 46.329 46.307 46.277 46.265 46.179 46.235 46.228 46.224 47.479 48.149 48.326 52.779 51.945 52.158 50.038 54.897 54.993 47.817 47.617 46.196 52.682 54.348 54.797 56.128 54.738 54.843 55.146 55.401 55.541 50.349 46.254 46.984 54.87 55.167 55.114 55.172 54.854 55.298 54.718 54.519 54.552 54.39 54.168 52.842 46.341
48.413 48.524 48.314 48.049 47.781 47.457 47.176 46.902 46.78 46.867 47.093 47.361 47.54 47.471 47.311 46.817 39.007 38.812 38.726 38.636 38.776 38.77 44.682 47.353 47.568 47.767 47.959 48.083 48.309 48.495 48.601 48.458 48.265 48.082 47.891 47.679 47.503 45.6 39.292 45.187 44.69 44.191 38.967 38.539 39.024 38.927 39.412 38.86 39.092 38.384 38.529 38.182 38.127 38.771 38.278 38.631 37.789 37.442 37.34 37.367 38.064 37.496 39.404 39.216 38.505 38.289 38.911 38.834 38.18 38.165 38.817 39.961 39.045 37.87 37.095 36.709 37.68 36.751 36.551 37.148 38.57 39.073 36.303 37.293 37.688 37.598 37.369 37.612 37.184 37.058 37.382 36.337 36.176 36.377 36.718 36.198 36.327 40.631 40.794 40.888 41.055 41.171 41.261 41.367 41.471 39.228 36.39 36.045 36.015 36.042 36.053 35.992 36.075 36.095 36.038 36.461 41.034 42.206 42.488 42.759 43.252 43.449 43.77 43.903 44.39 44.194 43.997 43.866 43.429 43.259 42.862 39.126 36.137 36.031 35.946 35.897 35.864 35.832 35.826 35.765 35.657 35.691 35.816 44.652 44.261 44.077 44.661 37.635 35.805 40.531 40.526 40.425 40.375 40.518 40.516 40.444 40.501 40.509 40.467 39.684 40.644 40.774 40.715 40.609 40.688 36.601 35.918 35.814 35.776 35.644 35.6 35.584 39.703 43.093 42.959 42.97 43.072 43.081 43.159 43.029 43.114 43.06 43.191 43.211 43.13 43.231 41.481 37.429 41.913 44.438 45.653 43.402 40.724 40.26 40.424 40.72 40.825 40.722 40.909 41.301 41.739 41.986 37.369 36.55 36.518 36.543 36.583 36.587 36.63 36.607 36.614 36.587 40.789 42.748 42.948 43.042 42.943 42.754 42.055 39.983 39.916 40.133 42.241 42.712 42.932 43.047 42.982 42.818 42.162 40.563 40.021 40.084 41.774 42.757 42.886 43.104 43.036 42.874 42.6 42.518 44.952 42.447 37.68 36.83 36.878 38.976 42.653 43.064 39.953 37.32 44.184 45.826 46.28 46.532 43.445 37.856 37.332 37.236 37.236 37.297 37.315 37.288 37.25 37.235 37.345 37.39 37.322 43.015 45.545 45.5 45.525 45.51 45.624 45.498 45.474 45.543 45.51 45.512 45.541 45.596 41.019 38.149 41.961 43.966 44.315 43.816 43.414 42.801 45.546 45.06 42.032 40.904 45.245 46.048 45.444 44.646 43.449 40.99 40.792 40.516 40.329 40.288 40.244 40.196 40.136 40.147 40.186 40.17 40.139 40.082 40.145 40.14 40.108 40.133 40.16 40.182 40.198 40.202 40.252 40.222 40.219 40.647 40.465 40.591 41.362 42.824 43.28 43.457 42.171 41.481 41.541 41.606 41.54 41.542 41.586 41.68 42.645 42.111 42.479 42.567 42.514 42.308 42.758 42.314 42.421 42.472 42.561 42.671 42.772 42.862 42.909 43.109 43.162 43.526 43.515 43.735 44.276 43.838 44.589 44.257 44.447 44.404 44.112 44.521 44.568 45.316 44.546 44.532 44.902 44.311 46.069 46.527 46.572 51.245 48.164 48.963 52.971 54.654 53.83 54.201 54.484 55.239 55.137 54.415 54.691 55.704 46.743 46.327 46.334 46.324 46.264 46.233 46.292 46.188 46.121 46.062 46.118 46.054 45.934 46.005 45.975 45.929 45.933 46.211 47.565 45.919 46.333 46.01 50.744 49.592 53.431 53.526 53.478 53.795 54.075 54.341 54.331 50.947 45.695 45.91 54.242 54.463 54.51 54.663 54.721 54.847 55.146 55.085 55.02 55.048 55.146 53.453 45.62
