ncols 401
nrows 32
xllcorner    428002
yllcorner    438676
cellsize     2
NODATA_value -9999
99.244 99.212 99.184 99.159 99.107 99.104 99.097 99.029 98.967 98.917 98.872 98.847 98.804 98.757 98.724 98.724 98.729 98.739 98.747 98.762 98.779 98.797 98.827 98.864 98.909 98.909 98.954 98.982 98.994 99.029 99.052 99.057 99.079 99.132 99.162 99.179 99.202 99.182 99.157 99.169 99.212 99.189 99.187 99.169 99.157 99.139 99.157 99.174 99.197 99.197 99.207 99.214 99.227 99.259 99.274 99.289 99.354 99.092 99.022 99.062 99.057 99.054 99.069 99.077 99.099 99.112 99.109 99.102 99.189 99.437 99.509 98.827 98.547 98.807 99.189 98.659 98.549 98.509 98.479 98.497 98.479 98.454 98.424 98.402 98.372 98.354 98.324 98.297 98.282 98.274 98.262 98.249 98.234 98.209 98.194 98.184 98.172 98.162 98.144 98.132 98.112 98.087 98.065 98.037 98.007 97.992 97.96 97.955 97.912 97.862 97.81 97.797 97.762 97.71 97.705 98.63 97.85 97.685 97.495 97.412 97.335 97.262 97.15 97.115 97.052 96.985 96.92 96.84 96.74 96.645 96.542 96.442 96.315 96.167 95.98 95.862 95.74 95.642 95.522 95.417 95.35 95.275 95.202 95.13 95.05 94.957 94.83 94.732 94.61 94.515 94.547 94.922 93.777 94.015 93.755 93.597 93.385 93.25 93.05 92.875 92.666 92.485 92.317 92.167 91.993 91.881 91.769 91.678 91.601 91.525 91.439 91.29 91.188 91.047 90.931 90.726 90.609 90.489 90.329 90.124 89.949 89.663 89.439 89.247 89.046 88.917 88.745 88.587 88.467 88.333 88.19 88.044 87.865 87.744 87.575 87.508 87.407 87.094 86.747 86.522 86.138 85.783 85.18 84.537 83.646 83.402 82.827 82.108 81.677 81.218 80.984 80.676 83.648 82.34 82.055 83.085 85.301 87.418 83.98 85.224 84.429 89.85 88.722 90.393 91.305 87.586 88.818 87.449 90.239 88.546 88.904 90.998 91.29 89.582 95.635 96.555 95.447 97.984 96.266 95.975 90.649 83.806 90.069 91.232 92.05 91.472 84.092 83.615 93.261 94.265 94.24 95.495 96.519 95.304 97.382 83.889 86.523 94.594 94.877 95.433 96.353 96.955 96.973 97.876 97.59 95.831 95.955 96.295 97.987 99.572 98.797 97.65 98.172 98.583 93.19 93.097 88.69 86.051 86.111 87.039 87.983 91.402 92.812 93.93 91.475 95.273 96.654 96.019 97.077 95.983 90.441 87.526 95.662 101.143 101.933 101.696 97.612 102.293 102.179 99.959 103.297 104.442 105.075 103.767 105.612 107.956 106.959 106.776 109.261 106.195 110.226 110.935 110.758 110.562 110.319 108.781 105.839 109.79 106.9 107.904 111.242 111.827 111.927 112.019 112.49 109.69 111.881 102.31 103.104 110.133 105.579 111.139 105.19 100.737 100.275 99.557 99.704 99.647 99.803 99.951 100.037 100.15 100.29 101.713 107.897 109.064 108.264 102.169 101.045 101.189 101.342 101.506 101.691 101.89 102.089 102.232 102.409 102.632 102.848 103.121 103.335 103.552 103.807 103.991 104.142 104.18 104.308 104.473 122.633 131.866 132.396 132.395 132.322 132.26 105.912 104.237 104.408 104.592 104.659 -9999 -9999 -9999 104.844 104.873 105.012 105.382 105.719 106.085 105.603 105.677 105.833 106.002 105.992 106.033 106.24 106.447 107.209 107.243 107.079 107.164 107.547
99.144 99.117 99.097 99.072 99.022 98.994 99.019 98.952 98.892 98.832 98.784 98.749 98.714 98.659 98.639 98.642 98.647 98.652 98.664 98.677 98.682 98.704 98.727 98.754 98.784 98.792 98.829 98.857 98.887 98.909 98.929 98.944 98.959 99.002 99.024 99.024 99.047 99.059 99.037 99.042 99.074 99.074 99.082 99.072 99.074 99.059 99.082 99.092 99.099 99.122 99.124 99.139 99.174 99.212 99.247 99.157 98.947 98.887 98.844 98.914 99.029 99.059 99.044 99.037 99.064 99.104 98.927 98.689 98.584 98.524 98.732 98.582 98.524 98.474 98.462 98.479 98.479 98.459 98.429 98.389 98.369 98.342 98.314 98.279 98.257 98.234 98.207 98.182 98.157 98.144 98.137 98.129 98.122 98.114 98.094 98.079 98.062 98.059 98.029 98.02 98.005 97.985 97.957 97.927 97.9 97.865 97.837 97.812 97.782 97.74 97.692 97.652 97.622 97.56 97.527 97.747 98.715 97.607 97.435 98.407 97.267 97.182 97.085 97.005 96.945 96.867 96.76 96.662 96.537 96.422 96.314 96.197 96.072 95.94 95.78 95.645 95.542 95.43 95.342 95.23 95.15 95.077 95.005 94.897 94.8 94.732 94.622 94.487 94.4 94.242 94.14 94.245 94.002 93.282 93.452 93.362 93.205 92.992 92.845 92.645 92.502 92.311 92.162 92.023 91.873 91.733 91.595 91.502 91.427 91.355 91.264 91.197 91.016 90.901 90.743 90.559 90.394 90.278 90.121 89.894 89.672 89.442 89.224 88.989 88.806 88.686 88.493 88.338 88.288 88.075 88.004 87.831 87.741 87.575 87.526 87.305 87.067 86.758 86.549 86.127 85.938 85.547 84.908 84.025 83.161 82.345 81.605 81.24 80.646 80.264 80.002 79.723 79.526 79.49 79.433 79.271 84.627 88.752 88.601 88.46 88.833 90.573 90.594 91.01 91.213 90.92 93.727 91.669 86.037 91.137 91.958 94.574 88.641 91.879 94.735 98.469 98.456 95.628 97.653 97.196 93.469 92.868 95.058 89.94 93.094 85.963 82.035 89.962 92.463 82.877 93.777 96.069 97.869 97.178 86.728 83.242 92.824 96.674 91.31 94.942 95.976 97.256 88.723 96.509 99.288 97.144 97.124 96.296 97.069 97.824 97.306 95.021 96.764 96.413 93.229 92.094 86.43 82.493 83.024 85.626 88.253 88.104 92.094 92.966 94.633 94.168 96.279 90.215 94.81 87.901 87.42 88.847 89.478 99.818 98.919 101.925 101.572 102.269 101.755 102.81 103.049 105.824 106.408 106.738 107.559 108.886 108.084 106.779 109.06 110.286 111.198 111.526 111.124 110.315 109.737 109.098 106.06 104.208 110.027 111.647 109.204 106.068 111.646 112.924 110.588 109.233 112.803 104.786 110.77 107.37 110.917 107.676 105.035 99.925 99.525 99.619 99.547 99.636 99.827 99.917 100.025 100.111 100.321 104.834 107.237 107.585 106.584 101.568 101.07 101.21 101.334 101.491 101.692 101.858 102.012 102.14 102.398 102.606 102.79 103.018 103.261 103.474 103.721 104.001 104.134 104.245 104.363 104.415 105.182 129.475 132.095 132.381 132.356 132.273 115.929 104.263 104.36 -9999 130.157 132.376 132.38 129.933 106.693 104.754 104.913 105.066 105.295 105.779 106.546 105.717 105.888 105.974 106.015 106.03 106.174 106.365 107.764 109.912 107.268 107.13 109.74
99.064 99.039 99.009 98.987 98.944 98.899 98.912 98.877 98.807 98.757 98.702 98.692 98.654 98.599 98.564 98.559 98.572 98.569 98.584 98.592 98.594 98.597 98.607 98.637 98.662 98.694 98.714 98.749 98.767 98.787 98.809 98.829 98.854 98.874 98.892 98.899 98.912 98.929 98.907 98.917 98.952 98.964 98.969 98.987 98.987 98.972 98.997 99.029 99.047 99.054 99.082 99.079 99.097 99.137 99.144 98.974 98.827 98.757 98.744 98.747 99.052 98.994 98.907 101.629 101.752 98.534 98.502 98.539 98.454 98.417 98.417 98.427 98.434 98.407 98.389 98.364 98.347 98.327 98.307 98.289 98.252 98.229 98.199 98.167 98.139 98.102 98.097 98.067 98.042 98.029 98.027 98.019 97.999 97.979 97.959 97.954 97.937 97.929 97.912 97.907 97.907 97.87 97.84 97.797 97.762 97.747 97.707 97.68 97.65 97.637 97.582 97.517 97.482 97.53 97.28 97.57 99.992 103.747 97.942 98.297 97.135 97.025 96.915 96.817 96.757 96.65 96.555 96.435 96.317 96.195 96.09 95.972 95.837 95.735 95.602 95.432 95.34 95.247 95.147 95.037 94.95 94.867 94.78 94.675 94.607 94.482 94.392 94.26 94.155 94.062 93.922 93.81 94.107 95.135 93.112 93.12 93.007 92.772 92.647 92.46 92.305 92.147 91.984 91.845 91.727 91.602 91.466 91.35 91.269 91.201 91.134 91.022 90.837 90.716 90.534 90.383 90.231 90.038 89.91 89.721 89.491 89.206 89.003 88.754 88.612 88.467 88.297 88.161 87.997 87.896 87.794 87.655 87.605 87.563 87.235 87.08 86.737 86.519 86.226 85.874 85.517 85.045 84.335 83.441 82.51 81.683 80.86 80.242 80.054 79.658 79.502 80.197 79.411 79.341 79.443 79.377 84.903 88.822 90.329 89.675 90.481 90.519 90.751 92.972 91.042 91.439 91.078 92.43 83.74 90.164 93.801 95.437 91.827 93.185 97.609 94.937 97.803 94.597 98.046 98.412 93.665 95.784 96.312 95.232 91.327 87.644 90.286 94.048 94.04 90.113 92.821 95.654 96.675 96.803 93.562 92.595 94.378 96.049 94.91 94.63 96.172 96.678 95.818 98.592 98.873 97.285 97.945 96.614 95.226 95.767 84.568 82.224 90.538 93.235 85.983 88.31 85.6 83.329 85.357 84.314 85.247 89.042 90.324 91.616 96.133 95.854 96.929 96.918 92.903 94.876 96.405 96.253 98.406 93.648 99.887 100.719 95.3 104.229 103.12 102.75 101.843 102.254 105.261 102.982 108.204 108.665 106.603 97.906 105.64 110.356 108.74 111.835 111.151 110.089 106.399 105.093 111.073 111.302 106.066 105.021 111.567 106.811 112.751 107.165 104.164 109.217 112.074 112.067 111.223 109.595 109.897 105.016 99.482 99.194 99.554 99.352 99.505 99.651 99.822 99.95 100.066 100.154 100.289 100.369 102.001 104.533 102.165 100.949 101.081 101.229 101.353 101.502 101.662 101.827 101.994 102.201 102.4 102.603 102.782 103.02 103.217 103.445 103.702 103.98 104.205 104.268 104.34 104.397 110.991 123.49 130.274 132.39 132.389 132.343 132.313 128.602 132.281 132.276 132.302 132.34 132.356 132.417 106.256 104.771 104.867 105.039 105.304 105.509 105.689 105.832 105.951 105.93 106.001 106.047 106.106 106.195 106.949 107.777 108.016 107.727 112.189
98.987 98.962 98.927 98.894 98.844 98.812 98.804 98.792 98.742 98.689 98.637 98.609 98.597 98.547 98.494 98.482 98.482 98.482 98.482 98.494 98.502 98.507 98.507 98.547 98.584 98.592 98.599 98.634 98.659 98.667 98.682 98.702 98.724 98.732 98.742 98.764 98.797 98.817 98.819 98.817 98.844 98.884 98.879 98.902 98.902 98.932 98.952 98.967 98.984 98.959 98.894 98.987 99.024 99.044 99.067 99.052 99.019 99.087 98.589 98.604 98.552 98.384 98.427 98.492 99.487 98.347 98.314 98.329 98.344 98.347 98.334 98.319 98.302 98.282 98.254 98.232 98.202 98.169 98.164 98.152 98.114 98.089 98.074 98.032 98.009 97.994 97.972 97.944 97.924 97.904 97.889 97.879 97.864 97.854 97.842 97.839 97.829 97.797 97.777 97.78 97.775 97.745 97.72 97.67 97.642 97.617 97.59 97.55 97.515 97.462 97.435 97.392 97.317 97.3 97.2 97.265 100.705 100.345 101.58 99.837 98.112 97.915 96.697 96.552 96.505 96.407 96.315 96.207 96.085 95.967 95.832 95.745 95.642 95.525 95.407 95.29 95.14 95.065 94.967 94.855 94.737 94.642 94.557 94.445 94.377 94.277 94.155 94.055 93.93 93.86 93.71 93.557 93.465 93.765 92.792 92.887 92.792 92.57 92.42 92.282 92.097 91.945 91.812 91.673 91.55 91.457 91.326 91.243 91.107 91.017 90.931 90.82 90.687 90.547 90.358 90.177 89.976 89.794 89.638 89.441 89.235 89.091 88.829 88.635 88.478 88.266 88.104 87.988 87.772 87.688 87.536 87.554 87.366 87.103 86.891 86.582 86.391 86.03 85.724 85.4 84.988 84.396 83.672 82.772 81.848 81.057 80.239 79.677 79.478 79.486 85.678 87.996 89.724 86.394 84.943 79.725 84.803 90.364 93.279 90.995 91.701 92.012 91.042 92.059 89.29 90.482 92.87 92.149 92.696 91.274 93.318 90.402 94.848 95.505 97.956 97.76 97.197 96.022 98.25 98.242 97.424 98.35 97.321 95.861 93.159 90.283 93.616 94.909 94.075 91.457 95.664 96.001 97.211 97.321 96.964 97.355 93.939 94.308 93.209 94.029 94.834 93.969 90.057 96.669 98.161 98.206 98.273 98.193 86.815 85.005 80.833 80.686 86.244 88.58 83.841 87.061 82.976 93.867 91.95 93.766 93.352 85.774 87.018 88.853 89.982 94.593 97.784 97.499 97.788 99.361 98.539 93.5 97.723 90.774 93.385 90.989 99.761 103.848 103.339 95.649 99.707 101.815 103.891 103.819 105.02 108.508 104.574 98.5 106.875 109.918 111.674 111.624 107.809 109.043 109.704 108.22 108.39 107.978 100.792 107.622 113.224 112.31 112.854 112.265 102.832 103.286 102.147 111.809 104.285 104.425 104.069 102.953 98.841 98.938 99.156 99.389 99.55 99.748 99.862 99.994 100.086 100.204 100.277 100.368 100.491 100.654 100.765 100.915 101.105 101.244 101.324 101.492 101.656 101.878 101.994 102.188 102.354 102.621 102.796 102.974 103.168 103.474 103.874 104.353 106.09 105.012 -9999 -9999 132.281 132.328 132.379 133.806 134.035 133.59 132.337 132.276 132.317 132.299 132.333 132.361 132.386 132.435 110.885 104.77 104.857 105.82 105.175 107.301 106.061 106.078 105.916 105.955 105.968 106.03 106.259 106.336 106.86 106.956 107.045 107.073 112.211
98.892 98.862 98.842 98.807 98.767 98.749 98.729 98.732 98.672 98.614 98.572 98.537 98.514 98.474 98.424 98.404 98.402 98.412 98.412 98.417 98.417 98.419 98.432 98.444 98.467 98.487 98.487 98.527 98.542 98.564 98.569 98.582 98.597 98.607 98.609 98.634 98.669 98.694 98.689 98.707 98.729 98.802 98.802 98.827 98.827 98.842 98.869 98.892 98.899 98.914 98.932 98.979 99.029 99.082 98.967 98.782 98.504 98.629 98.379 98.322 98.274 98.214 98.192 98.184 98.192 98.234 98.229 98.222 98.209 98.202 98.187 98.167 98.147 98.132 98.099 98.079 98.049 98.039 98.029 98.017 97.984 97.967 97.952 97.927 97.897 97.872 97.842 97.824 97.802 97.779 97.757 97.749 97.752 97.732 97.709 97.692 97.682 97.657 97.639 97.647 97.627 97.617 97.587 97.552 97.502 97.472 97.442 97.41 97.365 97.325 97.282 97.26 97.187 97.14 97.017 96.94 96.932 98.552 97.23 97.852 96.707 97.892 96.467 96.342 96.275 96.152 96.062 95.955 95.855 95.755 95.632 95.512 95.422 95.335 95.242 95.127 94.967 94.887 94.785 94.67 94.555 94.425 94.355 94.257 94.142 94.077 93.96 93.845 93.73 93.612 93.512 93.327 93.182 93.25 92.987 92.507 92.565 92.44 92.202 92.06 91.907 91.75 91.612 91.507 91.391 91.258 91.216 91.082 90.957 90.847 90.741 90.622 90.497 90.358 90.176 89.993 89.84 89.643 89.46 89.231 88.987 88.858 88.675 88.459 88.275 88.093 87.942 87.794 87.675 87.489 87.415 87.206 87.016 86.816 86.525 86.268 85.995 85.69 85.188 84.748 84.267 83.601 83.006 82.275 81.33 80.36 79.652 79.409 79.245 80.447 87.237 90.615 91.83 90.767 86.435 82.067 91.234 94.412 95.462 85.891 93.042 93.345 92.514 90.746 88.509 90.291 93.58 86.936 92.673 90.441 92.818 92.387 95.465 96.09 92.974 95.798 98.276 98.454 98.452 95.814 94.637 92.648 98.341 97.005 95.839 93.543 95.004 95.965 95.196 97.497 98.453 89.746 97.363 98.146 98.527 95.479 93.37 95.135 93.053 94.081 94.455 83.639 81.099 91.886 97.432 97.873 98.305 97.813 97.143 81.006 80.565 82.577 90.671 87.338 82.849 88.151 95.905 96.726 96.537 97.13 97.257 85.669 84.192 84.105 87.807 95.261 98.106 98.218 98.922 99.767 93.664 94.468 90.032 89.749 89.454 90.97 103.33 103.511 105.279 96.005 100.796 94.635 103.033 107.056 108.146 99.16 100.165 105.165 99.517 109.815 110.721 112.239 109.3 105.051 108.056 111.071 105.933 110.102 110.403 111.366 110.214 110.155 111.674 108.384 110.498 100.098 99.027 104.27 103.59 98.85 100.205 99.182 98.856 99.077 99.255 99.389 99.557 99.773 99.905 99.982 100.046 100.196 100.303 100.427 100.501 100.667 100.811 100.969 101.112 101.199 101.343 101.507 101.701 101.858 102.044 102.195 102.714 102.843 102.94 103.013 103.201 103.552 103.893 104.146 105.627 128.866 132.298 132.277 132.276 132.309 132.585 135.382 135.679 133.561 132.369 132.348 132.365 132.362 132.348 132.38 132.336 132.382 107.265 105.679 111.162 106.489 106.029 108.551 106.297 107.1 105.917 105.915 105.926 106.228 106.874 107.035 107.234 108.002 106.938 106.991 108.613
98.829 98.789 98.762 98.732 98.694 98.667 98.637 98.642 98.599 98.534 98.499 98.447 98.437 98.417 98.372 98.332 98.332 98.337 98.334 98.344 98.357 98.349 98.359 98.359 98.374 98.407 98.392 98.424 98.427 98.447 98.464 98.472 98.492 98.502 98.512 98.532 98.549 98.582 98.619 98.642 98.649 98.699 98.717 98.714 98.732 98.762 98.774 98.804 98.857 98.917 98.909 99.079 98.392 98.032 98.127 98.224 98.167 98.114 98.164 98.142 98.122 98.094 98.127 98.112 98.094 98.079 98.062 98.049 98.044 98.027 98.019 98.009 97.992 97.977 97.949 97.922 97.912 97.897 97.904 97.889 97.864 97.842 97.802 97.787 97.759 97.727 97.697 97.697 97.674 97.662 97.747 97.607 97.577 97.577 97.564 97.557 97.547 97.532 97.519 97.497 97.495 97.475 97.455 97.41 97.367 97.315 97.272 97.242 97.192 97.155 97.11 97.08 97.012 96.845 96.832 96.767 96.602 97.952 97.5 98.617 96.505 98.617 96.23 96.132 96.055 95.94 95.802 95.7 95.622 95.512 95.417 95.322 95.23 95.145 95.062 94.952 94.825 94.655 94.592 94.472 94.372 94.247 94.127 94.052 93.947 93.84 93.772 93.632 93.52 93.372 93.28 93.105 92.957 92.845 93.46 92.365 92.362 92.255 92.065 91.857 91.695 91.545 91.402 91.285 91.217 91.099 91.001 90.911 90.815 90.65 90.563 90.429 90.315 90.196 90.005 89.818 89.653 89.457 89.227 89.043 88.851 88.675 88.494 88.267 88.105 87.958 87.797 87.616 87.502 87.381 87.14 86.928 86.792 86.461 86.086 85.835 85.609 86.18 84.9 84.312 83.703 82.933 82.259 81.539 80.887 80.372 79.354 79.294 80.276 84.644 87.269 91.286 93.286 93.199 88.202 89.384 94.373 95.34 94.186 93.515 92.541 91.997 92.415 89.437 90.395 93.01 94.006 93.858 94.02 94.016 92.735 93.791 96.204 97.037 97.456 97.083 94.542 97.321 98.035 95.278 95.462 97.054 97.339 96.232 95.751 89.733 92.911 96.534 93.449 96.169 95.02 97.335 96.361 97.296 93.47 86.652 92.227 93.874 94.879 94.91 95.509 94.701 92.609 93.524 96.675 94.253 90.336 97.466 94.003 81.611 80.582 80.569 92.781 92.28 94.749 96.731 97.75 97.532 96.745 96.984 97.884 95.76 83.426 85.252 93.819 99.376 94.873 96.45 99.521 96.867 93.606 90.64 93.05 92.252 91.483 96.308 102.952 104.526 104.567 98.976 102.852 98.982 106.976 106.189 108.288 109.771 108.295 105.696 103.551 106.259 108.418 109.135 107.672 107.136 108.111 112.144 110.834 111.541 112.207 111.632 109.509 104.268 110.1 108.885 107.944 107.906 106.435 105.453 106.933 103.716 98.959 98.914 99.403 99.381 99.308 99.47 99.677 99.79 99.9 99.988 100.096 100.222 100.287 100.41 100.558 100.667 100.831 100.982 101.076 101.21 101.349 101.506 101.687 101.899 102.055 102.259 102.819 102.805 102.925 103.013 103.385 103.565 104.061 105.029 114.993 132.498 132.311 132.344 132.342 132.361 132.358 135.317 135.554 135.361 132.25 132.313 132.394 132.375 132.355 132.401 132.341 130.685 115.276 109.465 110.815 108.65 113.225 111.892 106.907 106.202 105.882 105.944 105.875 106.124 106.511 106.887 107.264 107.438 106.979 107.06 106.963
98.757 98.714 98.677 98.644 98.612 98.574 98.547 98.547 98.519 98.482 98.434 98.389 98.369 98.347 98.319 98.282 98.262 98.262 98.262 98.277 98.287 98.277 98.279 98.282 98.292 98.304 98.304 98.314 98.339 98.344 98.357 98.369 98.382 98.412 98.439 98.462 98.492 98.514 98.542 98.564 98.582 98.602 98.619 98.627 98.664 98.699 98.799 98.789 98.364 97.929 97.989 97.949 98.037 97.909 97.874 97.872 97.929 97.984 98.019 97.944 97.939 97.932 97.972 97.952 97.902 97.874 97.874 97.877 97.867 97.852 97.842 97.837 97.829 97.819 97.807 97.777 97.779 97.772 97.757 97.744 97.714 97.697 97.669 97.649 97.617 97.602 97.569 97.542 97.512 97.489 97.464 97.439 97.432 97.444 97.434 97.414 97.379 97.359 97.349 97.347 97.34 97.312 97.29 97.257 97.2 97.142 97.097 97.052 97.027 96.997 96.942 96.895 96.822 96.702 96.55 96.545 97.23 96.305 96.82 96.655 96.335 96.157 96.032 95.942 95.845 95.73 95.6 95.475 95.387 95.3 95.237 95.135 95.04 94.952 94.865 94.767 94.65 94.497 94.385 94.282 94.175 94.072 93.932 93.845 93.745 93.625 93.527 93.417 93.272 93.165 93.017 92.9 92.725 92.61 92.567 92.562 91.947 92.01 91.9 91.707 91.437 91.32 91.202 91.087 90.993 90.913 90.819 90.741 90.63 90.506 90.376 90.266 90.154 89.964 89.817 89.652 89.464 89.234 89.064 88.85 88.669 88.481 88.32 88.14 87.91 87.745 87.579 87.48 87.426 87.201 86.877 86.724 86.477 86.138 85.765 85.511 85.979 88.219 87.548 87.933 88.402 83.108 81.701 81.064 79.884 80.783 86.291 82.256 84.259 84.451 89.488 89.889 94.102 93.668 88.033 91.385 94.722 95.254 95.531 87.886 92.993 93.04 92.653 91.421 91.63 93.084 94.504 94.234 95.932 93.277 93.603 94.783 96.202 96.435 96.736 88.203 93.48 94.702 98.297 97.864 96.143 96.045 97.227 97.086 97.038 93.369 92.861 95.458 95.493 92.631 96.544 96.378 96.418 84.747 81.841 81.518 88.109 89.841 94.752 96.378 94.324 94.288 93.746 92.796 94.561 87.666 95.608 95.898 94.943 92.212 89.844 92.7 95.164 96.229 94.55 96.563 93.779 97.869 98 97.018 97.44 94.112 94.611 96.163 98.674 100.328 100.246 99.78 101.621 98.224 88.899 101.916 97.259 96.449 95.816 97.356 104.212 102.569 105.288 97.546 104.261 104.009 107.949 111.426 111.939 111.493 111.785 107.074 109.357 107.497 105.244 108.709 104.09 106.401 102.341 110.459 106.278 110.852 112.194 112.269 109.817 107.767 108.12 106.11 104.688 107.485 107.4 107.405 107.548 104.261 99.174 99.157 99.945 99.236 99.336 99.479 99.642 99.798 99.951 100.018 100.115 100.22 100.315 100.417 100.518 100.662 100.822 100.953 101.121 101.201 101.327 101.515 101.737 101.944 102.1 102.289 102.556 102.681 102.786 102.983 103.224 103.529 104.084 106.329 130.699 132.377 132.398 132.458 132.367 132.373 132.374 133.305 132.165 131.949 124.535 130.539 132.374 131.96 132.265 126.617 127.806 127.438 106.529 105.164 113.368 112.506 111.235 107.989 106.101 107.061 105.927 105.868 105.903 106.067 106.181 106.31 106.598 106.872 106.854 108.521 107.847
98.649 98.637 98.597 98.562 98.524 98.497 98.477 98.457 98.464 98.419 98.372 98.342 98.319 98.302 98.269 98.234 98.212 98.199 98.192 98.187 98.214 98.207 98.227 98.214 98.224 98.229 98.234 98.224 98.254 98.269 98.284 98.299 98.322 98.342 98.379 98.404 98.419 98.447 98.457 98.494 98.524 98.537 98.564 98.694 98.837 98.324 97.764 97.792 97.824 97.849 97.759 97.734 97.724 97.742 97.782 97.794 97.802 97.797 97.774 97.734 97.694 97.744 97.757 97.759 97.709 97.684 97.672 97.679 97.684 97.682 97.664 97.667 97.662 97.664 97.654 97.632 97.617 97.602 97.597 97.579 97.574 97.547 97.532 97.504 97.464 97.439 97.422 97.389 97.367 97.339 97.322 97.302 97.274 97.247 97.237 97.232 97.219 97.219 97.202 97.192 97.172 97.152 97.117 97.062 97.01 96.967 96.92 96.877 96.832 96.797 96.745 96.69 96.612 96.522 96.435 96.3 96.112 96.04 95.962 96.852 96.162 96.002 95.91 95.75 95.64 95.517 95.385 95.27 95.185 95.09 95.015 94.935 94.842 94.76 94.657 94.585 94.477 94.33 94.167 94.107 93.992 93.875 93.747 93.625 93.537 93.412 93.314 93.19 93.045 92.937 92.787 92.66 92.49 92.352 92.23 92.962 92.452 91.797 91.667 91.495 91.295 91.115 90.997 90.885 90.797 90.708 90.639 90.556 90.449 90.362 90.216 90.091 89.957 89.773 89.596 89.449 89.248 89.019 88.831 88.691 88.54 88.364 88.121 87.956 87.78 87.62 87.551 87.34 87.1 86.858 86.668 86.42 86.085 85.861 85.545 85.131 87.331 89.256 89.87 89.217 88.886 85.5 83.373 83.447 85.405 91.037 91.475 87.84 85.594 86.939 90.604 92.887 92.313 87.717 90.53 92.461 94.364 91.578 95.652 95.378 91.027 88.271 92.878 91.057 91.558 91.178 93.57 92.247 96.342 96.907 95.836 98.055 97.452 97.886 96.125 96.352 93.774 97.259 97.113 95.018 93.109 90.673 95.905 97.18 96.792 93.896 80.198 86.293 94.924 87.192 94.847 90.312 95.822 94.838 95.013 91.47 84.767 86.294 93.762 97.197 97.934 97.348 97.486 95.314 94.523 93.226 94.901 92.549 95.001 94.226 88.165 87.119 94.81 95.829 84.305 96.166 98.112 96.976 97.202 97.035 99.062 101.074 98.623 94.692 98.307 96.144 96.941 102.285 104.377 101.113 102.445 105.249 97.157 94.876 93.894 99.883 102.432 103.821 105.822 105.594 106.33 106.016 100.083 111.269 112.317 112.465 109.377 110.738 109.014 105.594 102.413 109.18 108.944 111.149 109.698 101.709 104.353 105.555 110.78 104.054 107.458 106.208 110.39 109.204 109.551 108.308 108.935 107.339 108.583 104.765 98.989 99.277 99.844 99.285 99.342 99.493 99.664 99.841 99.931 99.999 100.085 100.234 100.317 100.42 100.568 100.677 100.832 100.952 101.102 101.217 101.382 101.507 101.747 101.976 102.118 102.268 102.413 102.553 102.787 103.134 103.263 103.482 103.939 104.415 121.52 132.314 132.374 132.388 132.38 132.382 131.968 130.471 114.009 110.977 104.924 125.565 130.543 118.669 117.795 105.57 104.841 104.977 104.971 105.616 111.345 111.64 109.059 106.472 105.915 105.97 105.815 105.884 106.021 106.713 106.495 106.458 106.477 106.736 107.302 107.527 106.793
98.572 98.552 98.519 98.489 98.457 98.434 98.402 98.382 98.399 98.372 98.312 98.289 98.257 98.239 98.232 98.187 98.172 98.164 98.167 98.137 98.147 98.154 98.159 98.159 98.154 98.154 98.174 98.149 98.194 98.204 98.252 98.272 98.294 98.314 98.339 98.352 98.372 98.384 98.409 98.437 98.547 98.867 98.467 97.969 98.374 97.747 97.707 97.622 97.587 97.594 97.612 97.622 97.607 97.632 97.629 97.614 97.597 97.599 97.577 97.569 97.507 97.554 97.532 97.572 97.554 97.522 97.499 97.504 97.502 97.507 97.497 97.499 97.489 97.502 97.472 97.457 97.444 97.449 97.447 97.439 97.412 97.374 97.352 97.344 97.314 97.292 97.284 97.252 97.202 97.169 97.142 97.102 97.094 97.077 97.079 97.072 97.059 97.042 97.019 97.002 96.977 96.962 96.927 96.892 96.82 96.777 96.722 96.677 96.625 96.582 96.522 96.465 96.392 96.295 96.19 96.102 96.032 95.907 95.722 95.662 96.335 95.84 95.685 95.572 95.432 95.317 95.215 95.09 94.997 94.902 94.817 94.757 94.657 94.557 94.49 94.372 94.292 94.17 94.027 93.9 93.797 93.675 93.55 93.422 93.322 93.2 93.065 92.972 92.83 92.692 92.567 92.407 92.28 92.127 91.977 91.942 91.94 91.267 91.39 91.305 91.045 90.882 90.775 90.65 90.587 90.505 90.475 90.386 90.293 90.179 90.077 89.897 89.746 89.573 89.401 89.235 89.057 88.9 88.713 88.548 88.349 88.148 87.967 87.758 87.637 87.632 87.452 87.111 86.836 86.646 86.395 86.117 85.751 85.493 85.102 86.237 87.173 89.42 90.102 89.835 88.341 83.703 84.382 85.157 88.855 90.319 91.865 84.837 89.222 89.113 90.74 95.093 88.407 90.451 83.614 87.684 92.4 92.586 95.671 95.525 86.559 91.272 92.607 92.76 88.674 94.025 95.18 91.722 94.32 95.916 95.492 97.451 87.634 91.129 96.318 84.245 88.325 94.267 95.825 91.711 82.377 94.1 95.084 94.936 95.354 85.116 90.121 83.324 93.935 93.523 94.51 92.907 97.049 94.731 88.421 94.568 83.25 90.372 96.948 95.117 97.016 95.225 95.214 95.949 94.682 88.913 89.518 85.025 92.017 96.824 97.498 93.229 94.252 93.667 89.244 92.144 95.127 92.291 94.329 95.837 98.224 100.367 100.188 95.974 95.911 96.707 98.203 102.985 105.191 105.755 95.372 104.731 102.793 99.477 99.151 102.037 103.085 101.633 103.874 101.404 104.412 107.79 105.942 109.692 111.106 110.642 99.309 109.271 108.52 104.64 106.645 110.726 110.831 110.626 107.977 106.645 110.934 110.311 106.919 107.939 104.775 101.65 109.193 108.511 110.744 106.665 110.051 109.07 104.643 102.342 99.373 98.967 99.411 99.148 99.347 99.46 99.659 99.812 99.924 99.959 100.101 100.188 100.293 100.435 100.586 100.719 100.813 100.946 101.074 101.169 101.355 101.6 101.786 101.924 102.136 102.322 102.463 102.572 102.699 103.022 103.345 103.49 103.792 104.317 109.91 131.846 132.376 132.395 131.86 130.251 112.442 106.858 105.499 105.579 104.484 108.239 107.801 104.843 105.704 105.026 104.92 105.014 105.143 105.597 107.682 109.796 108.675 106.107 105.834 105.754 105.865 105.825 106.085 106.223 108.194 106.759 107.928 110.779 111.256 108.695 107.186
98.494 98.477 98.454 98.422 98.392 98.369 98.347 98.309 98.324 98.317 98.259 98.237 98.207 98.197 98.177 98.152 98.127 98.109 98.104 98.097 98.104 98.107 98.109 98.104 98.114 98.127 98.134 98.139 98.174 98.214 98.252 98.277 98.274 98.279 98.302 98.324 98.324 98.434 98.454 98.422 98.344 98.304 98.272 97.797 97.542 97.484 97.477 97.482 97.502 97.504 97.484 97.459 97.442 97.434 97.429 97.439 97.392 97.399 97.379 97.382 97.342 97.327 97.362 97.394 97.389 97.359 97.327 97.317 97.314 97.304 97.292 97.297 97.289 97.299 97.299 97.292 97.279 97.242 97.237 97.249 97.234 97.222 97.204 97.182 97.169 97.132 97.074 97.037 97.017 96.989 96.964 96.937 96.922 96.897 96.882 96.864 96.854 96.839 96.837 96.81 96.782 96.772 96.72 96.687 96.642 96.58 96.522 96.467 96.422 96.357 96.295 96.232 96.162 96.085 95.962 95.85 95.742 95.652 95.537 95.385 95.467 96.057 95.542 95.382 95.245 95.132 95.007 94.902 94.795 94.677 94.615 94.525 94.472 94.355 94.28 94.202 94.095 93.997 93.87 93.687 93.612 93.467 93.357 93.23 93.085 92.98 92.827 92.717 92.615 92.482 92.355 92.202 92.067 91.922 91.722 91.572 92.065 91.22 91.127 90.977 90.817 90.712 90.527 90.42 90.375 90.33 90.25 90.198 90.109 90.01 89.899 89.743 89.55 89.37 89.218 89.057 88.894 88.758 88.594 88.42 88.138 87.965 87.762 87.605 87.497 87.329 87.15 86.861 86.521 86.353 86.067 85.796 85.515 85.244 84.906 84.455 86.88 86.171 88.757 88.674 85.975 83.035 84.034 88.685 90.488 89.39 89.116 90.51 91.465 85.741 85.833 94.407 92.14 86.059 83.753 84.464 93.128 93.805 95.172 94.83 95.794 92.551 90.243 93.427 92.866 95.382 95.103 95.615 94.002 95.899 94.404 94.084 95.522 93.698 96.107 96.408 94.654 91.251 94.553 86.103 89.504 85.956 83.538 92.379 80.65 81.581 82.318 89.584 88.575 90.127 85.176 92.855 97.679 96.953 95.727 89.446 87.919 82.481 90.288 86.196 96.39 96.016 96.837 96.106 92.531 90.319 82.431 95.248 88.654 96.802 97.091 89.539 96.482 95.751 93.995 90.494 80.69 88.53 91.287 91.532 92.977 93.953 98.932 96.717 97.355 98.257 101.569 103.137 103.721 104.303 105.368 93.51 98.398 100.331 104.352 99.351 95.898 103.544 105.43 106.532 106.444 108.538 109.369 109.184 109.226 110.405 110.476 107.656 104.52 104.773 109.982 111.365 111.357 101.91 100.641 110.061 111.117 108.586 107.647 109.235 102.373 107.467 107.521 108.38 111.127 109.101 108.497 108.424 104.493 101.459 102.664 103.158 101.93 99.77 99.28 99.444 99.58 99.741 99.862 99.965 100.087 100.172 100.26 100.363 100.513 100.691 100.773 100.945 101.021 101.167 101.39 101.63 101.783 101.989 102.24 102.439 102.565 102.65 102.743 102.975 103.346 103.465 103.603 104.132 122.723 125.933 123.291 129.21 111.301 104.539 104.537 104.558 105.736 105.704 104.464 104.461 104.929 104.992 104.775 104.957 105.033 105.139 105.274 105.392 105.677 106.631 105.882 105.932 105.816 105.819 105.826 105.953 106.111 106.931 106.912 106.675 111.624 113.18 112.57 110.797 107.486
98.424 98.399 98.387 98.377 98.329 98.317 98.284 98.252 98.252 98.264 98.237 98.192 98.164 98.137 98.144 98.122 98.097 98.072 98.067 98.062 98.062 98.064 98.067 98.067 98.082 98.084 98.114 98.149 98.164 98.204 98.217 98.242 98.252 98.254 98.274 98.479 98.712 98.139 97.537 97.542 97.674 97.502 97.409 97.399 97.407 97.414 97.409 97.387 97.347 97.312 97.314 97.269 97.272 97.257 97.257 97.254 97.247 97.222 97.202 97.152 97.167 97.127 97.174 97.189 97.189 97.164 97.129 97.112 97.099 97.104 97.092 97.099 97.087 97.079 97.084 97.072 97.062 97.059 97.059 97.067 97.077 97.062 97.012 96.967 96.959 96.914 96.897 96.854 96.819 96.802 96.764 96.732 96.699 96.694 96.672 96.674 96.654 96.634 96.634 96.61 96.59 96.557 96.527 96.477 96.445 96.39 96.317 96.272 96.215 96.157 96.09 96.027 95.942 95.857 95.762 95.625 95.51 95.4 95.3 95.185 95.052 95.21 95.65 95.237 95.092 94.97 94.83 94.725 94.61 94.495 94.402 94.33 94.252 94.187 94.08 93.992 93.905 93.795 93.677 93.53 93.357 93.26 93.127 93.012 92.887 92.747 92.61 92.472 92.387 92.265 92.115 91.992 91.817 91.68 91.497 91.337 91.36 91.04 90.525 90.682 90.545 90.447 90.375 90.247 90.162 90.145 90.057 89.991 89.93 89.811 89.683 89.53 89.358 89.194 89.052 88.907 88.729 88.562 88.431 88.181 88 87.757 87.641 87.485 87.329 87.06 86.759 86.501 86.247 86.024 85.813 85.543 85.277 84.846 84.428 84.088 86.045 87.348 84.837 85.403 82.807 82.507 89.713 92.111 91.1 89.144 93.286 91.637 91.258 93.343 91.759 94.48 89.247 83.029 80.705 78.422 89.067 92.425 94.644 93.914 92.181 91.754 88.247 90.673 91.226 94.863 94.673 94.909 94.381 95.626 96.322 87.712 93.044 94.692 93.747 94.043 87.968 93.583 91.584 84.572 87.843 89.844 92.129 90.736 86.572 79.783 90.881 93.181 91.267 90.427 85.338 85.345 96.68 98.098 98.054 95.283 92.311 89.273 95.061 95.988 94.572 94.875 95.652 94.32 93.534 93.741 92.833 91.378 92.737 90.751 92.003 93.57 88.834 96.75 92.206 91.73 85.012 88.891 89.278 92.287 96.641 100.547 100.467 97.782 99.026 99.604 102.537 103.331 105.132 106.136 96.157 102.112 101.662 106.234 106.687 103.437 101.233 103.41 105.042 106.386 106.623 108.044 109.254 109.141 102.012 109.804 110.299 109.325 108.126 106.63 108.544 110.783 111.084 102.318 99.173 109.261 111.409 106.556 109.09 108.797 105.18 109.84 107.221 108.641 108.331 108.689 106.828 111.918 110.75 109.219 110.051 107.301 103.732 100.254 99.278 99.426 99.612 99.722 99.826 99.947 100.079 100.151 100.275 100.353 100.448 100.598 100.758 100.938 101.046 101.242 101.391 101.615 101.852 102.057 102.286 102.455 102.605 102.756 102.866 103.028 103.328 103.507 103.564 103.855 104.567 110.849 108.566 104.416 104.368 104.321 104.327 104.265 104.355 104.593 104.453 104.433 104.549 104.673 104.782 104.919 105.011 105.137 105.227 105.414 105.545 105.74 105.883 105.977 105.989 105.867 105.852 106.038 106.123 107.014 106.945 106.724 111.491 113.971 113.022 107.439 106.734
98.357 98.334 98.322 98.297 98.279 98.259 98.239 98.214 98.209 98.239 98.202 98.169 98.124 98.109 98.097 98.084 98.067 98.054 98.037 98.029 98.027 98.042 98.047 98.047 98.084 98.104 98.142 98.157 98.177 98.189 98.197 98.204 98.232 98.537 98.367 97.652 97.492 97.619 97.487 97.307 97.299 97.324 97.344 97.332 97.319 97.274 97.244 97.219 97.182 97.152 97.147 97.097 97.099 97.077 97.092 97.074 97.077 97.052 97.029 96.977 96.984 96.939 96.969 96.952 97.007 96.979 96.934 96.914 96.907 96.884 96.877 96.859 96.859 96.862 96.874 96.874 96.884 96.894 96.882 96.847 96.844 96.827 96.822 96.797 96.759 96.739 96.699 96.662 96.622 96.594 96.562 96.527 96.492 96.479 96.469 96.467 96.454 96.434 96.414 96.395 96.362 96.345 96.317 96.262 96.227 96.19 96.125 96.057 95.987 95.932 95.872 95.792 95.7 95.627 95.527 95.417 95.282 95.155 95.03 94.912 94.765 94.72 95.147 98.13 95.177 94.822 94.68 94.54 94.42 94.307 94.2 94.125 94.055 93.982 93.885 93.792 93.712 93.59 93.467 93.342 93.157 93.042 92.927 92.775 92.667 92.507 92.392 92.25 92.142 92.042 91.885 91.762 91.595 91.432 91.275 91.062 90.932 91.302 92.7 90.862 90.355 90.182 90.167 90.157 89.98 89.927 89.877 89.787 89.692 89.59 89.461 89.315 89.165 89.042 88.854 88.731 88.608 88.404 88.192 88.017 87.756 87.618 87.376 87.231 87.034 86.828 86.524 86.174 86.052 85.833 85.526 85.266 84.911 84.533 84.057 83.579 83.544 83.513 84.186 84.438 84.521 83.6 91.261 93.591 90.731 94.363 94.742 92.91 89.352 92.742 90.608 89.008 79.364 83.611 78.018 80.083 92.685 92.158 94.44 90.685 93.881 92.128 83.703 79.584 88.322 94.144 93.177 91.531 94.273 95.912 95.059 95.949 93.131 94.954 92.239 95.912 96.461 90.992 93.565 88.037 80.683 92.937 92.836 91.366 80.943 87.081 92.623 94.048 92.514 93.779 86.018 96.144 99.231 100.736 100.524 96.195 82.721 92.561 94.986 95.231 93.21 92.035 89.581 89.381 92.363 93.803 93.822 93.233 88.652 91.07 93.612 96.916 97.207 97.316 86.682 95.216 95.346 90.964 91.833 96.413 99.152 101.308 92.763 100.749 98.64 100.275 100.658 96.401 99.53 103.14 96.387 103.235 104.639 106.762 106.599 105.243 98.338 102.357 105.097 105.948 106.467 103.092 108.027 107.584 98.991 107.39 107.816 102.135 108.32 107.144 100.268 109.394 104.84 111.398 103.083 110.359 110.64 107.845 106.614 107.931 109.273 108.369 111.291 109.317 108.871 109.083 100.671 104.25 112.543 107.336 111.259 108.97 105.57 100.424 99.274 99.433 99.588 99.719 99.815 99.901 100.043 100.122 100.235 100.316 100.421 100.6 100.797 100.947 101.043 101.223 101.433 101.661 101.868 102.054 102.315 102.466 102.596 102.729 102.886 103.078 103.349 103.457 103.516 103.624 103.758 103.926 104.068 103.976 103.879 103.95 104.018 104.086 104.166 104.279 104.407 104.441 104.489 105.138 105.557 105.159 105.02 105.153 105.327 105.442 105.618 105.827 105.96 105.982 106.414 105.912 105.838 105.951 106.231 109.074 110.536 108.907 112.636 113.828 112.937 108.992 107.075
98.282 98.279 98.257 98.237 98.232 98.214 98.194 98.169 98.169 98.207 98.177 98.137 98.119 98.089 98.089 98.074 98.049 98.037 98.019 98.004 98.027 98.049 98.064 98.087 98.104 98.099 98.127 98.139 98.152 98.157 98.192 98.382 98.342 97.507 97.592 97.459 97.269 97.214 97.229 97.222 97.239 97.219 97.189 97.149 97.129 97.107 97.074 97.049 97.017 96.979 96.974 96.942 96.904 96.909 96.897 96.902 96.892 96.872 96.852 96.807 96.794 96.752 96.692 96.754 96.802 96.779 96.739 96.697 96.677 96.662 96.654 96.652 96.657 96.674 96.689 96.672 96.657 96.654 96.657 96.664 96.652 96.644 96.637 96.614 96.569 96.522 96.507 96.467 96.424 96.389 96.354 96.324 96.294 96.272 96.257 96.237 96.237 96.222 96.214 96.185 96.157 96.125 96.097 96.065 96.005 95.96 95.887 95.825 95.777 95.715 95.642 95.565 95.472 95.387 95.275 95.187 95.07 94.925 94.77 94.63 94.537 94.452 94.595 95.99 95.595 94.64 94.5 94.385 94.242 94.125 94.017 93.915 93.83 93.772 93.697 93.59 93.5 93.397 93.287 93.12 92.962 92.775 92.72 92.545 92.435 92.295 92.15 92.04 91.892 91.79 91.662 91.512 91.372 91.187 91.03 90.81 90.652 92.24 90.417 90.012 90.14 89.99 89.987 89.935 89.817 89.692 89.642 89.57 89.46 89.361 89.217 89.084 88.931 88.804 88.708 88.548 88.381 88.214 88.011 87.841 87.612 87.24 87.055 86.952 86.639 86.475 86.153 85.987 85.735 85.492 85.262 84.884 84.676 84.259 83.724 83.331 82.801 82.348 81.744 84.611 83.607 85.706 92.103 93.921 95.111 95.263 95.189 91.309 89.139 88.38 90.93 83.681 78.746 78.652 78.537 80.957 94.109 94.944 92.542 91.614 92.581 90.439 83.146 90.967 94.533 95.24 94.924 92.866 93.297 94.707 93.35 92.708 86.737 89.869 93.602 95.081 93.124 94.529 93.263 84.775 81.508 82.96 89.425 93.328 91.068 91.756 93.358 92.383 94.768 94.756 85.818 95.64 98.447 101.034 97.76 95.094 87.884 92.064 96.772 96.156 94.504 92.18 89.572 88.045 90.009 92.755 92.918 84.825 86.347 94.089 91.692 96.15 97.791 98.621 98.655 97.186 96.922 94.978 88.036 97.792 99.82 100.245 100.486 95.409 97.992 96.412 96.506 101.307 92.15 98.62 99.355 101.886 103.72 105.183 104.269 104.602 103.44 103.249 103.515 104.32 106.404 106.719 106.457 104.236 101.132 98.054 97.761 96.658 106.083 107.565 107.014 108.44 107.025 110.995 110.324 108.037 105.613 106.545 106.914 104.503 108.144 110.141 107.481 110.699 109.237 107.135 107.654 107.39 103.922 110.281 108.712 108.441 103.577 99.278 99.243 99.391 99.58 99.688 99.783 99.852 100.008 100.103 100.192 100.305 100.417 100.556 100.744 100.894 101.056 101.285 101.464 101.694 101.906 102.111 102.341 102.505 102.562 102.733 102.9 103.049 103.238 103.417 103.492 103.526 103.562 103.592 103.658 103.711 103.793 103.86 103.943 104.086 104.197 104.262 104.365 104.401 104.456 104.543 104.854 104.929 105.063 105.168 105.343 105.549 105.694 105.821 105.975 105.996 105.845 105.839 105.826 106.131 106.221 108.9 110.853 109.116 113.083 113.832 112.459 108.449 108.783
98.217 98.214 98.214 98.184 98.182 98.172 98.159 98.147 98.154 98.167 98.167 98.127 98.107 98.087 98.072 98.064 98.057 98.047 98.044 98.042 98.054 98.069 98.089 98.082 98.092 98.092 98.099 98.104 98.132 98.229 97.839 97.739 97.424 97.262 97.094 97.084 97.129 97.127 97.122 97.089 97.084 97.049 97.034 96.989 96.957 96.927 96.904 96.882 96.849 96.822 96.794 96.792 96.737 96.734 96.732 96.702 96.704 96.689 96.667 96.622 96.572 96.547 96.467 96.564 96.572 96.614 96.564 96.514 96.469 96.469 96.464 96.442 96.419 96.434 96.454 96.472 96.467 96.454 96.464 96.449 96.439 96.429 96.429 96.407 96.369 96.342 96.302 96.252 96.222 96.184 96.152 96.112 96.092 96.064 96.047 96.037 96.024 96.012 95.997 95.967 95.945 95.895 95.867 95.827 95.777 95.73 95.675 95.61 95.55 95.472 95.39 95.327 95.252 95.155 95.032 94.912 94.79 94.655 94.537 94.395 94.28 94.23 94.087 96.13 94.31 94.955 94.342 94.217 94.077 93.95 93.84 93.722 93.62 93.54 93.475 93.367 93.275 93.167 93.042 92.902 92.747 92.587 92.455 92.33 92.19 92.055 91.91 91.772 91.637 91.535 91.407 91.26 91.112 90.932 90.76 90.537 90.375 90.26 90.495 90.07 89.81 89.84 89.782 89.677 89.647 89.512 89.395 89.302 89.21 89.087 88.951 88.828 88.682 88.575 88.436 88.302 88.192 88.088 87.885 87.582 87.222 86.888 86.778 86.627 86.379 86.135 85.882 85.661 85.417 85.148 84.856 84.692 84.322 83.761 83.334 82.857 82.33 83.582 82.113 83.232 85.166 86.902 90.153 91.366 92.202 90 94.227 93.625 91.863 91.03 84.95 93.725 93.168 90.501 85.918 87.594 84.519 92.901 91.511 89.789 91.286 90.541 89.97 90.763 94.011 94.653 95.003 93.487 92.245 87.995 86.787 90.018 94.163 95.46 89.858 82.099 85.222 91.97 90.448 83.494 83.376 82.047 87.942 91.849 86.911 90.69 94.933 94.863 93.99 94.286 90.923 95.214 96.261 98.869 94.91 90.239 87.337 89.396 98.296 97.795 95.382 94.874 91.751 90.963 89.308 89.071 83.893 92.934 92.608 86.726 95.915 99.057 98.717 95.501 99.99 89.449 94.633 97.414 96.804 96.559 97.36 99.239 99.665 102.273 99.413 87.576 99.671 96.376 96.861 98.498 98.769 99.36 98.833 101.522 100.625 104.602 104.463 101.853 95.272 101.539 105.3 102.402 103.206 102.476 103.145 105.884 107.14 99.609 105.739 105.303 106.596 108.557 109.813 109.053 106.332 105.11 105.66 100.915 103.835 106.778 107.407 111.185 110.263 105.157 100.88 102.386 101.813 110.497 99.05 100.197 110.863 107.29 99.827 99.27 99.195 99.374 99.53 99.651 99.714 99.809 99.948 100.054 100.184 100.318 100.447 100.572 100.697 100.79 101.017 101.255 101.496 101.746 101.946 102.119 102.335 102.533 102.62 102.731 102.821 102.967 103.157 103.341 103.403 103.497 103.569 103.567 103.634 103.716 103.789 103.887 104.005 104.093 104.185 104.295 104.413 104.477 104.518 104.567 104.699 104.856 105.009 105.166 105.346 105.531 105.66 105.875 106.052 106.351 106.517 105.852 105.866 106.146 106.287 107.51 107.043 109.076 113.056 113.693 112.238 106.974 107.79
98.172 98.152 98.159 98.162 98.149 98.142 98.139 98.127 98.137 98.139 98.137 98.129 98.104 98.084 98.064 98.052 98.049 98.044 98.047 98.042 98.057 98.059 98.062 98.052 98.054 98.042 98.127 98.077 97.559 97.217 97.309 97.057 96.917 96.942 96.984 96.989 96.987 96.964 96.902 96.917 96.909 96.877 96.837 96.792 96.757 96.744 96.732 96.719 96.702 96.667 96.634 96.614 96.572 96.567 96.539 96.527 96.514 96.497 96.482 96.437 96.382 96.362 96.279 96.289 96.332 96.399 96.389 96.344 96.292 96.262 96.242 96.227 96.219 96.232 96.247 96.242 96.247 96.244 96.247 96.247 96.232 96.229 96.209 96.197 96.184 96.134 96.107 96.057 96.012 95.982 95.947 95.914 95.889 95.854 95.829 95.824 95.814 95.797 95.777 95.755 95.735 95.695 95.652 95.612 95.577 95.515 95.447 95.387 95.322 95.242 95.135 95.04 94.942 94.837 94.72 94.62 94.535 94.41 94.285 94.16 94.045 93.965 93.867 93.75 93.932 94.84 94.375 94.022 93.89 93.775 93.635 93.515 93.42 93.332 93.25 93.157 93.017 92.922 92.812 92.682 92.535 92.375 92.167 92.077 91.935 91.797 91.657 91.517 91.37 91.25 91.125 90.992 90.825 90.685 90.485 90.29 90.102 89.925 90.03 91.525 89.33 89.647 89.63 89.467 89.375 89.347 89.18 89.065 88.975 88.825 88.688 88.546 88.422 88.264 88.18 88.111 88.07 87.854 87.536 87.176 86.919 86.698 86.511 86.33 86.052 85.834 85.561 85.397 85.202 84.887 84.737 85.677 84.21 83.414 82.965 82.393 81.858 82.302 83.385 83.443 83.948 86.03 81.929 92.49 85.527 91.736 95.071 94.558 91.703 89.336 92.715 85.946 94.003 95.238 95.102 92.179 88.48 88.536 85.986 90.572 90.447 90.176 86.895 90.166 92.485 86.176 85.118 89.939 85.916 79.203 83.59 92.815 95.202 96.122 89.153 88.219 90.403 87 92.907 91.528 87.623 94.366 87.654 86.154 92.913 93.928 91.934 92.565 88.647 94.388 92.328 87.055 94.844 94.372 93.181 90.955 93.733 97.82 99.199 101.618 99.361 96.226 93.727 85.548 86.946 87.71 94.727 98.102 98.146 98.338 98.746 98.602 99.854 96.204 99.545 99.635 90.707 98.329 96.887 95.753 91.965 96.935 101.546 93.999 96.35 93.929 99.559 93.819 101.958 98.825 101.108 103.761 104.596 106.594 106.717 102.933 96.516 95.184 99.102 100.652 104.046 104.725 106.407 103.686 103.867 107.957 108.683 109.496 102.26 107.473 108.289 109.293 110.476 108.836 103.884 106.203 106.511 104.014 103.504 106.006 108.309 110.293 103.256 102.966 107.526 100.028 104.253 104.446 107.621 106.912 111.063 106.185 107.671 101.143 99.185 99.346 99.484 99.59 99.711 99.803 99.936 100.091 100.172 100.261 100.394 100.508 100.627 100.748 100.966 101.26 101.542 101.749 101.959 102.161 102.364 102.53 102.659 102.743 102.827 102.917 103.045 103.177 103.308 103.427 103.496 103.582 103.653 103.7 103.738 103.849 103.932 103.969 104.073 104.252 104.388 104.52 104.654 104.679 104.714 104.806 104.921 105.162 105.32 105.508 105.7 105.904 106.06 106.479 105.961 105.848 105.867 106.127 106.414 106.751 107.622 111.055 113.286 113.899 112.255 106.924 107.33
98.117 98.119 98.114 98.124 98.114 98.114 98.117 98.097 98.102 98.097 98.094 98.079 98.047 98.037 98.042 98.034 98.032 98.024 98.017 98.022 98.024 98.034 98.042 98.029 97.894 97.849 97.507 97.019 97.064 96.887 96.817 96.824 96.854 96.834 96.824 96.792 96.784 96.784 96.729 96.692 96.707 96.682 96.662 96.627 96.582 96.579 96.582 96.552 96.522 96.489 96.464 96.444 96.402 96.374 96.367 96.329 96.319 96.317 96.292 96.244 96.217 96.139 96.089 96.044 96.142 96.177 96.172 96.142 96.079 96.054 96.032 96.017 96.027 96.024 96.032 96.042 96.052 96.049 96.032 96.027 96.029 96.014 96.014 95.997 95.964 95.927 95.892 95.854 95.814 95.777 95.737 95.712 95.687 95.662 95.622 95.609 95.597 95.582 95.559 95.53 95.517 95.477 95.432 95.387 95.355 95.297 95.22 95.117 95.015 94.89 94.83 94.74 94.652 94.535 94.43 94.337 94.245 94.165 94.04 93.93 93.807 93.68 93.635 93.532 93.46 93.662 94.29 94.082 93.72 93.595 93.465 93.332 93.212 93.135 93.012 92.922 92.81 92.697 92.575 92.427 92.295 92.135 91.95 91.797 91.662 91.54 91.385 91.24 91.1 90.957 90.83 90.712 90.535 90.387 90.185 90.032 89.837 89.66 89.61 89.97 89.155 89.375 89.34 89.24 89.142 89.085 88.985 88.85 88.712 88.545 88.43 88.271 88.151 88.085 88.026 87.924 87.827 87.455 87.195 86.928 86.679 86.489 86.282 86.064 85.977 86.588 86.011 85.026 84.666 84.456 84.99 86.906 84.509 83.093 84.108 83.967 81.584 81.065 85.541 86.046 80.312 79.959 88.947 91.028 92.7 93.805 94.828 94.748 92.519 91.032 93.067 93.344 94.706 93.799 94.906 92.564 90.103 86.014 91.342 93.13 92.6 89.598 85.843 81.067 86.166 90.074 88.137 90.169 83.426 85.175 88.612 95.402 93.662 95.104 90.873 89.03 86.711 87.638 91.553 90.897 87.327 92.109 89.639 89.795 90.962 94.319 95.261 87.643 90.421 94.877 89.04 87.828 86.644 89.674 92.08 88.737 97.333 93.443 101.079 96.337 97.93 95.302 91.518 86.561 86.102 88.337 87.605 92.772 95.608 92.061 90.917 91.1 96.327 100.938 100.734 96.979 97.874 96.635 97.898 96.828 98.64 99.588 100.748 94.577 90.939 95.452 100.901 100.265 101.021 96.57 99.335 101.614 105.655 106.509 105.762 101.294 97.99 102.06 100.028 100.184 100.622 101.69 107.401 105.178 103.301 107.021 109.893 110.559 109.701 109.869 108.84 106.893 109.321 108.84 106.666 100.1 103.938 104.179 105.673 107.885 99.554 100.019 103.526 107.673 107.173 105.959 110.395 100.133 108.454 110.182 104.711 109.15 105.102 102.469 99.231 99.322 99.449 99.55 99.705 99.862 99.966 100.052 100.153 100.249 100.358 100.461 100.575 100.755 100.946 101.189 101.407 101.695 101.898 102.137 102.338 102.484 102.683 102.754 102.819 102.916 103.033 103.104 103.233 103.298 103.377 103.458 103.489 103.537 103.617 103.744 103.777 103.848 103.963 104.123 104.247 104.502 104.664 104.707 104.716 105.057 104.944 105.078 105.332 105.508 105.671 105.887 106.077 105.967 105.836 105.876 105.861 106.038 106.182 106.373 106.505 111.602 113.422 113.484 111.84 107.686 107.341
98.074 98.074 98.069 98.087 98.094 98.079 98.089 98.079 98.054 98.047 98.057 98.049 98.029 98.002 97.994 98.027 98.057 98.062 98.127 98.237 98.174 97.907 97.677 97.169 97.039 97.032 96.907 96.789 96.732 96.732 96.717 96.709 96.677 96.649 96.634 96.604 96.579 96.569 96.544 96.492 96.492 96.492 96.472 96.437 96.419 96.384 96.384 96.367 96.337 96.302 96.282 96.257 96.227 96.179 96.182 96.134 96.132 96.127 96.104 96.034 96.019 95.944 95.914 95.809 95.904 95.919 95.967 95.949 95.887 95.859 95.847 95.827 95.812 95.822 95.827 95.837 95.847 95.847 95.832 95.829 95.814 95.794 95.799 95.789 95.757 95.712 95.682 95.642 95.599 95.579 95.532 95.504 95.487 95.462 95.444 95.424 95.397 95.369 95.354 95.325 95.312 95.275 95.207 95.12 95.092 95.017 94.932 94.845 94.74 94.592 94.525 94.447 94.35 94.25 94.14 94.047 93.962 93.882 93.79 93.7 93.562 93.445 93.365 93.3 93.23 93.13 93.315 94.73 93.582 93.39 93.287 93.15 93.002 92.897 92.79 92.685 92.59 92.462 92.33 92.18 92.017 91.865 91.7 91.485 91.392 91.227 91.095 90.945 90.797 90.655 90.52 90.382 90.232 90.055 89.895 89.74 89.57 89.397 89.305 89.867 89.172 88.807 89.085 89.04 88.872 88.8 88.71 88.625 88.512 88.335 88.227 88.115 88.006 87.917 87.788 87.553 87.385 87.13 86.886 86.641 86.43 86.217 86.096 85.95 86.02 86.248 85.184 84.638 84.445 83.93 85.291 85.623 85.288 85.151 84.066 82.139 81.2 80.659 81.139 81.85 82.191 87.715 90.376 92.255 91.727 93.125 93.673 94.641 93.45 93.284 92.528 93.563 93.747 93.253 92.639 92.088 88.446 88.664 93.54 94.289 94.499 90.34 85.755 87.487 89.656 92.84 94.032 91.526 83.417 82.212 83.631 94.393 95.833 91.285 85.928 91.441 86.016 89.824 91.175 90.305 88.435 89.201 88.797 89.009 91.04 87.997 90.628 89.298 87.389 89.593 94.157 87.296 94.203 94.843 94.868 87.846 102.097 98.914 100.051 90.776 95.275 95.79 94.88 88.413 86.825 89.206 93.514 89.642 95.058 98.41 98.596 98.667 99.891 95.207 99.08 100.133 98.25 97.93 98.099 95.833 94.715 95.398 96.124 96.042 93.264 96.418 99.766 102.102 103.422 97.222 98.962 103.751 103.968 102.878 104.432 102.982 104.577 104.394 103.367 101.372 96.787 100.184 98.73 95.574 98.029 107.309 108.946 109.482 109.907 109.94 100.153 107.891 108.537 105.981 100.533 98.508 97.74 103.606 106.612 108.919 109.1 107.412 107.063 108.921 104.489 109.989 111.572 107.732 110.434 110.474 107.386 107.156 104.161 100.075 99.243 99.26 99.405 99.545 99.701 99.862 99.918 100.023 100.112 100.197 100.325 100.461 100.577 100.753 100.91 101.15 101.375 101.573 101.788 102.066 102.235 102.461 102.528 102.686 102.718 102.859 102.922 103.008 103.073 103.157 103.183 103.326 103.352 103.419 103.531 103.639 103.668 103.71 103.854 104.044 104.231 104.439 104.605 104.669 105.265 107.875 106.965 105.166 105.23 105.497 105.72 105.924 106.078 106.017 105.831 105.908 105.886 105.976 106.113 106.343 106.536 111.006 112.304 110.319 111.037 107.259 107.541
98.047 98.042 98.049 98.074 98.059 98.062 98.064 98.034 98.022 98.002 98.049 99.889 98.397 98.104 97.717 97.499 97.519 97.239 97.269 97.207 97.399 97.412 97.164 96.922 96.792 96.732 96.694 96.664 96.632 96.604 96.539 96.507 96.492 96.459 96.432 96.397 96.357 96.357 96.352 96.292 96.282 96.294 96.292 96.247 96.227 96.194 96.179 96.184 96.162 96.119 96.089 96.067 96.019 95.989 95.987 95.957 95.937 95.927 95.887 95.847 95.837 95.757 95.729 95.654 95.624 95.694 95.754 95.749 95.697 95.667 95.654 95.649 95.632 95.612 95.624 95.624 95.629 95.622 95.617 95.622 95.602 95.579 95.574 95.562 95.544 95.512 95.464 95.422 95.397 95.364 95.334 95.307 95.279 95.262 95.232 95.194 95.187 95.177 95.134 95.082 95.037 95.007 94.94 94.865 94.805 94.75 94.655 94.557 94.447 94.322 94.192 94.132 94.055 93.955 93.855 93.765 93.695 93.612 93.525 93.44 93.332 93.187 93.105 93.025 92.962 92.847 92.817 93.1 93.73 93.22 93.077 92.935 92.787 92.677 92.555 92.43 92.33 92.225 92.05 91.895 91.73 91.58 91.405 91.227 91.057 90.937 90.78 90.635 90.472 90.327 90.197 90.062 89.907 89.762 89.585 89.432 89.29 89.097 89.03 89.222 89.042 88.405 89.175 89.252 88.925 88.572 88.46 88.362 88.227 88.06 87.942 87.902 87.745 87.68 87.357 87.149 86.989 86.847 86.649 86.427 86.121 86.19 86.035 85.524 85.839 86.286 85.727 85.325 83.964 85.065 85.294 86.031 86.078 84.582 82.393 81.674 81.141 80.499 84.282 82.252 81.714 84.501 91.955 92.588 93.136 93.295 91.72 92.958 93.942 94.614 95.29 94.686 94.185 93.135 89.669 81.82 87.922 91.428 93.202 93.579 93.581 85.957 85.298 90.051 91.47 93.4 95.208 93.856 91.785 90.066 83.477 89.894 95.969 91.212 83.808 89.814 86.575 91.001 87.833 86.808 90.684 88.63 89.554 90.549 87.057 89.94 91.079 90.359 91.769 91.004 92.182 93.519 87.282 92.597 99.358 99.759 97.828 99.645 96.877 88.514 93.417 89.53 91.333 91.578 86.746 86.35 87.632 88.835 90.301 93.743 96.875 96.708 98.574 97.705 99.33 99.6 96.094 96.75 97.032 95.986 96.099 94.79 95.977 90.532 88.205 95.829 98.992 101.864 103.483 95.971 97.519 102.67 102.202 103.604 103.807 101.783 104.364 101.677 96.679 101.844 101.26 95.223 100.102 100.68 107.649 107.542 107.287 105.623 108.907 109.241 108.221 106.872 106.406 101.959 97.102 97.398 97.84 102.916 107.453 107.104 103.101 102.887 112.775 111.681 107.452 104.604 105.009 109.251 110.975 106.934 99.421 107.945 107.49 99.778 99.328 99.207 99.359 99.517 99.659 99.783 99.859 99.993 100.053 100.185 100.333 100.477 100.581 100.774 100.916 101.071 101.279 101.508 101.729 101.933 102.094 102.221 102.292 102.43 102.497 102.603 102.664 102.731 102.83 102.914 103.039 103.13 103.186 103.318 103.473 103.579 103.53 103.555 103.711 103.884 104.065 104.278 104.526 105.352 106.267 108.396 108.145 105.627 105.278 105.492 105.706 105.898 106.012 106.105 106.469 105.93 105.905 106.014 106.873 106.35 106.619 107.523 109.697 109.238 107.521 107.26 108.008
98.054 98.027 98.009 98.029 98.039 98.014 98.002 98.069 98.677 97.874 97.239 97.199 97.259 97.439 99.229 97.082 97.627 97.427 97.219 97.164 97.037 96.934 96.847 96.769 96.717 96.652 96.592 96.509 96.429 96.392 96.347 96.299 96.284 96.264 96.214 96.184 96.137 96.142 96.152 96.107 96.062 96.064 96.067 96.049 96.012 96.007 95.984 95.967 95.962 95.932 95.887 95.857 95.832 95.799 95.769 95.762 95.734 95.717 95.684 95.657 95.617 95.582 95.519 95.482 95.394 95.504 95.507 95.549 95.522 95.489 95.474 95.447 95.427 95.417 95.417 95.417 95.422 95.409 95.387 95.377 95.369 95.372 95.352 95.332 95.327 95.302 95.262 95.219 95.187 95.154 95.132 95.089 95.049 95.012 95.009 94.962 94.947 94.887 94.864 94.805 94.772 94.745 94.665 94.585 94.507 94.44 94.345 94.242 94.152 94.037 93.867 93.82 93.757 93.657 93.57 93.485 93.4 93.34 93.265 93.19 93.082 92.96 92.847 92.772 92.695 92.605 92.487 92.502 93.407 93.175 92.84 92.69 92.59 92.442 92.295 92.165 92.03 91.917 91.77 91.6 91.435 91.282 91.102 90.937 90.727 90.62 90.455 90.322 90.14 89.99 89.862 89.725 89.585 89.437 89.257 89.12 88.992 88.827 88.73 88.835 89.175 88.195 88.92 89.237 88.84 88.302 88.192 88.065 87.98 87.787 87.682 87.615 87.45 87.215 86.996 86.84 86.7 86.592 86.382 86.181 85.982 86.16 85.909 85.245 85.274 86.117 86.141 85.611 85.259 86.244 87.28 87.126 84.006 82.305 81.651 81.322 80.922 80.02 83.099 82.982 82.907 87.186 90.024 91.724 92.857 93.286 94.45 94.31 94.519 95.593 96.36 96.053 95.012 92.057 88.635 86.707 81.053 87.123 90.157 83.846 87.665 84.65 85.488 88.727 92.388 93.114 94.988 94.582 91.653 90.449 91.09 86.917 92.33 88.906 85.28 93.515 93.157 90.692 86.941 89.208 88.328 90.023 89.699 92.033 91.536 88.014 89.429 87.695 90.275 91.285 90.877 92.759 89.97 93.618 98.555 101.964 103.41 98.378 88.876 100.084 95.82 98.061 98.097 96.835 86.661 90.755 87.45 93.532 95.714 95.321 91.603 96.365 95.564 97.067 99.868 92.215 95.381 94.242 93.251 96.416 95.055 95.347 95.55 95.644 96.965 98.091 98.249 101.24 95.171 93.386 99.702 103.364 103.087 106.034 105.886 105.301 104.301 102.391 102.212 103.7 101.8 98.527 99.493 107.868 109.429 109.48 108.383 101.665 106.152 106.738 106.345 105.493 102.705 98.189 97.197 97.268 97.687 102.635 106.576 108.084 103.477 103.79 110.355 103.681 110.217 108.689 105.689 104.005 109.954 107.147 98.576 103.898 105.365 99.221 99.76 99.215 99.305 99.446 99.56 99.715 99.809 99.942 100.075 100.199 100.333 100.455 100.593 100.752 100.903 101.045 101.198 101.418 101.579 101.79 101.865 101.956 102 102.065 102.168 102.287 102.333 102.438 102.567 102.664 102.808 102.869 102.971 103.096 103.259 103.444 103.402 103.392 103.557 103.734 103.931 104.215 104.402 110.053 111.538 108.861 107.647 105.589 105.365 105.442 105.609 105.89 105.933 106.227 106.985 105.991 105.968 106.059 106.258 106.415 106.993 107.169 107.315 107.41 107.371 107.442 108.955
98.017 98.017 97.992 97.982 98.082 98.084 98.047 97.539 97.274 97.639 97.572 97.462 97.464 97.464 99.522 96.819 97.169 97.064 97.019 96.989 96.929 96.884 96.807 96.717 96.629 96.522 96.427 96.314 96.232 96.182 96.139 96.092 96.079 96.049 95.999 95.959 95.939 95.924 95.919 95.894 95.839 95.829 95.837 95.849 95.812 95.779 95.759 95.779 95.759 95.724 95.689 95.649 95.619 95.597 95.569 95.562 95.527 95.507 95.494 95.449 95.427 95.389 95.309 95.284 95.212 95.254 95.267 95.324 95.309 95.287 95.269 95.267 95.239 95.224 95.207 95.192 95.189 95.174 95.152 95.152 95.137 95.122 95.119 95.082 95.097 95.079 95.057 95.014 94.959 94.927 94.899 94.854 94.812 94.794 94.754 94.707 94.684 94.654 94.604 94.562 94.492 94.445 94.365 94.29 94.195 94.12 94.032 93.924 93.825 93.71 93.597 93.492 93.442 93.362 93.292 93.187 93.117 93.047 92.992 92.9 92.82 92.715 92.592 92.512 92.417 92.35 92.262 92.18 92.842 94.66 92.585 92.467 92.312 92.18 92.025 91.845 91.71 91.59 91.462 91.275 91.122 90.95 90.8 90.635 90.437 90.252 90.115 89.972 89.822 89.64 89.52 89.395 89.217 89.09 88.932 88.797 88.692 88.552 88.422 88.532 89.18 87.982 88.02 88.817 88.765 88.145 88.14 87.855 87.707 87.61 87.382 87.227 86.985 86.827 86.721 86.569 86.45 86.289 86.135 85.891 85.76 85.877 85.45 85.334 85.523 85.717 85.372 85.369 85.252 85.708 86.52 86.647 84.681 84.691 84.141 81.732 81.206 79.77 79.165 81.248 83.396 85.492 88.309 89.922 89.304 92.013 93.993 93.961 95.044 95.689 96.189 94.481 91.674 95.186 90.433 82.325 79.647 80.118 86.535 82.559 90.129 85.836 88.491 84.349 90.068 91.616 94.013 94.201 86.546 89.871 85.167 84.484 84.989 85.979 88.917 89.66 92.509 92.01 94.789 94.028 88.055 87.476 87.8 90.042 89.135 88.012 88.433 88.578 88.881 92.162 93.42 93.425 90.66 95.649 97.351 101.189 100.277 102.275 94.517 101.041 101.219 98.126 95.522 97.511 86.849 91.822 94.065 96.532 94.194 97.84 95.534 87.565 87.747 97.077 93.642 92.439 92.464 94.451 96.298 95.678 93.29 94.032 90.54 95.805 97.281 99.948 93.82 96.549 99.355 92.903 100.199 104.549 98.433 105.525 106.176 97.073 102.138 103.183 105.247 105.093 104.074 104.144 106.5 109.373 109.967 108.627 110.165 109.621 106.144 104.649 105.404 106.089 100.651 97.374 97.257 97.33 98.632 104.033 106.764 109.915 101.097 111.563 103.801 103.757 102.13 103.628 106.618 103.039 106.742 101.915 101.699 111.596 103.642 99.928 99.513 99.566 99.314 99.406 99.55 99.655 99.784 99.906 100.073 100.169 100.322 100.412 100.559 100.695 100.831 100.933 101.153 101.317 101.464 101.584 101.633 101.724 101.83 101.8 101.897 102.054 102.113 102.186 102.316 102.468 102.573 102.64 102.704 102.816 103.032 103.17 103.176 103.272 103.451 103.631 103.849 104.136 104.626 108.584 109.88 109.717 108.367 106.023 105.439 105.538 105.811 107.274 106.636 106.385 107.881 106.015 105.978 106.069 106.23 106.663 108.015 107.122 107.076 107.453 108.155 107.426 108.216
100.982 98.217 98.049 98.217 97.979 97.362 97.372 97.477 97.294 97.184 97.157 97.127 97.082 97.029 97.484 96.517 97.079 97.059 96.967 96.899 96.842 96.769 96.659 96.557 96.457 96.332 96.237 96.117 96.029 95.974 95.924 95.889 95.859 95.839 95.807 95.752 95.722 95.697 95.674 95.664 95.619 95.587 95.604 95.624 95.587 95.577 95.539 95.542 95.532 95.507 95.469 95.442 95.419 95.392 95.354 95.337 95.334 95.289 95.282 95.244 95.214 95.187 95.129 95.079 95.034 94.987 95.069 95.114 95.124 95.104 95.059 95.049 95.022 94.982 94.979 94.957 94.939 94.947 94.934 94.917 94.894 94.879 94.879 94.879 94.854 94.839 94.832 94.809 94.752 94.687 94.639 94.619 94.562 94.529 94.512 94.449 94.407 94.354 94.319 94.262 94.209 94.147 94.067 93.979 93.887 93.772 93.702 93.597 93.499 93.397 93.309 93.139 93.124 93.054 92.994 92.912 92.829 92.769 92.714 92.642 92.559 92.479 92.354 92.252 92.187 92.079 92.029 91.939 91.899 92.829 92.452 92.192 92.059 91.899 91.727 91.537 91.392 91.254 91.124 90.954 90.819 90.637 90.447 90.284 90.099 89.887 89.772 89.612 89.477 89.312 89.149 89.034 88.857 88.752 88.627 88.489 88.352 88.257 88.102 88.057 88.309 88.207 87.452 88.034 87.959 87.854 87.747 87.642 87.559 87.277 87.087 86.852 86.722 86.532 86.444 86.305 86.179 86.059 85.793 85.482 85.456 85.127 85.218 85.556 85.373 84.965 84.457 85.055 85.326 84.185 84.204 84.574 84.692 85.101 83.168 81.915 80.721 79.418 80.13 79.062 82.941 85.877 88.539 89.438 87.791 92.109 94.326 95.733 95.861 93.478 96.172 96.538 90.261 93.406 93.557 82.792 87.9 82.07 87.935 86.544 82.404 80.589 91.307 87.727 90.955 83.941 85.259 85.182 85.198 82.695 83.498 84.908 85.439 85.839 94.298 90.982 91.869 90.575 91.18 95.47 94.544 88.466 88.58 88.591 88.719 90.764 88.854 88.97 88.801 90.18 92.072 89.872 91.783 97.75 94.258 102.253 102.897 103.835 103.262 100.145 99.651 98.83 96.658 95.677 92.389 98.468 102.183 98.798 93.458 98.597 102.049 90.278 87.553 86.867 86.218 89.033 93.408 93.695 95.938 95.659 89.534 85.24 91.679 96.844 99.563 99.775 98.852 100.059 99.497 95.269 96.563 103.789 103.648 105.465 103.384 100.323 102.595 103.161 103.8 101.164 102.953 103.157 107.616 109.283 110.726 110.916 110.869 109.765 107.07 105.632 101.07 104.65 102.467 97.206 97.251 99.066 101.417 105.208 105.109 108.071 106.536 106.891 111.167 107.531 108.617 109.077 100.819 108.704 105.551 104.254 110.274 110.779 101.334 101.083 99.342 99.904 99.291 99.382 99.524 99.607 99.739 99.901 100.019 100.129 100.275 100.403 100.505 100.633 100.732 100.892 101.052 101.2 101.23 101.354 101.437 101.511 101.575 101.573 101.66 101.784 101.831 101.916 102.05 102.154 102.279 102.432 102.499 102.639 102.789 102.954 103.055 103.246 103.412 103.683 103.875 104.096 104.326 104.854 108.415 109.865 106.085 105.314 105.474 105.819 106.533 105.901 106.638 106.792 106.786 105.998 106.008 106.065 106.233 107.004 108.608 107.996 110.024 111.929 110.837 108.654 107.762
98.129 98.017 97.434 97.427 97.457 97.329 97.212 97.152 97.114 97.099 97.074 97.034 96.967 96.887 96.979 96.644 96.797 96.897 96.807 96.737 96.687 96.584 96.484 96.367 96.259 96.132 96.019 95.934 95.819 95.757 95.719 95.682 95.639 95.619 95.574 95.524 95.507 95.459 95.439 95.427 95.394 95.357 95.387 95.392 95.374 95.329 95.327 95.299 95.304 95.274 95.262 95.224 95.202 95.189 95.134 95.112 95.107 95.082 95.072 95.039 94.999 94.964 94.937 94.864 94.832 94.747 94.867 94.859 94.922 94.897 94.854 94.837 94.794 94.779 94.752 94.732 94.717 94.714 94.707 94.692 94.659 94.624 94.627 94.637 94.637 94.604 94.582 94.547 94.507 94.447 94.409 94.359 94.307 94.262 94.232 94.177 94.102 94.062 94.017 93.957 93.894 93.812 93.717 93.629 93.532 93.439 93.367 93.302 93.159 93.087 92.989 92.857 92.802 92.762 92.694 92.614 92.552 92.492 92.432 92.377 92.297 92.214 92.114 92.022 91.934 91.849 91.777 91.712 91.612 91.652 92.374 91.914 91.764 91.604 91.422 91.249 91.072 90.909 90.784 90.627 90.432 90.284 90.117 89.949 89.777 89.597 89.402 89.254 89.102 88.964 88.787 88.667 88.534 88.407 88.297 88.167 88.027 87.949 87.812 87.664 87.724 88.179 87.492 87.537 87.547 87.554 87.529 87.347 87.244 86.967 86.772 86.584 86.402 86.224 86.114 86.017 85.861 85.716 85.4 85.069 84.899 84.92 84.851 85.054 84.874 84.99 84.529 86.694 86.303 83.867 84.48 88.842 88.435 84.702 83.168 81.803 83.329 81.454 82.44 80.469 79.738 81.695 83.213 89.519 90.208 92.017 90.622 94.049 96.129 94.853 86.315 96.88 93.169 97.179 86.361 81.137 89.666 91.745 87.752 79.746 82.099 81.751 81.018 89.87 87.303 81.601 84.991 86.997 85.756 83.922 86.391 86.41 85.753 86.906 93.33 87.646 91.536 88.122 90.958 93.861 89.655 89.478 89.054 89.068 89.199 89.506 89.573 95.828 90.96 90.228 90.921 90.779 91.767 99.232 94.481 101.99 102.694 104.963 101.316 104.142 99.522 102.283 96.97 99.949 105.331 95.339 103.751 101.932 102.231 102.59 102.67 95.358 86.171 85.919 85.938 86.504 87.241 93.888 95.244 94.144 91.687 83.977 91.841 100.475 99.822 100.839 99.035 99.138 94.295 94.661 97.935 99.102 100.236 105.308 102.257 102.976 102.982 104.759 102.381 102.041 95.453 99.812 107.962 109.643 111.154 111.424 111.45 110.567 105.943 106.669 105.788 104.206 105.062 102.978 97.542 97.884 107.187 110.705 109.38 100.768 105.6 108.439 104.183 107.99 110.975 111.599 99.068 103.749 111.892 110.709 110.548 107.049 108.213 103.271 99.082 99.54 99.678 99.365 99.487 99.574 99.74 99.796 99.972 100.089 100.229 100.36 100.449 100.573 100.711 100.823 100.908 101.012 101.12 101.206 101.309 101.382 101.342 101.42 101.443 101.535 101.594 101.715 101.733 101.858 102.048 102.207 102.324 102.494 102.744 102.878 103.04 103.244 103.458 103.672 103.846 104.079 104.276 105.173 106.59 105.296 105.417 105.353 105.509 105.795 107.016 106.191 105.945 106.079 106.033 106.032 106.08 106.07 106.284 107.117 107.844 109.062 112.838 113.372 113.624 108.056 107.929
97.334 97.412 97.377 97.247 97.204 97.154 97.132 97.117 97.057 97.027 96.974 96.929 96.847 96.767 96.724 97.019 96.314 96.697 96.609 96.519 96.469 96.402 96.287 96.159 96.047 95.932 95.844 95.734 95.609 95.534 95.502 95.477 95.414 95.394 95.364 95.309 95.294 95.242 95.204 95.204 95.189 95.122 95.132 95.132 95.132 95.089 95.084 95.052 95.062 95.054 95.032 94.999 94.977 94.952 94.922 94.887 94.882 94.842 94.842 94.834 94.772 94.747 94.707 94.652 94.639 94.547 94.589 94.612 94.692 94.674 94.649 94.609 94.567 94.547 94.517 94.502 94.477 94.452 94.457 94.477 94.417 94.382 94.362 94.344 94.367 94.364 94.327 94.289 94.252 94.207 94.149 94.089 94.034 93.967 93.932 93.872 93.792 93.724 93.664 93.594 93.532 93.444 93.362 93.272 93.197 93.094 93.092 93.172 92.847 92.759 92.679 92.592 92.487 92.444 92.397 92.339 92.269 92.204 92.154 92.094 92.034 91.947 91.869 91.772 91.682 91.624 91.532 91.489 91.402 91.294 91.619 91.712 91.452 91.307 91.144 90.937 90.757 90.589 90.419 90.254 90.089 89.922 89.764 89.604 89.437 89.247 89.029 88.902 88.737 88.597 88.457 88.317 88.197 88.079 87.942 87.844 87.702 87.612 87.507 87.347 87.314 88.002 87.289 87.054 87.259 87.227 87.117 86.994 86.867 86.604 86.444 86.244 86.069 85.882 85.729 85.649 85.488 85.286 85.051 84.85 84.925 84.788 84.319 84.966 84.952 84.932 83.385 85.901 86.929 83.405 84.224 88.594 90.157 87.487 81.756 83.055 83.946 83.103 82.431 79.025 82.095 85.716 82.69 86.277 87.977 90.944 92.651 92.35 95.546 93.315 96.203 97.664 84.943 95.343 90.892 83.176 81.626 84.406 90.943 90.181 85.477 81.57 80.941 82.442 83.799 84.074 83.382 91.715 85.896 87.316 88.816 86.691 87.014 86.999 87.92 88.688 94.599 97.396 91.622 89.909 89.988 91.976 92.737 94.086 91.303 93.077 96.425 97.887 94.984 91.138 91.353 93.02 94.47 91.359 96.981 101.455 99.731 104.549 100.257 103.346 104.835 105.45 100.483 100.947 104.952 104.815 102.905 99.883 103.006 98.615 103.261 102.432 89.17 86.948 86.309 88.104 86.507 86.608 92.579 92.682 85.884 83.854 94.39 100.791 102.465 102.75 101.506 100.248 97.755 95.519 93.469 97.835 100.155 104.225 96.95 93.663 101.176 104.145 96.588 99.668 99.557 100.763 106.314 108.562 110.359 107.842 110.932 108.558 106.767 108.786 108.374 107.755 106.951 106.823 102.003 97.644 106.986 110.522 110.253 100.665 107.701 101.691 110.989 109.081 108.534 108.447 102.243 111.39 111.682 111.63 111.447 107.65 109.722 107.03 99.255 99.303 99.889 99.492 99.444 99.533 99.653 99.767 99.915 100.017 100.102 100.197 100.36 100.462 100.591 100.69 100.804 100.944 100.989 101.091 101.165 101.184 101.212 101.253 101.337 101.385 101.448 101.545 101.655 101.775 101.923 102.102 102.279 102.422 102.643 102.84 103.078 103.287 103.492 103.7 103.849 104.044 104.214 104.434 104.656 104.817 105.136 105.343 105.508 105.637 106.092 105.964 106.059 106.115 106.115 106.096 106.16 106.228 106.381 107.676 107.145 107.71 112.52 114.339 114.04 111.701 108.134
97.314 97.229 97.169 97.164 97.147 97.139 97.082 97.027 96.989 96.914 96.857 96.794 96.734 96.657 96.602 96.699 96.134 96.527 96.407 96.322 96.259 96.222 96.109 95.959 95.864 95.764 95.639 95.552 95.427 95.329 95.274 95.252 95.202 95.149 95.142 95.109 95.062 95.037 94.994 94.977 94.962 94.907 94.879 94.879 94.902 94.854 94.847 94.827 94.809 94.817 94.792 94.774 94.739 94.719 94.704 94.672 94.609 94.629 94.597 94.589 94.542 94.519 94.477 94.464 94.397 94.367 94.319 94.417 94.452 94.474 94.424 94.389 94.347 94.307 94.279 94.272 94.269 94.212 94.197 94.204 94.134 94.114 94.119 94.082 94.099 94.092 94.072 94.029 93.974 93.924 93.877 93.797 93.742 93.647 93.582 93.542 93.459 93.372 93.307 93.222 93.159 93.089 93.007 92.899 92.827 92.744 92.662 92.622 92.504 92.437 92.372 92.302 92.164 92.157 92.119 92.057 91.997 91.917 91.869 91.817 91.764 91.702 91.632 91.534 91.449 91.384 91.312 91.227 91.132 91.057 90.929 91.607 91.162 90.997 90.822 90.624 90.429 90.237 90.047 89.879 89.752 89.549 89.392 89.259 89.087 88.884 88.709 88.524 88.412 88.247 88.114 87.977 87.834 87.734 87.612 87.507 87.377 87.257 87.187 87.032 86.927 87.387 87.502 86.752 86.969 86.909 86.729 86.579 86.484 86.309 86.047 85.884 85.707 85.534 85.382 85.159 84.967 84.733 84.6 84.411 84.424 84.221 84.044 84.166 84.491 84.231 83.44 83.619 83.44 83.196 82.633 84.679 88.636 87.014 81.262 81.688 83.201 80.564 78.83 77.86 82.601 85.859 85.035 89.477 91.234 88.68 86.282 93.515 96.179 93.318 92.857 96.09 92.512 86.163 83.795 78.564 80.586 85.032 90.253 91.892 82.695 90.168 89.599 84.681 87.916 87.024 87.554 87.01 86.733 88.32 86.623 87.02 87.548 87.955 88.53 91.787 92.633 92.024 89.411 91.87 93.419 94.76 94.519 96.791 92.794 90.973 95.985 97.503 94.222 91.793 91.831 92.062 92.012 92.295 94.9 96.532 102.324 104.134 99.445 104.183 105.046 105.915 101.687 98.588 104.802 104.759 101.629 103.737 103.883 101.353 101.063 101.74 93.038 97.413 98.345 86.88 96.246 92.937 87.989 90.45 89.983 96.956 94.251 100.2 103.433 101.905 101.5 97.923 98.563 95.958 97.99 98.702 92.962 100.184 103.199 96.868 104.94 104.765 94.5 100.779 106.601 107.16 107.58 107.882 109.398 109.383 107.293 107.925 106.742 109.097 109.607 101.291 108.926 105.149 108.687 106.644 106.799 107.991 101.019 106.987 109.191 106.826 106.88 110.437 109.252 110.843 102.859 109.99 111.317 111.19 111.371 109.12 110.323 107.871 100.611 99.216 99.53 99.583 99.349 99.457 99.637 99.734 99.829 99.976 100.057 100.117 100.177 100.325 100.394 100.541 100.682 100.744 100.83 100.984 101.052 101.078 101.14 101.199 101.224 101.296 101.355 101.451 101.579 101.709 101.893 102.032 102.211 102.475 102.657 102.947 103.132 103.309 103.514 103.687 104.326 105.791 104.488 104.489 104.627 104.792 105.056 105.251 105.458 105.664 105.837 105.932 106.095 106.215 107.126 106.195 106.166 106.165 106.421 107.48 107.011 107.138 109.111 113.81 114.136 112.457 107.479
97.222 97.202 97.152 97.152 97.097 97.029 96.989 96.919 96.869 96.802 96.752 96.692 96.629 96.554 96.492 96.464 97.139 96.212 96.244 96.144 96.069 96.004 95.934 95.787 95.674 95.582 95.437 95.344 95.234 95.112 95.034 95.022 94.974 94.942 94.912 94.884 94.844 94.804 94.762 94.727 94.702 94.684 94.622 94.619 94.642 94.624 94.587 94.564 94.564 94.554 94.544 94.544 94.499 94.489 94.447 94.422 94.364 94.392 94.354 94.337 94.322 94.297 94.249 94.219 94.167 94.169 94.079 94.164 94.177 94.222 94.199 94.164 94.144 94.092 94.027 94.002 93.974 93.939 93.934 93.932 93.897 93.859 93.867 93.822 93.802 93.799 93.779 93.744 93.687 93.624 93.572 93.484 93.392 93.309 93.219 93.159 93.087 93.009 92.939 92.842 92.782 92.689 92.619 92.534 92.454 92.392 92.304 92.259 92.172 92.119 92.059 92.014 91.909 91.849 91.822 91.792 91.709 91.649 91.602 91.544 91.502 91.447 91.377 91.299 91.199 91.109 91.049 90.932 90.844 90.697 90.597 90.942 91.224 90.709 90.509 90.277 90.074 89.879 89.729 89.512 89.377 89.204 89.024 88.877 88.727 88.542 88.362 88.154 88.067 87.897 87.782 87.649 87.507 87.404 87.287 87.162 87.054 86.932 86.849 86.737 86.644 86.927 89.602 87.832 86.572 86.479 86.294 86.152 86.027 85.919 85.687 85.467 85.282 85.167 85.027 84.822 84.579 84.144 83.852 83.9 83.925 83.641 83.308 83.696 83.947 83.813 84.445 85.413 83.02 82.849 81.938 82.441 82.838 82.344 79.548 79.34 81.129 78.503 77.618 77.914 83.909 86.736 87.002 89.613 90.328 90.774 83.756 93.034 95.886 96.661 94.314 96.179 90.624 83.791 80.911 78.739 79.042 82.18 93.044 93.283 92.537 93.794 89.821 84.143 84.08 85.977 86.128 88.677 87.762 86.833 89.801 88.226 88.463 88.786 89.434 89.214 90.072 89.894 89.871 90.116 90.564 91.311 91.236 91.663 91.775 91.243 92.731 93.084 92.806 92.347 92.309 92.476 92.657 92.989 96.331 95.676 98.302 97.97 102.403 103.8 105.722 104.848 103.649 101.061 102.997 102.739 103.251 101.448 104.559 103.933 102.751 99.118 103.589 103.751 101.618 95.652 97.272 88.038 91.152 89.938 83.729 89.824 93.054 101.469 102.624 92.2 93.047 100.03 101.221 104.333 103.638 102.169 94.956 97.728 107.362 105.273 107.739 105.257 95.992 100.234 102.289 105.775 106.833 100.965 106.066 102.075 95.769 100.595 105.19 107.114 105.183 109.128 110.271 110.712 109.443 108.463 100.829 107.611 107.389 105.609 105.746 108.707 107.223 109.904 111.288 103.687 102.329 108.274 108.911 111.976 111.481 111.08 109.757 105.736 104.666 99.466 99.523 99.72 99.352 99.441 99.578 99.676 99.77 99.904 99.968 100.01 100.078 100.161 100.277 100.343 100.458 100.554 100.611 100.813 100.915 101.016 101.07 101.113 101.155 101.207 101.311 101.435 101.549 101.698 101.839 102.066 102.302 102.492 102.737 102.971 103.093 103.356 103.504 104.818 106.485 107.322 107.01 104.557 104.628 104.851 105.028 105.292 105.472 105.664 105.795 105.983 106.193 107.46 106.972 106.308 106.239 106.215 106.354 107.403 107.062 108.017 109.957 113.678 114.447 112.926 109.406
97.174 97.127 97.097 97.029 97.009 96.934 96.869 96.819 96.757 96.712 96.649 96.602 96.512 96.449 96.369 96.314 96.342 95.762 96.102 95.969 95.842 95.764 95.707 95.684 95.742 95.359 95.244 95.147 95.032 94.914 94.807 94.772 94.739 94.697 94.682 94.644 94.599 94.562 94.497 94.482 94.462 94.457 94.377 94.377 94.357 94.362 94.339 94.329 94.287 94.302 94.294 94.282 94.244 94.232 94.202 94.182 94.129 94.104 94.097 94.097 94.074 94.054 94.017 93.979 93.949 93.919 93.869 93.832 93.949 93.977 93.962 93.934 93.892 93.854 93.797 93.747 93.727 93.694 93.664 93.667 93.652 93.594 93.572 93.547 93.497 93.497 93.469 93.424 93.379 93.297 93.224 93.147 93.044 92.972 92.864 92.784 92.714 92.597 92.537 92.459 92.382 92.304 92.219 92.149 92.089 92.042 91.977 91.934 91.879 91.802 91.762 91.719 91.654 91.544 91.534 91.512 91.452 91.394 91.322 91.277 91.234 91.184 91.109 91.034 90.942 90.819 90.744 90.652 90.517 90.352 90.269 90.209 91.564 90.474 90.177 89.927 89.712 89.497 89.324 89.142 88.974 88.839 88.644 88.512 88.334 88.184 88.024 87.847 87.687 87.569 87.449 87.302 87.187 87.054 86.964 86.837 86.739 86.619 86.514 86.432 86.324 86.434 90.444 90.199 87.862 86.127 85.904 85.767 85.694 85.504 85.317 85.127 84.972 84.799 84.612 84.417 84.217 83.907 83.533 83.192 83.117 83 82.831 83.156 83.128 82.908 84.073 82.988 84.391 82.053 80.771 81.543 81.751 82.677 79.314 78.506 78.384 77.776 77.743 81.489 84.578 85.639 86.772 89.207 85.877 81.778 86.583 90.408 95.144 95.968 93.971 84.865 86.424 81.407 79.965 78.52 81.779 90.388 92.741 93.356 90.856 82.996 85.866 92.53 87.517 84.698 85.355 89.932 87.323 87.833 88.315 88.949 89.238 89.243 89.488 89.514 89.967 90.343 90.544 90.718 90.827 93.461 93.723 91.545 92.004 92.041 92.361 92.312 92.444 92.619 92.554 92.863 92.988 93.023 95.749 95.629 97.421 101.357 103.001 103.318 103.302 102.414 96.106 100.663 102.893 102.722 100.783 102.709 103.161 101.127 101.671 103.32 104.485 104.42 103.409 91.391 87.902 85.868 87.563 93.02 94.476 96.729 100.777 102.18 102.348 93.814 88.804 103.395 104.31 102.696 102.654 105.626 94.964 107.661 108.203 103.784 107.339 104.64 101.64 101.365 99.586 105.094 97.596 104.827 110.165 96.929 103.503 94.488 99.561 107.01 110.32 109.91 110.977 110.686 104.611 108.181 106.857 108.234 107.965 103.259 104.3 106.079 107.925 107.453 110.851 103.97 104.902 98.68 103.708 104.782 111.122 111.539 111.533 108.368 108.068 108.36 100.188 99.505 99.606 99.381 99.464 99.572 99.658 99.677 99.841 99.902 99.948 100.001 100.116 100.178 100.305 100.392 100.518 100.7 100.876 100.931 101.01 101.022 101.049 101.135 101.257 101.379 101.467 101.653 101.9 102.202 102.401 102.608 102.813 102.987 103.08 103.277 103.518 103.94 105.929 107.447 106.776 104.593 104.673 104.859 105.093 105.277 105.48 105.617 105.863 106.042 106.169 106.454 106.338 106.189 106.206 106.242 106.428 106.658 107.59 107.524 107.473 113.113 114.38 113.545 108.806
97.059 97.007 96.954 96.929 96.894 96.834 96.759 96.689 96.639 96.579 96.522 96.467 96.392 96.322 96.234 96.177 96.107 95.724 95.859 95.757 95.619 95.512 95.687 96.664 96.859 95.354 95.039 94.934 94.802 94.712 94.599 94.522 94.494 94.459 94.427 94.404 94.347 94.309 94.264 94.232 94.199 94.169 94.144 94.094 94.079 94.114 94.074 94.054 94.032 94.012 94.044 94.019 94.007 93.962 93.949 93.917 93.874 93.842 93.849 93.832 93.824 93.789 93.759 93.737 93.714 93.647 93.617 93.562 93.654 93.699 93.702 93.672 93.644 93.619 93.559 93.499 93.479 93.454 93.412 93.382 93.374 93.334 93.269 93.254 93.209 93.182 93.137 93.107 93.037 92.954 92.874 92.797 92.704 92.589 92.472 92.389 92.312 92.212 92.124 92.052 91.994 91.914 91.842 91.797 91.727 91.684 91.644 91.607 91.572 91.514 91.449 91.409 91.357 91.247 91.239 91.212 91.177 91.099 91.042 90.994 90.944 90.889 90.799 90.719 90.617 90.494 90.434 90.322 90.182 90.004 89.869 89.777 90.137 90.687 89.822 89.554 89.322 89.102 88.897 88.714 88.532 88.412 88.244 88.107 87.952 87.822 87.672 87.509 87.307 87.234 87.107 86.947 86.849 86.739 86.639 86.514 86.409 86.322 86.214 86.134 86.034 85.994 90.087 93.164 88.884 86.107 85.724 85.447 85.294 85.174 84.977 84.822 84.622 84.429 84.269 84.062 83.784 83.597 83.244 82.671 82.555 82.355 82.334 82.35 82.404 81.717 82.379 83.215 82.701 83.383 80.556 81.883 82.073 83.147 79.746 78.63 78.357 77.607 78.942 83.939 84.174 83.879 86.493 89.459 90.303 84.384 84.709 89.438 92.467 94.306 93.23 84.206 84.5 79.154 78.46 79.606 80.344 85.9 90.664 86.538 88.228 83.534 91.41 95.196 94.482 85.665 89.117 91.775 90.076 88.573 88.939 89.291 89.673 90.004 90.17 90.428 90.278 90.545 90.818 91.248 92.989 95.704 95.76 94.046 92.569 92.606 92.757 92.898 92.832 92.807 92.99 93.027 93.247 93.361 93.921 94.041 94.077 93.55 94.744 94.217 96.647 99.006 97.74 95.28 93.849 94.972 95.034 97.796 100.214 95.972 102.247 97.238 95.826 104.404 100.26 88.762 87.719 92.029 85.759 95.035 99.915 101.844 103.495 103.631 102.347 101.204 101.535 103.469 104.54 104.941 105.907 106.355 105.011 107.664 107.906 107.085 105.074 102.651 102.596 98.097 98.579 104.723 110.3 111.319 110.786 107.081 94.599 101.233 107.857 110.21 110.987 108.708 111.796 111.077 110.374 108.6 107.712 108.263 107.4 100.957 104.3 107.001 104.507 110.674 109.785 107.606 111.895 110.554 110.401 106.45 111.645 109.88 110.02 109.978 110.819 109.749 100.739 100.23 100.247 99.462 99.415 99.449 99.495 99.587 99.681 99.757 99.79 99.871 99.961 100.042 100.096 100.255 100.333 100.541 100.696 100.836 100.894 100.961 101.028 101.093 101.214 101.324 101.486 101.799 101.966 102.218 102.481 102.679 102.802 102.979 103.151 103.327 103.591 103.772 104.07 104.746 105.213 104.517 104.712 104.91 105.086 105.315 105.483 105.642 105.832 105.988 106.132 106.268 106.388 106.259 106.265 106.326 106.445 106.566 107.054 107.06 107.625 111.803 114.011 113.48 111.376
96.924 96.869 96.837 96.799 96.777 96.724 96.642 96.577 96.504 96.439 96.817 97.607 97.119 96.212 96.069 95.997 95.929 96.627 95.449 95.584 95.444 95.302 95.219 96.777 96.617 95.007 94.814 94.692 94.582 94.487 94.352 94.269 94.254 94.219 94.172 94.144 94.094 94.059 94.014 93.967 93.922 93.887 93.879 93.799 93.812 93.817 93.817 93.769 93.759 93.739 93.742 93.747 93.724 93.697 93.667 93.654 93.627 93.564 93.594 93.549 93.544 93.529 93.527 93.482 93.449 93.397 93.379 93.312 93.382 93.409 93.444 93.429 93.407 93.357 93.319 93.264 93.224 93.189 93.144 93.097 93.089 93.049 92.952 92.947 92.899 92.847 92.812 92.764 92.707 92.619 92.514 92.429 92.327 92.207 92.114 91.999 91.897 91.827 91.732 91.662 91.602 91.542 91.477 91.414 91.374 91.324 91.322 91.282 91.247 91.192 91.154 91.097 91.062 90.984 90.914 90.909 90.884 90.812 90.732 90.689 90.622 90.542 90.459 90.374 90.252 90.157 90.054 89.927 89.794 89.614 89.437 89.324 89.364 90.579 89.547 89.154 88.927 88.692 88.462 88.277 88.077 87.929 87.837 87.679 87.552 87.449 87.302 87.154 87.002 86.827 86.747 86.617 86.507 86.412 86.292 86.207 86.104 86.004 85.909 85.824 85.727 85.632 86.002 90.509 88.929 85.409 85.189 85.039 84.894 84.794 84.737 84.469 84.282 84.089 83.947 83.649 83.384 82.967 82.514 82.142 81.896 81.665 82.013 82.1 81.978 82.385 81.196 82.412 83.064 82.921 82.361 84.097 85.947 87.186 85.907 79.061 77.52 77.23 78.454 86.703 88.451 88.342 88.622 90.392 84.395 81.751 83.867 90.284 91.554 91.41 86.124 77.822 78.635 79.893 78.897 80.932 81.893 83.055 85.734 82.877 83.752 86.667 95.75 94.647 93.65 89.155 88.526 91.823 94.923 92.368 90.037 89.778 90.155 90.349 90.518 90.63 90.649 90.825 91.2 91.474 94.769 98.61 99.916 94.45 92.37 92.843 93.036 93.05 93.156 93.146 93.382 93.376 93.403 93.613 94.074 93.949 94.001 94.153 94.028 93.754 93.861 95.584 93.768 94.164 94.292 94.312 94.35 94.615 96.639 102.01 102.896 102.617 103.878 104.498 101.291 90.578 88.722 88.311 94.904 100.59 103.054 103.087 103.444 102.859 99.679 98.868 99.855 93.782 102.448 100.343 104.933 102.486 99.784 106.669 105.251 105.717 102.587 101.868 103.363 100.77 99.576 97.491 105.386 110.148 109.679 109.135 108.342 110.835 108.297 108.992 111.793 109.098 112.529 111.116 105.079 108.701 108.776 108.783 107.913 106.171 100.912 107.716 105.577 110.322 104.048 102.302 110.301 110.54 110.806 111.451 112.672 113.404 111.551 110.538 111.375 110.377 104.999 103.242 100.735 99.444 99.419 99.384 99.336 99.371 99.485 99.605 99.622 99.759 99.761 99.87 99.992 100.118 100.246 100.476 100.618 100.734 100.823 100.928 100.96 101.039 101.202 101.36 101.528 101.82 102.02 102.277 102.513 102.691 102.87 103.035 103.153 103.327 103.592 103.73 103.967 104.164 104.371 104.616 104.829 104.975 105.185 105.4 105.493 105.649 105.753 105.919 106.098 106.264 106.497 106.418 106.311 106.345 106.333 106.687 107.869 107.413 107.13 108.692 111.197 112.363 110.175
96.792 96.767 96.717 96.662 96.639 96.614 96.532 96.434 96.364 96.284 97.244 97.812 97.462 96.329 95.904 95.802 95.732 95.679 95.792 95.419 95.227 95.102 94.949 95.582 94.987 94.699 94.577 94.464 94.344 94.232 94.137 94.034 94.004 93.972 93.939 93.902 93.857 93.804 93.747 93.702 93.664 93.619 93.602 93.554 93.532 93.517 93.537 93.507 93.459 93.467 93.459 93.477 93.437 93.412 93.394 93.369 93.339 93.309 93.299 93.289 93.267 93.259 93.229 93.199 93.192 93.154 93.147 93.094 93.079 93.157 93.184 93.172 93.164 93.122 93.064 93.024 92.959 92.899 92.862 92.812 92.779 92.742 92.667 92.614 92.577 92.509 92.467 92.422 92.339 92.259 92.147 92.057 91.952 91.834 91.739 91.627 91.552 91.429 91.344 91.282 91.229 91.172 91.119 91.069 91.027 90.982 90.974 90.957 90.907 90.867 90.839 90.799 90.752 90.702 90.589 90.589 90.567 90.489 90.407 90.317 90.247 90.167 90.064 89.967 89.864 89.749 89.597 89.489 89.344 89.194 88.997 88.909 88.664 88.764 89.989 88.789 88.497 88.247 88.004 87.799 87.609 87.462 87.339 87.237 87.112 87.034 86.899 86.759 86.624 86.434 86.357 86.277 86.164 86.069 85.959 85.869 85.794 85.707 85.614 85.517 85.429 85.342 86.387 86.749 86.042 85.052 84.989 84.792 84.712 84.469 84.279 84.107 83.919 83.762 83.514 83.309 83.079 82.689 82.304 81.869 81.544 81.263 81.415 81.508 81.363 81.831 80.012 80.141 80.476 83.063 83.654 85.841 86.831 87.657 87.418 83.361 78.855 78.387 78.129 83.06 87.596 88.285 87.342 88.556 80.892 82.69 83.923 89.559 91.634 92.477 92.47 90.815 78.722 78.465 79.689 79.652 82.584 84.809 88.348 84.79 86.199 97.697 91.559 98.123 99.649 91.958 88.163 88.987 89.041 92.489 89.676 89.91 90.369 90.725 90.695 90.98 91.147 91.378 91.972 93.909 98.471 96.287 100.129 94.983 92.624 92.868 93.079 93.229 93.29 93.372 93.553 93.585 93.811 94.049 94.228 94.2 94.39 94.526 94.435 94.141 94.077 94.058 94.199 94.332 94.388 94.443 94.481 94.567 103.471 103.515 99.759 100.823 99.021 104.066 100.446 91.111 89.309 87.093 94.962 100.58 102.996 102.657 103.212 100.806 101.735 103.658 104.624 104.404 105.276 104.841 105.282 104.117 104.579 105.042 105.817 105.327 95.323 101.692 105.884 103.576 105.124 101.725 95.665 108.053 108.887 109.087 103.398 110.228 110.713 107.836 105.495 105.397 111.405 111.537 110.236 111.341 110.601 108.226 108.018 102.178 104.287 105.31 104.883 109.496 110.764 108.093 111.588 105.356 110.135 110.721 112.012 104.346 109.177 110.522 110.657 109.236 102.358 103.5 101.799 99.965 100.108 99.434 99.777 99.378 99.336 99.4 99.537 99.596 99.64 99.732 99.906 100.035 100.219 100.438 100.529 100.626 100.896 100.903 100.905 101.03 101.232 101.43 101.835 101.929 102.107 102.308 102.54 102.703 102.903 103.05 103.186 103.423 103.675 103.825 104.048 104.229 104.402 104.605 104.778 105.023 105.223 105.38 105.469 105.629 105.734 105.864 106.041 106.285 106.539 106.492 106.359 106.429 106.392 106.567 106.721 107.803 107.059 108.152 108.308 107.566 107.647
96.672 96.627 96.574 96.514 96.494 96.454 96.394 96.289 96.217 96.154 96.144 97.482 97.392 95.884 95.742 95.627 95.554 95.462 95.752 95.094 95.037 94.879 94.737 94.639 94.547 94.454 94.342 94.252 94.119 93.999 93.927 93.787 93.732 93.727 93.667 93.624 93.572 93.539 93.494 93.429 93.379 93.334 93.314 93.299 93.207 93.234 93.229 93.234 93.184 93.167 93.164 93.167 93.167 93.129 93.104 93.089 93.057 93.047 92.989 93.034 92.977 92.977 92.972 92.929 92.939 92.909 92.874 92.857 92.779 92.874 92.882 92.894 92.892 92.852 92.799 92.742 92.682 92.619 92.554 92.514 92.462 92.427 92.374 92.279 92.229 92.184 92.112 92.059 91.984 91.884 91.794 91.677 91.582 91.467 91.359 91.254 91.154 91.077 91.012 90.904 90.859 90.819 90.759 90.717 90.692 90.652 90.644 90.624 90.587 90.567 90.522 90.462 90.417 90.382 90.267 90.232 90.214 90.127 90.012 89.897 89.817 89.722 89.619 89.512 89.412 89.274 89.089 88.962 88.849 88.714 88.519 88.412 88.129 88.069 88.509 88.702 88.114 87.799 87.562 87.337 87.149 86.979 86.844 86.757 86.657 86.579 86.464 86.332 86.217 86.082 85.947 85.897 85.764 85.704 85.602 85.534 85.464 85.359 85.289 85.197 85.132 85.037 84.949 85.442 84.922 84.897 84.889 84.664 84.287 84.039 83.879 83.727 83.577 83.312 83.182 82.952 82.789 82.482 82.042 81.642 81.442 80.952 80.887 80.993 80.331 79.817 79.896 80.127 82.037 83.682 83.891 85.348 87.573 86.732 86.329 80.777 83.717 84.538 84.578 85.113 84.92 84.838 88.9 91.297 83.553 83.002 82.403 88.509 89.855 93.435 95.468 83.937 83.618 93.585 79.949 79.943 89.047 95.05 92.427 91.765 90.48 97.75 97.94 99.182 99.988 98.62 91.4 88.954 89.285 89.556 90.025 90.306 90.55 90.989 91.22 91.497 91.519 91.632 91.808 92.125 93.304 95.819 93.025 92.471 92.612 92.819 93.091 93.24 93.318 93.52 93.775 94.017 94.215 94.133 94.277 94.499 94.627 94.632 94.574 94.693 94.198 94.307 94.473 94.421 94.502 94.558 94.583 98.645 102.258 103.674 104.922 98.831 101.416 99.4 95.374 90.95 91.118 88.88 97.623 101.437 102.369 102.916 104.054 99.591 93.27 103.772 105.208 105.529 105.24 105.032 97.716 100.829 104.449 106.425 106.754 102.332 99.762 105.871 106.842 106.789 106.052 106.616 105.773 100.258 102.312 95.678 102.371 99.221 107.281 102.538 105.829 110.968 110.15 113.464 113.96 114.274 112.712 111.084 109.465 105.475 108.079 106.071 109.706 103.732 106.402 107.159 111.141 106.903 111.586 111.375 112.745 99.895 109.096 108.437 108.407 106.744 102.449 105.818 106.906 105.915 102.517 101.274 106.651 103.495 99.722 99.95 99.681 99.656 99.66 99.781 99.859 99.987 100.713 101.928 102.694 103.8 102.934 105.293 101.503 102.146 107.289 102.835 104.133 104.911 103.643 104.227 103.844 103.377 103.157 103.174 103.279 103.494 103.667 103.898 104.118 104.248 104.477 104.685 104.863 105.024 105.198 105.364 105.525 105.589 105.723 105.823 106.023 106.21 106.445 106.66 106.453 106.451 106.625 107.201 106.761 107.196 107.581 107.236 107.35 108.419 108.107
96.544 96.482 96.444 96.394 96.354 96.309 96.257 96.164 96.064 95.984 95.907 95.812 95.724 95.647 95.567 95.439 95.324 95.249 95.229 94.774 94.739 94.652 94.514 94.347 94.304 94.179 94.104 93.997 93.899 93.772 93.672 93.557 93.487 93.449 93.394 93.359 93.314 93.257 93.224 93.174 93.094 93.074 93.024 93.014 92.932 92.942 92.929 92.922 92.899 92.867 92.869 92.857 92.862 92.844 92.807 92.794 92.777 92.749 92.707 92.722 92.702 92.712 92.707 92.699 92.677 92.662 92.629 92.587 92.494 92.519 92.592 92.604 92.592 92.567 92.507 92.449 92.387 92.324 92.267 92.194 92.154 92.114 92.067 91.949 91.897 91.834 91.752 91.682 91.607 91.524 91.432 91.324 91.224 91.119 90.994 90.912 90.802 90.719 90.644 90.559 90.522 90.472 90.424 90.384 90.362 90.334 90.307 90.307 90.262 90.232 90.179 90.122 90.082 90.004 89.929 89.812 89.784 89.694 89.552 89.467 89.447 89.242 89.127 89.039 88.922 88.784 88.604 88.442 88.364 88.199 88.067 87.877 87.674 87.724 87.792 88.537 87.687 87.377 87.107 86.892 86.699 86.532 86.357 86.274 86.182 86.102 86.004 85.899 85.787 85.679 85.537 85.484 85.377 85.317 85.247 85.164 85.087 85.019 84.954 84.887 84.822 84.757 84.649 84.664 84.772 84.649 84.454 84.117 83.832 83.654 83.497 83.342 83.177 83.019 82.824 82.662 82.459 82.192 81.839 81.494 81.252 80.819 80.449 80.133 79.748 79.623 79.598 80.476 82.004 83.224 83.917 84.105 87.136 85.162 84.224 82.9 81.007 83.232 81.408 87.756 88.521 88.482 90.256 89.563 84.54 79.995 80.636 79.962 91.705 95.388 87.14 97.37 95.724 93.712 86.792 89.699 94.937 96.014 94.703 88.946 87.399 95.354 96.729 98.829 99.06 99.143 96.18 89.334 89.553 89.891 90.173 90.633 91.006 91.138 91.522 91.788 91.869 92.076 92.18 92.374 92.631 92.58 92.548 92.629 92.864 93.094 93.142 93.164 93.294 93.486 93.596 93.952 93.676 94.245 94.552 94.435 94.91 94.891 94.916 94.62 94.624 94.567 94.626 94.6 94.76 94.733 94.775 94.889 101.003 103.967 99.905 97.791 106.67 94.78 99.055 94.039 91.438 88.638 97.328 101.983 101.221 99.516 104.101 103.126 100.744 103.853 104.834 105.167 105.133 101.752 103.047 98.023 100.98 102.983 106.216 104.198 97.373 106.495 106.438 108.063 103.96 106.709 106.76 103.937 102.152 93.002 109.758 111.149 103.259 110.817 102.23 110.963 109.609 114.069 114.888 113.096 113.667 108.957 104.341 108.311 109.006 102.37 110.46 109.151 101.175 107.199 108.4 104.792 111.505 106.501 105.836 99.237 109.168 104.646 102.118 102.55 103.536 107.184 108.998 109.077 109.594 109.453 108.887 109.283 105.112 103.948 103.798 102.667 101.142 102.292 101.844 107.16 109.117 106.849 108.567 109.66 112.534 112.919 111.129 109.448 108.254 109.936 110.367 106.549 107.595 107.471 106.256 106.541 105.788 106.614 105.902 106.243 104.701 104.775 105.732 108.714 104.81 104.776 104.94 105.103 105.309 105.402 105.504 105.592 105.724 105.835 106.024 106.247 106.467 106.72 106.538 106.481 106.608 106.81 106.767 107.787 107.642 108.354 108.176 108.223 108.025
96.449 96.342 96.284 96.232 96.192 96.129 96.107 96.002 95.912 95.802 95.709 95.632 95.554 95.447 95.362 95.252 95.129 95.037 94.819 94.904 94.457 94.452 94.289 94.077 94.039 93.929 93.922 93.757 93.649 93.539 93.427 93.344 93.224 93.169 93.144 93.084 93.027 93.004 92.947 92.879 92.812 92.774 92.727 92.699 92.667 92.632 92.629 92.634 92.594 92.567 92.549 92.544 92.549 92.534 92.524 92.472 92.467 92.442 92.432 92.429 92.437 92.424 92.437 92.419 92.387 92.387 92.364 92.309 92.237 92.189 92.277 92.284 92.269 92.264 92.219 92.157 92.099 92.039 91.964 91.887 91.824 91.797 91.742 91.647 91.557 91.489 91.407 91.322 91.234 91.149 91.072 90.974 90.867 90.752 90.634 90.554 90.442 90.362 90.297 90.237 90.159 90.132 90.099 90.054 90.007 89.984 89.949 89.957 89.929 89.834 89.809 89.739 89.687 89.607 89.512 89.359 89.294 89.197 89.079 89.204 89.689 89.044 88.634 88.534 88.414 88.304 88.149 87.979 87.844 87.734 87.572 87.402 87.189 87.352 87.144 87.629 87.587 87.007 86.717 86.462 86.259 86.082 85.912 85.797 85.722 85.637 85.549 85.442 85.354 85.252 85.152 85.057 84.989 84.917 84.877 84.797 84.729 84.687 84.624 84.557 84.492 84.479 84.402 84.464 84.602 84.097 83.789 83.624 83.417 83.277 83.184 82.997 82.864 82.789 82.577 82.347 82.149 81.892 81.617 81.249 81.057 80.659 80.364 80.089 79.781 79.739 79.862 80.492 82.119 82.625 84.635 82.586 83.68 83.729 82.201 79.618 83.279 85.442 87.927 87.136 86.253 87.486 84.238 86.951 91.061 87.409 77.566 78.358 94.325 96.527 98.193 98.586 98.593 98.124 94.534 89.991 90.487 91.687 95.53 93.991 95.492 97.504 97.796 95.359 96.627 95.135 91.27 89.571 89.871 90.273 90.758 91.092 91.3 91.537 91.633 91.964 92.131 92.237 92.501 92.757 92.85 93.122 92.736 92.9 93.099 93.106 93.926 93.338 93.605 93.632 93.773 93.794 94.026 94.142 94.249 94.654 94.793 95.028 94.876 95.362 95.516 94.952 98.005 95.39 94.866 94.958 94.913 94.923 96.33 99.007 106.054 100.921 102.559 103.239 106.004 106.576 93.217 89.237 93.094 100.808 103.037 98.568 101.392 97.102 97.228 102.318 102.753 104.705 103.569 103.949 104.011 105.262 101.772 106.149 105.542 105.437 95.165 103.698 107.252 107.2 106.708 104.64 108.14 109.252 109.409 97.652 110.18 111.003 108.206 110.921 110.84 107.331 111.999 114.079 115.397 115.198 113.966 111.779 111.948 105.973 101.257 109.53 111.347 111.648 104.173 102.18 110.732 108.525 110.551 110.509 104.471 99.295 99.321 100.089 104.053 110.232 110.739 108.855 109.591 109.407 110.56 111.4 110.25 109.827 108.742 107.945 105.681 106.87 107.249 104.169 110.97 111.883 112.255 110.264 109.123 110.792 113.024 110.705 113.012 112.74 112.325 111.007 110.557 112.323 110.332 111.612 110.445 110.292 111.813 109.824 111.242 109.374 108.22 106.085 110.586 116.246 110.28 111.084 105.642 105.831 105.605 105.812 105.986 108.134 107.237 110.96 111.319 106.911 106.434 106.653 106.628 106.54 106.553 106.567 106.748 106.919 107.687 108.701 107.6 107.85 108.219
