ncols 433
nrows 32
xllcorner    428122
yllcorner    432362
cellsize     2
NODATA_value -9999
52.712 52.579 52.5 52.486 52.557 52.686 52.807 52.881 52.962 52.905 52.8 52.504 51.543 52.483 48.848 44.871 51.359 50.012 45.534 44.471 44.392 44.196 44.161 44.165 44.184 44.132 44.083 44.065 44.143 44.254 44.467 43.984 43.698 43.227 42.89 42.082 40.599 40.467 45.593 47.222 41.154 43.111 46.25 47.419 47.703 47.895 48.223 48.425 48.71 48.547 48.261 48.094 47.794 47.516 47.271 47.144 47.373 47.686 48.02 48.266 48.511 48.795 48.557 48.233 48.238 49.521 49.457 49.501 49.476 49.461 49.44 49.409 49.381 49.366 49.311 49.275 49.267 49.216 49.198 49.174 49.135 49.129 49.06 39.656 37.412 37.389 37.422 42.37 43.065 43.138 43.108 42.594 41.179 40.447 40.421 40.478 40.433 40.38 40.406 40.336 39.63 36.924 36.905 36.855 37.552 36.416 35.829 35.794 35.83 35.88 35.849 35.812 35.671 35.72 35.786 36.211 36.571 38.026 44.99 45.254 44.127 41.761 38.131 35.66 35.646 35.68 35.65 35.66 35.688 35.922 36.787 36.004 36.674 45.117 45.317 45.424 45.567 45.652 45.579 45.409 45.295 45.261 45.078 45.053 44.873 44.743 42.685 42.209 42.057 42.445 42.001 42.021 42.019 40.893 37.997 37.96 36.38 35.732 35.734 35.696 35.751 35.721 35.715 35.761 35.658 35.585 35.613 35.673 36.102 35.982 36.14 36.446 38.205 36.953 36.061 35.762 35.558 35.538 35.524 35.481 35.408 35.389 35.336 35.304 35.364 35.347 35.324 35.264 35.293 35.348 35.365 35.371 35.432 35.438 35.456 35.428 35.431 35.401 35.443 35.412 35.392 35.452 35.462 35.486 35.487 35.53 35.595 35.657 35.666 35.664 35.758 35.767 35.83 35.924 35.954 36.053 36.194 36.237 36.4 36.468 36.573 36.652 36.731 36.785 36.895 36.981 37.049 37.118 37.179 37.282 37.452 37.509 37.596 37.683 37.767 37.839 37.954 38.073 38.126 38.184 38.202 38.334 38.886 38.77 38.571 38.677 39.366 38.823 38.881 39.229 39.37 39.611 39.779 38.942 38.19 38.276 38.192 38.956 38.929 38.997 38.352 39.567 38.519 39.521 38.846 38.877 38.294 39.642 39.463 39.49 39.357 39.357 39.284 39.197 39.096 39.089 38.962 38.924 38.76 38.633 38.526 38.389 38.363 38.243 38.122 37.937 37.919 37.814 37.72 37.591 37.477 37.383 37.233 37.234 37.165 36.999 37.002 36.856 36.793 36.767 36.686 36.646 36.461 36.349 36.284 36.166 36.164 36.004 35.942 35.757 35.82 35.554 35.544 32.69 32.269 32.431 38.698 41.621 43.235 41.418 41.257 41.403 41.113 41.226 41.227 41.284 41.93 36.496 34.952 32.062 32.028 32.217 32.347 32.65 32.96 33.92 40.336 41.09 35.405 33.794 33.794 33.812 33.674 33.558 36.819 33.408 33.173 37.25 38.725 33.578 32.893 32.758 32.711 32.665 32.628 32.586 32.91 33.497 32.916 32.725 33.067 33.004 32.713 33.06 33.188 33.593 33.85 33.032 32.426 32.347 34.953 36.102 36.995 37.018 38.571 34.889 32.19 32.119 31.908 31.804 31.83 31.833 32.547 32.085 31.963 32.044 33.098 32.303 32.197 32.309 32.293 32.327 32.298 33.393 37.495 38.606 38.058 36.019 32.432 32.269 32.049 32.168 32.011 31.976 31.928 31.994 31.952 31.848 31.967 31.986 31.912 31.925 31.792 31.644 35.327 37.257 37.858 38.336 38.598 34.465 32.249 31.557 31.486 32.299 31.653 31.518 31.414 31.268 31.202 31.889 35.375 37.248 38.026
52.546 52.478 52.451 52.498 52.698 52.796 52.88 52.98 52.866 52.772 52.531 51.205 52.383 47.823 44.701 48.793 50.282 49.075 44.942 44.442 44.244 44.199 44.238 44.17 44.197 44.104 44.079 44.154 45.368 44.656 43.94 43.525 42.918 42.57 41.774 40.182 40.516 48.205 47.958 47.643 47.378 47.233 47.374 47.616 47.927 48.162 48.479 48.714 48.596 48.362 48.054 47.799 47.573 47.262 47.086 47.373 47.679 47.975 48.129 48.483 48.727 48.617 48.335 48.054 47.797 47.924 49.281 49.516 49.46 49.451 49.387 49.382 49.313 49.3 49.308 49.269 49.26 49.212 49.166 49.141 49.094 43.057 37.486 37.434 37.356 37.29 40.416 43.068 43.101 43.117 43.154 43.17 43.219 42.689 40.517 40.435 40.707 40.424 40.418 40.286 37.296 37.465 38.115 36.926 36.922 35.827 35.824 35.812 35.859 35.817 35.817 35.734 35.727 35.793 36.082 36.457 36.902 44.36 45.54 45.748 45.073 40.184 36.668 35.64 35.633 35.664 35.662 35.671 35.988 36.256 36.094 36.022 43.967 45.047 45.144 45.293 45.412 45.543 45.69 45.589 45.448 45.327 45.267 45.186 45.012 44.901 44.81 44.147 42.988 42.189 41.949 42.013 42.014 42.009 42.077 40.662 35.973 35.714 35.779 35.754 35.748 35.693 35.679 35.623 35.695 35.629 36.161 36.65 35.647 35.992 36.215 36.369 37.327 37.299 36.411 36.174 35.776 36.137 36.063 35.849 35.477 35.492 35.435 35.418 35.46 35.353 35.343 35.419 35.433 35.405 35.441 35.431 35.416 35.46 35.412 35.463 35.527 35.523 35.512 35.554 35.492 35.552 35.515 35.571 35.643 35.668 35.681 35.707 35.696 35.739 35.805 35.832 35.878 35.947 36.032 36.047 36.175 36.272 36.305 36.419 36.408 36.584 36.634 36.697 36.783 36.815 36.985 37.05 37.121 37.246 37.293 37.37 37.389 37.546 37.634 37.703 37.817 37.822 37.959 38.01 38.163 38.194 38.3 38.319 38.479 38.537 38.608 38.684 38.78 38.839 38.94 39.028 39.121 39.149 39.243 39.312 39.289 39.359 39.39 39.398 39.455 39.392 39.445 39.447 39.456 39.46 39.378 39.326 39.349 39.345 39.248 39.177 39.189 39.052 39.018 39.062 38.943 38.84 38.725 38.713 38.537 38.497 38.378 38.238 38.171 38.008 37.947 37.847 37.805 37.672 37.583 37.514 37.368 37.344 37.21 37.153 37.103 37.074 36.929 36.762 36.737 36.64 36.566 36.469 36.442 36.348 36.275 36.072 36.676 36.315 33.472 32.17 32.665 34.191 37.1 40.307 42.75 42.569 41.14 41.197 41.209 41.216 41.254 41.341 36.41 34.742 33.052 32.033 32.081 32.095 32.272 32.516 32.744 33.134 33.368 33.662 41.133 42.536 41.706 34.116 34.017 33.84 37.504 40.568 39.104 33.97 33.134 39.226 39.283 33.681 32.808 32.722 32.698 32.633 32.641 33.399 35.085 33.047 32.705 32.762 32.7 32.776 32.74 32.689 32.643 32.628 33.017 33.508 33.543 34.022 35.779 36.753 36.62 35.477 33.377 32.318 32.208 32.04 31.958 31.91 31.905 31.815 31.897 31.92 31.957 31.972 32.147 33.544 33.572 32.299 32.241 32.225 32.332 32.283 33.279 37.749 38.698 36.999 33.46 32.176 32.13 32.096 32.033 31.945 31.943 31.997 32.003 31.947 31.938 32.023 31.939 31.834 31.817 31.733 31.786 36.752 37.549 38.285 37.513 32.166 31.536 31.508 31.793 31.555 31.87 31.549 32.534 31.393 31.215 30.893 34.855 36.864 37.619
50.834 52.502 52.633 51.818 52.834 52.95 52.948 52.842 52.753 52.607 52.571 50.929 45.269 44.821 44.891 44.636 46.137 44.93 44.36 44.236 44.278 44.27 44.216 44.191 44.16 44.168 44.327 45.722 44.346 43.712 43.252 42.842 42.447 41.318 40.327 45.042 48.934 48.488 48.223 47.948 47.806 47.509 47.221 47.31 48.1 48.421 48.683 48.737 48.433 48.104 47.886 47.584 47.327 47.15 47.425 47.613 47.904 48.139 48.444 48.666 48.634 48.429 48.132 47.811 47.569 47.328 47.394 48.635 49.36 49.403 49.333 49.317 49.317 49.269 49.255 49.208 49.224 49.196 49.196 49.154 48.886 38.768 37.46 37.425 37.312 37.399 42.448 43.126 43.143 43.153 43.203 43.192 43.101 37.735 39.73 40.402 40.403 40.392 40.276 37.689 43.62 42.4 37.073 37.422 35.928 35.807 35.825 35.865 35.859 35.854 35.783 35.733 35.819 36.027 36.354 36.706 38.738 42.746 45.003 44.667 43.934 40.303 35.69 35.626 35.621 35.624 35.645 35.675 35.71 36.794 37.95 42.213 44.809 44.87 44.993 45.132 45.266 45.403 45.514 45.72 45.617 45.493 45.389 45.288 45.185 45.096 44.922 44.87 44.311 42.796 41.978 42.125 41.941 41.935 42.013 42.029 39.059 37.155 35.74 35.728 36.332 35.682 35.705 35.703 35.652 35.637 35.728 35.697 35.609 36.278 36.216 36.333 36.61 37.233 36.465 36.185 35.962 36.676 35.834 36.517 36.289 35.813 35.587 35.462 35.485 35.488 35.466 35.427 35.403 35.416 35.451 35.517 35.487 35.467 35.49 35.483 35.517 35.471 35.516 35.482 35.883 35.644 35.681 35.714 35.73 35.708 35.704 35.837 35.847 35.841 35.884 35.958 35.93 36.02 36.129 36.187 36.215 36.253 36.37 36.443 36.528 36.597 36.689 36.836 36.839 36.953 37.002 37.093 37.195 37.229 37.334 37.454 37.559 37.63 37.7 37.692 37.814 37.889 38.003 38.077 38.154 38.183 38.318 38.444 38.466 38.569 38.577 38.678 38.83 38.913 38.963 39.049 39.106 39.144 39.278 39.298 39.354 39.379 39.403 39.411 39.431 39.444 39.472 39.455 39.477 39.452 39.452 39.412 39.393 39.355 39.332 39.244 39.233 39.106 39.062 38.984 38.962 38.907 38.753 38.675 38.544 38.576 38.442 38.369 38.256 38.119 38.038 37.916 37.831 37.861 37.727 37.68 37.522 37.475 37.335 37.245 37.112 37.106 36.995 36.857 36.818 36.763 36.649 36.519 36.593 36.493 36.268 33.41 32.665 32.313 32.304 37.926 41.681 38.833 41.147 42.078 43.421 43.262 41.397 41.278 41.221 41.956 41.881 35.488 32.043 32.102 32.153 32.158 32.252 32.372 32.697 33.009 33.27 33.58 33.899 34.079 41.237 34.344 37.645 35.127 33.945 33.703 34.642 41.677 38.541 35.299 32.917 34.629 36.35 33.211 32.729 32.646 32.552 33.586 33.496 32.91 33.501 33.35 32.766 34.588 33.053 32.707 32.689 32.716 32.671 32.658 32.571 33.104 33.73 34.92 36.164 36.994 36.098 34.993 32.618 32.36 32.304 32.285 32.287 32.19 32.635 32.049 31.945 31.852 31.987 31.972 32.042 32.097 32.206 32.311 32.275 32.369 32.335 32.258 32.273 32.466 38.08 38.623 36.792 32.853 32.212 32.055 32.136 32.023 31.937 32.036 32.003 32.001 31.962 32.036 32.088 31.91 31.896 31.768 31.716 32.665 36.962 37.756 37.789 33.264 31.645 31.553 32.322 32.886 32.394 31.657 31.774 31.387 31.562 31.503 31.256 35.101 37.223
44.81 52.425 52.77 51.5 52.971 52.927 52.856 52.704 52.587 52.275 48.433 45.17 44.946 45.017 44.796 44.974 44.675 44.36 44.257 44.279 44.304 44.261 44.236 44.212 44.166 44.271 45.275 44.9 44.342 43.152 42.671 42.049 40.631 40.229 46.781 49.288 49.071 48.877 48.516 48.278 48.069 47.799 47.553 47.335 47.363 48.577 48.724 48.44 48.235 47.952 47.645 47.379 47.148 47.251 47.503 47.834 48.139 48.404 48.664 48.733 48.4 48.155 47.942 47.663 47.351 47.084 44.389 43.405 44.532 49.286 49.317 49.296 49.274 49.243 49.216 49.235 49.189 49.21 49.161 49.165 41.647 37.515 37.442 37.355 37.425 42.297 43.136 43.138 43.154 43.156 43.222 43.245 38.805 36.984 37.129 37.616 40.245 40.462 37.948 42.063 45.338 42.547 38.798 35.89 35.828 35.82 35.863 35.826 35.935 35.845 35.713 35.797 35.991 36.33 38.071 37.628 40.305 42.363 42.589 42.221 41.024 37.19 36.392 35.613 35.613 35.664 35.659 35.677 35.678 35.953 43.948 44.64 44.607 44.727 44.89 44.959 45.131 45.229 45.375 45.473 45.713 45.657 45.56 45.502 45.303 45.215 45.122 44.979 44.825 44.716 43.778 42.003 41.914 41.97 41.985 41.896 42.018 40.858 39.283 36.512 35.941 35.883 35.734 35.744 35.683 35.676 35.647 35.607 36.084 36.487 36.382 36.318 36.806 38.312 36.491 36.511 36.295 36.138 36.524 36.332 36.644 36.024 36.764 35.629 35.449 35.517 35.473 35.53 35.571 35.542 35.488 35.491 35.526 35.505 35.549 35.574 35.566 35.525 35.549 35.571 36.604 35.616 35.722 35.715 35.786 35.842 35.911 35.943 35.923 35.943 35.945 36.026 36.072 36.144 36.235 36.209 36.318 36.392 36.48 36.536 36.551 36.669 36.752 36.846 36.891 36.931 37.078 37.132 37.292 37.353 37.37 37.467 37.547 37.606 37.762 37.838 37.871 37.971 38.089 38.13 38.212 38.317 38.355 38.467 38.536 38.553 38.678 38.728 38.843 38.953 39.035 39.038 39.169 39.194 39.283 39.305 39.367 39.402 39.405 39.49 39.492 39.485 39.485 39.547 39.527 39.491 39.477 39.45 39.423 39.405 39.418 39.281 39.254 39.178 39.071 39.012 38.985 38.876 38.87 38.801 38.596 38.587 38.485 38.486 38.254 38.326 38.224 38.079 38.014 37.925 37.833 37.756 37.523 37.481 37.409 37.313 37.222 37.124 37.071 36.933 36.869 36.793 36.767 36.638 34.572 33.501 32.399 32.892 39.595 32.901 42.309 43.653 42.269 41.199 41.182 41.473 41.749 41.333 41.235 41.376 36.626 34.977 32.091 32.146 32.171 32.164 32.138 32.268 32.42 32.615 33.067 33.328 34.685 38.006 34.751 34.153 35.448 34.37 35.887 35.026 33.727 33.524 33.211 37.589 35.902 34.059 32.8 32.774 32.76 32.692 32.734 32.58 32.688 32.932 32.72 32.759 32.743 33.526 34.437 34.875 32.739 32.706 32.832 32.719 32.714 32.703 34.215 32.729 33.064 33.405 33.428 34.338 35.607 33.122 32.375 32.41 32.448 32.632 32.342 32.559 34.223 33.887 33.151 32.154 32.01 32.015 32.055 32.073 32.102 32.3 33.759 32.548 32.27 32.277 32.214 32.507 36.175 38.463 38.405 36.02 32.307 32.192 32.28 32.232 32.733 31.975 32.039 32.047 32.027 31.988 32.067 32.053 31.956 31.816 31.789 31.641 35.262 37.352 38.124 37.739 32.466 31.717 32.489 31.663 31.546 31.605 31.533 32.347 31.777 31.414 31.322 31.538 36.483
44.655 47.028 50.389 52.993 52.922 52.861 52.755 52.591 52.482 47.405 45.013 45.227 45.486 45.333 45.297 44.68 44.425 44.33 44.326 44.333 44.316 44.264 44.168 44.286 44.338 45.409 43.915 43.853 43.592 42.379 41.495 40.708 40.322 48.467 48.851 49.055 49.208 49.127 48.877 48.581 48.427 48.142 47.91 47.591 47.346 47.311 48.475 48.29 48.029 47.704 47.472 47.21 47.209 47.486 47.798 48.028 48.242 48.574 48.695 48.514 48.211 47.944 47.629 47.335 47.204 45.108 43.418 43.395 43.413 43.46 49.22 49.295 49.252 49.195 49.196 49.174 49.135 49.148 49.139 43.064 37.482 37.495 40.922 40.309 38.015 38.435 42.962 43.157 43.176 43.185 43.08 37.767 37.033 36.962 36.93 36.88 37.925 37.247 36.885 37.051 45.012 43.48 36.878 35.85 35.835 35.912 35.862 35.851 35.866 35.755 35.771 35.931 38.488 36.837 40.611 40.9 41.489 41.91 42.355 38.431 36.324 35.563 35.592 35.609 35.607 35.652 35.617 35.636 35.678 36.056 44.771 44.776 44.661 44.595 44.698 44.82 44.934 45.076 45.244 45.378 45.487 45.582 45.685 45.594 45.449 45.363 45.256 45.149 45.006 44.894 44.791 42.759 42.464 42.343 41.925 41.952 42.009 42.001 42.174 40.77 37.991 39.388 39.568 37.548 36.582 35.708 35.61 35.673 35.629 36.494 35.704 35.538 35.732 36.91 36.748 36.6 36.575 36.319 36.251 36.167 36.286 36.626 36.431 35.729 35.515 35.487 35.521 35.574 35.541 35.585 35.633 35.635 35.631 35.567 35.566 35.577 35.59 35.628 35.649 35.639 35.64 35.651 35.738 35.761 35.816 35.839 35.849 35.895 35.965 36.011 36.068 36.139 36.15 36.262 36.33 36.401 36.449 36.46 36.544 36.564 36.753 36.868 36.902 36.949 36.965 37.05 37.174 37.207 37.302 37.371 37.423 37.614 37.643 37.765 37.841 37.888 37.938 38.032 38.12 38.178 38.296 38.458 38.454 38.534 38.594 38.688 38.745 38.82 38.923 38.954 39.067 39.116 39.212 39.303 39.294 39.423 39.457 39.447 39.47 39.534 39.567 39.603 39.623 39.593 39.568 39.509 39.523 39.52 39.487 39.515 39.456 39.365 39.295 39.343 39.16 39.102 39.135 38.979 39.005 38.951 38.843 38.771 38.639 38.587 38.415 38.373 38.255 38.09 38.032 37.896 37.85 37.765 37.67 37.516 37.433 37.331 37.263 37.183 37.196 37.05 37.099 34.608 33.599 32.267 32.595 32.717 34.647 40.811 41.442 43.834 41.984 41.909 41.544 41.301 41.325 41.418 41.406 38.399 35.2 33.163 32.116 32.122 32.207 32.256 32.261 32.216 32.223 32.336 32.607 32.927 33.29 33.53 37.587 34.921 39.498 34.339 34.251 34.237 34.046 33.795 33.563 33.357 33.154 33.008 32.871 32.849 32.771 32.786 32.733 32.74 32.617 32.648 33.164 32.825 32.801 32.792 32.697 33.444 36.045 33.903 32.789 33.748 33.058 35.433 34.953 34.729 34.827 32.701 32.586 32.601 32.629 32.94 36.182 33.771 32.409 32.439 32.493 32.482 33.426 32.51 34.977 35.881 35.577 33.728 32.931 32.121 32.043 32.086 32.141 32.158 33.281 33.907 32.839 32.598 32.301 32.426 33.709 37.326 38.696 38.308 32.972 32.252 32.125 32.151 33.66 32.238 32.034 32.043 32.023 32.028 31.991 32.1 31.939 31.889 31.849 31.714 31.681 35.975 37.65 38.18 34.358 31.804 31.538 31.634 31.549 31.901 33.006 36.762 34.15 31.47 31.313 31.144 32.255
44.608 44.641 46.727 52.856 52.777 52.708 52.588 52.507 48.363 44.984 49.313 45.287 45.366 45.015 44.552 44.366 44.408 44.393 44.389 44.343 44.288 44.2 44.317 45.401 46.085 44.096 43.628 42.988 43.064 41.524 40.734 40.341 47.374 48.16 48.452 48.671 48.969 49.184 49.282 48.974 48.623 48.428 48.212 47.986 47.658 47.4 47.231 47.905 47.708 47.457 47.267 47.182 47.475 47.664 47.96 48.25 48.556 48.755 48.56 48.288 48.012 47.673 47.481 47.197 46.671 43.517 43.287 42.502 43.264 43.412 43.393 45.166 49.091 49.206 49.208 49.161 49.18 49.178 49.287 38.792 37.411 39.582 41.398 41.164 40.259 38.064 37.821 42.086 43.214 43.204 39.163 37.1 37.041 36.983 36.91 36.852 36.795 36.766 36.813 36.799 39.69 36.838 35.891 35.863 35.918 35.899 35.885 35.87 35.816 35.816 35.82 36.161 39.659 38.306 41.605 41.966 42.011 42.077 41.165 36.158 35.532 35.527 35.56 35.568 35.6 35.635 35.663 35.667 40.738 45.232 45.059 44.942 44.812 44.636 44.578 44.69 44.829 44.927 45.045 45.192 45.335 45.455 45.559 45.663 45.647 45.486 45.356 45.266 45.146 45.032 44.905 44.739 44.178 43.491 41.974 42.039 41.964 41.963 41.974 40.973 38.068 40.584 41.935 37.287 37.671 38.705 36.495 35.647 35.568 35.587 35.542 35.558 35.548 35.563 36.843 36.734 36.622 36.676 36.442 36.306 36.261 36.156 36.006 35.935 35.599 35.479 35.457 35.514 35.579 35.589 35.606 35.978 37.16 35.758 35.693 35.734 35.711 35.713 35.711 35.723 35.783 35.774 35.85 35.764 35.816 35.889 35.971 35.973 36.007 36.136 36.037 36.145 36.222 36.254 36.27 36.355 36.399 36.509 36.581 36.67 36.756 36.763 36.957 37.02 37.083 37.176 37.217 37.295 37.276 37.461 37.536 37.625 37.766 37.831 37.944 38.013 38.309 38.107 38.214 38.254 38.404 38.463 38.54 38.583 38.725 38.749 38.843 38.974 39.022 39.113 39.173 39.269 39.371 44.499 39.609 39.489 39.571 39.595 39.637 39.623 39.674 39.701 39.694 39.69 39.698 39.657 39.695 39.657 39.529 39.609 39.518 39.436 39.383 39.326 39.214 39.126 39.13 39.041 38.929 38.832 38.829 38.65 38.683 38.52 38.429 38.372 38.257 38.192 38.042 38.051 37.926 37.755 37.74 37.64 37.565 37.525 37.287 38.077 34.908 35.767 36.668 32.285 32.325 37.948 41.802 42.498 41.292 41.313 41.804 41.724 41.354 41.404 41.343 41.332 41.325 36.839 34.864 32.803 32.163 32.202 32.191 32.181 32.246 32.223 32.308 32.303 32.277 32.447 32.673 33.021 33.373 33.66 34.015 34.155 34.307 34.436 34.435 34.328 34.064 33.745 33.491 33.252 33.103 32.944 32.857 32.813 32.768 32.754 32.749 32.667 32.636 34.168 33.27 32.799 32.825 32.811 32.784 32.807 35.671 35.402 33.74 33.523 36.012 38.47 36.657 34.075 32.938 32.759 32.681 34.091 35.679 37.082 37.068 34.258 32.472 32.511 32.492 32.486 32.495 33.85 35.743 36.972 36.388 35.495 33.4 32.412 32.181 32.099 32.135 32.131 32.194 33.819 33.107 32.305 32.278 32.237 32.439 35.977 38.046 38.582 34.094 32.556 32.24 32.183 32.295 32.508 32.031 32.028 32.031 32.03 32.024 32.086 32.127 32.011 31.991 31.829 31.719 31.773 36.144 37.701 38.547 33.924 32.02 31.515 31.591 39.084 41.081 40.796 35.138 31.521 31.544 31.369 31.245
44.591 44.578 44.538 48.498 52.589 52.595 52.183 45.703 45.107 47.603 45.433 44.866 44.689 44.468 44.385 44.399 44.436 44.473 44.394 44.309 44.272 44.355 44.429 44.538 44.68 43.4 42.881 42.34 41.592 40.259 45.074 47.4 47.607 47.95 48.082 48.372 48.561 48.947 49.143 49.226 49.075 48.827 48.501 48.234 47.973 47.807 47.513 47.252 47.191 47.24 47.211 47.392 47.627 47.922 48.211 48.475 48.7 48.627 48.358 48.09 47.835 47.546 47.224 45.19 43.492 43.331 40.329 37.693 37.545 40.923 43.421 43.405 44.634 49.002 49.183 49.144 49.124 49.275 38.783 37.472 37.482 41.441 41.303 40.686 41.366 40.592 40.999 41.526 42.115 39.959 37.135 37.078 36.967 36.978 36.886 36.847 36.754 36.73 36.67 37.684 36.486 35.936 35.849 35.866 35.934 35.938 35.964 35.899 35.807 38.513 39.322 36.663 39.48 41.392 41.684 42.285 42.546 41.5 38.072 35.502 35.53 35.507 35.564 35.584 35.64 35.663 36.464 35.707 42.928 45.371 45.281 45.042 44.915 44.848 44.704 44.606 44.624 44.789 44.893 45.013 45.171 45.272 45.376 45.523 45.624 45.649 45.548 45.43 45.292 45.168 45.071 44.946 44.827 44.665 42.709 41.939 41.982 41.945 41.995 41.96 41.99 42.12 41.01 36.749 36.464 36.85 39.251 35.668 35.552 35.553 35.516 35.514 35.458 36.232 35.643 36.519 36.735 36.668 36.579 36.44 36.404 36.29 36.673 37.418 35.702 35.486 35.488 35.572 35.595 35.648 41.657 42.908 43.263 39.283 38.9 41.158 39.748 36.048 35.884 35.844 35.945 35.828 35.827 35.947 35.963 35.958 36.005 36.05 36.054 36.148 36.191 36.215 36.279 36.259 36.331 36.432 36.524 36.504 36.646 36.653 36.729 36.849 36.92 36.983 37.005 37.091 37.204 37.284 37.362 37.453 37.52 37.562 37.694 37.789 37.843 37.918 39.739 38.045 38.105 38.268 38.341 38.39 38.443 38.564 38.65 38.737 38.795 38.873 38.939 38.955 39.14 39.197 39.286 39.336 39.428 39.485 39.453 39.501 39.581 39.563 39.549 39.626 39.602 39.617 39.614 39.578 39.529 39.594 39.527 39.471 39.406 39.431 39.327 39.332 39.276 39.17 39.129 39.066 38.938 38.824 38.789 38.776 38.704 38.565 38.527 38.486 38.338 38.25 38.097 38.063 37.977 37.812 38.031 37.558 36.452 33.866 35.59 36.959 32.898 32.295 33.618 32.995 40.267 41.402 41.295 42.298 42.569 41.9 42.614 41.874 41.414 36.89 41.592 34.808 32.86 32.205 32.288 32.337 32.272 32.297 32.31 32.26 32.297 32.351 32.329 32.339 32.321 32.458 32.721 33.058 33.407 33.742 34.086 34.228 34.414 34.617 34.625 34.407 34.009 33.673 33.335 33.246 33.03 32.939 32.855 32.755 32.756 32.735 32.718 32.645 33.284 33.112 32.913 32.915 33.028 32.819 32.807 32.85 35.191 35.758 33.64 32.983 39.25 39.364 38.982 38.405 34.688 33.165 32.753 32.64 34.892 36.443 38.113 33.249 32.475 32.564 32.48 32.546 32.629 35.492 36.315 37.14 36.59 35.28 33.143 32.583 32.251 32.134 32.148 32.152 32.187 32.606 33.336 33.531 32.392 32.392 32.25 32.431 35.361 33.877 32.877 32.373 32.681 32.257 32.287 32.286 32.071 32.017 32.081 32.061 32.055 31.971 32.111 32.221 32.005 31.918 31.757 31.66 32.631 37.081 37.832 37.308 34.757 31.968 32.948 39.161 40.364 40.557 39.409 35.706 32.171 31.489 31.898
44.588 44.603 44.633 44.635 50.882 48.079 46.44 46.047 45.404 45.597 45.768 44.926 44.457 44.393 44.527 44.43 44.432 44.37 44.359 44.312 44.368 45.433 44.796 43.999 43.874 43.893 43.155 42.557 40.657 41.617 46.719 47.217 47.357 47.589 47.807 48.062 48.285 48.589 48.788 49.047 49.242 49.1 48.801 48.598 48.28 48.066 47.792 47.588 47.385 47.149 47.32 47.581 47.825 48.155 48.35 48.672 48.615 48.403 48.142 47.861 47.554 47.267 46.933 43.615 43.403 40.287 39.047 37.632 37.543 37.659 43.017 40.38 40.224 39.761 46.776 49.123 49.148 43.38 37.495 37.524 41.095 41.381 40 41.342 38.498 40.983 39.234 39.312 37.479 37.209 37.117 37.046 37.014 36.956 36.851 36.802 36.701 36.685 36.713 37.011 35.945 35.858 35.883 35.978 35.926 35.928 35.895 35.834 39.865 43.404 43.29 40.129 41.01 43.063 44.835 44.818 42.752 40.447 35.832 35.515 35.512 35.542 35.576 35.587 35.608 35.663 35.86 41.136 45.677 45.503 45.366 45.283 45.171 44.991 44.884 44.743 44.582 44.649 44.74 44.87 44.978 45.155 45.23 45.368 45.449 45.729 45.66 45.554 45.439 45.362 45.242 45.051 44.923 44.879 44.295 42.847 41.995 42.064 41.937 42.013 42.006 42.05 42.078 42.086 41.005 37.697 39.208 36.557 35.628 35.524 35.47 35.431 35.504 35.723 35.487 35.447 35.784 36.769 36.705 36.742 36.485 36.382 37.078 36.123 35.776 35.496 35.522 35.543 35.585 35.762 42.797 44.83 45.169 44.341 45.182 45.835 44.202 38.257 35.804 35.889 36 36.026 36.094 36.067 36.019 36.054 36.106 36.156 36.141 36.205 36.223 36.288 36.342 36.399 36.465 36.534 36.513 36.655 36.737 36.77 36.846 36.962 37 37.009 37.166 37.189 37.251 37.355 37.345 37.491 37.58 37.621 37.718 37.784 37.848 37.962 38.032 38.093 38.169 38.23 38.334 38.422 38.527 38.614 38.684 38.701 38.803 38.902 38.974 39.083 39.108 39.186 39.296 39.385 39.416 39.497 39.501 39.522 39.546 39.593 39.611 39.608 39.581 39.588 39.63 39.602 39.573 39.551 39.539 39.533 39.52 39.475 39.417 39.34 39.296 39.259 39.134 39.117 39.026 38.925 38.878 38.749 38.797 38.627 38.591 38.484 38.308 38.364 38.176 38.388 38.417 34.121 34.279 32.584 32.334 32.334 32.352 33.084 33.038 34.133 38.281 40.657 41.453 41.281 41.291 41.34 43.494 42.661 42.364 41.887 36.531 33.215 32.268 32.3 32.314 32.312 32.336 32.34 32.341 32.393 32.314 32.355 32.332 32.306 32.37 32.359 32.359 32.537 32.714 33.064 33.456 33.803 34.2 34.372 34.585 34.732 34.719 34.337 33.914 33.622 33.333 33.155 32.994 32.933 32.829 32.781 32.756 32.747 32.657 32.734 33.196 32.794 32.714 32.813 34.026 34.215 32.998 32.824 33.588 33.217 32.758 36.311 39.84 40.104 39.953 39.526 38.735 37.531 32.8 32.647 32.685 36.818 36.47 37.248 35.708 32.684 32.505 32.532 34.298 36.75 37.247 38.565 36.097 32.889 32.673 32.663 32.474 32.23 32.152 32.228 32.284 32.283 32.399 33.417 32.504 32.379 32.273 32.353 32.374 32.587 32.39 32.607 33.788 32.451 32.231 32.278 32.159 32.077 32.04 32.078 32.1 32.088 32.031 32.169 32.161 32.112 31.885 31.716 31.691 35.415 37.423 38.229 34.344 33.503 38.208 39.1 38.426 35.958 39.092 37.078 32.352 31.533 31.413
44.575 44.611 44.675 44.676 44.641 46.391 48.453 45.595 45.289 45.309 44.887 44.609 44.475 44.487 44.493 44.478 44.457 44.346 44.449 44.456 45.445 44.345 43.991 43.786 43.509 43.465 45.8 40.92 45.208 48.02 47.767 47.609 47.312 47.321 47.497 47.716 48.052 48.254 48.539 48.744 49.018 49.291 49.164 48.912 48.642 48.453 48.143 47.826 47.618 47.416 47.22 47.685 48.123 48.4 48.677 48.764 48.426 48.179 47.876 47.597 47.401 47.071 43.979 43.396 43.205 38.683 37.814 37.611 37.55 37.582 37.558 38.61 37.538 37.575 37.815 49.252 49.592 38.873 37.573 41.117 41.498 37.907 41.431 39.18 40.259 41.357 39.829 41.289 39.357 37.321 37.125 37.032 36.96 36.937 36.838 36.792 36.743 36.714 38.179 36.261 35.92 35.94 36.46 35.989 35.947 35.908 35.751 40.498 44.226 45.834 45.708 45.147 43.792 45.026 46.566 46.114 43.133 37.109 35.675 35.506 35.439 35.486 35.59 35.804 35.672 35.677 42.673 45.534 45.714 45.631 45.616 45.382 45.281 45.19 45.052 44.947 44.783 44.656 44.617 44.671 44.826 44.952 45.079 45.204 45.331 45.482 45.596 45.944 45.625 45.432 45.331 45.248 45.09 44.964 44.793 44.713 44.088 42.479 41.985 41.962 41.991 41.951 42 42.102 42.251 37.999 38.015 37.913 39.212 35.648 35.526 35.46 35.406 35.359 35.428 36.799 35.527 35.548 36.625 36.889 36.909 36.465 36.422 35.997 35.734 35.517 35.47 35.583 35.636 35.701 42.925 44.45 44.582 44.876 42.854 46.709 45.879 41.087 35.961 35.893 35.952 36.018 35.986 35.958 36.467 36.044 36.093 36.209 36.217 36.211 36.355 36.481 36.434 36.54 36.53 36.578 36.683 36.745 36.724 36.79 36.841 36.935 37.038 37.063 37.157 37.22 37.314 37.355 37.439 37.483 37.555 37.61 37.736 37.788 37.89 37.94 38.059 38.091 38.165 38.282 38.364 38.441 38.46 38.561 38.623 38.754 38.855 38.889 39.003 39.053 39.162 39.236 39.314 39.384 39.389 39.446 39.536 39.574 39.594 39.601 39.55 39.67 39.693 39.671 39.673 39.679 39.648 39.586 39.648 39.587 39.521 39.5 39.45 39.326 39.344 39.294 39.242 39.117 39.043 38.964 38.929 38.836 38.835 38.668 39.063 35.288 33.796 34.251 33.124 32.401 32.389 32.436 32.325 32.374 32.444 32.644 32.338 37.523 41.976 41.537 41.406 41.49 41.424 41.404 41.43 41.444 43.184 42.713 35.307 33.265 32.287 32.376 32.392 32.391 32.355 32.353 32.367 32.424 32.366 32.429 32.371 32.387 32.392 32.361 32.381 32.378 32.434 32.528 32.67 33.128 33.314 33.853 34.143 34.353 34.566 34.597 34.482 34.174 33.804 33.554 33.313 33.21 33.085 32.912 32.918 32.832 32.778 32.741 32.671 33.689 32.896 32.751 32.916 32.94 37.737 36.379 33.014 33.343 32.99 32.827 32.789 37.633 38.831 39.26 39.959 40.142 39.785 38.059 32.844 32.75 33.375 34.14 36.938 39.463 39.044 34.172 32.548 32.879 36.11 38.094 39.044 38.747 34.153 33.053 32.579 32.494 32.357 32.289 32.237 32.211 32.245 32.291 32.312 32.605 33.648 32.643 32.428 32.432 32.334 32.353 32.506 38.395 38.41 33.88 32.277 32.171 32.699 32.261 32.076 32.119 32.09 32.126 32.118 32.146 32.27 32.217 32.074 31.973 31.726 31.744 36.725 37.64 38.351 38.697 38.115 37.574 37.49 39.366 37.6 32.361 31.576 31.602 32.192
44.605 44.63 45.819 44.71 44.78 45.956 45.768 45.408 46.108 44.921 44.569 44.534 44.547 44.544 44.48 44.449 44.397 44.45 44.885 45.112 44.299 43.945 43.981 43.534 42.995 42.478 41.605 46.868 48.583 48.359 48.1 47.867 47.592 47.432 47.18 47.423 47.644 47.978 48.16 48.417 48.731 48.948 49.147 49.193 48.953 48.623 48.425 48.151 48.002 47.704 47.47 47.222 48.133 48.564 48.805 48.495 48.192 47.962 47.663 47.466 47.173 44.716 43.48 43.222 38.355 37.866 37.691 37.601 37.613 37.574 37.517 37.534 37.573 37.539 37.598 37.772 38.954 37.461 39.43 41.585 39.397 41.035 41.358 39.575 41.471 38.492 40.86 41.15 38.259 38.924 37.214 37.193 37.262 36.888 36.811 36.77 36.713 37.59 37.032 35.918 35.921 36.193 36.092 35.976 35.895 35.875 40.234 43.736 45.133 45.925 45.311 44.639 45.515 44.28 45.043 42.236 38.854 35.752 35.5 35.471 35.499 35.523 35.663 35.89 36.641 35.826 45.101 45.37 45.488 45.585 45.71 45.586 45.462 45.351 45.245 45.024 44.951 44.795 44.679 44.528 44.675 44.81 44.946 45.026 45.136 45.311 45.376 45.584 45.711 45.709 45.506 45.385 45.279 45.167 45.045 44.947 44.79 44.402 43.011 41.937 41.958 41.989 41.999 42.018 42.06 42.119 41.091 41.393 38.149 37.328 36.408 35.478 35.492 35.407 35.719 35.353 35.376 36.409 35.586 36.663 36.834 36.449 36.484 37.436 35.781 35.552 35.555 35.576 35.615 35.722 37.099 40.253 43.888 40.118 45.271 45.797 42.263 36.782 35.631 36.061 35.935 35.856 37.16 36.792 36.878 35.663 35.521 35.823 36.082 36.206 40.2 40.28 36.549 36.623 36.721 36.765 36.79 36.818 36.833 36.94 36.969 37.066 37.098 37.119 37.275 37.362 37.434 37.509 37.511 37.601 37.698 37.762 37.905 41.634 39.063 38.191 38.149 38.258 38.345 38.417 38.545 38.561 38.603 38.771 38.845 38.877 38.92 38.98 39.038 39.135 39.246 39.335 39.447 39.489 39.639 39.478 39.536 39.545 39.745 39.755 39.792 39.777 39.822 39.774 39.827 39.643 39.788 39.743 39.766 39.57 39.486 39.636 39.579 39.552 39.468 39.83 36.566 39.803 35.809 34.411 34.432 34.411 34.476 32.671 32.6 32.556 32.619 32.492 32.422 32.339 32.284 32.319 32.255 32.673 39.74 39.047 40.891 41.602 41.473 41.408 41.456 41.468 41.47 41.531 41.562 36.5 33.236 34.088 32.329 32.435 32.352 32.384 32.394 32.47 32.43 32.387 32.454 32.47 32.494 32.458 32.425 32.462 32.464 32.464 32.473 32.468 32.521 32.572 32.694 33.023 33.362 33.909 34.153 34.277 34.201 34.253 34.097 33.923 33.638 33.482 33.318 33.187 33.146 33.021 32.887 32.851 32.81 32.717 32.731 34.677 33.344 33.099 33.126 36.427 38.847 39.786 38.866 35.096 33.47 33.017 32.732 33.955 36.735 38.283 39.071 39.259 36.25 33.149 32.872 33.214 33.276 33.417 33.898 38.011 38.363 34.028 33.407 33.222 36.879 38.687 39.711 39.216 38.205 33.827 32.596 32.516 32.272 32.339 32.282 32.289 32.316 32.321 32.345 32.289 32.53 32.659 32.543 32.416 32.441 32.418 32.458 36.942 38.465 37.691 33.382 32.245 32.399 32.609 32.174 32.091 32.049 32.099 32.12 32.026 32.15 32.279 32.289 32.158 31.899 31.579 32.642 36.949 37.756 37.909 37.377 36.81 32.35 35.733 43.26 34.125 39.343 32.287 31.959
44.758 44.764 45.266 44.826 46.412 48.774 46.126 44.998 44.719 44.613 44.586 44.572 44.548 44.539 44.465 44.44 44.519 45.793 45.919 45.742 44.413 43.961 43.732 43.274 42.823 40.716 47.325 49.183 48.904 48.67 48.363 48.25 47.979 47.656 47.403 47.24 47.403 47.637 47.873 48.17 48.368 48.65 48.85 49.151 49.135 49.017 48.76 48.517 48.306 47.96 47.811 47.622 47.34 48.301 48.536 48.324 48.043 47.749 47.457 47.228 45.171 43.491 43.231 38.471 37.781 37.735 37.711 37.637 37.605 37.606 37.613 37.613 37.52 37.602 37.547 37.51 37.523 37.49 39.891 39.004 37.966 41.365 37.783 41.485 39.222 40.14 41.188 37.658 39.022 38.988 38.926 37.217 36.861 36.839 36.789 36.736 36.745 37.078 35.943 35.927 35.974 36.017 35.949 35.934 35.88 35.82 41.723 43.969 44.712 44.384 44.826 44.284 44.518 44.088 42.365 37.951 35.53 35.472 35.461 35.485 35.479 35.518 35.814 36.566 37.898 44.006 45.064 45.16 45.325 45.444 45.537 45.741 45.665 45.513 45.352 45.221 45.084 44.976 44.855 44.705 44.558 44.634 44.755 44.914 45.09 45.166 45.272 45.423 45.522 45.585 45.728 45.516 45.441 45.288 45.178 45.035 44.918 44.778 44.513 43.66 42.371 41.917 41.948 41.957 42.081 42.123 42.145 42.255 40.379 37.107 38.558 35.541 35.404 35.38 35.3 35.27 35.988 35.906 35.815 35.583 38.904 36.577 36.267 36.125 35.67 35.529 35.554 35.648 35.659 35.973 37.136 36.32 36.102 36.793 37.284 36.4 35.692 35.921 35.524 35.984 35.303 35.808 36.357 35.47 35.987 35.045 35.588 35.594 35.312 38.08 40.196 40.421 39.803 39.997 40.391 39.162 36.838 36.883 36.897 36.952 37.406 36.99 37.094 37.149 37.248 37.348 37.392 37.544 37.624 37.738 37.886 39.415 41.748 44.542 44.822 39.885 38.364 38.458 38.46 38.63 38.697 38.702 38.742 38.86 38.87 39.084 39.231 39.261 39.327 39.196 38.956 38.798 38.532 39.021 40.271 35.092 33.975 32.564 33.45 34.806 33.808 40.097 40.964 40.22 34.818 34.999 33.764 33.521 34.857 32.724 32.887 34.361 34.517 34.93 34.734 33.367 33.492 33.514 33.223 34.003 33.045 32.633 32.601 32.463 32.428 32.414 32.405 32.395 32.353 32.307 32.325 32.319 37.917 40.69 41.596 41.373 41.427 42.572 41.864 41.502 41.51 42.139 41.422 36.754 35.176 32.262 32.381 32.42 32.442 32.476 32.462 32.5 32.457 32.506 32.459 32.438 32.518 32.464 32.502 32.506 32.458 32.487 32.47 32.533 32.537 32.524 32.555 32.651 32.741 33.064 33.462 33.918 34.01 34.007 33.947 33.798 33.765 33.667 33.595 33.429 33.318 33.213 33.124 33.047 32.928 32.796 32.826 32.671 33.592 33.897 32.843 33.036 33.045 37.796 39.529 40.282 39.583 38.864 33.921 33.828 32.781 33.509 33.055 33.872 37.737 38.353 35.584 32.79 33.562 33.11 32.957 32.922 34.03 33.737 34.699 33.849 33.946 32.956 36.57 39.198 39.58 38.7 34.196 32.564 32.603 33.036 32.565 32.396 32.403 32.38 32.326 32.372 32.393 32.386 32.402 32.606 32.613 32.575 32.58 32.435 32.375 35.178 37.584 38.981 36.304 33.623 32.588 33.711 32.251 32.195 32.101 32.142 32.181 32.154 32.122 32.17 32.314 32.348 32.089 31.797 31.682 34.985 37.336 37.203 34.08 31.821 35.975 43.569 45.591 44.561 36.256 41.516 34.098
45.755 46.437 47.525 47.719 46.195 47.178 45.836 44.709 44.592 44.597 44.618 44.584 44.562 44.476 44.462 44.521 45.761 46.036 46.155 45.971 45.571 43.57 43.417 43.206 44.057 48.591 48.806 49.066 49.168 49.029 48.797 48.49 48.245 48.008 47.843 47.525 47.315 47.383 47.504 47.759 48.029 48.274 48.567 48.773 48.96 49.25 49.137 48.827 48.633 48.342 48.047 47.852 47.573 47.401 47.407 47.867 47.789 47.546 47.271 46.932 43.543 43.325 43.218 38.456 37.78 37.724 37.706 37.707 37.654 37.622 37.599 37.601 37.575 37.539 37.499 37.513 37.403 37.381 37.742 37.364 40.75 38.436 39.296 41.421 40.611 41.325 38.519 38.409 38.993 39.068 37.528 36.885 36.83 36.797 36.788 36.764 36.893 35.961 35.975 36.002 35.972 36.006 35.975 35.95 35.906 36.015 38.507 44.44 43.455 39.653 45.807 44.242 44.013 44.708 43.104 38.716 36.247 35.466 35.421 35.477 35.517 35.561 35.635 36.072 44.561 44.781 44.909 45.039 45.126 45.303 45.409 45.572 45.672 45.692 45.541 45.369 45.229 45.104 45.009 44.87 44.723 44.566 44.637 44.791 44.857 44.988 45.081 45.218 45.362 45.465 45.604 45.654 45.613 45.464 45.289 45.247 45.064 44.951 44.852 44.803 42.696 41.996 41.981 42.008 42.115 42.176 42.217 42.275 39.157 39.487 37.566 35.47 35.436 35.379 35.36 35.32 35.329 35.556 35.435 36.648 35.862 36.374 36.634 36.261 35.657 35.576 35.593 35.634 35.657 35.875 36.38 37.673 36.19 36.462 36.392 35.531 36.396 36.015 35.647 36.312 35.15 35.788 35.438 35.26 35.316 35.684 35.246 35.467 35.443 38.216 39.099 38.935 39.566 41.103 41.272 38.026 36.611 36.671 36.8 41.594 41.351 36.773 36.85 36.826 36.641 37.07 37.189 37.161 37.427 37.297 37.361 39.87 44.253 44.727 44.332 41.328 37.728 38.029 38.143 38.044 38.154 38.156 38.168 38.422 38.318 38.353 43.413 44.148 43.037 40.829 38.918 37.336 37.735 39.523 40.069 34.995 32.79 32.689 32.744 32.739 33.75 41.431 42.409 42.116 36.574 34.569 33.326 32.847 32.819 32.747 32.748 33.938 34.715 34.935 34.939 34.194 34.436 34.268 34.551 37.323 33.558 32.815 32.555 32.416 32.402 32.369 32.312 32.514 32.471 33.36 34.793 39.712 41.488 41.436 41.397 41.638 41.62 41.798 41.816 42.292 42.312 35.702 32.399 32.415 32.358 32.479 32.432 32.465 32.53 32.478 32.589 32.548 32.521 32.575 32.567 32.555 32.533 32.527 32.57 32.544 32.543 32.551 32.483 32.586 32.575 32.587 32.58 32.597 32.829 33.104 33.397 33.815 33.808 33.796 33.682 33.502 33.544 33.462 33.485 33.421 33.294 33.226 33.1 32.98 32.864 32.79 32.665 32.637 34.256 33.852 32.868 32.994 36.544 38.814 40.016 40.103 39.042 38.185 33.389 32.81 32.768 32.686 33.403 32.702 32.68 35.666 32.81 33.822 33.862 33.08 33.015 33.847 33.03 32.784 32.783 32.842 33.175 36.422 38.613 39.713 39.05 38.33 32.619 32.656 32.584 33.447 32.495 32.402 32.541 32.525 32.525 32.462 32.449 32.433 32.446 32.524 32.88 32.908 32.65 32.576 32.422 32.896 37.337 38.333 38.367 33.915 32.599 32.792 33.519 32.242 32.117 32.179 32.183 32.196 32.178 32.152 32.236 32.393 32.364 32.114 32.154 32.724 35.827 32.158 31.786 32.046 41.748 44.583 46.37 46.198 44.073 43.606 34.426
46.871 46.628 46.575 46.479 46.706 45.19 44.773 44.638 44.638 44.63 44.624 44.584 44.524 44.544 44.693 46.368 46.303 46.163 45.948 45.499 45.523 43.465 43.118 41.4 47.173 48.322 48.499 48.816 49.06 49.21 49.062 48.807 48.573 48.342 48.092 47.836 47.616 47.354 47.252 47.428 47.716 47.916 48.263 48.517 48.716 48.901 49.179 49.174 48.972 48.695 48.457 48.115 47.893 47.587 47.439 47.398 47.528 47.295 46.988 43.903 43.403 40.537 38.311 37.832 37.802 37.778 37.738 37.701 37.659 37.669 37.63 37.573 37.542 37.553 37.502 37.488 37.425 37.346 37.287 37.234 37.813 38.886 40.004 39.808 41.304 39.085 37.052 37.39 38.9 37.63 36.883 36.818 36.818 36.763 36.763 36.385 36.025 35.935 35.932 36.042 35.995 36.026 35.951 35.936 35.943 36.474 39.945 38.813 41.778 42.717 38.486 34.986 37.501 39.253 37.5 36.591 35.472 35.461 35.471 35.461 35.49 35.532 35.581 35.633 38.285 44.307 44.724 44.85 45.026 45.132 45.267 45.399 45.488 45.658 45.659 45.565 45.467 45.26 45.129 45.031 44.95 44.737 44.663 44.635 44.688 44.866 44.961 45.101 45.202 45.334 45.434 45.591 45.792 45.613 45.463 45.347 45.216 45.064 44.959 44.882 44.739 42.624 42.177 42.088 42.152 42.203 42.269 41.764 38.782 39.721 35.621 35.555 35.495 35.427 35.414 35.344 35.317 35.387 36.353 35.798 36.151 37.001 36.167 35.759 35.52 35.541 35.553 35.635 35.753 36.824 36.373 36.189 36.213 36.074 36.023 35.709 36.186 35.456 35.124 35.985 35.053 35.001 34.961 34.868 34.845 34.817 35.195 35.362 35.318 34.817 34.878 34.882 34.994 36.672 37.486 36.054 35.835 36.049 36.208 38.128 39.043 37.419 36.16 36.178 36.237 36.393 36.37 36.307 36.482 38.559 39.5 37.25 40.208 41.632 41.528 37.587 38.452 37.012 37.065 37.115 38.904 37.276 37.283 37.343 37.778 41.83 45.568 46.081 45.007 45.356 42.038 37.046 35.909 37.758 38.371 34.095 32.987 32.716 32.732 32.863 37.774 41.532 42.287 42.137 35.878 33.452 33.715 32.918 32.832 32.734 32.72 33.758 34.646 35.147 34.97 34.799 34.217 34.408 36.872 35.653 33.752 32.92 32.682 32.384 32.276 32.289 32.764 35.937 40.869 41.608 44.67 43.368 41.327 41.521 41.512 41.537 41.659 41.709 36.774 35.094 32.33 32.368 32.46 32.498 32.478 32.527 32.459 32.532 32.582 32.584 32.609 32.526 32.578 32.587 32.547 32.576 32.535 32.529 32.603 32.591 32.569 32.592 32.552 32.587 32.607 32.593 32.594 32.632 32.775 33.06 33.515 33.741 33.671 33.619 33.487 33.372 33.416 33.425 33.461 33.418 33.316 33.239 33.142 32.949 32.83 32.759 32.642 32.674 33.94 32.904 32.866 32.884 38.285 39.457 40.125 39.992 38.707 34.445 33.127 32.886 32.653 32.611 32.598 32.576 32.655 32.714 32.692 32.841 36.025 33.447 33.106 33.237 33.076 32.908 32.836 32.988 33.387 33.01 35.431 38.241 38.434 34.235 32.662 32.628 32.637 32.543 32.464 32.565 33.073 33.515 32.725 32.59 32.536 32.408 32.515 32.464 32.713 33.237 32.717 32.709 32.542 32.453 34.818 38.207 39.053 37.04 32.95 32.589 32.579 32.621 32.209 32.214 32.168 32.209 32.224 32.202 32.162 32.336 32.424 34.642 36.917 32.967 31.815 31.79 32.045 32.071 40.275 45.549 45.984 46.282 42.477 45.551 34.802
47.011 46.742 46.312 47.49 46.272 44.728 44.682 44.699 44.674 44.642 44.597 44.538 44.552 44.676 46.646 45.948 46.057 45.84 45.488 45.757 46.199 43.133 45.751 47.731 47.732 47.967 48.199 48.493 48.736 48.893 49.194 49.11 48.884 48.613 48.386 48.165 47.834 47.637 47.386 47.189 47.461 47.671 47.924 48.138 48.447 48.672 48.877 49.188 49.245 48.975 48.736 48.45 48.227 48.025 47.788 47.472 47.196 47.003 45.117 43.461 43.15 38.588 37.925 37.878 37.816 37.811 37.757 37.76 37.691 37.677 37.667 37.568 37.565 37.535 37.498 37.42 37.366 37.331 37.252 37.2 37.137 37.115 38.906 40.334 41.241 37.496 37.03 37.036 38.836 36.941 36.802 36.779 36.747 36.78 37.625 36.142 35.934 35.97 36.025 36.077 36.041 35.992 35.888 35.948 35.972 35.716 35.214 35.055 42.771 42.668 42.595 36.69 35.138 35.227 35.608 35.848 35.882 35.507 35.484 35.456 35.503 35.49 35.527 35.604 35.661 37.415 44.287 44.752 44.865 44.971 45.105 45.25 45.343 45.455 45.592 45.693 45.558 45.492 45.315 45.207 45.124 44.963 44.772 44.677 44.564 44.617 44.821 44.935 45.092 45.176 45.337 45.42 45.557 45.673 45.615 45.431 45.383 45.289 45.167 45.054 44.911 44.74 42.306 42.013 42.031 42.162 42.304 37.969 39.35 36.17 35.57 35.51 35.477 35.422 35.461 35.415 35.352 35.326 35.413 35.864 36.002 37.413 35.848 35.451 35.573 35.54 35.629 35.699 35.787 36.309 37.205 36.441 36.592 35.672 35.835 35.941 35.253 35.363 35.074 34.992 34.934 34.883 34.836 34.801 34.79 34.777 34.786 34.717 34.785 34.769 34.783 34.799 34.779 34.874 34.897 34.988 35.143 35.536 35.507 36.274 35.446 35.934 35.45 35.548 35.603 35.719 35.894 36.015 36.417 39.429 40.012 38.448 37.958 39.033 39.477 39.872 39.372 36.845 36.429 36.39 36.57 36.66 36.52 36.447 36.866 43.051 45.797 42.403 46.605 40.616 44.848 42.367 37.115 35.984 38.477 37.551 34.262 32.759 32.785 32.779 36.902 40.764 41.82 41.818 37.477 37.766 33.305 32.884 32.837 32.804 32.734 33.956 34.969 34.712 35.074 34.799 34.474 34.138 34.09 33.467 33.017 32.814 32.531 32.351 32.567 39.666 43.524 42.135 41.525 41.501 41.463 41.476 41.595 41.664 41.75 42.334 35.704 35.229 32.302 32.385 32.466 32.459 32.499 32.485 32.474 32.563 32.575 32.645 32.637 32.516 32.641 32.571 32.635 32.598 32.571 32.577 32.558 32.543 32.595 32.57 32.639 32.63 32.594 32.636 32.592 32.642 32.583 32.669 32.787 33.093 33.515 33.655 33.569 33.443 33.424 33.369 33.353 33.436 33.459 33.318 33.272 33.16 33.159 32.946 32.78 32.685 32.642 32.688 34.693 32.804 32.914 32.994 37.681 39.909 39.86 38.984 38.096 32.979 32.871 33.251 32.944 32.625 32.655 32.61 32.575 32.625 32.654 32.838 39.286 38.883 36.978 33.576 33.071 33.048 33.162 33.278 33.599 32.889 32.559 32.573 34.104 33.138 32.665 32.759 32.744 32.692 32.631 32.696 34.965 36.601 34.8 33.572 32.64 32.53 32.542 32.498 32.52 33.548 33.215 32.732 33.699 34.924 33.517 35.512 39.119 38.955 35.667 32.818 32.648 33.813 32.625 32.253 32.187 32.268 32.223 32.188 32.23 32.295 32.544 36.049 37.923 36.067 32.39 32.139 32.216 32.314 38.65 43.578 46.343 44.8 45.698 45.13 35.077
47.094 46.947 48.067 45.897 44.702 44.731 44.704 44.719 44.689 44.634 44.526 44.568 44.674 45.488 45.962 45.977 45.767 45.568 45.963 46.378 46.918 47.271 44.048 47.1 47.379 47.655 47.89 48.144 48.344 48.633 48.919 49.12 49.184 48.953 48.772 48.495 48.283 47.957 47.737 47.479 47.252 47.346 47.588 47.839 48.117 48.279 48.66 48.81 49.09 49.231 49.056 48.782 48.541 48.279 48.028 47.847 47.576 47.367 45.038 43.257 41.176 38.098 37.993 37.916 37.877 37.802 37.797 37.75 37.719 37.685 37.676 37.629 37.526 37.527 37.461 37.376 37.33 37.26 37.194 37.172 37.136 37.061 37.441 37.991 37.409 37.001 36.968 37.251 37.096 36.851 36.784 36.757 36.73 36.736 36.739 35.954 35.984 36.003 36.059 36.048 35.996 35.947 35.975 36.229 35.708 35.405 35.006 39.256 42.976 42.852 42.701 42.004 37.14 35.074 35.206 35.454 35.625 35.706 35.558 35.532 35.528 35.503 35.48 35.513 35.613 35.662 37.39 44.253 44.633 44.832 44.927 45.075 45.185 45.345 45.433 45.586 45.712 45.651 45.518 45.317 45.231 45.094 45.024 44.843 44.736 44.664 44.652 44.785 44.888 45.036 45.163 45.258 45.387 45.532 45.686 45.72 45.597 45.384 45.265 45.175 45.1 42.332 41.215 39.89 38.116 42.085 40.166 40.103 37.194 35.565 35.54 35.519 35.518 35.5 35.478 35.387 35.394 35.339 35.535 35.745 35.629 35.999 35.435 35.494 35.548 35.576 35.566 35.652 35.748 35.9 36.012 36.271 36.189 35.272 36.1 35.965 35.021 34.939 34.909 34.885 34.82 34.851 34.784 34.765 34.687 34.662 34.655 34.623 34.625 34.708 34.701 34.777 34.754 34.864 34.891 34.885 34.95 34.928 34.966 35.072 35.09 34.992 35.084 35.309 35.417 35.853 35.251 35.319 35.36 38.597 38.644 36.227 39.024 39.337 39.378 39.327 39.898 37.689 36.179 37.211 36.073 36.273 37.15 36.105 36.179 42.389 44.893 45.786 41.537 44.977 42.819 43.579 34.787 35.555 39.724 35.767 33.891 32.836 32.706 32.809 33.597 38.303 41.151 41.628 37.95 36.856 33.416 32.98 32.858 32.79 32.764 35.501 35.213 35.351 34.92 34.558 34.102 33.501 33.255 32.972 32.809 32.638 38.895 41.748 41.794 42.228 42.498 41.876 41.623 41.573 41.605 41.7 41.753 42.001 35.108 33.366 32.273 32.356 32.302 32.434 32.491 32.506 32.572 32.562 32.521 32.547 32.512 32.563 32.489 32.466 32.512 32.479 32.539 32.492 32.462 32.545 32.511 32.518 32.588 32.576 32.612 32.614 32.671 32.697 32.638 32.669 32.606 32.637 32.793 33.065 33.489 33.64 33.548 33.375 33.238 33.296 33.308 33.361 33.374 33.253 33.212 33.164 33.051 32.932 32.716 32.68 32.671 32.776 34.783 32.806 32.846 32.903 32.887 34.886 39.277 38.305 33.504 33.032 32.901 33.156 32.975 32.648 32.684 32.604 32.63 32.54 32.613 37.888 40.347 39.885 39.277 38.757 35.884 33.33 34.313 34.8 33.988 32.712 32.623 32.59 32.6 32.669 32.7 32.804 32.842 32.853 32.796 32.888 35.446 38.336 39.458 38.387 33.951 32.789 32.555 32.61 32.567 32.669 32.96 33.4 34.475 33.155 33.311 34.656 38.089 39.327 38.729 36.571 32.924 33.048 33.339 32.367 32.278 32.207 32.274 32.252 32.256 32.22 32.311 34.268 36.369 33.501 32.34 32.296 32.238 32.255 32.343 40.064 41.885 42.741 43.805 37.43 37.179
47.218 47.83 44.932 44.762 44.713 44.735 44.72 44.671 44.666 44.617 44.673 44.799 46.111 45.887 46.121 45.713 45.55 46.045 46.569 47.053 47.451 47.962 48.338 43.549 46.912 47.332 47.617 47.887 48.067 48.282 48.507 48.789 49.101 49.209 49.124 48.797 48.461 48.305 47.998 47.807 47.518 47.315 47.332 47.535 47.685 48.022 48.307 48.629 48.75 49.033 49.261 49.102 48.902 48.654 48.426 48.175 47.848 45.587 44.024 40.741 38.246 38.121 38.028 37.965 37.901 37.87 37.804 37.779 37.728 37.717 37.613 37.644 37.536 37.476 37.396 37.323 37.279 37.201 37.174 37.13 37.04 37.007 37.008 36.997 36.967 36.902 36.931 37.253 36.814 36.778 36.715 36.739 36.791 36.763 36.041 35.999 36.008 36.059 36.051 36.005 35.958 35.969 36.014 35.978 35.462 35.072 39.485 43.275 43.2 43.032 42.897 42.79 42.674 41.051 35.203 35.116 35.414 35.58 36.039 35.596 36.465 35.944 35.828 35.544 35.554 35.559 35.652 35.68 41.2 44.461 44.786 44.912 45.059 45.163 45.314 45.411 45.565 45.673 45.643 45.539 45.387 45.257 45.144 45.018 44.857 44.754 44.632 44.608 44.756 44.851 45.012 45.056 45.259 45.375 45.473 45.653 45.707 45.584 45.522 45.384 45.074 41.256 40.361 39.439 36.675 38.158 39.399 38.974 35.971 35.613 35.564 35.553 35.614 35.514 35.484 35.505 35.473 35.411 35.376 35.434 35.373 35.431 35.469 35.432 35.494 35.566 35.675 35.645 35.756 35.911 35.925 36.454 36.114 35.813 36.001 35.2 34.869 34.877 34.894 34.8 34.785 34.761 34.641 34.653 34.647 34.665 34.672 34.56 34.614 34.63 34.649 34.686 34.744 34.718 34.79 34.81 34.878 34.911 34.936 34.951 34.958 34.969 35.084 35.092 36.374 35.691 35.083 35.12 35.158 35.134 35.146 35.171 35.832 36.07 37.675 37.121 36.889 35.353 35.394 35.457 35.53 35.557 35.658 35.75 36.028 35.792 43.769 45.665 45.719 45.469 44.995 41.294 36.974 37.183 40.268 39.281 33.091 33.456 32.748 32.831 33.003 39.677 38.535 37.441 39.003 35.229 33.335 33.093 32.846 32.822 32.79 34.662 37.484 34.886 34.855 34.134 33.327 33.087 32.949 33.853 38.273 39.875 43.256 42.549 41.55 41.67 41.657 41.677 41.629 41.634 42.242 37.65 34.836 32.204 32.262 32.305 32.221 32.289 32.319 32.355 32.41 32.402 32.444 32.412 32.457 32.424 32.346 32.415 32.434 32.504 32.5 32.456 32.476 32.466 32.477 32.507 32.483 32.544 32.464 32.566 32.611 32.663 32.686 32.697 32.743 32.733 32.674 32.729 32.892 33.172 33.507 33.573 33.404 33.222 33.131 33.17 33.166 33.267 33.232 33.197 33.093 33.007 33.062 32.895 32.682 32.67 32.637 32.778 34.465 32.925 32.893 32.869 32.982 32.961 32.912 34.39 33.379 32.907 32.82 32.769 32.708 32.724 32.701 32.68 32.673 32.654 34.01 39.522 40.118 40.37 40.401 39.581 39.358 34.83 33.997 34.215 33.183 32.75 33.294 32.61 32.673 32.771 32.883 32.912 32.862 32.934 32.878 33.172 36.676 38.83 40.12 39.757 38.687 35.705 32.832 32.578 32.651 32.617 33.079 34.312 34.57 33.078 33.042 33.118 36.764 38.944 39.325 36.127 33.358 33.155 34.781 34.039 32.403 32.231 32.325 32.329 32.317 32.281 32.297 32.385 32.492 32.571 32.498 32.483 32.448 32.36 32.37 34.674 38.294 39.631 41.513 39.719 38.352
47.915 44.961 44.792 44.765 44.749 44.699 44.693 44.645 44.637 44.74 45.153 46.16 45.994 46.197 45.695 45.799 46.121 46.582 47.051 47.755 48.088 48.606 48.685 48.066 41.971 42.639 47.085 47.559 47.809 48.062 48.256 48.495 48.737 49.078 49.226 49.077 48.917 48.65 48.374 48.119 47.84 47.624 47.411 47.216 47.489 47.706 47.995 48.246 48.463 48.729 48.994 49.105 49.153 48.985 48.691 48.475 45.704 43.262 43.19 39.134 38.336 38.181 38.093 37.998 37.974 37.886 42.048 39.569 38.026 37.727 37.693 37.627 37.561 37.447 37.379 37.298 37.219 37.151 37.069 37.021 37.029 36.926 36.94 36.906 36.858 36.786 37.435 36.779 36.734 36.706 36.72 36.743 37.199 36.103 35.988 36.03 36.077 36.11 36.025 36.01 35.943 36.006 35.753 35.477 35.224 39.552 43.614 43.408 43.327 43.221 43.136 42.913 42.827 42.702 42.705 35.301 35.233 35.285 35.504 36.731 36.764 35.986 35.693 35.653 35.541 35.573 35.601 35.686 35.656 37.454 44.331 44.764 44.873 44.966 45.137 45.29 45.377 45.511 45.608 45.701 45.528 45.383 45.311 45.248 45.07 44.913 44.808 44.658 44.545 44.715 44.853 44.983 45.053 45.167 45.286 45.425 45.644 45.707 45.604 42.153 39.314 39.592 38.891 37.178 35.78 36.259 38.587 35.774 35.589 35.59 35.528 35.602 36.483 35.918 35.607 35.542 35.481 35.472 35.479 35.684 35.49 35.411 35.448 35.504 35.583 35.605 35.639 35.621 35.718 35.793 35.998 36.538 36.027 35.93 35.57 34.926 34.788 34.801 34.771 34.702 34.673 34.659 34.658 34.616 34.684 34.693 34.641 34.694 34.757 34.724 34.702 34.718 34.677 34.727 34.743 34.747 34.809 34.835 34.873 34.988 34.979 34.982 35.022 34.989 35.902 35.064 35.041 35.096 35.098 35.106 35.141 35.173 35.217 35.255 35.203 35.263 35.318 35.348 35.355 35.315 35.425 35.494 35.614 35.64 35.667 35.519 37.895 43.003 45.687 45.765 44.652 36.846 35.197 40.554 42.999 36.435 37.568 34.147 32.807 32.815 37.151 41.342 41.577 40.606 41.74 35.252 33.362 33.028 32.879 32.861 32.838 35.711 38.23 37.466 33.892 33.036 32.937 38.096 39.013 41.915 41.839 41.563 41.638 41.506 41.886 41.826 41.676 41.684 36.77 34.74 32.234 32.285 32.332 32.313 32.419 32.398 32.396 32.356 32.317 32.414 32.366 32.419 32.413 32.39 32.459 32.5 32.554 32.566 32.55 32.648 32.65 32.537 32.743 32.736 32.588 32.65 32.603 32.625 32.527 32.589 32.623 32.561 32.623 32.623 32.762 32.801 32.779 32.885 33.062 33.289 33.562 33.635 33.352 33.127 32.958 33.027 33.03 33.126 33.097 33.064 33.01 32.923 32.933 32.799 32.723 32.671 32.708 32.726 34.398 34.12 33.938 33.226 33.938 33.124 32.986 32.927 32.943 32.923 32.865 32.83 32.805 32.732 32.736 32.725 32.672 32.648 36.512 38.464 39.294 41.021 40.227 40.535 38.599 33.884 34.269 34.478 33.306 32.829 32.799 32.797 32.874 34.584 35.166 33.54 33.005 32.945 32.959 33.129 38.452 39.348 39.985 39.34 38.21 35.027 34.249 32.645 32.594 32.615 32.672 32.837 33.986 32.963 33.013 33.038 33.144 38.04 37.04 35.336 35.205 33.576 34.214 34.074 32.601 32.369 32.235 32.364 32.313 32.348 32.32 32.402 32.488 32.572 32.606 32.642 32.497 32.483 32.438 32.405 37.058 40.95 41.825 44.048 43.676
44.893 44.818 44.756 44.775 44.818 44.736 44.664 44.692 44.786 46.269 46.531 47.051 45.962 45.567 45.769 46.241 46.669 47.27 47.718 48.342 48.639 48.503 48.059 47.676 45.312 40.243 41.368 47.13 47.53 47.742 47.949 48.136 48.45 48.722 48.89 49.175 49.114 48.904 48.619 48.402 48.177 47.87 47.653 47.417 47.254 47.379 47.687 47.855 48.192 48.346 48.634 48.94 49.146 49.221 49.006 44.921 43.871 41.451 39.27 38.478 38.439 38.289 38.164 38.088 39.633 38.127 42.727 44.495 40.153 37.702 37.666 39.486 40.522 37.68 37.373 37.273 37.184 37.103 37.065 36.971 36.861 36.867 36.861 36.815 36.816 36.772 36.747 36.759 36.695 36.673 36.684 38.353 36.409 36.028 35.996 36.072 36.072 36.107 36.038 35.96 36.044 36.024 35.279 35.159 35.611 42.695 43.732 43.553 43.445 43.413 43.206 43.119 43.016 42.848 42.673 41.357 37.955 35.165 35.134 35.391 35.524 35.618 36.991 35.995 35.587 35.529 35.608 35.626 35.643 35.66 39.186 44.024 44.687 44.842 44.95 45.096 45.188 45.347 45.462 45.617 45.666 45.553 45.457 45.345 45.208 45.093 44.993 44.894 44.705 44.519 44.713 44.785 44.896 45.043 45.182 45.293 45.435 45.614 45.601 37.104 38.31 38.866 37.206 35.697 35.699 35.693 35.664 35.608 35.574 35.624 35.666 35.716 35.76 36.284 35.603 35.583 35.549 35.528 35.494 35.449 35.501 35.469 35.533 35.543 35.514 35.56 35.564 35.694 35.731 35.748 35.893 36.281 35.486 35.125 35.215 34.787 34.658 34.633 34.642 34.64 34.663 34.615 34.614 34.693 34.706 34.692 34.745 34.785 34.784 34.751 34.741 34.769 34.721 34.761 34.8 34.743 34.758 34.827 34.86 34.892 34.901 34.937 34.919 35.107 35.447 35.021 35.1 35.043 35.11 35.172 35.124 35.147 35.167 35.19 35.241 35.273 35.308 35.328 35.27 35.36 35.398 35.489 35.515 35.597 35.516 35.483 35.382 36.619 36.707 36.638 38.349 36.153 35.086 41.184 43.155 43.295 42.163 36.413 32.902 32.99 39.671 42.476 42.61 40.634 40.798 35.142 33.336 33.082 32.88 32.832 32.828 33.595 37.102 35.287 35.619 38.671 40.821 41.631 41.596 41.556 41.516 41.625 41.669 42.15 41.722 42.116 37.75 35.577 33.368 32.283 32.385 32.427 32.465 32.349 32.431 32.46 32.44 32.414 32.417 32.512 32.449 32.549 32.551 32.532 32.661 32.78 32.77 32.92 32.768 33.042 33.25 33.115 33.346 33.211 33.369 33.383 33.196 33.09 33.003 32.734 32.617 32.588 32.599 32.63 32.79 32.844 32.919 32.928 33.068 33.36 33.607 33.667 33.428 32.982 32.883 32.835 32.838 32.914 32.815 32.906 32.898 32.783 32.793 32.743 32.709 32.728 32.82 32.724 33.885 33.748 34.404 34.577 33.472 32.968 33.077 33.02 32.976 33.138 33.021 32.869 32.805 32.831 32.794 32.765 32.711 32.691 32.879 33.804 37.24 39.008 39.153 39.466 34.194 34.663 34.535 34.929 34.464 33.213 32.902 32.852 33.108 36.969 36.703 36.159 34.664 34.516 33.032 36.576 38.611 40.009 39.618 38.928 34.416 33.344 34.85 33.308 33.385 32.69 32.639 32.767 33.805 33.594 33.026 33.245 30.21 33.05 35.384 35.402 37.239 34.933 33.832 33.461 33.112 32.451 32.245 32.376 32.369 32.366 32.299 32.338 32.478 32.61 32.639 32.671 32.604 32.601 32.519 32.39 32.494 40.625 42.416 44.006 44.128
44.823 44.875 44.819 44.808 44.78 44.717 45.27 44.769 46.249 46.754 47.127 47.066 45.636 46.003 46.449 46.8 47.263 47.765 48.413 48.783 48.541 48.031 47.459 46.894 46.635 41.992 39.979 41.64 46.897 47.38 47.607 47.888 48.198 48.363 48.634 48.936 49.13 49.225 48.988 48.72 48.485 48.229 47.986 47.729 47.522 47.194 47.287 47.528 47.837 48.06 48.359 48.521 48.837 49.074 46.161 43.244 41.496 38.792 38.605 38.59 38.443 38.345 38.268 38.607 38.891 39.892 40.633 39.79 39.894 37.691 40.29 41.17 40.283 40.091 37.908 37.273 37.172 37.069 37.025 36.892 36.81 36.845 36.756 36.784 37.478 36.735 37.136 36.757 36.672 36.648 37.59 37.232 36.049 36.041 36.063 36.103 36.098 36.084 36.018 35.988 36.049 35.484 36.453 35.258 43.324 43.469 43.609 43.673 43.586 43.525 43.377 43.283 43.092 43.02 42.924 42.784 42.634 41.781 35.107 35.132 35.312 35.716 35.604 35.582 35.6 35.582 35.585 35.592 35.579 35.639 35.677 35.748 42.847 44.643 44.826 44.928 45.074 45.181 45.334 45.428 45.611 45.683 45.63 45.491 45.429 45.22 45.111 44.989 44.815 44.776 44.709 44.559 44.775 44.912 44.973 45.147 45.239 45.48 38.626 35.831 35.748 35.712 35.715 35.716 35.64 35.606 35.6 35.627 35.702 36.911 35.76 35.73 35.697 35.732 35.681 35.606 35.569 35.505 35.502 36.384 35.551 35.589 35.76 35.582 35.608 35.642 35.651 35.662 35.688 35.717 35.753 35.664 35.387 35.095 34.885 34.68 34.673 34.644 34.651 34.672 34.609 34.661 34.743 34.756 34.756 34.842 34.884 35.21 34.869 34.87 34.818 34.791 34.805 34.807 34.844 34.846 34.851 34.831 34.818 34.813 34.932 34.969 34.936 35.028 34.97 35.005 35.034 35.066 35.091 35.11 35.139 35.145 35.172 35.192 35.248 35.189 35.272 35.307 35.322 35.33 35.377 35.366 35.409 35.46 35.459 35.456 35.363 35.8 35.106 35.296 34.072 33.995 36.146 39.49 42.104 43.589 43.356 40.733 34.032 32.999 36.18 42.053 42.656 44.704 41.479 38.04 33.385 33.197 32.968 32.867 32.839 32.849 39.416 39.85 40.813 41.607 41.584 41.599 41.506 41.696 41.69 41.894 41.764 40.219 40.252 33.294 32.296 32.317 32.381 32.404 32.386 32.436 32.454 32.469 32.537 32.511 32.611 32.73 32.71 32.823 32.738 32.983 33.083 33.177 33.286 33.215 33.497 33.58 33.711 33.796 33.799 33.886 33.907 33.859 33.836 33.724 33.631 33.419 33.138 32.947 32.719 32.636 32.669 32.61 32.725 32.866 32.916 33.105 33.201 33.426 33.594 33.675 33.545 33.196 32.835 32.749 32.751 32.775 32.743 32.769 32.712 32.715 32.678 32.648 32.738 32.897 32.915 32.722 33.112 33.421 33.601 33.6 33.063 33.195 37.227 36.79 33.725 33.071 33.031 33.69 33.143 32.901 32.847 32.821 32.747 33.763 33.753 33.064 33.131 34.588 37.817 34.771 33.132 33.676 34.281 33.475 33.587 36.783 34.721 34.342 35.571 37.427 37.529 37.146 36.65 36.142 34.79 34.223 35.226 38.768 39.07 36.154 33.297 33.014 33.485 33.313 32.908 32.97 32.759 32.773 32.93 33.998 34.688 34.266 34.429 33.216 33.5 36.683 39.348 38.205 34.51 32.982 33.069 32.406 32.283 32.336 32.401 32.444 32.485 32.406 32.472 32.576 32.709 32.667 32.692 36.036 38.312 35.861 32.617 41.039 43.775 43.93 44.337
44.844 44.836 44.856 44.755 44.703 44.772 44.845 46.022 46.284 47.213 46.454 45.723 45.958 46.555 46.922 47.451 47.963 48.456 48.742 48.434 47.945 47.398 46.79 46.365 45.955 45.475 44.15 40.015 41.253 46.385 47.288 47.573 47.833 48.055 48.299 48.563 48.839 49.055 49.201 49.017 48.842 48.484 48.229 48.043 47.791 47.579 47.289 47.282 47.516 47.77 48.015 48.319 48.067 45.031 43.269 43.234 39.001 38.848 38.705 38.653 38.518 38.371 38.725 39.062 38.306 45.03 41.078 38.969 39.604 40.369 41.302 41.191 40.763 40.95 39.99 38.841 37.179 37.037 36.986 36.861 36.771 36.735 36.792 37.044 36.605 36.619 36.65 36.699 36.726 36.719 37.231 36.116 36.074 36.074 36.167 36.109 36.072 36.048 36.027 36.092 35.454 41.217 43.541 43.089 43.179 43.317 43.469 43.571 43.687 43.668 43.576 43.519 43.311 43.115 43.018 42.877 42.765 42.484 42.159 39.231 35.091 35.248 35.479 35.601 35.65 35.622 35.602 35.6 35.601 35.649 35.663 35.751 41.278 43.661 44.497 44.716 44.926 45.04 45.147 45.279 45.378 45.53 45.647 45.637 45.547 45.397 45.306 45.162 45.028 44.841 44.759 44.639 44.604 44.738 44.837 44.983 45.122 28.269 35.529 35.816 35.777 35.71 35.705 35.631 35.665 35.731 36.543 35.719 35.66 35.676 35.737 35.719 35.726 35.725 35.611 35.61 35.597 35.562 35.566 35.684 35.558 37.45 36.89 36.18 35.606 35.652 35.567 35.663 35.689 35.735 35.626 35.401 35.274 35.094 34.88 34.679 34.634 34.624 34.665 34.672 34.74 34.795 34.911 34.758 34.838 35.8 35.899 35.237 34.981 35.033 34.998 35.42 34.91 34.891 34.863 34.878 34.879 34.932 36.84 35.429 34.996 34.952 35.069 35.231 34.995 35.002 34.995 35.013 35.034 35.1 35.101 35.132 35.134 35.187 35.228 35.237 35.24 35.305 35.28 35.27 35.341 35.388 35.41 35.419 35.384 37.022 35.377 35.431 35.722 35.084 34.705 33.896 34.582 38.319 42.541 38.117 43.125 41.533 32.9 32.907 32.853 40.326 42.443 42.864 41.8 34.448 33.32 33.126 32.875 32.908 38.449 39.507 41.701 41.649 41.582 41.656 41.709 41.71 41.675 41.748 37.155 42.229 35.411 33.544 32.398 32.347 32.427 32.429 32.44 32.477 32.447 32.481 32.617 32.722 32.963 33.058 33.211 33.206 33.477 33.595 33.601 33.822 33.795 33.885 33.889 33.931 33.982 33.917 33.975 33.905 33.839 33.794 33.603 33.497 33.522 33.253 33.245 33.048 32.94 32.862 32.713 32.708 32.714 32.685 32.701 32.822 32.859 33.065 33.245 33.458 33.607 33.684 33.654 33.395 33.101 32.74 32.719 32.658 32.646 32.65 32.588 32.558 32.63 32.766 33.049 33.143 32.934 32.722 32.765 34.272 32.889 33.057 33.338 34.246 39.326 39.1 38.091 35.956 33.17 33.679 33.252 33.082 32.837 32.852 32.765 33.026 33.033 33.321 32.959 33.011 34.16 33.213 33.187 33.616 33.348 33.471 36.059 37.716 37.216 35.103 35.705 36.719 36.947 37.612 37.555 37.003 36.505 35.971 34.816 34.9 35.506 34.729 35.055 33.276 33.07 33.099 32.934 33.037 33.746 32.809 32.772 32.902 33.353 33.044 34.077 34.372 33.304 33.394 38.644 39.377 37.988 33.449 33.069 32.528 32.376 32.289 32.383 32.505 32.54 32.484 32.486 32.548 32.687 32.82 32.878 39.272 41.266 42.447 39.866 41.855 42.834 42.828 43.719
44.845 44.853 44.775 44.762 44.79 45.774 46.115 46.135 46.189 46.704 45.839 46.2 46.621 47.048 47.649 48.177 48.659 48.769 48.343 47.885 47.367 46.713 46.283 45.802 45.36 45.691 45.878 41.439 43.525 44.418 44.944 47.211 47.494 47.768 48.033 48.211 48.471 48.746 48.995 49.206 49.061 48.858 48.62 48.324 48.079 47.884 47.676 47.453 47.284 47.521 47.75 45.435 43.318 43.246 41.629 39.206 38.993 38.884 38.798 38.714 38.572 38.535 39.032 38.788 37.521 38.338 40.094 38.694 39.318 41.112 41.172 41.19 40.981 40.814 40.431 40.158 39.303 37.028 36.894 36.88 36.782 37.838 36.639 36.568 36.549 36.578 36.664 36.682 36.657 37.798 36.203 36.08 36.125 36.131 36.133 36.136 36.073 36.044 36.075 36.99 37.611 37.903 42.121 42.898 43.024 43.15 43.285 43.353 43.534 43.7 43.759 43.556 43.446 43.313 43.2 43.114 43.004 42.82 42.687 42.363 36.823 35.154 35.165 35.405 35.741 36.03 35.657 35.628 35.628 35.638 35.648 39.792 41.356 41.35 41.96 44.535 44.751 44.84 45.013 45.095 45.229 45.364 45.492 45.64 45.716 45.578 45.394 45.303 45.179 45.096 44.937 44.815 44.607 44.637 44.681 44.832 40.203 35.842 35.761 35.745 35.697 35.665 35.683 36.03 36.354 36.774 36.017 36.518 35.641 35.667 35.677 35.676 35.692 35.692 35.628 35.621 35.659 35.603 35.56 35.644 35.987 36.399 35.896 35.586 35.59 35.652 35.658 35.781 35.646 35.61 35.475 35.395 35.188 35.001 34.836 34.703 34.639 34.735 34.812 35.09 38.598 41.517 42.266 35.034 34.846 34.898 35.198 37.276 41.667 42.026 42.307 38.116 36.819 35.149 34.959 34.976 34.959 36.827 37.55 37.545 37.143 37.028 35.974 34.955 34.918 34.954 34.968 35.012 35.033 35.076 35.077 35.101 35.181 35.161 35.19 35.215 35.187 35.267 35.278 35.291 35.325 35.303 35.352 35.415 38.035 39.252 39.587 36.389 35.619 34.834 35.107 34.79 34.154 35.125 38.402 42.046 41.785 34.16 32.831 32.875 33.016 35.204 35.863 37.365 38.589 35.673 33.433 34.177 38.503 39.404 41.865 41.608 41.609 41.644 41.655 41.712 41.713 41.844 41.272 37.149 33.473 33.505 32.485 32.424 32.401 32.416 32.548 32.553 32.546 32.591 32.86 32.921 33.16 33.306 33.601 33.639 33.742 33.793 33.837 33.883 33.891 33.908 33.887 33.882 33.662 33.63 33.762 33.405 33.516 33.238 33.297 33.186 33.031 32.901 32.841 32.778 32.797 32.824 32.73 32.778 32.703 32.754 32.733 32.749 32.756 32.652 32.851 33.03 33.209 33.436 33.548 33.73 33.733 33.524 33.388 33.197 33.037 32.848 32.71 32.687 32.626 32.745 32.789 33.032 33.281 33.33 33.055 32.785 32.814 34.451 32.983 33.013 33.282 37.799 39.939 40.093 39.621 38.967 37.879 35.109 33.249 33.658 32.931 32.881 32.809 32.818 33.4 33.399 32.97 33.081 33.663 33.274 33.199 33.536 33.438 33.5 36.632 37.148 37.398 35.15 34.092 34.935 35.735 36.473 36.988 37.461 37.483 36.889 33.811 34.185 33.924 35.441 36.607 36.447 33.913 33.211 33.197 33.182 33.022 32.848 32.845 32.81 32.907 33.059 34.601 33.547 33.139 33.124 36.014 39.095 39.585 37.591 33.372 32.482 32.368 32.356 32.397 32.492 32.534 32.583 32.535 32.562 32.674 32.866 38.331 44.722 46.68 45.443 39.524 43.709 41.924 37.168 34.81
44.886 44.792 44.773 44.861 44.928 45.987 46.018 46.219 45.751 45.74 46.185 46.701 47.219 47.81 48.152 48.693 48.856 48.272 47.851 47.221 46.748 46.167 45.575 45.343 45.75 46.203 46.691 46.736 43.733 43.694 44.364 45.221 47.118 47.459 47.697 47.908 48.222 48.441 48.665 48.876 49.134 49.127 48.885 48.664 48.473 48.208 47.909 47.675 47.486 47.262 48.263 43.384 42.887 40.628 39.223 39.161 39.019 38.948 38.851 38.751 38.633 39.208 39.071 37.709 37.296 37.345 37.434 38.884 39.039 38.856 41.131 39.215 40.796 40.569 39.951 40.295 40.32 39.571 37.155 36.815 36.752 36.915 36.548 36.531 36.494 36.627 37.506 36.873 37.12 36.225 36.028 36.077 36.197 36.148 36.125 36.063 36.04 36.098 36.236 36.659 37.898 37.761 42.649 42.774 42.886 43.012 43.134 43.334 43.386 43.481 43.721 43.757 43.651 43.49 43.37 43.26 43.187 42.99 42.899 42.752 42.911 39.781 36.625 35.182 35.334 35.538 35.65 35.662 35.641 35.612 39.815 41.403 41.383 41.383 41.336 41.341 43.896 44.7 44.821 44.955 45.062 45.234 45.306 45.444 45.613 45.753 45.589 45.489 45.328 45.169 45.11 44.968 44.842 44.679 44.615 44.509 36.792 35.822 35.736 35.726 35.704 35.694 36.272 35.77 36.492 36.192 35.69 35.69 35.621 35.59 35.636 35.857 35.911 35.682 35.591 35.653 36.467 36.448 35.999 35.654 35.745 36.791 35.778 35.657 35.648 35.652 35.633 35.7 35.729 35.632 35.416 35.234 35.003 34.897 34.807 34.75 34.814 35.028 39.756 41.477 42.04 42.105 42.624 36.768 34.881 39.709 42.11 43.049 43.063 43.183 43.265 43.326 41.315 41.723 36.698 35.239 35.21 37.429 37.681 37.665 37.589 37.584 36.065 34.933 34.992 34.978 35.021 34.997 35.031 35.034 35.114 35.099 35.136 35.119 35.159 35.206 35.203 35.197 35.268 35.268 35.269 35.328 35.318 36.001 37.392 38.986 39.108 35.697 35.294 35.557 35.68 34.928 34.5 35.332 36.109 35.642 35.849 33.4 32.807 32.867 32.967 33.184 34.423 35.043 35.463 38.949 40.47 41.964 41.678 41.642 41.682 41.747 41.771 41.787 41.802 41.979 42.352 34.614 33.837 32.688 32.71 32.717 32.557 32.484 32.432 32.55 32.575 32.539 32.816 33.015 33.334 33.456 33.512 33.568 33.643 33.73 33.64 33.552 33.522 33.454 33.512 33.226 33.363 33.157 33.065 32.995 33.042 32.936 32.983 32.901 32.874 32.89 32.8 32.744 32.741 32.681 32.714 32.741 32.685 32.762 32.68 32.742 32.749 32.722 32.744 32.736 32.715 32.833 32.971 33.259 33.44 33.625 33.713 33.679 33.528 33.456 33.269 33.163 33.013 33.009 32.959 33.052 33.084 33.36 33.504 33.457 33.181 32.849 32.802 34.008 33.169 33.017 33.084 33.112 38.573 40.322 40.565 39.937 39.64 39.009 38.286 33.907 33.077 32.896 32.822 32.839 32.804 32.977 33.193 34.43 33.166 33.182 34.445 35.276 34.429 34.35 34.316 33.819 34.234 34.655 33.143 32.992 33.372 33.758 35.888 37.06 37.059 34.284 33.045 33.098 33.369 36.257 37.229 37.854 37.275 35.357 33.291 33.438 32.988 32.808 32.838 32.889 32.894 33.108 35.035 33.143 33.086 33.115 35.491 37.955 39.382 35.645 33.195 32.44 32.453 32.426 32.417 32.482 32.53 32.627 32.633 32.568 32.638 32.873 41.079 46.214 43.481 46.308 42.508 38.919 41.604 33.298 32.728
44.827 44.744 44.933 48 50.259 47.724 46.245 45.788 45.845 46.355 46.837 47.306 47.772 48.242 48.87 48.671 48.293 47.521 47.122 46.545 46.057 45.613 45.446 45.748 46.416 46.688 46.555 46.119 45.54 44.653 44.912 45.057 45.376 47.004 47.416 47.595 47.804 48.124 48.333 48.58 48.886 49.131 49.222 48.963 48.697 48.446 48.272 48.023 47.695 48.174 43.894 41.213 41.131 39.384 39.277 39.144 39.1 38.993 38.889 38.764 38.977 39.388 38.118 37.307 37.307 37.454 37.397 37.697 37.685 37.67 38.384 40.559 40.768 40.663 40.572 40.555 40.587 40.208 39.523 37.261 36.654 36.612 36.487 36.445 36.359 36.39 36.492 36.207 36.119 36.002 36.107 36.183 36.176 36.149 36.14 36.08 36.102 37.108 35.867 42.147 39.466 42.129 42.447 42.528 42.745 42.832 42.91 43.111 43.237 43.335 43.473 43.564 43.69 43.7 43.536 43.441 43.351 43.179 43.001 42.924 42.788 42.425 41.584 35.366 35.012 35.285 35.422 35.616 35.695 38.685 41.514 41.479 41.489 41.424 41.372 41.359 41.398 44.409 44.716 44.843 44.9 45.067 45.219 45.316 45.431 45.573 45.656 45.637 45.466 45.344 45.198 45.096 44.988 44.886 44.636 37.113 35.805 35.804 35.679 35.654 35.667 35.692 36.833 36.37 36.243 35.63 35.501 35.551 35.611 35.661 35.679 36.053 36.928 35.719 35.633 35.731 36.827 36.815 36.299 35.658 35.653 36.874 36.16 35.715 35.687 35.722 35.728 35.686 35.652 35.896 35.976 35.091 34.908 34.885 34.853 35.124 42.836 41.838 41.95 42.167 42.385 42.389 42.519 42.486 42.091 42.944 43.092 43.281 43.33 43.503 43.666 43.679 43.685 43.516 43.481 41.909 42.734 38.764 37.886 37.685 37.7 37.338 34.954 34.934 34.913 34.97 34.974 35.008 35.076 35.082 35.061 35.105 35.158 35.186 35.178 35.203 35.151 35.182 35.274 35.401 35.396 36.419 36.518 36.06 35.771 36.277 36.101 35.532 35.444 35.413 35.953 35.444 34.765 35.274 35.736 34.898 33.123 32.981 32.882 32.926 32.971 33.186 33.628 39.265 41.343 41.839 41.787 41.648 41.699 41.751 41.821 41.814 41.788 41.897 42.082 37.399 34.072 34.005 32.909 33.107 35.605 33.079 32.675 32.571 32.516 32.577 32.68 32.839 33.258 33.56 33.728 33.621 33.51 33.295 33.206 33.021 33.092 33.03 33.026 33.011 32.978 32.961 32.933 32.954 32.933 32.912 32.855 32.814 32.878 32.824 32.758 32.791 32.69 32.738 32.666 32.645 32.642 32.616 32.692 32.696 32.635 32.653 32.661 32.735 32.715 32.682 32.782 32.75 32.896 33.021 33.311 33.524 33.731 33.782 33.71 33.619 33.531 33.358 33.305 33.295 33.246 33.357 33.477 33.634 33.647 33.625 33.364 32.947 32.78 34.07 34.235 33.032 33.123 35.817 38.769 39.55 39.84 40.428 40.714 39.74 39.209 33.768 32.953 32.92 32.918 32.881 32.767 32.829 32.895 33.043 33.078 33.228 39.232 39.618 38.581 36.981 34.643 33.487 33.724 34.545 33.43 35.748 33.311 33.046 33.435 35.155 34.478 33.025 33.052 33.241 35.021 36.554 37.752 37.584 36.693 34.626 33.408 33.341 33.408 32.953 32.879 32.927 32.911 33.196 34.889 33.821 33.109 33.12 33.079 35 33.849 32.576 32.507 32.576 32.526 32.493 32.537 32.477 32.551 32.682 32.637 32.68 32.682 39.432 42.131 46.668 47.251 46.346 45.77 46.629 36.443 33.635 32.376
44.869 44.922 47.957 50.841 51.402 50.801 46.705 46.041 46.489 47.038 47.305 47.962 48.47 48.842 48.571 47.997 47.524 47.044 46.539 45.912 45.52 45.567 45.995 46.419 46.718 46.559 45.959 45.589 45.008 44.924 45.005 45.152 45.001 43.678 46.928 47.37 47.577 47.782 47.997 48.29 48.541 48.807 49.079 49.192 49.112 48.87 48.541 48.253 43.913 43.279 41.349 40.756 39.767 39.423 39.309 39.226 39.135 39.04 38.902 39.138 39.348 37.854 37.313 37.315 37.399 39.85 38.024 37.438 37.333 37.389 37.746 38 39.937 40.599 40.62 40.625 38.056 39.922 38.409 36.857 36.622 36.539 36.451 36.372 36.312 36.218 36.138 36.089 36.061 36.073 36.154 36.18 36.107 36.134 36.123 36.149 36.525 35.524 35.02 41.707 43.105 42.849 42.642 42.568 42.539 42.693 42.784 42.929 43.11 43.154 43.3 43.445 43.531 43.731 43.741 43.554 43.449 43.373 43.222 43.052 42.922 42.841 42.708 42.591 40.441 35.34 35.168 35.759 38.802 39.824 41.532 41.524 41.475 41.478 41.419 41.433 41.343 41.337 43.919 44.68 44.792 44.887 45.012 45.139 45.262 45.418 45.516 45.634 45.703 45.543 45.411 45.245 45.203 44.836 36.811 35.802 35.741 35.696 35.636 35.623 35.691 36.395 36.183 35.695 35.501 35.5 35.544 35.614 35.734 36.269 36.787 36.14 35.941 35.777 35.663 35.602 35.641 35.711 35.661 35.706 35.687 37.057 36.219 35.763 35.771 35.752 36.113 35.887 36.212 36.122 35.062 34.723 33.29 40.105 39.77 42.153 41.973 42.134 42.301 42.438 42.574 42.745 42.892 43.042 43.158 43.213 43.409 43.544 43.681 43.669 43.575 43.445 43.433 43.268 43.183 43.076 42.978 42.975 42.366 40.28 38.932 35.635 34.925 34.892 34.942 34.995 35.032 35.047 35.033 35.056 35.101 35.178 35.157 35.185 35.16 35.223 35.247 35.242 35.661 35.949 36.215 36.167 36.067 36.004 36.171 35.855 35.716 35.924 35.921 35.827 35.586 34.692 34.421 34.654 35.607 35.163 33.801 32.991 32.87 32.934 38.118 34.445 41.894 41.788 41.715 41.723 41.801 41.778 41.809 41.946 42.039 42.085 35.352 35.258 34.169 36.956 36.993 37.554 34.984 34.904 38.447 34.818 32.705 32.557 32.549 32.632 32.73 33.205 33.652 33.843 33.726 33.376 33.121 33.002 32.948 32.987 33.016 32.959 32.951 32.916 32.93 32.951 32.88 33.207 32.874 32.88 32.789 32.755 32.767 32.707 32.645 32.683 32.658 32.635 32.914 32.822 33.65 33.114 34.516 33.083 32.834 32.737 32.755 33.534 33.2 32.809 32.802 32.777 32.797 32.808 33.105 33.276 33.609 33.789 33.841 33.799 33.756 33.658 33.614 33.621 33.582 33.671 33.747 33.886 33.865 33.777 33.448 33.094 32.793 32.813 33.621 33.087 33.083 33.09 35.568 37.817 38.84 39.561 40.083 40.543 39.691 33.715 32.958 32.98 32.93 32.885 32.884 32.83 32.868 33.058 33.151 33.356 40.718 40.473 40.151 39.586 38.881 35.289 33.756 34.042 38.519 39.995 37.59 33.324 33.271 33.194 33.061 33.262 33.155 33.551 35.827 37.287 38.072 37.156 36.194 33.854 33.455 33.366 33.35 33.061 33 33.342 33.134 32.963 33.051 34.553 34.238 34.413 33.426 33.272 32.759 32.698 32.585 32.509 32.555 32.539 32.601 32.528 32.611 32.671 32.688 32.719 32.685 32.924 43.29 45.387 43.742 46.45 44.759 38.005 35.687 33.663 32.647
45.078 49.974 51.065 51.54 51.007 50.322 46.557 46.692 47.085 47.627 48.003 48.634 48.788 48.592 48.058 47.531 46.891 46.436 45.926 45.501 45.556 46.038 46.572 46.809 46.474 45.954 45.503 45.014 44.969 45.09 45.195 45.278 45.397 45.486 43.637 46.326 47.239 47.552 47.727 47.948 48.229 48.514 48.713 48.94 49.215 49.126 47.626 44.559 43.306 41.783 40.057 41.276 39.49 39.487 39.37 39.271 39.244 42.24 39.813 41.038 40.788 37.794 37.311 37.368 39.629 40.366 40.383 38.209 37.361 37.414 37.385 37.506 38.012 37.735 40.677 40.469 40.46 40.283 36.934 37.06 36.778 36.557 36.415 36.338 36.234 36.173 36.124 36.055 36.068 36.154 36.211 36.156 36.173 36.14 36.09 36.258 36.451 35.483 34.845 37.988 43.107 42.986 42.854 42.732 42.637 42.557 42.671 42.81 42.928 43.023 43.142 43.302 43.355 43.558 43.667 43.712 43.627 43.521 43.403 43.203 43.122 43.047 42.878 42.68 41.76 37.382 35.111 35.101 35.281 35.787 40.353 41.54 41.542 41.523 41.467 41.413 41.4 41.355 41.334 39.616 44.35 44.752 44.863 44.998 45.072 45.259 45.372 45.517 45.62 45.672 45.538 45.424 45.123 37.419 36.221 36.807 35.828 35.615 35.588 35.58 35.862 36.48 35.923 35.498 35.528 35.545 35.545 35.583 36.398 36.788 36.215 36.915 36.317 35.683 35.623 35.654 36.262 37.06 36.006 35.746 37.097 36.223 35.755 35.795 35.692 36.031 36.886 36.083 35.488 35.053 35.165 36.508 39.968 42.171 42.142 42.137 42.345 42.421 42.698 42.791 42.932 43.039 43.11 43.281 43.467 43.539 43.647 43.628 43.529 43.512 43.353 43.193 43.131 43.089 42.886 42.908 42.808 42.718 42.51 42.423 41.855 35.081 34.909 34.91 34.955 35.022 35.02 35.039 35.095 35.089 35.116 35.143 35.128 35.168 35.228 35.338 36.068 36.045 36.057 36.109 36.278 36.337 36.379 36.355 36.383 36.572 36.746 36.791 36.463 36.454 35.836 35.416 34.537 34.39 35.176 35.584 33.983 33.087 38.431 39.442 41.342 41.977 41.817 41.81 41.817 41.811 41.913 41.918 41.946 42.213 35.823 32.958 34.23 34.66 35.138 34.918 38.691 38.494 37.764 35.489 35.19 33.213 32.76 32.613 32.635 32.731 32.972 33.483 33.942 33.754 33.308 33.06 32.916 32.955 32.958 32.939 32.915 32.861 32.861 32.884 32.892 32.898 32.84 32.892 32.803 32.813 32.699 32.65 32.603 32.586 32.573 32.678 33.189 32.881 32.626 33.121 33.076 32.79 33.371 33.568 33.553 32.639 32.72 32.703 32.787 32.966 33.799 32.85 32.853 32.751 32.854 33.022 33.274 33.678 33.766 33.86 33.911 33.779 33.812 33.794 33.843 33.9 33.972 34.043 33.978 33.963 33.593 33.183 32.804 32.843 34.499 33.075 33.104 33.073 33.071 34.318 37.332 38.396 39.034 39.545 33.194 33.064 33.002 32.999 32.954 32.905 32.909 32.886 33.515 33.253 33.391 38.813 40.046 40.758 41.001 40.446 40.039 39.346 33.465 35.219 39.02 39.764 38.267 33.788 33.306 33.446 33.362 33.46 33.291 35.302 36.592 37.906 37.595 36.56 34.587 33.486 33.459 33.464 33.171 33.158 33.16 33.732 33.343 32.966 32.989 32.96 33.021 33.411 32.94 32.821 32.707 32.737 32.69 32.622 32.651 32.74 32.814 32.742 32.815 32.787 32.686 32.833 32.829 32.989 41.127 42.296 42.996 43.878 36.076 33.886 32.645 32.539 32.438
49.948 51.149 51.421 50.716 50.167 46.342 46.696 47.138 47.801 48.194 48.619 48.965 48.591 47.924 47.378 46.88 46.424 45.877 45.595 45.781 46.122 46.591 46.864 46.4 45.936 45.336 45.037 44.979 45.051 45.187 45.297 45.37 45.529 45.625 45.367 43.741 44.533 47.052 47.46 47.655 47.834 48.178 48.413 48.673 48.975 46.586 43.981 43.154 40.178 39.663 39.492 39.441 39.433 39.431 39.385 39.377 42.845 43.185 41.688 41.107 40.973 37.765 37.318 39.09 40.582 40.39 40.338 40.397 41.542 37.521 37.378 37.358 37.475 37.539 38.433 42.362 44.348 37.535 45.735 37.179 36.772 36.582 36.387 36.295 36.226 36.151 36.065 36.077 36.188 36.261 36.212 36.176 36.134 36.131 36.197 36.369 35.836 35.021 35.01 43.348 43.249 43.18 43.11 42.93 42.765 42.652 42.455 42.527 42.703 42.817 42.988 43.145 43.255 43.365 43.52 43.616 43.69 43.656 43.602 43.408 43.305 43.155 43.005 42.889 42.792 42.662 41.09 35.149 34.999 35.251 35.74 40.334 41.563 41.531 41.506 41.502 41.442 41.436 38.313 35.676 36.262 42.982 44.653 44.794 44.971 45.112 45.197 45.321 45.443 45.593 45.9 45.585 40.597 36.365 37.017 35.943 35.627 35.61 35.75 36.368 36.761 35.688 35.587 35.471 35.487 35.514 35.596 36.227 36.085 36.512 35.706 36.272 35.753 35.642 35.635 35.569 36.78 36.725 35.713 35.795 36.498 36.536 35.924 35.767 35.71 36.383 36.495 35.56 38.559 41.714 41.932 42.044 42.224 42.217 42.334 42.512 42.71 42.891 42.974 43.04 43.223 43.385 43.463 43.613 43.62 43.582 43.532 43.53 43.408 43.252 43.069 42.998 42.947 42.783 42.708 42.594 42.512 42.37 42.317 42.185 42.104 37.392 34.931 34.916 34.966 35.007 35.079 35.085 35.114 35.079 35.1 35.172 35.18 35.352 36.065 36.448 35.822 35.763 35.917 36.115 36.685 36.493 36.732 36.98 37.106 37.316 37.785 37.285 37.289 36.821 36.467 38.573 36.393 33.999 33.775 39.07 40.573 42.204 41.882 41.833 41.798 41.875 41.787 41.901 41.847 41.894 42.499 35.204 33.975 33.059 32.996 33.012 34.059 37.978 38.6 37.06 36.197 38.139 39.996 36.827 33.09 32.838 32.775 32.623 32.736 32.849 33.329 33.888 33.995 33.466 33.15 35.628 35.445 32.939 32.895 32.86 32.821 32.834 32.854 32.856 32.861 32.788 32.779 32.74 32.688 32.686 32.628 32.564 33.509 32.727 32.995 32.648 32.721 32.655 32.521 32.561 33.278 33.879 33.741 33.794 32.809 32.565 32.625 33.121 32.711 32.756 32.941 33.047 33.977 32.924 32.855 32.924 33.001 33.42 33.673 33.899 33.966 33.882 33.946 33.903 34 34.025 34.096 34.044 34.12 34.003 33.69 33.071 32.847 33.048 35.881 35.232 33.455 33.032 33.073 33.99 33.48 33.198 37.233 35.726 33.09 33.129 33.075 33.034 33.008 33.018 32.975 32.943 33.159 33.227 33.477 38.113 39.131 40.059 40.352 40.673 40.871 35.496 33.316 33.357 36.719 38.066 34.672 33.372 33.35 33.411 33.321 33.487 33.581 36.243 37.237 37.927 37.557 36.066 33.481 33.464 33.58 33.655 33.282 33.377 34.101 33.111 33.188 32.97 33.068 32.977 32.956 32.905 32.893 32.859 32.78 32.762 32.739 33.118 33.891 32.905 32.961 33.029 33.051 32.885 32.794 32.832 32.945 32.992 32.924 34.473 40.41 34.149 32.952 32.839 32.811 32.639 35.607
51.392 51.322 50.657 47.4 46.293 46.902 47.417 47.823 48.349 48.842 48.958 48.462 47.898 47.308 46.934 46.241 45.766 45.478 45.819 46.397 46.848 46.754 46.295 45.756 45.41 45.001 44.997 45.119 45.185 45.327 45.447 45.523 45.679 45.773 45.862 45.531 43.659 43.643 47.01 47.293 47.601 47.853 48.059 48.384 46.514 44.613 43.986 41.34 39.497 39.483 39.432 39.395 39.398 39.375 39.349 41.482 43.211 41.104 40.505 41.068 41.002 37.622 38.138 40.374 40.637 40.582 40.432 41.527 42.565 40.131 37.77 37.477 37.372 37.363 39.058 41.231 47.398 46.686 45.777 37.962 36.779 36.646 36.406 36.193 36.192 36.1 36.098 36.177 36.223 36.238 36.223 36.153 36.158 36.235 36.62 36.249 34.932 34.952 42.747 43.63 43.367 43.342 43.253 43.056 42.993 42.828 42.717 42.575 42.589 42.711 42.826 42.96 43.026 43.249 43.277 43.474 43.568 43.741 43.729 43.601 43.414 43.292 43.19 43.113 42.927 42.828 42.682 42.168 35.73 35.132 35.188 35.41 40.306 41.499 41.563 41.5 41.476 38.328 35.668 35.66 35.958 37.285 38.23 44.359 44.788 44.907 45.087 45.208 45.302 45.405 45.556 45.512 36.066 36.569 36.094 35.685 35.619 35.588 35.657 36.44 36.174 35.531 35.389 35.46 35.451 35.515 35.943 36.496 36.202 36.634 36.779 35.94 35.633 35.605 35.585 35.693 36.419 36.048 35.811 35.88 36.585 36.394 35.849 35.848 36.61 36.438 35.633 42.221 42.176 42.175 42.138 42.35 42.524 42.629 42.75 42.873 43.057 43.101 43.25 43.429 43.533 43.565 43.607 43.513 43.47 43.397 43.241 43.18 43.109 42.944 42.883 42.81 42.701 42.548 42.471 42.407 42.353 42.169 42.086 41.947 41.838 40.016 35.007 34.997 35.044 35.048 35.076 35.127 35.091 35.14 37.245 38.49 36.506 35.625 35.717 35.734 36.022 36.032 36.21 36.763 37.159 37.418 37.601 38.016 38.229 38.228 38.797 38.054 37.933 37.912 36.998 38.429 37.55 34.575 42.282 41.235 41.906 41.884 41.85 41.829 41.89 41.847 41.878 42.019 42.789 37.194 35.216 33.748 33.13 33.072 32.996 33.012 34.448 37.995 37.454 35.806 35.365 35.12 35.925 34.253 33.025 32.925 32.808 32.867 32.842 33.043 33.703 34.136 33.906 33.451 39.702 40.215 34.631 32.94 32.798 32.853 32.859 32.806 32.758 32.738 32.792 33.95 34.301 34.229 33.348 32.973 32.79 32.931 32.663 32.579 32.602 32.641 32.694 32.595 32.757 34.051 33.858 33.862 32.891 32.464 32.568 32.57 32.516 32.569 32.595 32.646 32.618 32.883 32.926 33.099 32.966 32.839 32.925 33.109 33.39 33.764 33.919 34.007 34.034 34.045 34.114 34.175 34.123 34.035 33.968 33.759 33.482 33.128 32.932 35.271 36.193 35.684 36.227 33.725 33.213 34.672 33.4 33.135 33.152 33.351 33.139 33.142 33.06 33.056 33.009 33.032 32.999 33.075 33.388 33.218 33.284 33.457 37.283 37.666 39.034 39.61 40.204 33.339 33.231 33.331 33.29 33.315 33.455 33.378 35.481 36.518 35.918 33.687 33.872 36.231 37.704 37.502 36.688 34.643 33.45 33.504 33.44 33.39 33.991 33.364 33.421 33.247 33.179 33.028 33.07 33.074 33.059 32.989 32.939 32.96 32.858 32.938 33.966 33.572 35.028 34.336 33.115 33.124 33.053 32.993 32.939 32.949 32.915 32.965 33 32.935 33.465 33.215 33.029 32.953 32.864 32.669 35.9
51.213 50.53 46.651 46.558 47.01 47.5 48.126 48.483 49.166 48.792 48.336 47.836 47.204 46.76 46.334 45.748 45.568 45.992 46.433 46.956 46.728 46.309 45.667 45.142 44.931 45.01 45.141 45.261 45.324 45.469 45.574 45.665 45.777 45.886 46.046 46.018 44.322 43.581 44.178 46.281 47.318 47.522 47.869 46.501 44.157 44.002 44.005 39.469 39.427 39.431 39.42 39.378 39.386 39.323 41.465 43.196 39.522 40.179 41.044 41.199 41.39 41.232 40.819 40.656 40.606 40.595 41.632 42.291 42.502 42.514 41.726 39.111 37.407 37.355 37.3 45.889 44.219 47.327 41.949 36.804 36.709 36.665 36.415 36.233 36.138 36.132 36.147 36.251 36.23 36.225 36.244 36.209 36.189 36.346 36.266 35.273 34.966 41.008 43.66 43.7 43.673 43.51 43.345 43.223 43.095 42.958 42.863 42.774 42.559 42.381 42.703 42.788 42.909 43.008 43.164 43.284 43.41 43.569 43.647 43.734 43.584 43.454 43.349 43.192 43.188 43.02 42.824 42.734 41.558 37.366 36.644 35.107 35.352 36.652 40.712 41.584 38.485 35.705 35.619 35.664 35.668 35.681 35.709 41.917 44.649 44.744 44.904 45.008 45.15 45.227 45.242 37.056 36.646 36.611 35.776 35.624 35.592 35.927 36.786 36.502 35.766 35.387 35.369 35.431 35.49 35.806 35.867 36.55 36.473 36.252 35.88 35.574 35.534 35.608 36.294 36.115 36.641 38.163 36.358 35.802 35.83 35.817 35.864 36.39 36.581 36.531 37.553 36.163 42.312 42.305 42.609 42.7 42.905 43.001 43.012 43.177 43.346 43.458 43.532 43.584 43.556 43.447 43.425 43.316 43.195 43.025 42.987 42.88 42.813 42.761 42.61 42.499 42.443 42.314 42.274 42.138 42.056 41.933 41.695 42.635 37.813 34.973 34.963 34.951 34.999 35.047 35.242 37.374 37.012 35.836 37.169 39.295 36.506 35.701 35.969 36.051 36.349 36.602 36.964 37.402 37.748 38.399 38.88 38.845 39.82 40.057 40.129 40.126 41.097 37.371 36.791 37.302 40.284 41.954 41.939 41.919 41.846 41.846 41.909 41.877 42.023 41.874 35.844 37.812 35.612 36.008 35.812 33.502 33.154 33.103 33.048 33.092 34.092 37.508 39.376 37.116 35.157 34.531 33.907 33.431 32.989 32.916 32.773 32.917 32.996 33.256 36.319 37.75 33.844 37.509 40.503 41.76 38.682 33.3 32.837 32.804 32.754 32.703 32.804 33.352 34.954 36.173 35.674 34.238 33.518 33.004 32.649 32.658 32.631 32.599 32.682 32.545 32.582 32.539 32.426 33.047 32.46 32.422 32.493 32.454 32.559 32.48 32.588 32.583 32.546 32.63 32.594 32.72 32.742 32.92 33.126 33.054 32.935 32.896 33.133 33.539 33.889 34.024 34.118 34.184 34.07 34.072 33.974 33.79 33.539 33.306 33.302 33.184 32.905 33.477 35.458 36.028 34.238 33.797 34.685 34.09 33.258 33.137 33.277 34.041 33.152 33.165 33.225 33.188 33.073 33.081 33.022 33.044 33.213 33.217 33.237 33.521 33.634 33.602 34.619 37.463 33.916 33.17 33.098 33.222 33.223 33.316 33.412 33.431 37.061 37.629 36.978 36.479 35.658 33.5 34.285 36.22 36.048 33.434 33.5 33.532 33.64 33.465 35.02 33.581 33.368 33.949 33.961 33.114 33.086 33.096 33.057 33.011 33.018 32.945 33.094 33.666 33.535 35.188 37.654 37.407 33.928 33.051 33.037 33.046 33.029 33.033 32.945 32.991 33.092 33.043 33.127 33.539 33.068 33.023 32.831 32.66 32.477
50.217 46.622 46.699 46.99 47.581 48.141 48.471 49.102 48.934 48.222 47.704 47.233 46.566 46.166 45.643 45.653 46.003 46.511 46.986 46.597 46.077 45.747 45.145 44.947 45.069 45.148 45.279 45.378 45.483 45.555 45.667 45.821 45.926 46.062 46.032 45.878 45.737 44.034 43.606 43.631 46.136 48.274 44.593 44.124 43.982 41.569 39.945 39.397 39.324 39.35 39.337 39.345 39.266 39.28 43.061 41.087 39.481 41.025 41.173 41.383 43.023 43.515 42.725 41.464 40.637 40.665 42.492 42.47 42.483 42.475 42.507 42.538 41.108 37.389 37.294 37.155 39.012 39.767 36.885 36.804 36.688 36.589 36.412 36.231 36.123 36.145 36.247 36.278 36.252 36.216 36.17 36.19 36.32 36.139 35.364 34.861 40.84 43.338 43.475 43.632 43.75 43.645 43.588 43.405 43.273 43.201 43.044 42.868 42.818 42.648 42.386 42.599 42.726 42.851 43.006 43.085 43.321 43.415 43.53 43.676 43.741 43.601 43.523 43.454 43.273 43.139 43.004 42.907 42.788 42.607 41.784 35.048 35.058 35.359 36.046 41.333 36.366 35.701 35.683 35.641 35.673 35.644 35.626 35.701 37.421 44.312 44.779 44.817 44.946 44.965 40.114 36.037 36.412 35.699 35.724 35.606 36.124 35.892 36.521 35.832 35.432 35.414 35.417 35.415 35.476 35.829 36.801 35.976 36.664 36.386 35.586 35.515 35.558 36.08 35.814 36.374 35.948 39.323 38.33 35.883 35.775 35.814 35.949 36.89 36.65 35.847 35.078 35.235 42.236 42.901 42.861 42.946 43.07 43.215 43.382 43.447 43.577 43.6 43.535 43.403 43.403 43.307 43.17 43.005 42.865 42.789 42.8 42.689 42.54 42.483 42.385 42.353 42.216 42.111 41.933 41.868 41.296 41.282 37.26 34.968 34.98 34.992 35.105 35.105 35.106 36.764 38.776 39.304 38.591 37.422 35.651 36.18 36.382 35.98 36.526 36.646 36.909 37.308 37.701 38.031 38.603 39.256 39.665 40.026 40.914 40.643 40.921 39.888 41.322 41.592 41.689 42.004 41.956 41.908 41.913 41.88 41.896 41.921 42.084 42.228 35.644 34.346 33.49 35.158 35.532 35.592 35.825 33.653 33.184 33.148 33.084 33.122 34.36 35.446 38.674 36.52 35.28 34.767 34.473 33.4 33.036 32.902 32.846 32.952 33.155 33.795 39.205 41.367 36.339 33.978 37.339 37.201 33.415 32.765 32.709 32.678 32.956 33.799 34.844 35.367 35.411 35.434 34.178 32.805 32.643 32.531 32.536 32.652 32.701 32.614 32.623 32.527 32.63 32.612 32.466 32.509 32.481 32.512 32.541 32.482 32.56 32.517 32.597 32.508 32.619 32.631 32.594 32.75 32.781 32.845 33.035 33.303 33.025 32.912 32.972 33.241 33.691 34.041 34.085 34.133 34.023 33.87 33.587 33.356 33.118 33.055 33.519 33.48 32.954 32.951 33.604 33.55 33.368 33.453 33.595 35.373 35.282 34.853 34.329 34.985 34.202 33.476 33.714 34.144 33.195 33.116 33.081 33.116 33.162 33.116 33.282 33.3 33.348 33.391 33.375 33.325 33.296 33.121 33.187 33.147 33.257 33.985 33.423 35.249 37.426 37.813 37.964 37.503 38.326 36.507 35.373 33.431 33.787 33.453 33.507 33.7 33.462 35.552 36.603 35.772 33.54 34.038 34.493 33.327 33.286 33.135 33.148 33.13 33.056 33.056 33.633 34.102 33.387 36.404 39.26 39.416 35.991 33.534 33.017 33.07 33.094 33.183 32.994 33.055 33.164 33.116 33.172 33.154 33.212 33.184 32.942 32.82 32.718
46.2 46.752 47.141 47.772 48.299 48.748 49.377 48.658 48.208 47.638 47.063 46.637 46.097 45.656 45.781 46.205 46.639 46.854 46.624 46.128 45.623 45.017 44.829 45.083 45.153 45.285 45.404 45.523 45.605 45.724 45.815 45.894 46.029 45.927 45.831 45.758 45.625 45.545 44.001 43.623 43.596 43.752 44.121 43.88 40.969 40.399 39.532 39.299 39.274 39.319 39.292 39.253 39.226 42.223 43.249 39.639 40.785 41.152 41.34 41.463 43.096 43.397 43.314 43.162 42.539 42.503 42.457 42.477 42.488 42.451 42.486 42.462 39.708 37.333 37.202 37.089 36.945 37.021 36.94 36.787 36.684 36.57 36.363 36.222 36.199 36.241 36.337 36.247 36.249 36.197 36.217 37.864 36.421 36.129 34.979 40.201 43.063 43.141 43.359 43.418 43.49 43.663 43.697 43.659 43.384 43.313 43.16 43.053 42.931 42.84 42.706 42.554 42.596 42.681 42.844 42.961 43.117 43.207 43.375 43.426 43.583 43.69 43.679 43.597 43.44 43.318 43.127 43.017 42.88 42.781 42.703 40.449 39.454 35.146 35.303 35.573 36.052 35.798 35.708 35.679 35.654 35.637 35.645 35.666 35.672 35.714 42.808 44.515 44.579 41.427 36.222 35.795 35.927 35.675 35.616 35.602 35.67 36.651 35.743 35.571 35.436 35.432 35.415 35.449 35.991 36.529 35.845 36.669 36.043 35.551 35.54 35.536 35.56 36.154 36.633 36.18 39.618 39.571 37.33 35.879 35.862 35.868 36.616 36.486 36.541 35.309 39.974 42.314 43.171 43.022 43.108 43.302 43.404 43.618 43.606 43.57 43.498 43.391 43.367 43.21 43.1 43.023 42.89 42.827 42.717 42.553 42.544 42.453 42.403 42.265 42.116 42.073 42.032 41.857 42.726 37.929 36.252 35.044 34.975 34.983 35.083 35.085 35.123 35.235 39.909 40.589 40.633 37.383 37.718 35.828 35.977 36.107 36.513 36.793 37.44 38.013 38.07 38.531 38.571 38.851 39.328 39.959 40.595 41.117 41.779 41.631 41.609 41.651 42.246 41.92 41.972 41.949 41.916 42.001 41.884 41.919 42.086 42.24 33.949 34.06 33.088 33.235 33.329 33.973 35.503 36.651 35.066 34.842 33.294 33.179 33.142 33.095 34.571 35.093 35.663 35.754 35.444 34.934 34.976 33.112 33.063 32.917 32.922 33.029 33.387 34.218 39.742 41.905 37.264 33.458 32.798 33.196 32.669 32.683 32.612 32.595 33.626 34.496 33.513 32.863 32.599 32.518 32.589 32.595 32.555 32.566 32.551 32.681 32.596 32.59 32.638 32.621 32.683 32.669 32.517 32.554 32.532 32.582 32.469 32.562 32.6 32.54 32.593 32.603 32.594 32.575 32.574 32.589 32.606 32.77 32.908 32.911 34.928 34.35 33.031 33.076 33.491 33.883 34.033 33.894 33.703 33.511 33.132 33.036 32.829 32.789 33.102 33.211 32.928 33.203 33.316 33.429 33.409 33.42 33.325 33.431 35.25 35.322 34.975 38.841 35.511 33.915 33.447 33.656 34.06 35.075 33.435 33.195 33.19 33.179 33.187 33.141 33.168 33.253 33.312 33.272 33.187 33.163 33.179 33.218 33.475 33.535 33.525 34.824 36.257 36.946 37.57 39.972 39.648 38.994 37.53 34.199 33.536 33.37 33.408 33.397 33.511 38.037 37.746 37.242 36.544 35.404 33.527 33.37 33.812 33.227 33.206 33.182 33.138 33.137 33.374 33.364 33.312 34.22 38.379 39.478 39.281 34.465 33.175 33.125 33.227 33.216 33.489 33.096 33.2 33.239 33.252 33.249 33.317 33.403 33.241 33.152 34.992
46.832 47.331 47.844 48.349 48.945 49.425 48.566 47.99 47.514 47.035 46.544 45.991 45.674 45.759 46.241 46.694 46.874 46.558 46.05 45.557 45.056 44.808 44.71 45.106 45.327 45.411 46.288 45.942 45.72 45.872 45.97 46.027 45.968 45.81 45.699 45.566 45.53 45.372 44.967 43.67 43.617 43.582 43.925 41.577 39.385 39.649 39.315 39.28 39.267 39.189 39.231 39.222 41.678 42.624 41.458 40.212 41.11 41.278 41.5 42.901 43.488 43.479 43.435 43.287 43.074 43.488 42.031 42.41 42.434 42.426 42.452 42.319 37.36 37.218 37.146 37.037 36.972 36.902 36.817 36.739 36.686 36.486 36.296 36.166 36.213 36.264 36.315 36.328 36.232 36.217 36.23 37.044 36.278 35.129 35.462 42.599 42.9 43.01 43.118 43.247 43.404 43.55 43.615 43.682 43.599 43.474 43.333 43.197 43.074 42.954 42.831 42.723 42.556 42.546 42.621 42.731 42.907 43.139 43.175 43.298 43.483 43.536 43.698 43.728 43.583 43.508 43.336 43.2 43.091 42.968 42.78 42.684 42.608 36.424 35.054 35.246 35.838 35.9 35.706 35.687 36.202 35.755 35.63 35.646 35.617 35.631 35.688 37.653 40.685 36.31 36.276 36.413 35.692 35.655 35.604 35.829 36.578 36.16 35.576 35.464 35.434 35.459 35.469 35.936 35.936 36.718 36.489 35.722 35.58 35.469 35.55 35.547 36.341 36.632 36.616 42.859 43.897 38.617 36.149 35.816 35.831 35.899 36.481 36.762 36.64 35.827 38.098 43.011 43.199 43.357 43.451 43.547 43.581 43.523 43.42 43.414 43.289 43.172 43.088 42.968 42.841 42.838 42.622 42.469 42.473 42.365 42.41 42.248 42.131 42.063 41.945 41.878 41.411 37.296 35.044 35.022 35.056 35.036 35.057 35.092 35.103 36.393 36.743 38.02 43.336 41.746 41.563 39.97 36.914 36.402 36.436 37.29 37.682 38.608 38.435 39.041 39.346 39.62 39.409 40.46 40.404 41.084 41.704 42.805 43.309 42.122 41.919 41.897 41.935 41.947 41.959 41.921 41.964 42.135 42.263 42.662 34.546 33.049 32.932 32.97 33.081 33.298 33.45 37.125 37.632 40.115 40.495 39.036 34.844 33.175 33.103 33.092 33.862 34.296 35.235 36.113 36.33 34.46 33.742 33.117 33.038 32.963 32.939 33.045 35.352 35.278 33.965 33.387 33.412 32.797 32.617 32.617 32.58 32.663 32.711 32.935 32.834 34.299 32.566 32.611 32.626 32.541 32.56 32.572 32.585 32.536 32.594 32.642 32.636 32.68 32.68 32.586 32.643 32.661 32.611 32.608 32.547 32.607 32.529 32.59 32.557 32.536 32.553 32.576 32.673 32.614 32.508 32.564 32.566 32.7 32.71 32.862 33.973 34.889 33.264 32.939 33.383 33.63 33.641 33.431 33.242 33.325 32.862 32.719 32.723 32.705 32.884 33.158 32.943 35.146 34.155 33.52 33.464 33.428 33.388 35.319 33.91 33.424 38.929 43.036 38.192 34.513 33.503 33.703 36.272 39.682 39.258 36.009 33.484 33.292 33.179 33.175 33.103 33.137 33.156 33.2 33.161 33.288 33.147 33.245 33.426 33.596 34.363 33.498 33.853 35.4 36.449 40.407 40.514 40.125 39.762 39.047 34.444 33.962 33.45 33.471 36.348 37.379 37.913 38.15 38.406 38.291 36.843 33.99 33.347 33.27 33.19 33.25 33.189 33.226 33.259 33.639 33.387 33.378 35.766 38.318 39.552 38.184 33.429 33.335 33.538 33.596 33.88 33.276 33.164 33.251 33.338 33.342 33.325 33.47 33.489 33.514 35.34
47.402 47.96 48.572 49.048 48.914 48.553 47.89 47.464 46.938 46.311 45.874 45.636 45.852 46.407 46.799 46.927 46.526 45.943 45.31 44.938 44.89 44.783 44.669 44.711 45.335 46.308 46.615 46.594 46.226 45.974 46.013 45.921 45.78 45.67 45.582 45.464 45.4 45.225 45.142 44.141 43.742 43.942 43.898 43.144 39.763 39.291 39.271 39.23 39.22 39.178 39.147 39.128 39.854 41.393 41.74 41.085 41.189 41.424 42.68 43.18 43.286 43.394 43.479 43.436 43.353 40.481 42.348 42.425 42.419 42.399 42.371 37.374 37.224 37.16 37.071 36.997 36.899 36.821 36.731 36.641 36.709 36.339 36.217 36.282 36.324 36.342 36.317 36.307 36.234 36.257 36.266 36.583 35.621 34.815 40.985 42.462 42.69 42.848 42.959 43.074 43.224 43.34 43.508 43.552 43.66 43.656 43.508 43.402 43.315 43.145 42.985 42.902 42.725 42.614 42.532 42.636 42.756 42.888 43.046 43.169 43.272 43.399 43.472 43.71 43.735 43.666 43.524 43.351 43.275 43.12 42.994 42.878 42.743 42.853 36.961 35.122 35.214 35.408 35.644 36.355 36.185 37.26 36.037 35.641 35.593 35.597 35.62 35.626 35.676 35.975 36.037 35.661 35.626 35.598 35.649 35.94 36.592 35.72 35.499 35.487 35.484 35.503 35.523 35.506 36.567 36.401 36.444 35.635 35.434 35.494 35.502 35.551 35.628 35.831 41.882 45.954 45.764 40.005 35.845 35.845 35.791 36.014 36.281 35.905 36.42 35.827 41.349 43.511 43.549 43.614 43.61 43.475 43.444 43.346 43.227 43.151 43.078 42.92 42.862 42.772 42.624 42.612 42.412 42.328 42.317 42.149 42 41.968 41.879 41.91 38.388 36.06 34.975 34.993 35.002 35.047 35.039 35.04 35.109 35.577 35.875 35.419 35.482 42.025 42.355 41.098 44.039 39.581 37.302 36.881 37.152 37.97 38.461 39.131 39.77 40.131 40.843 40.926 40.861 41.518 42.287 42.048 41.96 41.918 42.291 41.816 41.906 41.946 43.297 41.999 42.039 42.149 42.084 41.488 36.454 35.053 33.815 33.235 32.985 33.063 33.107 33.109 33.521 38.739 41.009 42.09 42.265 41.511 37.315 33.194 33.159 33.156 33.532 37.248 38.334 35.638 34.87 34.23 33.377 33.13 32.981 33.029 33.095 33.377 33.907 34.235 33.617 33.106 32.879 32.678 32.654 33.017 33.075 36.25 35.72 36.463 37.437 34.086 32.556 32.58 32.622 32.539 32.576 32.51 32.526 32.578 32.609 32.736 32.637 32.664 32.678 32.625 32.649 32.664 32.639 32.545 32.601 32.611 32.58 32.593 32.58 32.616 32.624 32.635 32.673 34.436 33.431 33.272 32.485 32.624 32.669 32.729 32.889 33.136 33.205 33.06 33.178 33.41 33.28 33.183 33.016 32.758 32.68 32.766 32.699 32.807 32.891 33.048 35.747 35.697 34.116 33.613 33.513 33.458 33.606 34.707 33.451 33.444 40.222 42.865 42.418 34.973 33.742 33.755 38.469 40.023 41.148 40.702 38.601 34.384 33.34 33.209 33.146 33.239 33.176 33.24 33.181 33.247 33.245 33.3 33.311 33.32 34.325 34.392 33.728 33.466 37.274 39.241 40.038 40.326 40.641 36.609 33.512 33.551 33.448 33.512 34.277 36.166 36.698 37.427 40.059 39.781 39.239 37.501 33.67 33.453 33.328 33.228 33.298 33.244 33.349 34.481 33.501 33.462 33.286 33.982 38.923 39.713 39.911 34.168 33.909 33.477 33.596 33.369 33.228 33.325 33.353 33.433 33.5 33.593 33.548 33.678 34.433
