ncols 434
nrows 31
xllcorner    428088
yllcorner    433184
cellsize     2
NODATA_value -9999
59.155 59.011 58.907 58.781 58.706 58.531 58.428 58.299 58.224 58.07 57.928 57.801 57.699 57.56 57.472 57.345 57.206 57.137 57.235 57.179 57.019 56.975 58.447 56.92 56.862 56.498 56.31 57.26 56.44 57.196 61.469 61.99 62.234 61.261 59.661 55.335 55.533 54.964 54.702 55.088 54.014 53.908 53.958 53.956 53.967 54.293 55.022 57.108 58.046 57.549 57.438 57.575 57.778 57.743 57.75 57.669 57.67 57.642 52.805 52.529 52.432 52.771 51.886 51.358 51.286 51.241 51.239 51.279 51.392 51.16 50.887 50.738 50.592 50.515 50.45 50.483 50.348 50.261 50.121 49.976 49.871 49.629 49.474 49.262 50.352 53.072 53.864 53.478 48.889 47.99 47.729 47.555 47.224 49.924 51.128 49.2 52.661 50.751 55.903 54.257 55.375 51.89 50.11 48.704 45.883 46.768 46.332 46.389 46.709 44.232 47.089 46.983 46.988 47.106 47.263 47.093 47.1 47.206 47.124 47.245 47.313 47.179 45.892 45.298 45.143 45.13 45.19 45.201 45.22 45.282 45.265 45.194 45.191 45.269 41.748 43.479 44.927 44.188 41.053 39.507 38.213 45.237 45.18 45.147 45.124 45.163 45.191 45.237 43.072 38.557 38.744 37.734 37.282 37.246 37.55 44.388 45.215 45.238 41.045 42.831 37.564 37.172 37.166 43.771 44.597 42.487 36.986 36.769 36.718 36.106 36.158 36.153 36.123 36.193 36.257 36.272 36.291 36.294 36.278 36.413 37.171 41.858 42.941 43.105 43.254 43.319 43.235 43.393 43.367 43.211 43.344 43.3 43.202 43.173 43.134 43.163 43.3 40.953 41.673 41.318 41.016 41.109 40.924 37.054 36.003 36.153 36.234 36.295 36.181 36.258 36.296 36.248 36.312 36.413 36.513 36.611 36.938 37.008 40.81 43.819 42.951 36.812 36.627 36.466 36.356 36.313 36.279 36.24 36.165 36.195 37.752 37.137 36.109 35.994 35.778 35.677 35.658 35.592 35.54 35.578 35.638 35.667 35.678 37.191 38.609 42.833 45.337 40.689 38.988 37.983 36.808 36.646 36.642 36.713 36.783 36.793 36.912 37.176 37.201 37.241 37.087 37.168 37.1 37.136 37.084 37.056 37.126 37.229 37.298 37.182 37.166 37.289 37.179 37.225 37.103 37.157 36.984 36.951 36.912 37.02 37.247 39.457 40.574 37.884 37.345 36.879 36.815 37.008 37.03 36.536 36.98 33.332 33.201 33.629 34.152 36.058 34.923 33.916 32.758 32.671 32.813 32.733 32.754 32.725 32.703 32.696 32.678 32.675 32.684 34.653 36.59 39.735 41.717 40.503 40.085 37.486 33.441 33.773 33.485 32.89 31.529 31.106 31.053 31.091 31.156 31.208 31.273 31.335 31.394 31.474 31.452 31.467 31.468 31.446 31.426 31.376 31.393 31.338 31.357 31.382 31.43 31.893 33.501 32.997 32.904 31.917 31.861 32.917 34.787 33.045 35.792 34.905 32.877 31.818 31.614 31.615 31.529 31.426 31.462 31.46 31.509 31.444 31.421 31.423 31.444 31.463 31.491 31.448 31.443 31.451 31.447 31.458 33.5 41.481 42.544 43.32 44.117 43.81 42.982 42.176 41.354 31.758 33.221 33.22 33.165 32.866 32.107 31.544 31.479 31.507 31.564 31.502 31.514 31.5 31.506 31.516 31.529 31.651 31.667 32.481 32.063 31.622 31.62 31.564 32.501 33.174 36.815 37.474 37.757 38.245 38.547 39.178 39.411 39.505 38.908 38.651 38.02 37.617 36.895 36.234 33.148 31.816 31.576 32.367 31.71 32.563 33.146 33.135 32.404 30.818 30.649 30.516 30.224 29.914
59.086 59.016 58.861 58.746 58.691 58.557 58.441 58.287 58.169 58.066 57.925 57.826 57.696 57.527 57.493 57.316 57.219 57.09 57.215 57.176 56.997 57.134 56.807 56.699 58.018 57.39 56.329 56.125 56.138 56.1 58.554 61.225 61.928 61.987 61.817 60.786 59.08 55.179 54.784 54.265 53.979 53.902 53.908 54.544 54.447 57.65 57.485 58.402 57.78 57.459 57.527 57.661 57.724 57.746 57.695 57.72 57.744 54.165 52.575 52.407 52.282 52.431 51.861 51.391 51.307 51.351 51.224 51.306 51.671 51.214 51.028 50.668 50.545 50.408 50.34 50.33 50.294 50.179 50.131 50.013 49.84 49.734 49.604 49.399 49.168 49.999 49.549 50.908 48.41 48.231 47.941 47.734 47.353 47.323 47.218 50.23 53.032 54.604 55.499 55.14 55.074 51.597 54.727 54.861 52.156 48.131 47.495 48.512 48.128 44.088 42.061 43.679 46.897 46.95 47.004 47.142 47.167 47.138 47.208 47.227 47.108 46.048 41.532 42.617 45.104 45.126 45.104 43.476 45.332 45.265 45.213 45.201 45.157 43.615 41.793 40.079 38.82 43.706 45.133 44.735 44.566 45.199 45.597 45.161 45.232 45.301 45.216 41.312 37.357 37.686 38.595 37.63 37.258 37.32 41.679 45.189 45.225 45.228 45.239 43.254 40.211 38.513 37.706 37.81 39.972 37.981 36.882 36.781 36.256 36.125 36.146 36.072 36.126 36.17 36.248 36.244 36.22 36.239 36.27 36.536 37.826 36.89 40.868 42.633 43.079 43.145 43.199 43.28 43.224 43.375 43.341 43.245 43.379 43.232 43.184 43.153 41.98 41.234 41.329 41.237 41.171 40.973 37.18 35.477 36.195 36.099 36.375 36.471 36.184 36.252 36.343 36.298 36.291 36.45 36.54 36.658 36.901 37.094 39.914 44.113 44.3 38.306 36.754 36.595 36.422 36.351 36.304 36.297 36.239 36.155 36.107 36.156 36.168 36.063 36.001 35.721 35.678 35.59 35.502 35.477 35.533 35.541 35.586 35.865 36.274 39.808 41.489 40.076 40.359 38.991 39.201 40.331 36.883 36.682 36.706 36.749 36.773 36.872 36.967 37.396 37.31 37.148 37.075 37.161 37.144 37.113 37.037 37.072 37.195 37.189 37.273 37.167 37.247 37.166 37.2 37.094 37.054 37.426 36.902 36.926 37.026 37.001 40.15 40.137 39.883 38.273 37.283 36.801 36.837 36.869 37.033 37.012 38.83 33.915 34.021 37.423 36.358 34.601 33.126 34.251 32.762 32.748 32.787 32.749 32.787 32.789 32.728 34.239 35.993 36.468 36.758 40.914 39.254 41.309 40.902 34.869 35.183 34.007 32.493 31.488 31.23 31.032 31.07 31.135 31.191 31.206 31.305 31.356 31.414 31.474 31.415 31.424 31.406 31.399 31.383 31.345 31.301 31.312 31.376 31.443 31.479 31.539 31.934 34.734 36.895 36.677 37.75 37.955 38.088 38.069 37.974 37.997 37.839 37.604 36.489 34.695 31.823 31.702 31.469 31.433 31.433 31.472 31.45 31.44 31.44 31.444 31.591 31.514 31.662 31.459 31.425 31.471 38.335 41.924 42.738 43.551 44.292 43.652 42.828 42.168 39.797 31.665 31.94 32.031 32.313 32.938 33.027 32.479 31.547 31.643 31.492 31.484 31.501 31.497 31.526 31.532 31.552 31.56 31.585 31.537 31.502 31.499 31.53 31.469 31.484 31.498 32.465 35.77 37.053 37.577 37.951 38.278 38.902 39.218 39.406 39.333 38.778 38.458 37.94 37.7 35.262 35.555 33.293 31.949 31.681 31.768 31.866 33.158 32.143 31.217 31.459 30.692 30.469 30.273
59.072 58.962 58.824 58.742 58.632 58.512 58.397 58.266 58.188 58.054 57.906 57.819 57.684 57.592 57.436 57.289 57.224 57.575 57.231 57.077 56.94 57.012 57.757 56.537 56.835 56.551 56.233 56.03 56.043 55.934 55.358 59.492 61.025 61.541 62.273 61.733 60.434 56.826 54.663 54.096 53.996 55.652 54.105 54.607 55.124 56.961 58.424 58.128 57.732 57.408 57.553 57.842 57.725 58.282 58.413 57.729 57.661 52.878 52.491 52.339 52.253 52.27 51.722 51.354 51.375 51.382 51.241 51.395 52.548 51.075 53.407 50.661 50.557 50.375 50.264 50.194 50.137 50.089 50.007 49.937 49.867 49.769 49.584 49.393 54.923 51.208 55.106 48.906 48.795 48.318 48.09 47.992 47.678 47.345 47.215 48.131 51.822 52.577 53.092 53.762 53.655 53.774 54.81 55.303 54.218 49.577 50.038 50.717 50.122 45.98 46.375 45.826 43.048 45.991 46.981 46.94 47.053 47.277 47.189 47.162 47.169 42.185 41.577 41.616 42.312 43.365 45.174 45.235 45.286 45.253 45.205 45.238 44.592 42.077 39.715 38.455 38.066 38.033 40.221 45.214 45.25 45.233 45.151 45.173 45.208 45.224 45.244 41.253 37.306 38.519 38.669 37.549 37.285 37.769 45.218 45.205 45.233 45.262 45.277 45.295 45.276 43.94 39.178 37.604 37.375 37.115 36.864 36.503 36.114 36.11 36.08 36.052 36.101 36.149 36.249 36.219 36.199 36.211 36.218 36.247 36.434 36.47 40.833 40.874 42.835 43.295 43.05 43.22 43.287 43.18 43.179 43.297 43.281 43.25 43.349 43.365 41.127 41.686 41.253 41.162 41.061 41.024 37.099 36.033 36.113 41.893 38.773 38.316 36.382 36.272 36.365 36.291 36.341 36.447 36.573 36.664 36.926 37.252 38.942 43.322 44.093 38.832 39.753 37.57 36.638 36.479 36.323 36.257 36.239 36.165 36.142 36.111 36.152 36.085 36.089 38.259 36.69 35.695 35.6 35.509 35.489 35.419 35.49 35.546 35.549 37.739 37.798 39.018 42.084 39.563 40.692 39.843 37.192 36.723 36.746 36.762 36.756 36.734 36.92 38.057 37.982 37.263 37.027 37.069 37.083 37.143 37.14 37.074 37.058 37.108 37.204 37.137 37.131 37.218 37.168 37.199 37.218 37.074 36.92 36.866 36.896 36.931 37.033 40.373 40.92 40.553 39.709 38.47 37.337 36.782 37.223 39.996 40.764 34.658 37.147 34.695 37.249 34.613 33.456 37.097 33.391 33.809 33.039 32.771 33.124 32.846 36.335 40.312 36.369 41.152 38.96 41.068 38.653 40.629 37.985 35.101 35.655 32.951 31.672 31.307 31.079 31.063 31.075 31.121 31.187 31.243 31.319 31.38 31.459 31.427 31.363 31.395 31.339 31.376 31.322 31.304 31.295 31.315 31.376 31.466 31.504 31.562 36.451 37.798 38.051 38.442 38.574 37.968 38.846 38.224 35.555 38.743 38.778 38.57 38.296 37.965 37.618 36.447 32.658 31.467 31.416 31.423 31.388 31.411 31.418 31.409 31.434 31.607 32.357 31.937 31.511 31.796 40.369 42.179 42.829 43.591 44.207 43.65 42.775 41.778 37.56 32.761 32.812 32.342 31.799 31.472 31.499 31.964 32.057 31.694 31.515 31.488 31.532 31.546 31.515 31.534 31.564 31.576 31.557 31.557 31.542 31.445 31.531 31.464 31.458 31.441 31.463 31.529 32.499 35.875 37.292 37.706 38.05 38.417 38.865 39.341 39.462 39.172 38.785 38.345 37.973 37.622 36.235 35.02 31.914 31.713 31.508 31.412 31.944 32.176 33.02 32.127 31.273 30.711
59.052 58.964 58.828 58.752 58.594 58.496 58.379 58.237 58.144 58.001 57.923 57.806 57.701 57.564 57.445 57.286 57.286 57.229 57.115 57.009 57.276 57.946 57.241 56.448 56.287 56.31 56.22 57.84 56.316 55.589 55.432 56.317 59.3 60.596 61.452 62.075 61.881 55.482 54.394 54.074 53.981 55.15 62.113 61.833 55.908 57.354 58.817 57.899 57.487 57.478 57.596 57.75 57.739 57.744 57.913 57.706 55.068 52.545 52.467 52.274 52.132 51.891 51.445 51.379 51.406 51.359 51.37 55.154 51.605 50.975 51.265 50.307 50.262 50.286 50.259 50.114 50.062 49.973 49.954 49.928 49.787 49.705 49.583 53.43 58.156 59.616 59.079 57.074 53.886 48.611 48.208 48.119 47.918 47.577 47.216 47.448 50.16 48.631 48.032 49.777 47.768 48.064 52.187 54.726 55.441 52.326 49.509 50.489 49.853 45.433 45.213 46.038 42.658 42.186 42.98 47.279 46.953 47.053 47.105 47.281 44.545 41.684 41.553 41.545 41.53 41.542 42.667 45.365 45.259 45.217 45.214 45.135 40.543 42.448 41.167 42.616 38.181 38.03 38.149 45.138 45.233 45.233 45.176 45.236 45.184 45.237 41.153 37.386 37.61 39.314 38.829 37.32 37.51 44.42 45.201 45.211 45.247 45.308 45.285 45.293 45.247 45.226 44.46 43.857 38.787 37.067 36.887 36.515 36.061 36.126 36.054 35.998 36.09 36.174 36.177 36.167 36.177 36.163 36.194 36.221 38.058 40.483 40.896 40.925 40.91 41.349 42.482 43.052 43.08 43.182 43.304 43.163 43.257 43.239 43.185 41.215 41.538 41.118 41.338 41.015 40.906 37.959 36.343 36.059 37.317 44.336 46.643 42.793 38.068 36.358 36.417 36.363 36.374 36.5 36.611 36.661 37.066 42.286 44.753 45.156 43.975 43.039 39.642 36.915 36.647 36.555 36.454 36.286 36.233 36.219 36.154 36.103 36.058 36.095 36.149 39.599 40.882 39.396 35.604 35.573 35.461 35.388 35.378 35.46 35.498 35.488 36.472 37.952 40.031 39.969 41.215 38.425 36.95 36.766 36.812 36.742 36.726 36.771 36.891 36.921 37.393 37.183 37.033 37.702 37.081 37.041 37.117 37.102 37.125 37.083 37.038 37.163 37.182 37.103 37.136 37.21 37.229 37.19 37.126 36.969 36.863 36.814 36.883 36.909 39.77 38.472 38.99 38.528 37.324 36.91 38 39.369 40.902 40.72 39.093 36.925 34.019 33.609 37.015 33.458 33.618 33.819 33.008 33.928 32.914 36.921 41.475 40.993 41.435 38.784 41.759 41.962 41.32 38.672 37.614 34.427 33.505 32.003 31.366 31.095 30.996 31.032 31.102 31.16 31.214 31.283 31.33 31.358 31.363 31.321 31.374 31.335 31.281 31.284 31.288 31.273 31.305 31.4 31.465 31.502 34.476 37.17 38.4 38.62 38.833 38.511 38.714 39.079 39.999 40.121 40.197 40.074 39.87 39.375 39.289 38.951 38.514 38.024 36.936 34.666 31.669 31.432 31.397 31.424 31.419 31.38 31.373 31.47 31.739 32.374 31.761 36.68 41.796 42.303 43.258 43.854 44.085 43.425 42.575 41.875 39.268 31.615 31.463 31.794 31.451 31.423 31.446 31.463 31.533 31.86 31.553 31.548 31.516 31.534 31.548 31.561 31.588 31.622 31.591 31.53 31.545 31.513 31.453 31.444 31.457 31.464 31.433 31.446 31.485 31.574 33.199 36.775 37.227 37.755 38.099 38.639 38.862 39.355 39.407 39.089 38.741 38.221 37.731 37.257 36.056 34.892 32.017 31.567 31.501 32.67 33.246 31.812 31.485 31.55
59.01 58.894 58.804 58.702 58.56 58.493 58.344 58.196 58.141 58.012 57.896 57.791 57.591 57.545 57.418 57.327 57.334 57.167 57.031 57.493 57.837 57.419 56.988 56.424 56.273 56.119 56.041 56.173 56.422 55.594 55.565 55.359 56.219 56.25 60.579 61.189 56.935 54.727 54.243 54.078 54.005 55.147 62.565 63.171 62.603 61.425 60.219 59.249 57.551 57.571 57.744 57.731 57.684 57.688 57.653 57.674 53.573 52.485 52.345 52.304 52.007 51.716 51.458 51.426 51.494 51.399 51.375 53.246 51.321 50.763 50.843 54.06 51.263 50.495 50.131 50.084 50.059 50.238 50.037 49.768 49.699 49.616 49.483 58.54 61.831 61.434 60.422 58.275 56.953 50.262 48.277 48.208 48.082 47.753 47.448 47.137 46.95 46.657 46.31 46.227 46.703 49.759 52.277 53.608 54.634 51.998 49.836 49.102 48.216 45.025 43.853 43.563 43.066 42.696 42.391 44.127 45.877 46.99 47.001 44.243 41.519 41.563 41.6 41.567 41.52 41.562 41.553 44.934 45.268 45.259 45.175 44.313 44.116 43.321 41.989 39.52 38.067 38.198 44.596 45.213 45.179 45.169 45.236 45.206 45.272 45.274 39.007 37.158 37.814 38.933 38.018 37.267 41.884 45.188 45.207 45.215 45.252 45.282 45.309 45.245 45.251 45.232 45.215 41.287 37.133 37.236 36.88 36.484 36.067 36.026 36.072 36.007 36.101 36.15 36.144 36.159 36.133 36.154 36.189 36.591 39.844 40.959 41.091 40.987 40.906 40.914 41.414 41.447 43.074 43.193 43.15 43.342 43.153 43.17 41.715 41.14 41.66 41.208 41.173 41.039 40.94 37.07 36.46 36.034 35.922 42.964 45.165 44.684 37.464 36.395 36.495 36.329 36.422 36.549 36.661 36.733 37.103 42.014 46.591 47.788 42.64 42.272 41.223 37.648 36.713 36.675 36.58 36.468 36.296 36.211 36.211 36.138 36.094 36.034 36.123 40.061 40.391 39.46 35.812 35.609 35.493 35.429 35.357 35.371 35.416 35.429 35.598 36.219 38.433 40.592 42.335 40.392 37.633 37.008 36.878 36.756 36.723 36.765 36.79 36.847 36.88 36.983 36.99 38.196 37.164 37.029 36.997 37.111 37.091 37.124 37.05 37.042 37.09 37.204 37.268 37.166 37.242 37.235 37.199 37.215 37.105 36.89 36.827 36.895 36.89 36.95 39.827 39.225 40.023 38.62 37.317 37.083 37.745 37.123 37.352 38.108 38.597 36.32 40.846 33.036 34.538 32.947 35.621 33.841 33.305 35.261 41.538 36.667 40.746 39.988 41.169 43.396 38.658 36.566 39.053 36.045 32.957 31.551 31.205 31 31.007 31.073 31.128 31.205 31.227 31.298 31.403 31.415 31.56 31.332 31.297 31.32 31.269 31.238 31.232 31.295 31.35 31.415 34.405 34.873 37.287 38.57 39.011 35.744 38.959 40.295 40.721 41.419 41.169 41.741 41.516 41.32 40.718 40.622 40.178 39.562 39.235 38.823 38.37 36.766 33.4 31.587 31.385 31.372 31.393 31.407 31.436 31.375 31.37 31.638 31.662 33.363 39.553 42.306 43.567 44.277 43.849 43.227 42.485 41.463 31.709 31.484 31.447 31.405 31.429 31.396 31.408 31.44 31.465 31.536 31.574 31.646 31.631 31.582 31.602 31.612 31.577 31.602 31.568 31.628 31.606 31.582 31.551 31.518 31.478 31.428 31.47 31.485 31.438 31.488 31.486 32.491 32.718 36.799 37.361 37.739 38.272 38.676 38.958 39.397 39.356 39.018 38.661 38.155 37.632 37.042 35.255 34.421 31.847 31.517 31.861 31.496 31.517 31.632
58.997 58.858 58.775 58.642 58.567 58.474 58.334 58.23 58.051 57.981 57.87 57.76 57.645 57.498 57.429 58.532 57.283 57.132 56.907 56.884 57.209 56.661 56.501 56.326 56.203 56.067 55.878 55.77 56.011 57.093 56.063 55.571 55.307 55.171 57.082 59.737 54.858 54.445 54.101 54.057 53.996 58.123 61.987 62.897 62.424 61.845 61.267 60.682 60.036 58.346 57.757 57.673 57.605 57.752 57.663 57.644 52.504 52.403 52.335 52.09 51.83 51.635 51.465 51.463 51.474 51.484 51.423 51.468 50.984 50.38 54.687 56.182 55.372 53.882 50.052 50.011 50.095 50.121 50.528 49.753 49.623 49.551 53.38 60.447 62.03 58.915 59.453 59.752 56.266 48.636 48.45 48.248 48.223 47.894 47.62 47.271 47.069 46.871 46.521 46.261 46.286 47.946 50.352 52.537 52.543 50.962 48.712 48.434 45.985 44.732 44.272 43.931 43.557 42.928 42.681 42.449 42.015 45.064 46.969 44.469 41.537 41.55 41.559 41.566 41.554 41.463 43.371 45.209 45.183 45.159 45.166 38.841 38.59 40.398 40.726 40.655 39.907 39.584 45.143 45.215 45.211 45.128 45.175 45.218 45.251 41.357 43.605 38.784 37.304 37.164 37.517 37.579 45.151 45.233 45.238 45.289 45.319 45.308 45.237 45.296 45.247 45.237 45.012 38.258 37.05 37.041 36.776 36.34 36.029 36.015 36.027 35.987 36.094 36.105 36.113 36.098 36.144 36.143 36.305 39.009 40.972 41.086 41.011 41.002 41.073 40.972 40.892 41.088 41.034 41.624 42.805 43.108 43.219 43.17 41.417 41.563 41.114 41.298 41.117 40.839 37.082 36.269 36.03 36.007 35.982 38.385 41.378 40.632 36.496 36.511 36.529 36.473 36.434 36.593 36.687 36.77 37.035 41.361 42.971 46.516 40.285 43.219 41.798 42.825 38.046 36.693 36.657 36.527 36.367 36.31 36.242 36.147 36.154 36.06 36.018 35.965 36.873 37.399 37.612 40.863 38.843 35.552 35.359 35.331 35.254 35.301 35.319 35.354 35.879 38.422 39.487 38.705 40.38 38.179 37.131 37.011 36.819 36.778 36.745 36.786 36.828 36.834 36.892 36.949 36.965 37.107 37.995 39.149 38.161 37.115 37.072 37.067 36.983 37.026 37.171 37.238 37.092 37.167 37.197 37.241 37.233 37.174 36.988 36.852 36.807 36.855 36.942 37.419 39.335 40.833 40.263 38.717 36.885 36.739 36.684 37.996 39.921 41.033 40.255 37.951 37.288 35.607 34.407 32.74 34.433 38.049 38.011 38.435 38.744 41.323 37.368 38.174 37.237 39.285 34.937 33.858 31.657 31.251 31.074 30.991 31.04 31.102 31.171 31.216 31.28 31.355 31.35 31.963 31.456 31.304 31.26 31.233 31.203 31.232 31.282 31.301 31.367 31.461 35.9 38.002 38.674 39.237 40.008 40.51 41.423 41.955 42.293 42.296 42.243 41.698 42.335 42.158 42.474 42.518 41.785 40.515 40.386 39.443 39.104 38.339 37.939 36.467 31.571 31.387 31.349 31.346 31.374 31.381 31.344 31.359 31.531 31.693 31.639 39.128 40.408 43.415 43.628 42.83 42.119 36.568 31.51 31.432 31.416 31.405 31.402 31.399 31.406 31.438 31.445 31.439 31.513 31.534 31.737 31.596 31.59 31.575 31.576 31.629 31.623 31.596 31.611 31.59 31.582 31.549 31.509 31.503 31.514 31.457 31.434 31.488 31.463 31.58 31.628 32.666 34.211 37.156 37.384 38.065 38.358 38.75 39.161 39.448 39.308 38.89 38.365 37.815 36.646 34.074 31.752 31.703 31.55 31.564 31.598 31.723
58.932 58.815 58.767 58.63 58.552 58.433 58.302 58.214 58.066 57.971 57.832 57.718 57.63 57.5 58.535 58.694 63.806 59.504 56.886 56.725 56.628 56.463 56.359 56.222 56.156 55.986 55.809 55.687 55.547 55.58 55.811 55.446 56.316 55.615 56.756 55.577 54.893 54.303 54.09 54.069 54.066 59.209 61.676 62.486 62.148 61.611 61.022 60.625 59.948 59.569 58.901 58.102 57.404 57.297 55.049 54.867 52.429 52.347 52.256 52.16 51.826 51.583 51.47 51.575 51.483 52.891 54.038 54.63 57.076 50.451 55.93 56.906 56.493 55.959 52.691 52.33 50.149 49.985 49.924 49.742 49.615 49.389 55.234 59.056 60.33 61.485 60.613 57.303 48.832 48.578 48.472 48.502 48.258 47.918 47.746 47.447 47.116 46.932 46.683 46.385 46.159 46.532 47.436 49.704 46.965 46.726 46.288 45.408 45.023 44.783 44.535 44.201 43.893 43.364 42.997 42.642 42.308 44.552 46.244 44.358 43.071 43.757 41.563 41.503 41.441 41.51 44.839 45.181 45.139 45.186 40.27 38.074 38.062 38.889 38.613 40.983 39.045 45.139 45.214 45.162 45.182 45.185 45.2 45.233 45.189 43.865 44.956 43.531 42.208 37.366 37.297 43.113 45.732 45.185 45.21 45.239 47.471 48.052 45.957 45.321 45.216 45.047 38.573 37.147 37.268 36.964 36.696 36.262 36.015 35.989 36.071 36.027 36.009 36.059 36.042 36.066 36.076 36.118 36.699 39.876 41.007 41.014 41.067 41.086 40.985 41.081 40.971 40.924 41.066 41.382 42.091 42.748 43.265 41.548 41.324 41.868 41.243 41.08 41 38.652 36.325 36.074 35.978 35.923 35.943 36.155 36.879 36.543 36.528 36.558 36.619 36.456 36.495 36.614 36.728 36.761 37.105 37.116 37.971 37.738 39.853 42.796 41.417 43.35 41.47 36.818 36.726 36.633 36.508 36.375 36.28 36.17 36.111 36.093 36.047 35.995 35.999 36.547 38.873 41.124 40.922 35.626 35.448 35.368 35.294 35.201 35.2 35.308 35.288 36.217 36.997 38.604 42.401 39.011 37.544 37.209 37.139 36.879 36.845 36.829 36.795 36.85 36.8 36.852 36.906 38.377 39.504 40.49 40.455 37.363 37.001 37.052 36.999 37.004 37.001 37.109 37.185 37.198 37.245 37.19 37.203 37.156 37.19 37.099 37.03 37.021 36.866 36.902 37.015 40.261 40.854 39.95 37.065 36.847 36.75 36.714 38.288 41.514 41.738 42.822 40.58 38.778 37.702 32.849 35.28 35.854 39.851 39.354 38.664 40.678 37.521 37.219 35.392 34.486 33.213 32.1 31.418 31.136 31.029 31.017 31.024 31.049 31.121 31.18 31.287 31.325 31.329 31.85 31.318 31.271 31.204 31.177 31.197 31.247 31.27 31.346 31.452 35.807 38.086 38.59 39.446 40.086 40.652 41.995 42.38 41.535 41.073 40.614 40.427 40.19 40.325 40.442 40.828 41.182 42.114 42.417 40.836 40.337 39.776 39.079 38.437 37.839 32.858 31.507 31.454 31.394 31.381 31.383 31.405 31.362 31.374 31.532 31.699 31.585 39.028 42.26 43.055 42.514 41.718 34.451 31.522 31.403 31.403 31.39 31.408 31.417 31.473 31.468 31.445 31.429 31.47 31.492 31.529 31.607 31.815 31.674 31.641 31.654 31.652 31.696 31.649 31.663 31.72 31.594 31.611 31.517 31.509 31.496 31.476 31.404 31.49 31.519 31.557 31.556 31.556 32.296 36.606 37.302 37.511 38.167 38.432 38.739 39.126 39.359 38.739 37.745 35.208 32.735 31.714 31.587 31.553 31.66 31.756 31.839
59.168 58.842 58.744 58.597 58.525 58.406 58.319 58.184 58.043 57.921 57.793 57.72 57.574 57.532 57.701 61.479 65.472 62.58 57.001 56.751 56.539 56.394 56.337 56.368 56.073 55.911 55.771 55.627 55.463 55.309 55.274 56.289 56.318 55.164 55.184 54.814 54.652 54.208 54.075 54.044 53.965 54.055 60.503 62.015 61.973 61.36 60.85 60.352 59.685 59.246 58.608 58.09 57.582 54.58 52.369 52.338 52.321 52.248 52.17 52.02 51.714 51.575 51.55 51.6 51.449 51.422 55.296 54.892 56.738 54.761 55.749 56.48 56.846 56.955 56.388 55.196 51.665 50.11 49.88 49.773 49.693 49.522 49.978 51.733 57.113 56.8 58.011 58.104 48.861 49.042 57.745 55.39 48.518 48.038 47.79 47.57 47.284 47.076 46.781 46.52 46.339 46.033 45.949 45.668 45.36 45.192 45.008 44.987 44.854 44.761 44.58 44.426 44.128 43.676 43.337 42.759 42.336 42.066 42.265 42.951 45.904 45.304 42.728 41.448 41.477 44.255 45.203 45.166 45.136 43.264 38.834 38.101 38.124 40.043 39.471 38.093 43.257 45.239 45.208 45.17 45.156 45.174 45.199 45.171 38.987 39.328 42.98 45.042 41.088 43.462 40.422 45.351 45.311 45.264 45.293 45.328 48.26 48.585 48.538 46.357 45.209 45.059 38.076 37.133 37.097 36.871 36.581 36.284 35.918 35.941 35.98 36.005 35.977 35.985 35.996 36.035 36.06 36.106 38.992 41.071 41.001 41.148 41.002 41.015 41.058 40.953 40.93 41.06 40.948 40.883 41.019 41.579 41.769 41.009 41.625 41.253 41.099 41.108 40.901 36.579 36.121 35.974 35.922 35.888 35.887 36.286 36.724 36.584 36.674 36.629 36.648 36.51 36.561 36.661 36.785 36.819 37.079 37.128 37.256 37.768 37.748 38.101 41.061 41.372 40.507 37.182 36.75 36.7 36.555 36.528 36.399 36.214 36.104 36.13 36.068 35.992 35.928 35.9 36.507 37.213 37.043 35.694 35.6 35.441 35.332 35.272 35.224 35.143 35.17 35.273 35.225 36.1 37.758 38.973 38.52 39.224 37.159 37.169 37.081 36.828 36.77 36.805 36.798 36.863 36.83 37.503 39.567 40.223 40.331 37.509 37.008 37.023 37.071 37.063 37.041 36.985 37.02 37.16 37.16 37.101 37.316 37.195 37.099 37.125 37.167 37.246 36.826 36.854 36.825 37.01 37.164 38.957 39.232 36.826 36.79 36.81 36.989 37.48 40.191 42.229 42.169 42.972 38.934 37.526 35.935 40.423 38.555 39.116 36.325 37 37.941 36.494 34.978 33.515 32.415 31.61 31.238 31.001 30.975 31.004 31.074 31.107 31.173 31.206 31.342 31.267 31.282 31.22 31.233 31.202 31.156 31.185 31.222 31.269 31.353 31.422 31.539 37.894 38.537 39.622 40.188 40.881 42.439 41.7 40.926 40.328 39.855 39.537 39.569 39.313 39.401 39.651 39.773 40.03 40.536 41.313 42.358 41.922 40.564 39.714 39.021 38.346 37.574 31.752 31.649 31.489 31.328 31.333 31.393 31.389 31.395 31.409 31.507 31.695 31.726 39.423 41.435 42.094 41.157 31.75 31.434 31.416 31.406 31.413 31.426 31.444 31.435 31.47 31.485 31.427 31.493 31.484 31.5 31.528 31.599 31.631 31.775 31.682 31.617 31.659 31.672 32.275 32.59 31.912 31.652 31.601 31.568 31.549 31.527 31.482 31.459 31.444 31.522 31.452 31.44 31.504 31.556 35.596 36.886 37.402 37.648 38.181 38.501 38.845 38.142 37.46 34.153 32.027 31.595 31.575 31.539 31.818 32.01 32.072
58.942 58.937 58.689 58.548 58.476 58.388 58.287 58.179 58.005 57.918 57.784 57.681 57.565 57.598 57.661 66.372 65.812 59.859 58.126 57.197 56.925 56.413 57.385 56.196 55.977 55.808 55.729 55.548 55.406 55.264 55.108 54.998 55.009 55.298 54.888 54.673 54.391 54.103 54.091 54.058 53.997 54.148 61.278 61.728 61.736 61.207 60.667 60.06 59.512 59.053 58.452 57.935 57.174 53.312 52.396 52.293 52.251 52.166 52.088 51.883 51.671 51.554 51.585 51.567 51.477 51.551 53.206 52.773 51.125 50.272 51.292 55.239 56.081 56.586 57.133 56.745 56.198 54.672 52.357 50.09 49.76 49.553 49.371 49.201 49.122 49.008 49.026 48.869 50.604 59.905 61.508 60.383 52.184 48.067 47.821 47.638 47.391 47.148 46.924 46.674 46.441 46.217 45.974 45.781 45.55 45.278 45.067 44.919 44.812 44.751 44.657 44.457 44.247 43.89 43.463 43.007 42.613 42.112 41.775 41.911 42.389 43.909 43.471 41.983 43.926 45.22 45.181 45.165 45.226 43.178 38.944 38.173 40.746 39.616 38.114 41.988 45.266 45.22 45.179 45.174 45.173 45.201 45.219 40.262 39.456 38.975 37.699 38.525 43.455 44.913 45.24 45.201 45.221 45.254 45.267 45.983 48.489 48.539 48.445 45.241 45.026 38.424 37.095 37.095 37.005 36.838 36.447 36.173 35.94 35.951 35.919 35.981 35.943 35.961 35.969 35.982 36.021 38.793 41.046 41.09 41.167 41.019 41.037 41.161 40.98 40.975 41.062 40.962 41.087 41.042 40.929 43.53 41.512 41.608 41.229 40.904 40.953 40.843 36.873 36.308 36.057 35.924 35.855 35.852 36.096 40.862 39.995 41.908 37.575 36.706 36.667 36.515 36.644 36.704 36.767 36.858 37.111 37.166 37.328 37.768 38.28 40.758 39.816 41.727 42.056 38.744 36.902 36.702 36.616 36.512 36.478 36.326 36.221 36.131 36.042 35.988 35.949 35.879 35.877 35.808 35.84 35.793 35.704 35.573 35.43 35.289 35.229 35.182 35.098 35.111 35.163 35.138 35.876 37.422 38.837 40.145 38.661 37.328 37.267 37.039 36.996 36.826 36.819 36.824 36.86 36.882 37.023 37.642 37.297 37.184 37.108 37.022 37.038 37.023 37.087 37.066 37.021 37.016 37.132 37.17 37.572 37.127 37.198 37.217 37.145 37.203 37.05 36.822 36.792 36.833 36.865 36.979 37.347 37.13 37.846 38.073 36.973 36.713 39.382 41.01 41.289 42.532 42.433 41.169 40.369 41.161 39.883 36.584 37.238 36.879 37.183 35.205 33.734 32.777 31.911 31.396 31.15 30.933 31.019 31.064 31.086 31.145 31.207 31.312 31.243 31.195 31.205 31.179 31.212 31.139 31.139 31.187 31.239 31.421 33.571 35.158 37.093 38.559 39.179 40.057 40.857 42.29 42.051 40.485 39.873 39.437 39.072 38.627 38.607 38.316 38.522 38.635 38.738 39.316 39.683 40.237 40.887 42.016 42.016 40.56 39.532 38.888 38.182 36.445 31.732 32.02 31.568 31.411 31.391 31.398 31.449 31.438 31.432 31.512 31.832 31.875 33.482 41.122 32.997 31.594 31.449 31.393 31.408 31.453 31.434 31.489 31.5 31.495 31.508 31.514 31.489 31.492 31.498 31.509 31.577 31.594 31.612 31.697 31.775 31.712 31.75 32.646 32.941 32.629 31.924 31.671 31.635 31.586 31.572 31.523 31.457 31.442 31.442 31.49 31.394 31.444 31.469 31.488 32.529 33.116 38.906 37.46 37.669 38.287 37.882 35.326 32.394 31.764 31.619 31.65 31.686 32.12 32.255 32.258
58.919 58.786 58.733 58.599 58.476 58.377 58.266 58.151 58.04 57.879 57.721 57.658 57.646 57.621 57.442 65.966 66.388 59.503 56.627 58.666 57.488 56.382 56.118 55.945 55.873 55.738 55.636 55.473 55.343 55.263 55.082 54.99 54.845 54.832 54.733 54.629 54.378 54.091 54.126 54.036 54.035 54.164 60.301 61.246 61.391 60.981 60.424 59.857 59.371 58.751 58.254 57.705 55.457 53.385 52.384 52.25 52.167 52.103 52.017 51.759 51.629 51.627 51.648 51.564 51.522 51.632 52.22 52.12 50.936 50.635 50.507 50.309 55.041 55.523 56.214 56.864 57.018 56.463 55.893 54.579 50.911 49.484 49.197 49.167 49.099 49.013 48.92 48.76 55.65 60.21 60.997 56.916 54.461 48.249 47.869 47.723 47.393 47.145 46.975 46.779 46.56 46.381 46.198 45.991 45.787 45.452 45.254 44.971 44.854 44.703 44.678 44.513 44.348 44.039 43.656 43.282 42.76 42.322 42.008 41.522 41.409 41.289 41.936 40.56 43.885 45.223 45.173 45.16 43.644 42.238 42.24 41.509 39.463 38.154 38.042 43.256 45.19 45.189 45.169 45.173 45.191 45.245 45.307 42.592 41.24 39.951 38.759 38.387 38.784 38.972 43.714 45.071 45.212 45.253 45.263 45.287 45.929 48.566 46.175 45.197 43.826 37.234 37.102 37.006 36.856 36.662 36.396 36.152 35.91 35.939 35.938 35.906 35.916 35.956 35.959 35.977 36.22 40.44 40.974 41.083 40.998 41.033 41.159 40.98 41.127 41.031 40.988 41.088 41.064 40.92 42.467 43.788 44.522 43.124 41.551 40.94 40.877 40.923 37.534 36.285 35.96 35.89 35.822 35.804 36.008 43.413 45.809 47.429 39.076 36.813 36.659 36.523 36.642 36.776 36.82 36.896 37.151 37.182 37.295 40.165 42.437 41.07 43.282 39.285 38.829 37.111 36.799 36.655 36.602 36.551 36.521 36.439 36.333 36.17 36.041 36.02 35.967 35.933 35.852 35.83 35.724 35.794 35.718 35.652 35.622 35.48 35.255 35.23 35.171 35.125 35.018 35.07 35.051 35.028 37.585 38.578 38.912 38.674 37.685 37.782 37.192 36.993 36.872 36.813 36.851 36.877 36.972 37.003 37.088 37.156 37.152 37.245 37.08 36.977 37.006 37.046 37.026 36.991 36.973 37.08 37.184 37.202 37.123 37.054 37.213 37.099 37.143 37.094 36.94 36.739 36.801 36.781 36.984 37.003 36.897 37.129 37.081 36.736 36.723 37.391 36.663 39.99 40.288 41.264 41.495 41.933 40.279 37.801 37.533 36.837 35.614 34.058 32.98 32.262 31.617 31.24 30.962 30.965 31.053 31.08 31.124 31.171 31.301 31.261 31.199 31.22 31.191 31.101 31.133 31.103 31.148 31.155 31.259 31.389 33.953 36.918 38.091 38.814 39.536 40.697 42.336 41.994 40.447 39.644 39.121 38.601 38.174 38.042 37.761 37.682 37.605 37.773 37.922 38.309 38.847 39.299 40.043 40.808 42.33 41.812 40.281 39.185 38.462 37.542 32.38 31.96 32.259 31.526 31.439 31.384 31.459 31.434 31.436 31.388 31.544 32.6 31.666 31.587 31.595 31.662 33.63 31.662 31.458 31.445 31.443 31.504 31.512 31.517 31.552 31.539 31.505 31.525 31.551 31.55 31.578 31.584 31.666 31.649 31.661 31.756 32.015 31.972 32.571 32.772 32.077 31.848 31.987 31.778 31.626 31.588 31.525 31.482 31.465 31.432 31.432 31.457 31.449 31.484 31.469 31.494 32.52 35.856 36.968 37.459 37.202 32.36 31.793 31.598 31.638 31.754 31.779 32.186 32.35 32.316
58.875 58.783 58.618 58.537 58.426 58.367 58.229 58.118 58.003 57.91 57.746 57.628 57.439 57.312 57.052 56.84 56.958 57.761 56.748 56.68 56.916 56.639 56.612 56.026 55.779 55.605 55.529 55.442 55.348 55.133 54.971 54.898 54.716 54.621 54.588 54.564 54.181 54.138 54.116 54.062 54.041 54.174 60.584 60.853 61.059 60.85 60.296 59.736 59.186 58.621 58.125 57.418 55.493 53.669 52.293 52.228 52.153 52.092 51.928 51.761 51.617 51.686 51.611 51.577 51.53 51.628 52.154 54.311 55.651 54.023 50.431 52.536 52.318 50.31 55.32 56.019 56.596 57.147 57.001 56.16 55.119 49.927 49.124 49.141 49.058 49.035 48.912 48.765 50.743 58.22 60.071 57.42 48.284 48.032 47.911 47.734 47.499 47.291 47.002 46.758 46.567 46.426 46.252 46.067 45.923 45.629 45.353 45.107 44.964 44.768 44.695 44.597 44.335 44.099 43.853 43.394 43.036 42.601 42.058 41.681 41.386 40.982 40.758 44.066 45.36 45.156 45.187 45.205 42.807 42.244 42.306 42.678 41.581 40.265 42.712 45.264 45.221 45.174 45.189 45.181 45.208 45.245 43.728 42.488 42.265 41.947 41.877 39.958 39.227 38.398 38.076 39.46 45.188 45.227 45.306 45.292 45.263 45.262 45.224 45.031 37.619 37.123 37.392 38.011 36.876 36.544 36.266 36.057 35.869 35.903 35.915 35.918 35.878 35.916 35.957 35.965 37.174 38.007 40.76 40.978 41.119 41.035 40.981 40.954 41.064 41.032 41.095 40.984 40.971 41.209 43.538 43.892 43.759 43.625 43.61 42.822 40.977 37.621 36.771 36.214 35.888 35.788 35.751 35.767 36.08 38.377 45.641 46.161 41.054 36.889 36.742 36.637 36.688 36.799 36.863 36.972 37.157 38.875 40.99 41.4 41.426 40.261 37.21 37.05 37.025 36.903 36.728 36.625 36.589 36.56 36.447 36.352 36.354 36.252 36.089 36.002 35.954 35.914 35.844 35.805 35.734 35.716 35.668 35.609 35.684 35.572 35.527 35.321 35.164 35.084 34.992 34.973 34.957 34.98 34.961 37.458 38.752 41.227 39.012 39.203 38.845 37.343 36.921 36.833 36.847 36.876 36.978 37.003 37.105 37.103 37.127 37.156 37.202 37.15 36.992 36.994 37.024 37.042 37.034 36.984 39.41 37.209 37.231 37.087 37.051 37.134 37.147 37.066 37.091 36.967 36.779 36.737 36.807 36.874 36.925 37.127 37.099 36.867 36.836 36.803 36.763 36.693 38.857 39.714 40.39 40.466 39.217 37.163 37.268 35.768 35.177 33.48 32.662 31.945 31.341 31.069 30.935 31.017 31.071 31.109 31.128 31.518 31.505 31.223 31.22 31.175 31.154 31.093 31.091 31.099 31.178 31.247 31.338 33.027 34.103 37.571 38.468 39.375 40.252 41.822 42.312 40.53 39.766 39.076 38.442 37.763 37.473 37.275 37.046 36.879 36.821 37.183 37.626 37.76 38.189 38.677 39.334 40.156 40.939 42.197 41.108 39.784 39.108 38.188 34.467 31.771 32.305 31.833 31.509 31.456 31.379 31.458 31.45 31.468 31.433 31.478 31.591 31.612 31.601 33.039 34.804 32.506 31.504 31.472 31.474 31.528 31.562 31.572 31.529 31.538 31.569 31.573 31.568 31.584 31.607 31.586 31.622 31.647 31.648 31.879 32.916 32.392 31.985 31.807 31.962 31.952 31.919 31.783 31.704 31.614 31.62 31.56 31.53 31.529 31.492 31.489 31.442 31.434 31.418 31.461 31.459 31.487 32.574 35.85 35.8 31.727 31.663 31.657 31.713 31.77 31.884 32.037 32.537 32.57
58.897 58.775 58.656 58.49 58.447 58.471 58.269 58.123 57.997 57.836 57.719 57.901 57.59 57.304 56.819 56.69 62.791 62.374 58.976 56.903 56.552 57.699 57.146 56.229 55.823 55.636 56.274 56.23 55.229 55.103 54.988 54.783 54.65 54.546 54.466 54.547 54.288 54.168 54.071 54.024 54.023 54.092 60.154 60.534 60.594 60.544 59.989 59.382 58.947 58.336 57.876 57.17 54.253 52.488 52.205 52.128 52.102 51.959 51.785 51.728 51.716 51.701 51.654 51.635 51.62 51.573 52.523 54.451 55.826 55.39 51.62 53.671 54.857 50.639 50.361 51.741 55.456 55.942 56.568 56.836 54.609 50.877 50.046 49.057 49.119 49.094 49.004 48.875 48.715 52.783 55.062 50.195 48.238 48.027 47.852 47.681 47.515 47.277 46.996 46.836 46.597 46.393 46.234 46.082 45.88 45.725 45.508 45.205 44.984 44.855 44.741 44.607 44.481 44.293 43.982 43.597 43.25 42.723 42.325 41.965 41.411 40.987 42.323 43.011 44.675 45.188 45.041 42.693 42.16 42.216 42.273 42.327 42.252 42.262 45.28 45.192 45.209 45.155 45.182 45.207 45.223 45.359 42.486 42.319 42.489 42.418 42.432 41.987 41.284 38.553 38.077 38.092 39.676 43.69 45.137 45.271 45.248 45.221 45.187 39.692 37.111 37.205 45.719 44.798 43.673 38.661 36.658 35.934 35.823 35.901 35.868 35.838 35.858 35.855 35.915 35.934 36.044 36.289 37.202 40.046 40.897 40.971 41.049 40.963 40.955 41.035 41.06 40.962 42.465 42.78 43.814 44.157 44.989 43.891 43.864 43.653 43.641 36.972 36.096 35.862 35.82 35.732 35.736 35.759 36.182 41.528 41.529 43.103 37.742 36.916 36.677 36.686 36.818 36.872 36.896 37.047 37.157 37.905 41.976 41.511 37.644 37.214 37.164 37.062 36.93 36.776 36.621 36.556 36.505 36.37 36.399 36.255 36.186 36.151 36.032 35.958 35.93 35.806 35.771 35.749 35.684 35.65 35.552 35.514 35.524 35.573 35.91 35.461 35.341 35.172 35.096 34.991 34.896 34.845 34.915 35.371 37.202 39.289 38.898 40.114 40.07 37.709 36.991 36.973 36.977 36.945 36.913 37.053 37.077 37.056 37.068 37.166 37.108 37.138 37.126 37.159 37.03 37.052 37.047 37.024 37.019 36.96 37.007 37.126 37.072 37.116 37.193 37.092 37.078 37.082 37.058 36.84 36.77 36.777 36.761 36.903 36.858 37 37.714 37.392 36.798 36.863 36.765 38.833 37.878 38.004 37.282 37.319 39.624 40.573 34.983 33.163 32.321 31.557 31.27 31.089 30.923 31.03 31.056 31.156 31.195 31.3 31.232 31.199 31.182 31.109 31.129 31.059 31.052 31.144 31.261 31.339 31.416 31.464 32.712 37.82 38.764 39.175 40.668 42.286 40.876 39.852 38.187 38.5 37.863 37.454 37.21 37.045 36.888 36.766 36.939 37.554 38.326 37.692 37.524 37.954 38.772 39.616 40.466 42.179 41.524 40.343 39.31 38.618 37.665 31.975 31.927 32.001 31.808 31.64 31.535 31.411 31.485 31.457 31.488 31.469 31.453 31.536 31.627 31.66 32.434 31.792 33.566 32.226 31.542 31.57 31.55 31.564 31.565 31.589 31.603 31.629 31.6 31.592 31.598 31.635 31.625 31.648 31.665 32.546 32.72 32.257 31.88 31.705 31.929 34.973 33.697 31.741 31.691 31.646 31.632 31.609 31.555 31.579 31.536 31.492 31.439 31.455 31.452 31.422 31.435 31.488 31.543 31.619 31.59 31.604 31.666 31.69 31.742 32.014 32.237 32.432 32.513 32.384
58.827 58.719 58.633 58.47 58.39 58.333 58.348 58.176 57.944 57.85 57.794 57.882 57.626 57.712 56.656 61.063 63.501 63.128 62.444 60.399 56.665 56.655 56.345 56.11 57.012 55.799 55.432 55.335 55.115 55.012 54.949 54.796 54.652 54.452 54.44 54.581 54.273 54.177 54.09 54.082 54.016 54.127 59.78 60.035 60.216 60.318 59.798 59.257 58.619 58.2 57.6 54.945 52.781 52.425 52.322 52.148 52.073 51.85 51.775 51.816 51.742 51.695 51.618 51.587 51.571 51.525 51.642 53.213 54.054 51.982 53.327 55.777 51.844 50.656 53.262 53.568 51.237 54.158 55.735 56.194 55.73 55.107 53.124 49.276 49.178 52.255 50.296 49.176 48.831 48.616 48.468 48.354 48.26 48.044 47.809 47.55 47.462 47.176 46.967 46.802 46.621 46.502 46.257 46.038 45.898 45.69 45.472 45.25 45.096 44.921 44.762 44.66 44.525 44.331 44.066 43.756 43.393 43.019 42.56 42.108 41.631 41.263 40.932 42.397 42.353 43.392 41.89 40.815 40.803 42.287 42.743 42.965 42.323 45.025 45.228 45.175 45.19 45.178 45.172 45.194 45.184 42.641 41.327 42.464 42.461 42.552 42.498 42.356 42.227 41.628 38.327 38.612 38.868 39.686 38.852 45.072 45.056 45.2 43.606 37.316 37.027 43.225 46.89 47.3 40.773 37.573 37.512 39.606 35.86 35.888 35.854 35.83 35.836 35.848 35.891 35.892 35.896 35.916 36.287 36.962 38.287 40.089 40.882 40.992 40.941 40.977 41.08 41.059 42.509 43.625 43.536 44.712 44.008 43.871 43.638 43.557 42.062 36.461 35.95 35.861 35.673 35.668 35.711 35.81 36.199 36.756 38.186 37.259 37.005 36.941 36.774 36.727 36.864 36.889 36.966 37.177 37.232 37.243 37.949 38.192 37.221 37.09 37 36.919 36.775 36.638 36.525 36.449 36.366 36.259 36.164 36.2 36.072 35.992 35.964 35.868 35.8 35.732 35.758 35.652 35.539 35.579 35.495 35.465 35.391 35.398 35.366 35.567 35.422 35.344 35.136 34.967 34.92 34.85 34.804 34.73 34.796 37.053 38.986 40.019 41.17 38.974 37.478 37.063 37.041 37.065 36.888 36.967 37.007 37.11 37.136 37.107 37.163 37.147 37.124 37.111 37.176 37.032 36.954 37.05 37.044 37.016 36.997 36.987 37.057 37.119 37.201 37.892 37.041 37.083 39.433 37.154 36.908 36.77 36.759 36.823 36.897 36.83 37.171 37.292 36.875 36.767 36.813 37.291 38.519 37.17 40.506 44.175 42.811 43.039 36.086 32.641 32.011 31.371 31.056 30.953 31.009 31.067 31.133 31.169 31.209 31.228 31.154 31.146 31.121 31.083 31.019 31.026 31.13 31.196 31.254 31.329 31.449 31.595 37.419 38.068 39.108 39.883 41.516 42.306 40.557 38.646 38.763 37.907 37.501 37.312 37.158 36.972 36.811 36.796 37.379 38.006 38.596 37.891 37.175 37.673 38.349 39.12 40.027 41.089 42.344 40.71 39.765 38.753 37.849 32.925 31.72 31.57 31.493 31.539 31.572 31.479 31.426 31.445 31.497 31.544 31.497 31.488 31.502 31.554 31.638 31.64 35.128 33.63 31.646 31.569 31.61 31.604 31.593 31.598 31.609 31.636 31.634 31.635 31.697 31.676 31.668 31.671 31.879 31.858 31.677 31.672 31.698 31.704 31.861 32.848 32.07 31.684 31.676 31.705 31.654 31.625 31.607 31.592 31.542 31.536 31.497 31.482 31.459 31.433 31.448 31.466 31.542 31.594 31.598 31.864 31.862 31.94 32.223 32.249 32.323 32.404 32.474 32.532
58.784 58.668 58.579 58.476 58.392 58.226 58.117 58.033 58.306 57.931 59.042 57.368 59.525 60.545 60.902 62.059 62.511 63.116 63.183 62.67 61.265 57.536 56.562 56.075 56.434 55.982 55.692 55.3 55.754 55.187 54.816 54.655 54.545 54.36 54.447 54.518 54.23 54.197 54.131 54.062 53.954 54.066 59.378 59.662 59.791 59.951 59.546 59.034 58.39 57.874 57.272 53.977 52.591 52.472 52.375 52.272 52.082 51.818 51.763 51.762 51.751 51.721 51.65 51.555 51.544 51.572 51.464 51.494 51.498 51.436 53.713 53.189 51.137 51.072 52.928 53.315 50.25 50.157 53.318 55.331 55.868 56.045 55.578 54.945 53.038 54.695 55.843 52.008 50.295 48.75 48.533 48.335 48.193 48.121 47.573 47.207 47.259 47.058 46.932 46.683 46.549 46.441 46.31 46.153 45.923 45.748 45.541 45.295 45.083 44.973 44.807 44.678 44.599 44.43 44.2 43.888 43.593 43.129 42.809 42.364 41.933 41.5 41.154 40.826 40.634 41.694 40.921 40.381 40.296 43.083 43.134 42.56 44.478 45.339 45.202 45.162 45.145 45.173 45.19 45.234 43.692 42.315 39.479 42.567 42.321 42.505 42.352 42.297 42.424 42.246 42.642 39.371 40.134 38.674 37.19 39.578 42.961 44.497 38.362 37.05 41.396 46.32 46.793 47.355 46.183 40.532 43.483 41.046 36.684 35.836 35.827 35.782 35.793 35.913 35.919 35.878 35.904 35.917 35.909 35.95 36.341 37.436 38.819 40.836 40.934 40.966 40.944 40.967 43.231 43.692 43.464 43.733 43.714 43.471 43.624 43.534 36.325 36.029 35.845 35.666 35.617 35.675 35.721 35.83 36.291 41.8 37.218 37.081 37.32 39.174 36.81 36.839 36.919 36.949 37.014 37.224 37.253 37.249 37.166 37.197 37.1 36.961 36.892 36.698 36.568 36.509 36.427 36.33 36.268 36.178 36.091 36.044 35.988 36.017 35.89 35.818 35.794 35.727 35.609 35.596 35.539 35.466 35.432 35.378 35.335 35.306 35.292 35.237 35.203 35.321 35.224 35.098 34.934 34.874 34.802 34.732 34.679 34.585 35.315 38.604 40.386 38.081 38.343 37.26 36.968 37.01 37.454 37.044 36.991 37.076 37.154 37.109 37.097 37.188 37.124 38.276 38.792 37.152 36.98 36.963 36.959 37.052 37.027 37.037 36.938 37.034 36.987 37.057 37.058 37.094 37.104 37.014 37.078 36.985 36.798 36.763 36.871 36.984 36.88 36.924 37.456 36.904 38.258 38.806 37.386 37.891 41.775 42.596 43.05 45.046 34.528 32.236 31.571 31.105 30.874 30.916 31.003 31.063 31.112 31.2 31.259 31.176 31.124 31.121 31.101 31.042 30.993 31.124 31.18 31.234 31.244 31.333 31.406 31.57 37.465 38.497 39.378 40.278 42.084 41.863 40.116 35.741 38.375 37.66 37.374 37.216 37.037 36.864 36.71 37.019 37.914 38.627 38.086 37.332 36.751 36.993 37.904 38.697 39.492 40.661 42.334 41.344 40.049 39.103 37.996 36.35 31.524 31.411 31.363 31.476 31.557 32.677 31.583 31.44 31.443 31.477 31.532 31.485 31.525 31.53 31.528 31.576 31.598 31.925 31.633 31.682 31.668 31.652 31.621 31.675 31.643 31.68 31.649 31.896 32.16 32.451 31.785 33.346 34.876 31.778 31.626 31.665 31.701 31.699 31.911 31.906 31.712 31.69 31.687 31.675 31.693 31.66 31.619 31.622 31.608 31.569 31.605 31.539 31.543 31.513 31.504 31.499 31.487 31.538 31.912 33.701 31.934 31.99 32.154 32.335 32.393 32.517 32.605 32.583
58.756 58.648 58.539 58.466 58.355 58.218 58.163 58.017 57.957 58.967 57.502 59.129 58.442 58.149 61.087 60.686 61.242 62.23 62.877 63.36 63.031 62.107 59.987 57.232 55.892 55.857 56.714 56.346 55.09 55.576 54.83 54.592 54.432 54.322 54.416 54.57 54.486 54.266 54.071 54.046 53.981 53.984 59.065 59.187 59.436 59.566 59.423 56.008 52.999 53.014 53.754 52.834 52.645 52.558 52.409 52.355 52.015 51.846 51.827 51.761 51.664 51.657 51.649 51.567 51.546 51.538 51.453 51.335 51.31 51.326 54.063 52.91 52.859 54.453 53.484 50.999 51.307 52.096 49.618 53.453 54.964 55.464 55.996 55.897 55.36 55.352 56.047 55.361 54.297 48.964 48.49 48.339 48.133 47.911 47.409 46.897 46.818 46.838 46.755 46.599 46.521 46.384 46.309 46.162 46.004 45.809 45.569 45.399 45.203 45.039 44.852 44.749 44.576 44.475 44.32 44.037 43.795 43.426 43.084 42.551 42.207 41.793 41.442 41.068 40.814 40.512 40.454 40.461 40.516 40.599 41.167 41.412 43.982 45.213 45.162 45.122 45.165 45.153 45.208 45.325 42.394 42.48 42.408 42.41 42.417 42.332 42.362 42.428 42.298 42.374 42.494 42.38 42.191 38.547 37.094 37.022 36.938 37.195 37.114 37.331 38.798 45.695 47.044 47.762 45.118 45.313 44.745 44.147 36.757 35.816 35.768 35.764 35.787 35.821 35.811 35.858 35.864 35.9 35.888 35.938 35.95 36.23 37.192 37.855 40.237 40.766 40.928 42.554 43.261 43.495 43.631 43.444 43.496 43.495 43.393 37.196 36.15 36.099 36.28 35.653 35.664 35.717 35.715 39.108 45.259 46.57 40.308 37.109 37.125 37.031 36.825 36.92 36.986 37.028 37.126 37.274 37.272 37.204 37.124 37.041 36.928 36.744 36.662 36.583 36.524 36.452 36.371 36.283 36.217 36.078 36.069 35.965 35.872 35.838 35.798 35.737 35.612 35.548 35.521 35.455 35.459 35.358 35.354 35.267 35.239 35.174 35.161 35.109 35.1 35.097 35.076 35.164 35.115 34.9 34.789 34.733 34.633 34.538 34.495 34.97 35.324 37.433 38.31 38.997 38.809 37.436 37.551 37.728 37.001 37.017 37.114 37.163 37.128 37.074 38.665 41.175 41.089 37.824 37.296 37.054 36.948 36.961 37.054 37.066 36.972 36.893 37.04 36.957 37.076 37.138 37.065 37.093 37.083 37.017 36.99 36.862 36.841 36.964 37.01 36.808 36.968 37.276 38.505 38.51 39.609 40.152 41.687 40.444 43.809 41.234 35.53 31.874 31.317 31.003 30.929 30.966 31.014 31.09 31.146 31.271 31.188 31.153 31.142 31.086 31.004 30.978 31.071 31.224 31.261 31.21 31.258 31.312 31.352 31.516 37.605 38.677 39.48 40.479 42.175 41.232 40.036 39.053 38.106 37.513 37.274 37.098 36.947 36.769 36.906 37.506 38.356 38.473 37.539 37.012 36.796 36.987 37.745 38.274 39.371 40.414 42.029 41.403 40.053 39.255 38.205 34.511 31.489 31.371 31.359 31.478 31.566 31.564 31.639 31.551 31.609 31.463 31.516 31.547 31.562 31.564 31.584 31.574 31.559 31.521 31.598 31.577 31.609 31.673 31.743 31.886 31.74 31.77 31.716 31.979 32.691 33.136 31.972 31.817 32.254 31.559 31.635 31.688 31.728 31.82 34.529 34.777 31.763 31.724 31.708 31.726 31.705 31.707 31.716 31.658 31.685 31.668 31.659 31.624 31.585 31.576 31.568 31.534 31.479 31.528 32.225 34.925 32.019 32.17 32.288 32.4 32.397 32.566 32.645 32.667
58.723 58.62 58.528 58.453 58.357 58.234 58.081 58.026 57.955 57.912 57.4 57.864 57.219 59.772 62.738 59.868 57.828 60.13 62.152 62.677 63.435 63.086 62.712 60.393 56.577 56.227 56.001 55.333 55.813 54.918 54.637 54.517 54.31 54.26 54.197 54.151 54.235 54.563 54.199 54 53.898 53.848 57.707 58.573 59.036 59.102 59.152 54.672 53.054 52.946 52.921 52.867 52.754 52.618 52.531 52.316 51.878 51.818 51.798 51.796 51.7 51.717 51.73 51.662 51.608 51.499 51.407 51.407 51.275 51.121 51.006 50.938 52.043 54.662 51.793 51.245 51.667 52.356 49.595 49.176 53.099 53.676 55.288 55.966 56.149 56.055 55.7 54.74 49.893 48.66 48.4 48.274 47.947 47.347 46.918 46.674 46.582 46.629 46.569 46.516 46.399 46.312 46.262 46.109 46.012 45.841 45.655 45.438 45.217 45.053 44.848 44.702 44.59 44.46 44.247 44.086 43.85 43.571 43.333 42.937 42.635 42.084 41.805 41.401 41.089 40.824 40.641 40.46 40.373 40.416 40.265 43.024 45.212 45.163 45.147 45.147 45.159 45.221 45.186 42.707 42.503 42.451 42.604 42.456 42.346 42.464 42.439 42.321 42.518 42.41 42.407 42.408 42.299 42.164 41.317 37.281 36.781 36.814 36.611 37.158 37.777 43.01 45.758 46.133 45.28 45.765 45.497 39.99 37.268 35.817 35.776 35.765 35.823 35.821 35.826 35.848 35.863 35.89 35.901 36.084 35.936 35.933 35.944 36.277 37.023 39.222 41.078 43.736 43.525 43.549 43.44 43.521 43.481 43.569 39.898 36.178 36.028 35.895 35.766 35.667 35.771 35.741 35.767 41.482 45.655 47.281 47.359 37.38 37.154 36.997 36.888 37 36.989 37.09 37.161 37.297 37.314 37.208 37.045 36.919 36.777 36.723 36.597 36.544 36.458 36.34 36.296 36.198 36.135 36.049 35.948 35.893 35.81 35.737 35.665 35.611 35.55 35.475 35.397 35.362 35.308 35.268 35.258 35.159 35.16 35.108 35.092 35.021 34.989 34.991 34.943 34.899 34.924 35.137 34.962 34.795 34.652 34.512 34.498 34.451 34.422 34.973 37.122 38.81 39.999 38.684 38.546 37.59 37.402 37.187 37.066 37.095 37.128 39.288 38.649 42.324 41.689 38.638 37.12 37.251 37.216 37.055 36.974 37.012 37.041 36.963 36.928 36.924 36.985 36.938 37.049 37.042 37.004 37.061 36.986 37.089 36.939 36.874 37.12 37.024 36.924 36.924 36.958 39.989 40.634 41.708 41.406 43.422 44.214 43.403 37.293 31.35 31.055 30.917 30.942 30.973 31.063 31.125 31.161 31.201 31.119 31.115 31.057 31.039 30.959 30.987 31.105 31.189 31.221 31.234 31.232 31.292 31.373 31.529 37.766 38.737 39.714 40.671 42.295 40.93 39.667 38.745 37.845 37.406 37.157 36.962 36.814 36.759 37.433 38.124 38.409 37.828 37.117 36.698 36.931 37.106 37.537 38.36 39.206 40.168 42.009 41.554 40.256 39.179 38.377 33.403 31.485 31.428 31.442 31.519 33.271 32.187 32.594 31.53 31.738 31.504 31.448 31.502 31.522 31.567 31.547 31.613 31.594 31.614 31.605 31.638 31.665 31.661 31.648 31.709 31.804 32.621 31.837 31.861 32.078 31.909 31.755 31.588 31.558 31.626 31.676 31.738 31.719 31.852 32.466 32.145 31.695 31.727 31.768 31.725 31.752 31.765 31.745 31.749 31.766 31.713 31.711 31.706 31.694 31.661 31.646 31.596 31.607 31.619 32.382 31.902 32.003 32.185 32.328 32.379 32.443 32.554 32.826 34.552
58.769 58.597 58.493 58.401 58.291 58.231 58.08 57.984 59.05 57.505 57.972 57.245 57.761 62.169 63.195 63.994 62.341 57.501 58.083 61.749 62.702 63.094 63.158 62.721 61.214 57.449 56.296 55.982 55.617 55.088 54.739 54.563 54.365 54.249 54.089 53.977 53.981 54.148 54.401 54.197 53.991 53.871 53.735 54.559 56.654 57.704 58.585 53.148 53.112 53.06 52.999 52.863 52.793 52.705 52.323 52.064 51.917 51.806 51.8 51.782 51.784 51.837 51.8 51.715 52.432 51.759 51.484 51.287 51.215 51.122 50.978 50.806 50.749 51.226 52.115 52.412 52.643 50.285 49.271 49.216 49.111 50 53.353 54.963 55.631 55.934 55.148 50.686 48.849 48.537 48.314 48.11 47.59 47.038 46.584 46.546 46.537 46.559 46.484 46.536 46.369 46.273 46.155 46.052 45.953 45.799 45.642 45.495 45.28 45.102 44.906 44.797 44.58 44.499 44.297 44.144 43.913 43.679 43.46 43.11 42.807 42.472 42.049 41.695 41.49 41.081 40.862 40.717 40.458 40.284 40.424 40.408 41.454 45.119 45.233 45.144 45.166 45.182 45.411 42.456 42.355 42.397 42.548 42.542 42.544 42.385 42.131 42.5 42.41 42.39 42.498 42.309 42.369 42.438 42.257 39.739 38.691 36.749 36.388 36.498 36.336 35.937 35.831 35.909 43.615 44.809 44.735 39.58 35.793 35.809 35.741 35.843 35.879 35.812 35.82 35.841 35.858 35.879 35.891 35.91 35.913 35.93 35.951 36.041 36.181 37.02 41.317 43.582 43.521 43.494 43.481 43.476 43.601 43.426 37.056 36.301 36.828 35.831 35.748 35.694 35.716 35.768 35.796 39.148 43.484 45.464 40.806 37.723 37.217 37.027 36.972 37.055 37.071 37.136 37.231 37.37 37.266 37.093 36.938 36.833 36.763 36.633 36.593 36.52 36.439 36.395 36.263 36.142 36.06 35.999 35.923 35.802 35.836 35.68 35.638 35.575 35.478 35.401 35.297 35.244 35.264 35.172 35.125 35.088 34.994 35.004 34.932 34.932 34.899 34.873 34.867 34.8 34.786 34.81 34.774 34.942 35.001 34.607 34.484 34.435 34.315 34.216 34.282 36.815 38.371 38.785 38.83 40.131 38.368 37.97 37.449 37.036 37.036 38.887 41.683 42.273 41.284 37.98 37.004 37.093 37.103 37.192 37.012 36.968 37.029 37.046 37.015 36.915 36.855 36.913 36.87 37.004 37.004 37.043 37.065 36.991 37.024 36.94 36.885 36.919 36.839 36.904 37.006 39.292 40.547 41.329 41.365 39.569 41.073 41.105 32.567 31.086 30.882 30.88 30.933 30.987 31.07 31.118 31.209 31.114 31.1 31.087 31.044 30.985 30.918 31.056 31.384 31.18 31.234 31.223 31.25 31.302 31.375 32.477 36.628 38.499 39.666 40.632 42.372 40.649 39.797 38.633 37.776 37.243 37.038 36.937 36.718 37.024 37.717 38.647 38.053 37.322 36.782 36.788 37.021 37.192 37.475 38.149 39.131 40.142 41.835 42.012 40.136 39.146 38.264 34.437 31.478 31.475 31.465 31.519 32.291 31.709 31.536 31.454 31.491 31.942 31.606 31.821 31.559 31.53 31.572 31.545 31.608 31.615 31.619 31.604 31.657 31.676 31.667 31.616 31.664 31.658 31.639 31.725 31.685 31.687 31.604 31.646 31.642 31.664 31.693 31.74 31.77 31.945 32.222 31.866 31.812 31.755 31.759 31.809 31.798 31.807 31.823 31.85 31.81 31.812 31.778 31.836 31.824 31.773 31.775 31.72 31.975 32.003 32.949 33.624 33.26 32.218 32.256 32.37 32.381 34.324 36.255 35.91
58.768 58.567 58.535 58.38 58.31 58.214 58.092 59.162 57.748 58.819 57.518 57.323 61.898 63.222 64.014 63.524 62.652 59.383 56.67 56.496 60.604 62.323 63.107 63.403 62.804 61.587 57.13 56.136 56.32 55.726 55.11 54.608 54.343 54.196 54.085 53.959 53.815 53.796 53.92 53.987 54.166 53.891 53.809 53.677 53.527 53.464 53.265 53.095 53.071 53.052 52.976 52.935 52.919 52.788 52.62 51.951 51.929 51.853 51.771 51.815 51.887 53.802 51.719 52.171 51.613 53.416 51.868 51.301 51.208 51.034 50.902 50.798 50.583 50.466 50.834 52.867 50.527 49.443 49.406 49.257 49.14 49.098 52.09 55.07 56.121 55.63 51.521 48.893 48.771 48.436 48.317 47.798 47.381 46.668 46.524 46.447 46.41 46.479 46.437 46.453 46.333 46.294 46.189 46.046 45.904 45.775 45.646 45.463 45.327 45.139 45.004 44.81 44.702 44.547 44.295 44.135 43.945 43.753 43.547 43.253 43.009 42.643 42.395 41.956 41.745 41.398 41.229 40.862 40.64 40.442 40.296 40.57 40.398 41.121 41.434 44.746 45.197 45.174 42.762 42.195 41.594 42.227 41.726 42.5 42.291 42.421 41.767 42.419 42.475 41.622 42.381 42.459 42.408 42.359 42.376 42.349 42.275 38.867 40.434 36.356 36.004 35.92 35.822 35.749 40.345 37.97 36.506 35.687 35.745 35.772 35.797 35.942 35.855 35.891 35.865 35.843 35.856 35.9 35.91 35.889 35.933 35.959 35.944 36.092 36.16 36.858 42.796 43.494 43.453 43.462 43.471 43.511 43.716 39.92 36.158 36.029 36.278 35.813 35.841 35.785 35.819 35.867 35.822 36.354 38.334 37.721 37.24 37.299 37.242 37.082 37.032 37.086 37.105 37.212 37.281 37.311 37.091 37.006 36.902 36.803 36.739 36.648 36.555 36.463 36.377 36.293 36.2 36.083 36.045 35.998 35.95 35.865 35.797 35.735 35.659 35.62 35.544 35.415 35.461 35.369 35.208 35.156 35.059 34.997 34.933 34.913 34.848 34.775 34.775 34.756 34.749 34.697 34.709 34.66 34.638 34.592 34.738 34.941 34.518 34.381 34.325 34.248 34.14 34.139 36.829 37.476 39.843 41.123 39.287 40.025 39.586 37.584 38.274 37.033 38.197 41.018 37.563 37.007 37.065 37.05 37.053 38.697 38.332 38.601 38.177 37.08 37.003 37.021 36.949 36.867 36.91 36.869 36.868 37.065 37.02 37.028 37.02 37.054 37.016 36.922 36.82 36.804 36.927 37.571 40.411 41.462 41.04 41.382 40.906 40.719 33.888 32.162 31.002 30.885 30.986 31.014 31.082 31.094 31.168 31.146 31.054 31.011 30.993 30.911 31.015 31.2 31.249 31.177 31.18 31.239 31.288 31.313 31.383 32.603 37.687 38.627 39.698 40.617 42.35 40.86 39.805 38.778 38.013 37.222 36.929 36.77 36.96 37.521 38.303 38.364 37.656 36.875 36.728 36.922 37.127 37.303 37.58 38.204 39.348 40.376 42.011 42.208 40.224 39.218 38.226 37.507 31.548 31.459 31.411 31.405 31.422 31.496 31.43 31.429 31.49 31.498 31.566 31.581 31.786 31.678 32.5 31.743 31.688 31.69 31.619 31.618 31.66 31.686 31.633 31.672 31.694 31.641 31.65 31.67 31.672 31.66 31.642 31.663 31.725 31.762 31.74 31.752 31.793 31.913 32.216 34.67 34.571 31.822 31.802 31.801 31.83 31.862 31.867 31.871 31.903 31.915 31.916 31.94 31.858 31.923 31.871 31.894 32.555 32.718 32.626 33.079 33.199 33.141 32.961 32.998 32.343 32.557 32.394 33.43
59.631 58.661 58.607 58.383 58.28 58.149 58.117 58.394 58.05 57.468 57.236 60.843 63.037 63.812 63.798 62.895 58.848 57.004 56.844 56.589 56.589 60.499 62.001 62.719 63.395 62.979 62.216 57.406 60.407 56.982 55.564 54.894 54.524 54.226 54.067 53.929 53.799 53.754 53.59 53.756 54.019 54.141 53.987 53.682 53.556 53.42 53.338 53.254 53.153 53.094 53.073 52.991 53.075 52.572 52.063 51.914 51.89 51.825 51.807 54.727 52.545 53.815 52.528 51.219 51.217 51.865 51.327 51.973 52.048 51.116 50.877 50.696 50.537 50.481 50.231 50.15 50.119 49.894 49.496 49.293 49.2 49.254 54.653 55.636 55.838 54.894 50.506 48.846 48.548 48.358 48.072 47.543 47.114 50.897 52.104 49.302 47.222 46.359 46.416 46.393 46.377 46.215 46.079 45.924 45.838 45.754 45.617 45.419 45.3 45.18 44.974 44.88 44.734 44.534 44.434 44.21 44.011 43.765 43.531 43.309 43.099 42.872 42.573 42.297 41.864 41.599 41.354 41.127 40.871 40.655 40.472 40.311 40.29 40.303 40.298 41.332 45.157 41.378 40.37 41.793 42.286 42.18 41.447 42.251 42.267 42.514 42.525 42.408 42.557 42.363 40.082 42.397 42.66 42.471 42.373 42.4 42.42 42.278 41.632 38.006 36.174 35.804 35.764 35.724 35.695 35.691 35.649 35.731 35.785 35.763 35.853 36.025 35.865 35.855 35.87 35.872 35.894 35.879 35.891 35.938 35.898 35.931 36.063 36.127 36.42 40.503 43.543 43.484 43.496 43.486 43.472 43.624 43.582 36.988 36.009 35.938 35.884 35.85 35.801 35.875 35.912 35.92 36.029 36.628 37.158 37.324 37.382 37.382 37.289 37.123 37.192 37.179 37.209 37.267 37.211 37.119 37.023 36.976 36.863 36.797 36.698 36.566 36.496 36.388 36.333 36.244 36.229 36.144 36.08 36.013 35.945 35.858 35.782 35.69 35.602 35.469 35.425 35.368 35.345 35.257 35.223 35.108 35.039 35.068 35.049 35.084 34.831 34.793 34.676 34.675 34.625 34.615 34.638 34.581 34.555 34.524 34.526 34.501 34.546 34.529 34.309 34.251 34.167 34.059 33.984 33.993 34.665 38.464 38.797 40.941 41.207 39.944 39.29 39.362 38.666 37.234 37.131 37.158 37.185 37.085 37.208 38.811 40.07 38.463 38.423 37.171 37.083 36.958 36.961 36.919 36.95 36.892 36.956 36.92 36.974 37.127 36.945 37.017 36.966 36.933 36.94 36.875 36.81 36.932 38.738 39.974 40.798 40.887 41.169 40.227 39.582 35.847 34.967 32.41 30.996 31.027 31.071 31.329 31.106 31.043 31.046 30.936 30.942 30.978 31.139 31.268 31.195 31.175 31.167 31.257 31.312 31.338 31.886 35.407 37.63 38.363 39.496 40.53 42.236 41.586 36.591 38.989 38.158 37.46 36.868 36.654 37.255 38.02 38.66 37.884 37.092 36.695 36.84 37.049 37.246 37.576 37.745 38.555 39.573 40.333 42.244 41.317 39.999 39.219 38.233 34.352 31.489 31.469 31.439 31.409 31.412 31.427 31.443 31.426 31.453 31.514 31.537 31.563 31.633 31.582 31.698 32.04 31.793 31.89 31.74 31.724 31.733 31.623 31.67 31.669 31.682 31.719 31.714 31.66 31.722 31.731 31.736 31.74 31.733 31.796 31.787 31.765 31.782 31.854 32.143 32.233 31.991 31.844 31.852 31.883 31.884 31.917 31.954 32.062 31.992 32.024 31.997 32.008 32.078 34.174 32.087 32.496 32.359 32.565 32.516 32.509 32.746 32.433 32.629 33.862 33.888 34.179 33.972 33.297
59.224 58.883 59.071 58.362 58.229 58.149 58.134 57.667 58.024 57.273 57.461 62.087 63.666 63.913 63.05 62.151 57.05 56.932 56.816 56.758 56.642 56.508 57.857 61.836 62.639 63.184 57.541 60.003 62.147 61.705 56.901 55.354 54.956 54.474 54.257 53.894 53.718 53.663 53.546 53.481 53.441 53.728 54.064 54.046 53.671 53.478 53.405 53.292 53.208 53.162 53.07 53.104 53.177 52.197 51.963 51.974 51.889 51.838 51.97 52.919 56.261 52.154 54.487 53.966 51.199 51.034 52.106 52.085 52.045 54.295 51.705 50.689 50.5 50.355 50.174 50.034 49.925 49.828 50.009 49.865 49.264 52.429 54.327 56.146 55.415 51.524 48.943 48.7 48.472 48.305 47.808 47.219 46.745 53.307 52.872 52.428 48.517 47.3 46.359 46.381 46.407 46.209 46.061 46.01 45.773 45.663 45.486 45.352 45.169 47.315 44.989 44.85 44.62 44.541 44.387 44.187 43.993 43.775 43.586 43.423 43.147 42.921 42.726 42.429 42.145 41.822 41.55 41.262 41.021 40.842 40.6 40.446 40.438 40.592 45.344 46.889 41.931 45.131 39.965 40.019 40.837 42.336 42.237 41.816 42.358 42.344 42.451 42.238 41.236 39.272 41.339 42.353 42.538 42.384 42.344 41.383 42.139 42.309 42.397 42.165 40.265 37.314 35.895 35.782 35.715 35.658 35.686 35.714 35.738 35.719 35.846 36.045 35.904 35.898 35.891 35.872 35.872 35.905 35.93 35.969 35.95 36.049 36.553 36.504 40.453 43.606 43.478 43.463 43.452 43.526 43.49 43.51 37.067 36.092 36.052 35.952 35.899 35.876 35.924 35.976 35.999 36.029 37.398 39.191 40.303 38.04 37.417 37.465 37.272 37.304 37.276 37.288 37.294 37.26 37.203 37.091 37.006 36.961 36.855 36.742 36.602 36.529 36.43 36.396 36.379 36.3 36.206 36.08 36.011 35.947 35.917 35.828 35.752 35.638 35.538 35.469 35.394 35.38 35.285 35.224 35.159 35.044 35 34.938 34.935 34.881 35.21 34.861 34.742 34.578 34.491 34.579 34.473 34.535 34.428 34.399 34.381 34.392 34.37 34.365 34.674 34.336 34.179 34.051 33.975 33.905 33.862 34.093 36.991 40.544 41.229 39.979 39.634 39.324 39.684 37.239 37.266 37.871 37.318 37.262 37.21 38.815 37.861 37.384 37.539 37.577 37.225 37.069 37.033 36.924 36.972 36.925 36.904 37.002 36.999 36.929 37.047 36.959 37.02 37.027 37.005 36.96 36.897 36.868 37.345 39.867 41.248 40.824 39.952 39.861 34.614 31.935 36.404 36.456 34.435 31.111 31.111 31.122 31.089 31.044 30.955 30.89 30.874 31.041 31.228 31.248 31.23 31.167 31.223 31.287 31.301 31.349 31.431 31.599 37.542 38.272 38.266 40.27 41.895 42.063 40.172 39.285 38.225 37.714 36.878 37.082 37.718 38.555 38.194 37.254 36.712 36.812 36.958 37.18 37.345 37.545 38.13 38.898 39.694 40.709 42.235 41.174 39.882 38.929 38.063 33.555 31.503 31.453 31.403 31.442 31.417 31.435 31.408 31.414 31.42 31.519 31.545 31.574 31.59 31.572 31.617 31.764 33.482 32.292 33.386 32.11 32.165 31.86 31.758 31.738 31.691 31.702 31.744 31.709 31.703 31.763 31.735 31.778 31.778 31.779 31.771 31.807 31.812 31.873 31.968 32.193 32.101 32.089 32.128 31.97 32.094 32.029 32.242 35.809 32.827 32.12 32.099 32.111 32.146 32.994 32.262 32.235 32.276 33.211 32.787 33.678 35.312 34.019 34.958 34.996 34.138 34.254 34.159 34.522
58.797 58.742 58.718 58.431 58.256 58.135 58.038 58.987 59.472 60.422 62.117 63.432 64.045 63.409 59.633 57.591 56.948 56.885 56.83 56.782 56.798 56.671 56.588 56.781 61.482 59.008 56.574 61.658 62.776 62.889 62.287 57.19 55.301 54.9 54.519 54.019 53.869 53.598 53.515 53.463 53.317 53.252 53.663 56.604 55.616 53.587 53.471 53.284 53.276 53.196 53.251 53.328 52.483 52.049 51.983 51.958 51.817 51.873 51.96 53.946 54.148 53.965 56.6 55.918 52.828 52.677 51.081 51.352 51.208 50.979 51.697 50.708 50.576 50.289 50.146 50.048 49.962 49.706 49.65 49.682 49.554 49.297 49.112 54.251 54.638 49.092 48.793 48.534 48.429 48.2 47.703 47.16 51.507 52.612 53.444 53.162 52.567 52.066 50.387 47.345 46.363 46.274 46.151 45.895 45.765 45.657 45.502 45.359 45.189 44.979 44.766 44.672 44.54 44.408 44.294 44.192 44.003 43.802 43.585 43.342 43.114 43.025 42.733 42.483 42.221 41.973 41.611 41.417 41.139 40.927 40.81 40.616 40.645 48.128 50.633 50.611 49.517 50.03 48.042 40.833 39.958 40.444 42.209 42.29 42.301 42.462 42.367 40.744 40.644 42.396 41.311 42.461 42.405 42.408 42.448 42.38 41.98 42.408 42.326 42.309 42.316 42.364 41.366 38.173 35.882 35.719 35.729 35.699 35.75 35.703 35.898 36.03 35.923 35.909 35.92 35.901 35.923 35.931 35.933 35.94 36.031 36.442 36.476 36.745 43.045 43.53 43.499 43.565 45.641 43.607 43.549 39.848 36.102 36.01 35.973 35.947 35.946 35.949 35.957 36.065 36.099 36.176 41.696 44.622 45.244 40.145 37.498 37.466 37.332 37.334 37.34 37.36 37.32 37.233 37.229 37.09 37.007 36.937 36.812 36.689 36.599 36.542 36.553 36.405 36.296 36.23 36.16 36.099 36.041 35.959 35.906 35.821 35.726 35.728 35.592 35.56 35.721 37.388 35.793 38.313 35.907 35.005 34.901 34.86 34.864 34.794 34.812 34.675 34.706 34.672 34.552 34.433 34.388 34.377 34.311 34.348 34.302 34.311 34.286 34.278 34.275 34.367 34.222 34.047 33.981 33.876 33.824 33.751 33.748 35.927 39.271 38.565 38.364 38.204 37.39 37.305 37.305 40.027 38.031 41.157 38.092 37.22 39.575 40.505 38.331 37.549 37.457 37.772 38.189 37.015 36.973 36.983 36.871 36.909 36.965 36.906 36.951 37.028 36.976 37.007 37.019 36.985 36.939 36.924 36.946 37.337 37.932 37.738 38.058 32.609 30.742 30.789 30.856 32.749 35.882 33.462 34.662 31.776 31.31 30.945 30.927 30.895 30.89 31.121 31.258 31.228 31.234 31.257 31.275 31.361 31.399 31.457 31.452 34.453 37.237 38.092 36.04 39.989 41.587 42.367 40.384 38.672 38.137 37.996 37.411 37.648 38.393 38.383 37.711 36.985 36.775 36.924 37.087 37.278 37.49 37.739 38.362 39.313 40.071 41.523 42.397 40.726 39.754 38.839 37.683 32.705 32.826 31.827 31.403 31.431 31.431 31.399 31.436 31.433 31.476 31.528 31.473 31.563 31.57 31.592 31.61 31.647 32.539 32.612 32.223 34.368 33.979 34.262 32.283 31.942 32.257 31.848 31.802 31.68 31.74 31.733 31.81 31.795 31.83 31.876 31.87 31.86 31.873 31.851 31.838 31.948 32.077 32.081 32.131 32.146 32.188 32.202 32.291 34.206 32.015 32.049 32.062 32.036 32.081 32.038 32.107 32.14 33.136 33.159 32.721 33.494 33.187 32.422 32.48 32.98 32.719 32.384 32.59 32.58
58.841 58.718 58.553 58.416 58.284 59.785 58.217 57.615 58.533 61.806 62.916 63.939 63.597 62.537 57.082 56.914 56.846 56.809 57.047 56.923 57.122 56.573 56.496 56.411 57.895 57.91 60.303 62.477 62.971 62.418 58.664 56.081 55.956 55.471 54.797 54.393 54.309 53.681 53.421 53.34 53.283 53.196 53.119 54.095 55.263 53.846 53.706 53.435 53.597 53.518 53.895 52.795 52.132 52.063 52.008 52.067 51.851 52.223 51.821 51.454 53.65 57.098 57.965 57.588 57.077 56.05 52.751 51.305 51.516 51.497 50.978 50.939 50.556 50.885 50.146 50.038 49.876 49.777 49.566 49.42 49.299 49.224 49.121 49.065 48.897 48.887 48.713 48.516 48.456 47.926 47.409 47.277 49.541 51.524 52.254 52.856 53.233 53.156 52.494 51.311 49.233 46.868 46.128 46.029 45.823 45.59 45.469 45.351 45.135 45.042 44.831 44.638 44.457 44.318 44.241 44.137 44.019 43.778 43.614 43.355 43.156 42.934 42.765 42.616 42.268 42.084 41.712 41.468 41.233 41.087 40.908 40.736 40.59 47.857 50.657 50.273 50.055 46.751 48.879 43.372 42.862 40.34 40.098 40.82 42.27 42.298 42.429 42.364 42.35 42.23 42.511 42.264 42.364 42.48 42.385 42.486 42.532 42.374 42.488 39.909 42.352 42.472 42.304 40.227 37.433 35.68 35.682 35.675 35.67 35.684 35.796 36.037 35.932 35.96 35.954 35.957 35.967 35.976 35.966 35.953 35.954 36.009 36.588 40.305 43.584 43.493 43.533 44.007 46.708 46.331 40.385 37.023 36.087 36.086 36.006 35.983 35.982 36.028 36.08 36.127 36.148 36.209 40.176 48.589 50.101 42.094 37.585 37.537 37.421 37.468 37.406 37.426 37.368 37.26 37.164 37.074 36.987 36.863 36.852 36.702 36.695 36.658 36.504 36.42 36.325 36.296 36.22 36.181 36.122 36.141 36.756 36.878 36.194 39.347 40.135 38.981 39.466 40.525 40.061 40.105 37.055 37.435 34.98 34.908 34.697 34.638 34.646 34.601 34.623 34.616 34.613 34.514 34.351 34.251 34.218 34.193 34.176 34.21 34.148 34.154 34.105 34.109 34.093 34.254 34.009 33.927 33.877 33.723 33.656 33.525 33.61 36.589 37.66 38.753 37.68 37.454 38.628 37.321 37.917 41.536 39.977 38.09 39.926 41.453 39.146 37.642 37.517 37.741 38.87 38.577 37.029 36.938 36.958 36.943 36.945 36.863 36.945 36.798 36.887 36.945 36.941 37.007 36.964 36.919 37.065 37.465 36.708 36.385 32.066 30.801 31.287 30.826 30.917 30.953 32.053 35.836 35.849 31.834 31.144 30.937 30.883 30.833 30.906 31.093 31.211 31.22 31.269 31.32 31.359 31.384 31.455 31.5 31.511 31.603 36.386 37.846 38.696 39.688 40.556 41.977 41.325 40.266 39.393 38.727 37.898 37.575 38.551 38.051 37.147 36.76 36.835 36.982 37.221 37.37 37.691 38.252 38.976 39.802 40.68 42.32 41.35 40.258 39.233 38.385 37.736 32.126 31.479 31.468 31.485 31.489 31.419 31.377 31.399 31.419 31.459 31.475 31.498 31.551 31.581 31.59 32.203 32.123 31.877 31.759 33.477 34.242 34.249 34.328 34.356 34.634 34.674 31.848 32.123 32.384 32.119 31.822 31.777 31.769 31.8 31.809 31.836 31.877 31.884 31.945 31.932 31.967 31.964 31.985 31.983 32.037 32.01 32.057 31.989 32.077 32.029 32.053 32.073 32.086 32.08 32.116 32.175 32.182 32.243 33.769 32.814 32.595 32.57 32.327 33.966 34.862 35.747 33.043 32.44 32.617
59.587 58.678 58.506 58.377 60.275 61.27 60.296 57.331 57.126 62.001 63.784 63.761 62.928 60.709 57.19 56.842 56.822 56.818 57.28 57.719 56.998 56.566 56.422 56.351 56.314 60.99 62.304 63.239 62.563 61.82 57.802 55.694 55.508 55.602 55.314 54.767 54.448 53.954 53.58 53.277 53.203 53.16 53.017 52.963 52.914 53.093 53.755 53.891 53.203 52.862 52.936 52.348 52.14 52.099 52.018 53.125 52.007 52.318 52.017 51.341 51.144 56.358 56.996 57.432 57.939 57.601 56.75 55.576 55.506 53.564 50.263 50.648 50.348 52.297 52.204 51.725 50.407 49.689 49.557 49.383 49.195 49.114 48.996 48.974 48.843 48.67 48.472 48.428 48.213 47.795 47.409 46.703 46.48 46.461 50.4 51.854 52.504 53.057 53.435 52.812 52.249 51.173 46.447 46.13 45.809 45.585 45.47 45.317 45.121 45.024 44.765 44.625 44.434 44.303 44.121 44.022 43.959 43.779 43.631 43.363 43.124 42.965 42.777 42.572 42.396 42.125 41.857 41.611 41.343 41.237 41.023 40.891 40.735 46.634 49.707 44.417 49.267 49.028 46.273 47.447 47.408 41.559 44.962 40.127 40.027 41.99 42.357 42.196 41.537 42.288 42.303 42.521 42.346 42.421 39.382 42.225 42.184 42.493 42.324 42.509 42.394 39.369 42.405 40.643 39.877 36.386 35.626 35.644 35.706 35.719 35.908 36.073 35.974 36.01 36.026 35.974 36.032 36.009 35.998 35.985 36.022 36.001 36.409 42.897 43.518 43.497 43.516 46.969 46.715 46.902 38.78 36.13 36.07 36.031 36.047 36.036 36.066 36.075 36.129 36.201 36.249 36.949 43.632 47.617 48.682 41.229 37.7 37.485 37.481 37.49 37.495 37.432 37.337 37.246 37.13 37.066 36.939 36.849 36.843 36.835 36.741 36.565 36.466 36.416 36.368 36.352 36.318 36.325 36.339 36.823 37.789 37.878 41.568 42.264 42.657 41.45 41.406 39.958 39.611 39.726 38.748 36.736 40.103 39.26 38.101 36.714 34.646 34.855 34.59 34.436 34.569 35.341 34.554 34.345 34.19 34.124 34.089 34.067 34.077 34.081 34.054 34.057 34.019 33.999 34.023 33.981 33.827 33.747 33.702 33.575 33.525 33.497 34.712 37.22 37.686 37.987 40.696 39.836 37.688 37.942 38.8 38.961 39.735 39.717 38.379 41.084 40.128 38.787 40.206 38.67 37.361 37.109 36.981 36.928 36.974 36.9 36.84 36.889 36.885 36.861 36.88 36.982 36.984 36.927 36.924 36.974 37.542 34.074 34.683 31.997 30.78 30.842 30.913 30.954 30.989 31.149 32.262 36.965 34.261 32.175 30.971 30.822 30.929 31.091 31.184 31.288 31.379 31.388 31.418 31.453 31.518 31.572 31.61 31.613 35.588 37.591 38.409 39.075 40.225 41.757 42.425 40.917 39.982 39.32 38.624 37.999 37.627 37.538 36.943 36.906 37.161 37.347 37.456 37.738 38.249 38.807 38.702 40.348 41.35 42.295 40.778 39.757 38.952 38.052 34.587 31.456 31.465 31.464 31.482 31.484 31.435 31.45 31.384 31.367 31.419 31.463 31.473 31.527 31.552 31.585 31.619 31.885 31.771 31.662 32.579 33.508 33.553 32.063 33.281 34.892 35.051 33.429 34.64 34.537 34.122 32.071 31.896 31.868 31.871 31.811 31.867 31.845 31.868 31.902 31.924 32.009 32.044 32.042 32.017 32.022 31.963 32.07 32.068 32.075 32.074 32.093 32.089 32.14 32.104 32.103 32.148 32.142 32.166 32.747 32.558 32.877 32.366 32.393 33.827 33.721 35.785 33.099 32.566 32.68
59.364 58.621 58.466 59.634 60.782 62.321 60.465 57.861 57.279 57.307 62.592 62.842 58.613 57.367 56.94 56.781 56.794 56.923 57.16 57.232 56.58 56.458 56.37 56.222 58.92 62.068 62.876 62.835 61.958 58.897 55.953 55.913 57.001 55.575 56.15 55.244 54.685 54.281 53.978 53.394 53.279 53.015 52.943 52.928 52.812 52.792 52.763 52.718 52.652 52.542 52.442 52.107 52.146 52.057 52.155 52.089 53.388 52.097 54.814 55.941 51.998 51.958 55.151 56.474 57.186 57.755 57.835 57.218 56.624 55.886 53.059 52.683 50.19 50.507 53.004 53.244 50.171 49.637 49.532 49.358 49.268 49.054 48.843 48.742 48.689 48.63 48.506 48.372 48.107 47.787 47.734 46.833 46.521 46.491 46.531 47.765 51.074 52.12 52.858 53.289 53.176 52.692 51.91 46.895 45.556 45.499 45.484 45.331 45.166 44.957 46.063 45.005 44.295 44.263 44.194 43.969 43.812 43.652 43.591 43.372 43.226 42.991 42.829 42.558 42.412 42.372 41.956 41.707 41.499 41.259 41.109 40.998 40.85 41.278 42.665 48.122 43.295 48.443 40.619 43.217 46.24 48.399 47.033 41.356 39.933 40.012 40.168 42.474 42.216 42.296 42.475 42.324 42.441 42.469 42.347 42.435 42.026 42.372 42.404 42.454 42.614 42.468 40.799 40.445 39.294 35.754 35.63 35.677 35.704 35.667 35.902 36.082 36.018 36.06 36.055 35.993 36.064 36.022 36.085 36.003 36.025 36.284 41.512 43.523 43.503 43.502 43.522 44.482 46.605 42.419 36.278 36.137 36.118 36.081 36.096 36.092 36.123 36.135 36.255 36.265 36.331 36.324 36.768 41.221 39.07 38.55 37.759 37.546 37.561 37.561 37.508 37.452 37.385 37.272 37.131 37.003 36.953 36.921 36.911 36.793 36.642 36.577 36.556 36.501 36.426 36.385 36.483 36.463 39.244 38.16 38.423 39.191 40.958 42.208 40.284 39.803 39.398 38.022 38.722 38.006 37.826 42.23 41.895 41.118 39.154 38.474 40.198 40.075 36.317 37.925 35.563 35.751 34.815 34.282 34.242 34.118 33.991 33.93 33.927 33.925 33.916 33.896 33.919 33.884 33.848 33.828 34.119 33.823 33.666 33.581 33.465 33.355 33.325 33.363 35.182 38.057 41.376 41.009 40.551 38.424 39.609 40.756 41.779 41.944 41.918 40.815 41.832 41.751 42.309 40.466 38.869 38.844 37.315 36.959 36.892 36.933 36.876 36.892 36.83 36.896 36.955 36.932 36.976 36.941 36.98 37.033 36.921 37.227 36.551 33.236 30.924 30.882 30.95 31.472 31.12 31.208 31.007 30.964 36.438 33.206 34.981 32.103 31.009 31.121 31.261 31.404 31.457 31.488 31.494 31.515 31.592 31.674 31.618 31.687 31.796 33.07 38.022 38.859 39.583 40.611 42.264 42.012 40.861 39.871 39.376 38.755 38.34 38.055 37.752 37.726 37.726 37.949 38.004 38.53 38.92 39.53 40.272 41.469 42.281 41.393 40.092 39.177 38.504 37.617 32.303 31.495 31.487 31.501 31.524 31.512 31.49 31.481 31.444 31.396 31.358 31.398 31.416 31.405 31.508 31.525 31.54 31.567 31.585 31.807 33.09 34.02 33.132 33.581 33.439 35.052 34.84 32.948 35.026 32.771 34.996 32.646 32.003 31.848 33.042 31.963 31.907 31.984 31.971 31.876 31.917 31.966 31.946 31.997 31.955 32.039 32.03 32.06 32.093 32.09 32.076 32.052 32.061 32.09 32.043 32.109 32.112 32.164 32.218 32.843 32.441 32.747 32.964 32.654 33.465 34.462 35.807 33.202 32.675 32.764
58.92 58.587 58.431 59.745 61.623 59.513 62.592 63.059 61.806 57.38 57.11 57.928 57.461 56.975 57.659 56.787 56.771 56.927 56.929 56.683 56.435 56.364 56.274 58.997 61.361 62.751 63.103 62.123 60.206 56.016 55.687 55.568 55.412 56.183 55.687 55.099 55.583 54.616 54.338 53.843 53.415 53.11 52.924 52.832 52.731 52.738 52.655 52.533 52.433 52.396 52.234 52.199 52.166 52.097 52.058 53.13 52.687 51.529 56.684 57.656 58.212 55.393 51.365 52.238 56.123 56.856 57.289 56.384 56.667 56.844 56.317 55.759 51.495 50.33 52.008 50.964 49.771 49.606 49.475 49.344 49.169 49.032 48.887 48.684 48.479 48.423 48.358 48.272 48.078 48.488 47.543 47.441 46.697 46.544 47.334 46.888 46.639 47.94 51.664 52.448 52.833 53.366 52.916 49.802 46.063 45.434 45.435 45.321 45.208 46.191 47.43 49.685 48.604 44.43 44.223 44.081 43.904 43.68 43.471 43.338 43.228 43.086 42.812 42.623 43.944 49.376 45.824 41.943 41.614 41.38 41.199 41.026 40.876 45.299 48.982 47.668 45.304 42.306 42.43 41.639 48.636 49.123 46.954 41.366 39.949 39.985 40.077 41.951 42.154 42.609 42.211 42.43 41.427 42.164 42.461 42.464 42.402 42.449 39.775 42.295 42.612 42.622 38.999 38.949 35.735 35.684 35.659 35.662 35.696 35.703 35.93 36.106 36.088 36.055 36.076 36.02 36.065 36.045 36.062 36.074 36.069 36.346 43.538 43.531 43.499 43.612 43.527 43.507 44.311 37.296 36.175 36.151 36.134 36.121 36.127 36.17 36.195 36.211 36.277 36.348 36.381 36.523 37.139 37.683 37.66 37.787 37.747 37.624 37.624 37.614 37.561 37.421 37.363 37.24 37.175 36.991 37.065 37.036 36.789 36.68 36.66 36.603 36.571 36.586 36.623 39.853 39.769 40.23 42.359 41.901 39.144 40.158 39.604 38.987 36.944 37.138 35.102 37.24 40.278 40.167 40.387 40.926 40.427 40.418 40.587 38.798 39.677 40.826 40.116 39.032 41.418 39.38 34.338 34.25 34.214 34.136 34.262 33.983 33.821 33.819 33.782 33.754 33.823 33.802 33.746 33.715 33.715 33.805 33.965 33.571 33.473 33.433 33.346 33.247 33.291 39.734 37.981 40.304 42.195 38.525 37.523 37.17 43.478 43.829 39.588 41.112 41.295 42.1 41.489 40.582 40.92 39.083 37.707 37.324 37.094 36.916 36.907 36.971 36.815 36.85 36.987 37.187 38.351 37.214 37 37.099 37.055 37.052 36.926 36.312 35.283 32.064 31.317 30.996 31.198 31.006 30.97 30.918 30.89 32.634 36.803 33.441 32.266 31.554 31.433 31.437 31.481 31.572 31.571 31.611 31.637 31.679 31.671 31.742 31.832 31.91 36.468 38.423 39.056 39.707 40.745 42.387 42.294 40.654 40.161 39.58 39.339 38.935 38.748 38.676 38.512 38.786 38.831 39.266 38.919 40.394 40.95 42.473 41.255 40.164 39.424 38.737 37.853 36.319 31.544 31.526 31.54 31.562 31.529 31.525 31.521 31.513 31.497 31.518 31.463 31.372 31.447 31.394 31.398 31.42 31.432 31.476 31.484 31.581 33.69 32.344 32.907 33.418 32.726 34.153 33.899 32.923 35.008 34.401 35.089 32.734 32.861 32.875 32.767 32.054 32.217 32.58 32.302 32.093 32.109 31.971 31.986 32.045 31.979 31.975 32.001 32.008 31.975 32.095 32.08 32.119 32.153 32.22 33.064 32.495 32.308 32.641 32.784 32.494 32.466 32.585 32.532 32.443 33.797 34.717 35.016 33.366 32.628 32.73
58.65 58.527 59.603 59.105 62.766 63.057 66.666 68.048 66.883 59.189 57.27 57.019 56.881 57.003 56.919 56.705 56.649 56.793 56.507 56.462 56.402 56.303 58.77 61.139 62.559 63.003 62.327 61.402 56.147 56.922 56.616 56.023 55.413 55.334 55.841 54.906 58.466 59.675 56.391 54.31 53.797 53.357 53 52.736 52.709 52.625 52.586 52.502 52.398 52.321 52.224 52.247 52.195 52.057 52.141 52.348 52.023 55.181 57.285 58.148 57.661 56.714 52.005 51.197 52.399 55.076 52.791 54.445 55.682 56.583 56.901 56.879 56.245 55.535 52.885 51.2 49.792 49.589 49.401 49.267 49.127 48.941 48.833 48.643 48.54 48.334 48.189 48.123 48.063 48.128 49.542 47.805 47.175 47.06 47.155 46.86 46.677 46.701 46.561 49.436 51.806 52.395 52.538 51.52 50.702 48.121 45.493 45.318 45.103 44.73 49.477 50.713 50.283 47.245 47.808 44.358 44.079 43.81 43.444 43.265 43.18 43.037 42.864 46.709 49.535 50.921 49.761 43.542 41.799 41.476 41.346 41.165 41.055 45.049 47.691 49.403 49.856 45.582 42.579 40.578 47.876 45.477 47.14 42.091 39.976 39.986 39.951 40.284 40.464 39.89 41.996 42.327 42.323 41.873 42.315 42.368 42.479 42.469 42.326 39.89 42.342 40.191 39.004 37.254 35.715 35.803 35.623 35.693 35.719 35.689 35.974 36.143 36.13 36.058 36.071 36.074 36.105 36.106 36.075 36.152 36.384 42.772 43.538 43.462 43.484 43.481 43.588 43.557 42.054 36.299 36.223 36.191 36.177 36.172 36.164 36.202 36.293 36.304 36.371 36.379 36.449 36.751 39.709 37.826 37.73 37.87 37.691 37.743 37.703 37.585 37.515 37.398 37.318 37.212 37.115 37.151 37.051 36.939 36.754 36.655 36.62 36.651 38.309 39.618 40.368 41.132 40.048 41.565 42.352 41.953 40.256 40.102 40.102 38.072 35.131 34.685 38.443 36.792 40.964 39.791 41.058 41.386 40.777 40.902 40.319 38.722 38.467 41.491 42.004 40.626 41.729 38.744 38.452 35.642 36.576 38.219 39.943 40.479 34.056 33.828 33.714 33.712 33.663 33.629 33.631 33.619 33.594 33.566 33.607 33.619 33.522 33.413 33.279 33.18 33.16 33.088 33.096 39.501 41.462 40.521 40.186 42.074 43.009 43.221 39.24 41.677 40.809 41.454 42.802 41.511 41.5 40.145 38.128 37.641 37.447 37.127 36.918 36.915 36.889 36.865 36.843 36.904 36.983 33.732 36.525 36.844 36.917 37.141 37.06 36.921 36.892 37.208 34.6 32.359 31.168 30.992 30.952 30.892 30.81 30.774 32.215 36.696 35.79 32.425 31.65 31.941 31.705 31.642 31.639 31.68 31.71 31.753 31.757 31.791 31.844 31.865 32.966 37.742 38.657 39.291 40.036 40.957 42.261 42.5 41.615 40.532 40.136 39.748 39.52 38.255 39.606 39.783 39.383 40.34 40.643 41.899 42.338 41.327 40.329 39.655 38.661 38.052 34.491 32.163 31.571 31.584 31.57 31.574 31.571 31.518 31.532 31.57 31.528 31.51 31.579 31.523 31.452 31.457 31.48 31.442 31.43 31.423 31.478 31.448 31.767 32.14 32.234 31.568 31.57 31.854 32.058 32.269 34.293 34.136 33.775 33.878 33.601 33.219 33.258 31.649 31.735 32.865 31.991 32.354 33.031 32.225 32.381 32.503 33.013 32.177 32.215 33.007 32.461 32.502 33.499 33.185 32.669 32.803 33.13 32.798 32.87 32.507 32.595 32.906 32.452 32.383 32.384 32.423 32.516 35.253 34.432 33.28 32.685 32.744
58.567 58.616 60.655 61.333 59.232 62.965 67.16 68.485 65.853 60.691 58.332 57.467 57.035 56.73 56.669 56.623 56.557 56.565 56.408 56.414 56.334 56.186 60.163 62.28 63.01 62.702 61.608 57.303 55.977 57.264 56.513 56.566 55.791 55.83 54.981 57.428 60.625 61.42 61.359 58.713 54.263 53.713 53.326 53.004 52.682 52.57 52.554 52.451 52.343 52.292 52.283 52.256 52.109 52.194 54.003 51.85 51.472 56.292 57.801 58.145 57.07 53.636 51.509 51.318 51.054 51.128 50.962 50.149 53.001 55.352 56.018 56.7 56.843 53.46 52.243 52.06 49.851 49.617 49.412 49.222 49.046 48.902 48.743 48.546 48.421 48.239 48.109 47.929 47.862 47.844 48.244 47.479 47.291 47.244 46.955 46.716 46.655 46.546 46.407 46.336 47.412 51.635 52.143 52.536 51.821 51.288 50.001 46.065 45.805 46.513 49.936 51.022 51.152 50.573 49.885 46.863 45.194 44.057 43.881 43.512 43.113 43.03 42.885 49.437 50.748 51.431 51.269 48.624 42.9 41.58 41.329 41.207 41.078 40.937 46.748 47.662 44.471 41.743 40.774 40.491 40.203 40.667 42.118 40.068 39.909 39.826 39.845 40.052 40.019 39.948 39.972 40.442 41.963 42.258 42.304 42.466 42.286 42.305 42.573 42.441 41.015 38.923 37.225 36.785 35.765 35.87 35.797 35.651 35.708 35.686 35.963 36.192 36.142 36.102 36.112 36.102 36.161 36.159 36.161 36.514 39.003 43.614 43.526 43.479 43.47 43.466 43.513 43.494 36.409 36.239 36.205 36.184 36.2 36.215 36.246 36.27 36.3 36.363 36.417 36.491 36.654 42.002 44.606 39.169 38.012 37.893 37.762 37.745 37.659 37.583 37.472 37.438 37.305 37.216 37.217 37.193 36.998 36.791 36.766 36.653 36.683 36.705 39.047 40.679 40.429 40.609 41.167 42.84 40.562 39.876 40.183 41.205 38.012 35.766 35.307 34.637 39.412 35.661 36.994 36.12 36.074 36.479 38.184 37.458 35.669 34.897 40.1 42.125 42.416 42.104 38.745 42.107 41.484 39.015 37.705 40.846 43.333 40.143 35.421 33.884 33.758 33.649 33.584 33.516 33.516 33.54 33.547 33.504 33.513 33.449 33.432 33.459 33.269 33.202 33.142 33.074 36.731 39.011 42.56 42.043 40.045 36.709 40.943 42.534 42.538 38.035 41.941 41.565 40.502 41.067 40.253 39.574 39.024 39.461 38.194 37.492 37.133 37.004 36.966 36.985 36.911 36.868 35.863 32.253 30.928 32.103 37.58 37.04 36.888 37.102 37.095 36.876 37.605 33.45 34.488 31.002 30.833 30.873 30.801 30.742 34.44 37.133 35.653 35.242 35.656 32.786 31.959 32.222 32.101 31.747 31.756 31.785 31.847 31.812 31.8 31.9 32.989 37.286 37.729 38.609 39.195 39.857 40.56 41.741 42.497 42.139 41.706 40.842 40.676 39.661 40.629 40.921 41.15 41.573 42.554 41.647 41.053 40.147 39.639 39.015 38.423 37.669 34.436 31.63 31.624 31.612 31.573 31.566 31.606 31.559 31.569 31.546 31.517 31.567 31.583 31.536 31.51 31.509 31.48 31.493 31.478 31.491 31.489 31.44 31.476 31.491 31.465 31.466 31.478 31.511 31.544 31.575 32.047 32.827 32.095 32.278 33.263 33.159 32.669 31.626 33.271 32.406 32.038 32.048 32.869 33.168 32.438 32.854 32.662 33.196 32.663 33.188 32.634 32.703 32.486 33.063 32.629 32.683 32.433 32.355 32.557 32.27 32.346 32.472 32.429 32.438 32.414 32.515 32.54 32.625 32.619 32.69 32.763 32.765
58.576 61.459 63.074 66.245 65.961 63.023 65.509 67.895 67.771 64.046 65.878 65.643 57.384 56.94 56.768 56.537 56.488 56.526 56.376 56.369 56.213 59.118 61.97 63.001 62.907 61.828 57.644 55.877 55.683 55.671 55.848 56.025 57.048 54.968 55 60.258 61.07 61.499 60.746 59.869 54.736 54.041 53.62 53.104 52.91 52.558 52.509 52.435 52.389 52.368 52.343 52.198 52.181 52.26 53.602 51.527 54.929 57.434 58.224 57.431 56.601 51.325 51.198 51.127 51.037 51.053 50.721 50.329 50.311 51.01 53.724 55.697 52.484 49.776 49.769 49.704 49.728 50.94 49.37 49.238 48.963 48.844 48.629 48.512 48.413 48.219 48.086 47.876 47.737 47.582 47.573 47.478 47.507 47.173 47.961 46.969 46.678 47.032 46.462 46.399 46.353 49.713 51.213 51.847 52.317 52.191 51.602 50.463 47.592 46.728 49.451 50.154 50.803 51.084 51.119 50.41 48.865 45.705 44.242 43.776 44.821 43.012 44.174 48.754 51.933 51.998 50.546 49.68 43.691 41.665 41.482 41.235 41.142 41.016 41.943 42.294 40.699 41.503 40.576 40.763 40.395 40.432 40.175 39.988 39.869 39.805 39.673 39.698 39.736 39.741 39.879 39.806 40.151 40.352 42.902 42.281 42.348 42.389 42.331 42.395 38.84 36.862 35.714 35.686 35.842 35.924 35.816 35.787 35.708 35.624 35.893 36.146 36.149 36.138 36.111 36.13 36.151 36.134 36.133 36.378 37.997 38.27 39.9 43.473 43.465 43.474 43.536 38.496 36.307 36.234 36.227 36.157 36.235 36.263 36.309 36.394 36.401 36.554 36.536 36.616 37.315 45.191 47.263 46.642 41.576 37.866 37.835 37.747 37.676 37.598 37.49 37.407 37.259 37.282 37.282 37.027 36.903 36.823 36.821 36.705 36.986 36.728 36.817 39.548 40.184 42.615 42.255 42.185 41.123 39.793 39.671 39.342 36.16 35.176 34.552 34.531 34.553 34.56 34.623 34.585 34.568 34.595 34.706 34.82 34.755 35.287 36.644 42.331 43.887 43.499 40.369 40.398 40.424 41.871 39.184 42.027 42.963 42.697 36.379 33.877 33.787 33.72 33.684 33.464 33.408 33.435 33.388 33.356 33.349 33.34 33.344 33.297 33.339 33.231 33.115 32.961 32.948 32.872 38.518 40.94 38.38 35.393 34.268 35.523 38.308 40.653 39.996 40.885 39.932 40.022 40.609 40.78 40.017 39.213 37.443 37.702 37.579 37.244 36.959 36.913 36.884 36.906 36.967 36.909 32.69 35.693 32.535 37.218 37.49 36.915 36.989 37.358 36.913 37.179 36.614 33.237 31.015 30.823 30.743 30.826 36.559 38.312 36.622 36.19 36.233 35.75 35.86 33.118 32.374 32.513 32.525 31.879 31.85 31.912 31.929 31.883 31.919 32.04 36.486 38.033 38.429 38.99 39.725 40.119 41.314 41.222 42.32 42.455 42.286 42.377 42.281 42.414 42.347 41.89 41.242 40.467 40.013 39.481 38.937 38.241 37.736 33.919 32.212 31.758 31.63 31.668 31.676 31.654 31.597 31.597 31.582 31.618 31.633 31.584 32.702 32.023 32.636 31.612 31.504 31.529 31.52 31.535 31.544 31.495 31.537 31.509 31.504 31.466 31.494 31.476 31.524 31.544 31.502 31.565 31.59 31.592 31.603 31.611 31.634 31.653 32.229 31.989 31.694 31.763 31.751 32.233 31.908 32.644 32.191 32.276 32.283 32.212 32.283 32.299 32.345 32.376 32.364 33.266 33.731 33.122 32.489 32.387 32.429 32.396 32.414 32.499 32.544 32.558 32.636 32.692 32.712 32.728 32.804 32.847
59.412 59.066 64.242 66.83 66.111 64.642 58.302 66.057 64.777 63.081 64.721 65.383 62.84 57.744 57.075 56.797 60.852 57.16 56.299 56.322 60.072 61.907 62.749 62.842 62.054 58.629 55.99 56.087 56.665 55.538 55.678 55.601 55.022 54.798 59.415 60.903 61.693 61.035 59.926 55.611 54.538 54.472 53.963 53.342 52.819 52.597 52.519 52.454 52.436 52.391 52.313 52.265 53.034 52.484 51.95 54.337 57.113 58.064 57.859 56.785 51.841 51.551 51.737 51.081 51.004 50.775 50.594 50.732 50.582 50.099 50.013 51.24 49.755 49.67 49.697 49.563 49.517 50.83 49.276 49.384 49.004 48.819 48.586 48.401 48.26 48.08 48.007 47.868 47.765 47.539 47.476 47.33 47.224 47.528 48.37 47.257 47.361 46.936 46.485 46.438 46.026 45.527 46.588 50.778 51.414 52.113 52.385 52.027 51.317 45.164 45.414 45.872 49.603 50.421 50.954 51.23 50.769 50.129 47.777 45.278 43.985 43.319 42.926 44.695 50.29 50.203 48.965 43.052 41.802 41.676 41.509 41.393 41.176 41.056 40.91 40.762 40.605 40.54 40.458 40.368 40.293 40.177 40.087 39.947 39.86 39.766 39.681 39.611 39.534 39.473 39.461 39.489 39.438 39.18 39.624 42.468 42.221 42.3 42.363 38.264 36.903 36.494 36.248 36.033 36.381 37.624 35.926 35.777 35.751 35.677 35.835 36.168 36.229 36.135 36.157 36.135 36.142 36.175 36.176 36.154 36.164 36.569 37.514 38.83 43.162 43.578 42.255 36.344 36.288 36.243 36.25 36.234 36.302 36.325 36.395 36.436 36.506 36.593 36.645 36.718 37.801 42.761 45.747 43.841 39.318 37.871 37.833 37.741 37.694 37.585 37.498 37.391 37.344 37.41 37.122 36.969 36.864 37.074 37.038 37.041 36.952 36.736 36.746 36.705 37.422 41.312 41.963 42.572 41.134 42.965 41.004 39.208 37.729 34.611 34.499 34.547 34.543 34.562 34.576 34.568 34.535 34.529 34.618 34.601 34.707 34.736 38.555 43.191 45.392 42.6 40.62 35.963 38.142 39.589 37.596 40.738 40.932 37.85 34.948 33.969 33.761 33.704 33.61 33.541 33.487 33.289 33.303 33.27 33.282 33.289 33.261 33.187 33.145 33.199 33.328 33.051 33.005 32.849 32.794 33.367 32.583 32.737 33.43 33.782 33.542 33.924 38.306 34.897 36.593 37.025 37.651 39.587 40.284 40.418 39.195 39.068 38.893 38.958 38.066 35.878 36.889 36.899 37.047 37.463 36.843 31.999 35.535 31.561 32.209 37.575 36.921 37.121 37.162 36.905 37.337 37.661 32.984 31.874 30.833 31.029 35.711 36.831 36.614 38.395 37.531 38.149 36.9 38.757 36.282 33.402 33.393 32.962 33 32.881 31.963 32.028 31.978 32.079 33.014 36.427 37.834 38.345 38.538 38.175 39.753 40.058 40.51 40.57 41.047 41 41.028 41.031 40.847 40.437 39.836 39.487 39.079 38.798 38.135 37.632 33.472 31.698 31.657 31.69 31.689 31.69 31.681 31.666 31.643 31.65 31.605 31.636 31.689 32.936 32.195 32.533 33.207 31.673 31.603 31.539 31.555 31.585 31.537 31.571 31.548 31.529 31.525 31.526 31.548 31.541 31.533 31.51 31.531 31.575 31.568 31.607 31.559 31.571 31.613 31.654 31.666 31.619 31.624 31.676 31.728 31.802 31.851 32.074 31.982 32.125 32.2 32.235 32.295 32.299 32.32 32.339 32.333 32.799 32.686 32.696 32.462 32.378 32.425 32.434 32.512 32.461 32.522 32.602 32.605 32.69 32.731 32.777 32.807 32.869
60.053 58.659 66.656 66.933 66.509 66.28 57.671 58.344 57.615 57.708 61.005 62.786 61.223 58.737 57.429 65.614 65.408 61.148 56.5 56.191 60.115 62.607 63.153 62.217 61.267 57.334 55.8 55.85 55.829 55.487 55.885 55.385 54.948 57.68 60.76 61.566 61.186 60.188 54.781 54.639 54.475 54.426 54.004 53.435 52.909 52.674 52.454 52.468 52.488 52.799 52.951 52.358 54.186 52.204 51.419 56.693 57.706 58.021 57.368 53.669 51.186 53.781 51.838 51.456 50.869 50.748 50.539 50.329 50.486 51.549 50.61 53.503 50.363 49.505 49.587 50.263 49.74 49.45 49.457 48.932 48.879 48.818 48.599 48.466 48.209 48.117 47.91 47.794 47.673 47.502 47.379 47.19 47.05 47.001 47.299 48.646 46.69 47.668 46.621 47.555 48.177 47.344 45.74 45.984 47.123 50.782 51.533 52.206 46.885 44.498 44.442 45.466 44.509 45.991 49.838 50.69 51.249 51.1 50.307 45.097 43.102 42.963 42.923 42.69 42.638 45.153 42.063 42.04 41.85 41.669 41.499 41.344 41.193 41.052 40.908 40.778 40.7 40.552 40.504 40.321 40.211 40.079 39.978 39.921 39.82 39.751 39.632 39.576 39.486 39.433 39.287 39.285 39.117 39.025 38.801 38.41 39.442 42.484 42.671 36.743 36.273 37.866 37.3 39.668 43.215 43.993 40.94 35.887 35.786 35.808 35.698 36.09 36.213 36.137 36.15 36.174 36.186 36.184 36.181 36.165 36.203 36.211 36.258 37.387 37.398 38.846 37.154 36.332 36.28 36.292 36.286 36.328 36.362 36.385 36.447 36.518 36.59 36.66 38.824 38.538 39.728 40.103 39.567 37.999 38.057 37.893 37.813 37.73 37.675 37.578 37.459 37.366 37.44 37.306 37.014 36.892 36.849 37.389 37.89 36.832 36.605 36.589 36.643 38.585 40.332 42.646 40.863 41.675 42.407 41.485 43.588 40.398 35.236 34.471 34.494 34.519 34.54 34.545 34.582 34.574 34.563 34.538 34.572 34.611 34.613 34.633 37.988 42.715 44.553 43.734 39.902 34.893 35.044 37.887 36.612 40.369 37.784 40.85 37.134 35.776 35.207 36.7 34.127 34.136 33.469 33.371 33.17 33.202 33.186 33.159 33.141 33.126 33.097 33.038 33.046 33.375 33.096 32.824 32.789 32.709 32.589 32.493 32.434 32.754 32.665 33.277 33.35 33.169 33.398 37.36 37.214 38.387 39.291 40.399 39.602 38.665 38.364 35.77 31.44 31.29 34.895 37.011 36.896 36.821 37.017 36.798 36.84 33.346 31.071 31.405 36.839 36.966 36.895 36.945 37.002 36.851 36.966 37.195 34.653 33.368 36.398 36.599 36.689 38.362 38.342 39.181 40.995 40.561 40.225 36.534 35.492 34.696 33.711 33.386 33.372 33.207 32.094 32.115 32.124 32.155 33.622 37.654 38.04 38.484 38.814 39.199 39.394 38.613 39.935 39.701 39.671 39.622 39.532 39.52 38.886 38.727 38.282 37.885 37.59 33.406 31.733 31.727 31.936 31.822 31.722 31.712 31.68 31.719 31.732 32.125 32.074 33.113 32.209 33.935 33.359 32.32 32.578 31.887 31.692 31.631 31.603 31.589 31.616 31.6 31.569 31.531 31.56 31.527 31.537 31.564 31.58 31.519 31.564 31.592 31.565 31.574 31.601 31.619 31.623 31.602 31.668 31.688 31.653 31.695 31.758 31.832 31.825 31.952 32.006 32.051 32.162 32.237 32.238 32.299 32.326 32.366 32.41 32.385 32.379 32.371 32.381 32.421 32.469 32.494 32.516 32.537 32.561 32.681 32.69 32.765 32.804 32.833 32.861 32.92
59.541 66.07 67.709 67.322 66.9 66.395 58.016 57.479 57.459 58.083 58.311 58.667 57.905 57.309 59.118 62.087 66.165 62.875 57.229 56.227 56.156 58.669 62.416 61.585 56.104 55.772 55.679 55.892 55.539 57.134 55.523 54.845 57.879 60.444 61.351 61.298 60.409 57.092 54.581 54.666 54.382 54.324 53.932 53.279 52.86 52.658 52.557 52.53 52.445 53.278 52.504 52.727 52.965 51.345 54.201 57.194 58.179 57.721 53.941 51.355 51.146 53.696 51.095 50.933 50.848 50.615 50.39 50.229 50.078 50.077 53.749 55.72 54.947 53.129 49.492 49.68 49.611 49.348 48.723 48.706 48.666 48.58 48.529 48.595 48.248 48.084 47.794 47.732 47.587 47.435 47.334 47.153 47.047 46.88 46.712 46.693 46.623 48.298 46.922 46.867 47.968 45.909 45.541 45.658 45.46 45.654 50.658 47.832 44.785 44.913 44.874 44.584 44.356 44.224 47.342 49.73 50.155 50.742 47.686 43.403 42.952 42.932 42.833 42.654 42.542 42.321 42.083 41.955 41.842 41.767 41.554 41.454 41.249 41.143 40.943 40.815 40.73 40.595 40.447 40.326 40.219 40.119 39.981 39.912 39.781 39.664 39.62 39.536 39.457 39.306 39.177 39.035 38.881 38.815 38.597 38.338 37.983 38.776 39.167 38.778 36.705 36.662 40.695 40.934 44.725 44.572 42.754 36.135 35.772 35.739 35.753 36.043 36.267 36.161 36.208 36.217 36.169 36.194 36.187 36.239 36.23 36.191 36.206 36.242 36.237 36.271 36.349 36.314 36.334 36.323 36.324 36.397 36.38 36.475 36.535 36.593 36.667 36.764 40.871 39.757 38.845 39.854 38.197 38.124 38.009 37.854 37.83 37.792 37.68 37.539 37.498 37.488 37.44 37.135 36.995 36.888 37.145 37.682 40.181 39.339 36.478 36.407 36.428 37.085 38.911 38.66 39.66 39.714 40.953 39.42 39.059 35.469 34.492 34.503 34.541 34.521 34.531 34.579 34.536 34.581 34.562 34.55 34.547 34.62 34.622 34.635 34.59 36.156 40.755 37.829 35.584 34.677 34.734 34.94 34.547 35.804 39.149 41.543 39.939 38.923 39.597 40.536 39.807 37.669 35.128 33.835 33.352 33.161 33.037 33.012 32.999 33.016 32.97 33.006 32.95 32.895 32.973 33.07 32.802 32.685 32.584 32.459 32.43 32.328 32.221 32.191 32.183 32.245 33.091 33.288 32.082 32.659 39.246 39.987 35.442 32.616 31.352 31.204 31.119 31.023 30.966 32.335 36.96 36.901 36.806 36.851 37.005 36.767 32.879 36.416 36.185 36.258 37.262 36.759 36.856 37.46 36.926 36.841 36.91 35.494 36.468 36.768 36.771 36.833 36.945 40.399 41.36 41.114 40.817 39.391 40.04 38.772 35.836 35.837 36.19 33.948 33.774 33.704 32.277 33.096 32.197 32.78 34.771 37.273 38.097 38.212 38.476 38.726 38.898 38.892 38.905 38.622 38.584 38.447 38.226 37.878 37.201 33.501 32.444 31.861 32.472 32.499 32.189 31.947 31.768 32.198 31.864 31.707 31.757 31.75 32.203 32.756 32.212 32.814 31.794 33.139 33.528 32.802 31.787 33.518 31.772 31.663 31.626 31.685 31.6 31.598 31.581 31.576 31.58 31.607 31.6 31.58 31.615 31.614 31.612 31.575 31.629 31.665 31.65 31.668 31.664 31.703 31.671 31.784 31.816 31.912 31.898 32.261 32.065 32.079 32.146 32.225 32.255 32.245 32.326 32.342 32.375 32.381 32.392 32.398 32.425 32.498 32.485 32.511 32.538 32.565 32.688 32.73 32.758 32.777 32.786 32.843 32.847 32.877
