ncols 411
nrows 32
xllcorner    428068
yllcorner    437210
cellsize     2
NODATA_value -9999
59.591 59.559 59.629 59.719 59.726 59.749 62.816 59.576 59.299 59.171 58.986 58.879 58.851 58.919 59.076 59.276 61.649 59.504 60.026 61.329 61.976 59.709 59.719 59.711 59.704 59.766 59.814 59.839 59.834 59.824 59.806 59.869 60.131 59.806 59.789 59.781 59.796 59.784 59.806 59.846 59.921 59.951 59.946 60.069 60.199 60.334 60.466 60.561 60.774 61.514 60.976 61.061 61.214 61.259 61.261 61.241 61.226 61.166 61.184 61.179 61.144 61.144 61.266 63.444 61.814 62.471 62.276 61.381 61.431 61.124 61.401 61.059 61.051 61.141 61.571 60.991 60.899 60.876 60.889 60.886 60.876 60.849 61.096 60.901 60.896 60.946 61.039 61.431 61.574 60.994 61.536 61.159 61.206 61.259 61.286 61.204 61.249 61.309 61.344 61.386 63.379 67.991 68.529 67.531 61.971 63.014 63.659 62.236 62.224 62.224 62.199 62.179 62.186 62.259 62.354 62.501 62.644 63.124 63.239 63.224 63.344 63.444 63.486 63.551 63.779 63.669 63.744 64.276 64.156 64.191 64.279 64.249 64.211 64.169 64.151 64.221 64.311 64.374 64.389 64.396 64.519 65.756 64.524 64.639 64.741 64.664 64.681 64.734 64.849 67.301 68.289 69.604 70.179 69.234 68.259 65.291 65.071 65.156 66.094 66.059 66.084 66.074 66.086 65.831 65.694 65.736 66.174 65.976 66.054 66.156 69.664 69.574 72.689 74.081 74.079 72.754 66.736 66.616 66.306 66.364 66.326 66.429 66.644 72.414 74.014 75.704 74.886 73.679 66.821 66.781 66.304 66.736 68.396 66.884 67.956 68.131 66.464 66.009 65.909 65.759 65.546 65.546 65.214 65.061 65.084 65.141 65.226 65.274 65.274 65.309 65.351 66.446 65.949 66.014 66.034 66.046 66.044 65.966 65.956 66.024 66.069 66.081 66.236 66.319 67.936 66.594 66.659 69.464 66.629 67.024 66.934 68.134 66.976 66.981 67.019 67.029 66.999 67.029 67.509 67.626 68.021 68.921 67.181 67.354 68.469 67.841 68.069 68.216 68.271 68.356 68.424 68.424 68.681 68.756 68.829 69.236 69.714 70.866 69.716 69.699 69.754 69.599 69.686 69.824 70.011 70.154 70.361 70.436 70.441 70.566 70.689 70.781 70.889 70.996 71.094 71.169 76.621 71.829 71.434 75.581 73.696 73.794 74.986 78.389 71.979 72.054 76.284 76.721 75.536 72.801 72.766 72.531 72.551 72.701 73.376 73.969 74.681 77.186 78.371 73.744 74.301 74.544 78.564 80.841 79.711 74.754 74.859 75.154 75.291 75.314 75.424 75.659 75.854 75.971 76.036 76.189 76.346 77.006 77.044 77.074 77.766 78.934 84.534 85.496 86.214 86.114 85.291 80.696 80.576 81.346 82.179 82.569 81.976 81.666 82.026 82.354 84.294 84.209 84.956 84.551 84.746 87.706 85.764 88.716 86.356 87.469 87.326 87.869 87.724 88.049 88.464 88.706 89.449 89.549 89.884 89.921 90.124 90.499 90.361 90.671 90.546 90.811 91.181 91.189 91.309 91.309 91.374 91.456 91.649 91.871 94.416 92.789 92.614 92.696 92.811 92.946 92.871 92.874 94.186 93.121 93.046 93.266 92.939 92.844 93.186 93.414 92.974 92.931 93.099 93.041 92.941 93.031 93.089 93.106 93.071 93.194 93.304 93.401 98.999 93.614 94.671 93.431 93.259 93.166 93.216 93.249 93.251 93.259 93.236 93.739 99.881
59.586 59.614 59.681 59.691 59.651 59.451 66.901 63.824 59.024 58.909 58.714 58.606 58.609 58.706 58.956 59.459 59.316 59.474 59.544 59.616 59.684 59.666 59.666 59.684 59.694 59.739 59.761 59.754 59.741 59.704 59.714 59.661 59.719 59.699 59.679 59.674 59.661 59.699 59.741 59.751 59.784 59.836 59.906 59.979 60.121 60.221 60.289 60.396 60.686 61.994 60.841 60.769 60.816 60.796 60.811 60.811 60.841 60.884 60.899 60.934 60.954 61.004 61.064 61.859 61.626 61.661 61.879 61.336 61.491 60.946 60.839 61.846 62.166 62.169 61.856 62.166 62.236 61.966 60.791 60.859 62.089 60.691 61.854 60.771 61.464 61.204 60.891 60.889 60.861 62.024 62.864 60.974 60.974 61.024 61.051 61.129 61.079 61.109 61.164 61.556 66.876 68.241 68.289 67.291 61.899 61.929 62.066 62.151 62.186 62.141 62.126 62.131 62.149 62.184 62.249 62.281 62.609 62.756 62.846 62.781 62.949 62.699 62.861 63.366 63.569 63.381 63.494 63.251 64.116 64.024 64.219 64.236 64.229 64.204 64.181 64.244 64.211 64.311 64.361 64.384 64.399 64.494 65.856 64.604 64.614 64.574 64.616 64.696 64.751 67.469 69.049 70.454 71.016 70.544 69.621 68.646 66.959 65.266 65.724 65.511 65.896 65.514 65.359 65.479 65.364 65.406 69.824 65.744 65.769 65.944 66.551 66.221 72.029 74.399 74.174 72.884 66.436 66.636 66.249 66.201 66.176 66.256 66.534 70.081 74.926 75.636 74.974 73.769 67.804 66.454 66.146 67.171 67.599 65.701 65.424 65.329 64.554 64.274 64.304 64.976 67.004 65.801 64.591 65.001 65.011 65.059 65.119 65.184 65.184 65.246 65.289 66.184 65.931 65.966 65.991 65.994 66.066 65.921 65.859 65.914 65.941 65.964 66.114 66.534 66.771 66.416 66.491 66.441 66.454 67.114 66.779 70.056 67.281 66.971 66.931 66.961 66.994 67.004 66.984 67.016 67.701 67.859 66.969 67.106 67.404 67.706 69.224 68.874 73.809 73.896 72.911 69.691 68.486 68.614 68.714 68.801 69.184 69.604 69.876 69.599 69.471 69.384 69.466 69.991 72.446 70.056 70.281 70.399 70.359 70.486 70.586 70.694 70.801 70.894 70.994 71.084 72.821 71.271 74.754 73.164 74.966 78.416 76.824 72.004 71.854 75.399 76.046 76.416 72.141 72.279 73.691 73.761 74.454 73.641 73.961 76.609 74.684 81.839 81.874 78.679 73.836 74.159 74.601 75.336 74.696 74.731 74.811 75.041 75.156 75.201 75.414 75.606 75.749 75.814 75.966 76.364 77.209 77.091 78.174 78.801 77.334 78.011 79.184 84.496 85.216 84.114 81.959 81.284 79.244 81.674 81.511 81.914 81.896 82.624 81.746 82.199 82.986 84.061 84.266 84.429 84.944 85.026 85.706 86.079 86.354 86.581 87.011 87.449 87.711 88.531 88.409 89.091 89.371 89.564 89.766 89.894 90.449 90.231 90.714 90.676 91.174 90.846 90.931 91.684 91.839 91.669 91.419 91.486 91.564 91.741 91.894 92.274 93.024 93.639 93.954 98.651 98.444 92.841 92.829 92.844 92.894 92.874 92.874 92.829 92.974 93.004 92.871 92.971 92.986 92.871 92.936 93.006 93.024 93.006 93.061 93.189 93.256 93.354 97.199 93.816 95.514 93.254 93.016 93.069 93.134 93.129 93.101 93.089 96.966 97.386 93.444
59.611 59.656 59.654 59.541 59.361 59.541 73.861 72.289 58.946 58.664 58.524 58.991 59.091 59.061 58.904 59.076 59.221 60.376 62.981 61.834 59.641 59.629 59.599 59.616 59.649 59.664 59.664 59.646 59.624 59.619 59.604 59.596 59.524 59.571 59.566 59.589 59.629 59.641 59.626 59.641 59.699 59.734 59.846 59.916 60.006 60.069 60.189 60.826 62.061 61.736 60.626 60.571 60.596 60.629 60.649 60.689 60.701 60.729 60.749 60.779 60.799 60.841 60.869 61.356 61.609 62.374 62.871 61.724 64.279 64.401 62.559 66.376 66.376 66.336 66.299 66.274 66.299 66.294 60.741 60.859 66.224 66.149 65.866 66.136 66.119 65.276 60.791 63.629 65.379 65.726 65.909 65.871 64.704 60.889 60.916 64.736 65.414 65.336 61.294 61.709 61.921 61.761 65.071 63.644 61.781 61.781 61.774 61.804 61.854 61.899 62.271 62.106 62.126 62.131 62.119 62.119 62.589 62.501 67.326 67.249 66.346 62.936 62.611 63.459 63.216 63.099 63.184 62.731 62.851 63.051 64.091 64.204 64.251 64.231 64.201 64.319 64.269 64.286 64.279 64.349 64.389 64.411 64.426 65.296 64.499 64.486 64.579 64.656 64.826 65.196 67.429 70.054 70.446 70.704 70.744 69.516 68.191 65.641 65.869 65.064 65.029 64.999 64.951 65.059 64.996 65.114 65.676 65.681 65.629 66.514 65.939 66.021 71.384 73.324 74.189 72.536 66.236 65.899 65.974 66.064 66.036 66.091 66.159 69.974 73.619 75.529 75.081 73.884 66.901 66.536 65.969 66.049 66.119 64.431 64.336 64.194 64.521 69.059 70.951 71.851 70.854 66.901 64.481 64.769 64.951 64.956 64.984 65.101 65.066 65.111 65.206 66.034 65.929 65.956 65.966 65.981 66.196 65.796 65.756 65.811 65.841 65.894 65.999 67.881 66.221 66.246 66.351 66.306 66.311 66.996 66.701 66.721 66.826 66.854 67.319 66.951 66.949 66.986 66.994 66.971 67.031 66.951 66.909 66.969 67.201 67.544 69.739 74.654 75.956 76.056 76.024 68.684 68.511 68.599 68.646 68.711 69.059 69.114 69.614 69.336 69.179 69.256 69.306 69.386 70.014 70.616 70.284 70.591 70.271 70.366 70.479 70.604 70.726 70.806 70.906 71.014 71.121 71.226 71.319 71.411 72.146 72.234 73.341 71.726 74.789 75.366 76.484 72.949 72.109 72.251 74.444 74.794 73.996 73.496 76.554 77.351 81.279 80.609 81.906 81.319 79.434 73.904 74.221 74.649 74.711 74.764 74.839 74.931 75.009 75.209 75.404 75.539 75.614 75.724 75.919 76.909 77.591 77.469 79.364 83.306 83.301 77.469 78.199 78.669 84.274 81.881 81.526 79.616 79.529 79.479 81.179 81.261 81.569 83.564 82.974 82.539 82.971 83.999 84.164 84.351 84.676 85.039 85.569 86.086 86.379 86.634 87.101 87.466 87.829 90.359 88.631 89.159 89.401 89.574 89.849 90.179 90.659 91.336 90.459 90.779 90.796 90.909 90.994 91.059 91.329 94.136 91.741 91.631 91.694 91.751 91.836 91.936 92.096 93.299 98.476 99.396 99.341 98.601 93.279 92.821 92.816 92.851 92.836 92.856 93.271 92.804 92.839 92.959 92.794 92.844 92.924 92.954 92.949 92.941 93.096 93.161 93.271 94.594 93.849 93.296 92.869 92.871 92.909 93.009 93.024 94.361 93.306 96.599 99.064 100.134 99.384
59.659 59.674 59.514 59.181 58.954 58.696 71.469 70.304 61.104 70.231 73.341 72.541 66.191 64.634 61.296 61.849 59.116 59.339 59.726 59.596 59.589 59.584 59.566 59.534 59.531 59.521 59.559 59.581 59.574 59.526 59.531 59.491 59.459 59.456 59.516 59.556 59.509 59.489 59.524 59.541 59.576 59.634 59.746 59.844 59.856 59.866 60.196 62.409 63.024 62.769 60.464 60.404 60.446 60.469 60.499 60.529 60.531 60.541 60.574 60.594 60.609 60.669 60.681 60.856 61.429 61.531 62.319 63.956 62.836 64.266 62.224 67.511 67.504 67.484 67.436 67.491 67.409 67.434 60.886 61.116 67.471 67.434 67.791 67.409 67.391 65.879 60.719 64.119 67.559 67.539 68.156 67.471 67.451 61.834 60.879 67.574 67.529 67.519 61.189 61.559 61.554 61.559 61.564 61.594 61.696 61.679 61.641 61.666 61.694 61.784 62.046 62.041 62.049 61.999 61.954 62.194 64.621 64.376 67.634 69.221 69.524 68.639 68.164 62.699 62.766 62.861 62.731 62.689 62.759 62.936 63.806 63.961 64.089 64.239 64.254 64.266 64.304 64.364 64.384 64.256 64.321 64.384 64.391 64.366 64.394 64.461 64.484 64.544 64.551 64.611 65.174 66.604 68.384 69.364 69.871 68.569 64.914 65.899 65.831 64.809 64.724 64.681 64.776 66.654 64.766 68.071 66.476 65.961 65.466 66.604 67.731 67.906 70.651 73.196 74.049 72.951 65.859 65.761 65.829 65.909 66.449 65.931 66.201 69.611 74.304 74.854 74.579 73.254 66.329 65.936 65.759 65.884 64.724 64.424 64.274 64.171 64.166 68.741 70.826 71.829 70.949 67.664 64.459 64.746 64.846 67.771 67.716 65.036 64.981 65.064 65.139 65.749 65.886 65.966 65.931 65.914 65.866 65.619 65.674 65.716 65.731 65.864 65.929 66.841 66.121 66.164 66.229 66.169 66.831 66.794 66.581 68.334 66.684 66.779 66.919 67.219 66.994 66.916 66.949 66.964 66.946 66.931 66.904 66.881 67.604 67.556 71.781 74.651 76.014 76.049 75.794 68.384 68.474 68.534 68.624 68.646 69.799 69.359 68.964 69.019 69.059 69.121 69.176 69.214 69.324 69.264 70.369 72.399 71.939 70.926 70.374 70.519 70.634 70.721 70.831 70.936 71.049 71.139 71.219 71.319 71.391 71.426 71.496 73.671 71.621 71.866 72.479 72.171 72.084 72.126 72.541 74.914 74.169 73.594 73.544 79.876 81.814 81.859 81.561 80.579 79.641 73.959 74.124 74.474 74.681 74.706 74.744 74.816 75.014 75.191 75.336 75.386 75.506 75.719 76.044 76.266 77.441 79.284 83.261 84.276 84.284 83.341 78.029 77.904 78.766 81.336 79.674 79.446 79.746 80.266 81.031 81.191 81.366 84.219 85.531 83.921 83.374 83.781 84.324 84.444 84.739 86.656 86.201 86.179 86.454 86.809 87.146 87.431 87.881 88.291 88.914 89.496 90.499 94.764 95.106 94.609 94.176 90.646 90.471 90.936 90.861 90.914 91.019 91.146 91.191 91.414 93.731 92.296 91.764 91.834 91.856 91.984 92.294 98.316 99.234 100.121 100.001 99.116 95.814 92.816 92.784 92.776 92.759 93.559 92.696 92.676 92.839 92.739 92.759 92.826 92.879 92.876 92.854 92.981 93.079 93.179 93.204 93.081 93.211 92.846 92.736 92.776 92.851 92.861 93.129 92.989 96.076 98.021 99.941 100.681 99.659
60.186 64.249 59.984 58.621 60.174 60.956 66.949 70.051 72.524 71.674 73.636 74.956 60.376 61.061 63.659 61.939 63.986 62.874 64.434 61.719 59.556 59.561 59.531 59.496 59.479 59.501 59.509 59.509 59.509 59.481 59.426 59.416 59.426 59.431 59.419 59.454 59.431 59.396 59.399 59.414 59.459 59.481 59.539 59.644 59.706 59.749 60.089 65.021 62.826 62.171 60.299 60.266 60.226 60.279 60.304 60.354 60.351 60.354 60.381 60.421 60.394 60.459 60.506 60.569 61.601 61.109 62.274 63.001 61.089 64.141 62.186 67.304 67.341 67.304 67.339 67.446 67.369 67.396 60.551 60.726 67.541 67.521 67.581 67.564 67.194 66.416 60.651 63.556 67.959 67.956 68.254 67.884 67.914 61.044 60.824 68.136 68.134 68.129 60.996 61.891 61.551 61.461 61.471 61.499 61.564 61.449 61.529 61.569 61.589 61.749 61.896 61.899 61.909 61.879 61.866 61.906 64.429 63.129 68.454 69.961 70.434 69.354 66.869 62.886 62.679 68.361 68.116 65.289 62.621 63.146 63.424 63.584 63.866 64.019 63.969 64.241 64.261 64.346 64.426 64.346 64.294 64.306 64.356 64.356 64.351 64.341 64.381 64.591 64.444 64.489 64.641 65.449 65.639 68.046 68.821 65.716 64.871 64.911 65.699 64.401 64.239 64.261 64.291 64.329 64.446 64.559 65.006 65.251 65.294 67.039 68.709 68.974 70.361 73.239 73.991 72.714 65.796 65.649 65.681 65.759 66.169 65.864 65.946 66.781 73.476 74.666 74.634 73.379 67.926 65.981 65.574 65.519 65.036 64.419 64.311 64.249 64.199 65.881 70.719 71.789 71.034 68.559 64.961 65.146 64.806 64.836 65.861 65.184 64.969 65.046 65.071 65.721 65.836 65.881 65.886 65.799 65.599 66.444 65.591 65.629 65.619 65.764 65.934 66.194 65.964 66.149 66.136 66.159 68.744 66.364 68.044 66.269 66.349 66.334 66.839 66.854 66.936 66.921 66.901 66.924 66.906 66.896 66.861 66.844 68.536 69.266 71.721 75.046 76.091 75.816 74.064 68.354 68.591 69.916 71.946 72.271 73.721 68.946 68.846 68.936 68.996 68.989 69.056 69.654 70.256 69.619 70.026 69.261 72.299 70.334 70.504 70.364 70.516 71.111 70.756 70.861 70.966 71.056 71.116 71.211 71.289 71.356 71.434 71.509 71.829 71.934 71.831 72.039 73.136 72.134 72.219 72.969 73.181 73.349 74.306 73.586 80.919 81.659 80.634 79.691 75.859 73.979 74.409 74.364 74.489 74.546 74.619 74.819 74.991 75.119 75.179 75.306 75.469 75.714 76.464 76.509 77.356 83.204 84.171 85.224 85.121 84.159 83.174 77.629 78.394 78.834 80.499 79.396 79.521 80.784 81.076 81.226 81.799 81.671 90.479 91.569 83.519 83.819 84.384 84.679 84.859 85.236 85.719 86.171 86.781 87.026 87.426 87.584 87.989 88.569 88.876 90.754 93.869 96.016 96.271 97.604 100.604 92.554 90.499 91.519 92.206 90.954 91.044 91.171 91.241 91.324 93.866 94.039 93.261 92.304 91.949 92.201 96.939 99.056 99.964 100.759 99.271 97.306 92.716 92.784 92.751 92.694 92.641 92.581 92.586 92.686 92.656 92.634 92.716 92.789 92.799 92.791 92.926 92.984 93.069 93.151 93.056 92.956 92.931 92.881 92.694 92.704 92.689 92.634 92.644 92.641 94.441 96.439 97.334 99.839 98.759
65.261 66.446 62.909 62.446 64.586 66.716 72.479 70.541 69.254 68.261 72.336 62.879 57.556 57.564 58.724 57.896 60.014 67.239 67.284 63.264 59.586 59.534 59.499 59.486 59.449 59.464 59.451 59.456 59.411 59.384 59.364 59.354 59.326 59.354 59.404 59.356 59.364 60.029 59.291 59.249 59.271 59.381 59.376 59.481 59.589 59.624 59.654 60.701 60.551 60.649 60.146 60.089 60.051 60.109 60.124 60.121 60.131 60.146 60.149 60.171 60.186 60.271 60.336 60.231 61.369 60.909 60.844 62.321 60.564 63.979 61.244 64.616 66.174 66.076 66.054 66.216 66.259 66.186 60.479 60.514 66.359 66.361 66.374 66.369 66.404 65.599 60.591 64.429 66.774 66.806 66.669 66.664 66.711 61.639 60.776 66.934 66.914 66.956 60.934 61.536 61.341 61.374 61.379 61.321 62.239 61.374 61.424 61.461 61.521 61.676 61.791 61.796 61.779 61.761 61.771 61.971 62.084 63.116 68.761 69.529 69.879 69.031 64.676 62.654 65.571 68.874 69.556 69.119 68.554 66.126 63.464 63.274 63.589 63.499 64.411 63.734 64.971 64.299 64.331 64.324 64.344 64.309 64.266 64.304 64.339 64.344 64.506 64.394 64.494 64.476 64.559 64.631 65.201 65.196 65.881 66.076 64.831 66.814 65.851 64.256 64.121 64.129 64.149 64.224 64.331 64.456 64.849 65.069 65.104 65.584 65.791 65.534 69.674 73.904 74.064 72.799 65.874 65.504 65.521 65.586 65.619 65.611 65.906 65.884 73.669 74.554 74.731 73.504 68.629 65.721 66.566 65.324 65.256 64.519 64.229 64.099 63.996 64.969 70.636 71.726 71.126 69.799 64.334 64.441 64.751 64.771 64.774 64.796 64.879 64.956 65.049 65.116 65.231 65.709 65.861 65.831 65.499 66.184 65.509 65.526 65.521 65.626 66.299 66.566 65.979 66.011 66.084 68.996 72.394 72.441 72.491 72.519 69.284 69.004 66.754 66.716 66.769 67.006 66.861 66.869 66.851 66.839 66.804 66.796 66.966 67.479 72.879 74.756 75.999 75.239 72.856 68.074 68.699 68.334 69.991 70.681 69.359 68.646 68.749 68.844 68.879 68.894 68.919 69.164 70.529 69.236 68.901 69.179 70.224 70.674 71.136 70.386 70.604 70.551 70.641 70.761 70.859 70.931 71.021 71.096 71.216 71.286 71.394 73.466 75.736 71.924 71.959 71.846 72.481 73.031 73.251 72.854 75.489 73.504 73.156 74.081 73.684 79.666 79.711 76.319 73.884 73.984 74.064 74.416 74.374 74.431 74.629 74.789 74.916 74.984 75.111 75.246 76.374 75.839 77.394 76.591 77.021 81.121 83.761 84.689 84.289 83.301 81.041 80.694 77.854 79.426 81.739 80.496 80.136 80.476 82.749 81.306 81.451 81.724 90.519 83.481 83.749 83.971 84.461 84.719 84.989 85.336 85.736 86.419 87.444 86.941 87.324 87.809 88.264 89.656 89.741 89.934 91.121 96.589 96.869 96.024 92.096 90.371 90.531 90.574 90.716 91.881 91.144 91.149 91.251 91.359 91.419 93.459 92.334 91.876 92.166 92.276 98.721 99.499 100.214 99.446 98.561 92.759 92.769 92.706 92.704 92.659 92.506 92.476 92.476 92.514 92.529 92.616 92.684 92.711 92.699 92.826 92.919 92.969 93.059 93.049 92.929 93.404 92.739 92.704 92.664 92.621 92.546 92.444 96.684 98.566 95.096 92.951 96.249 96.406 93.611
66.476 65.961 63.519 60.759 62.434 60.876 58.699 58.861 58.904 58.731 58.271 58.174 58.144 58.341 57.699 58.806 60.739 66.149 67.656 61.921 59.606 59.566 59.486 59.439 59.399 59.394 62.869 63.756 59.731 59.294 59.301 59.264 59.241 59.244 59.329 59.289 59.179 59.181 59.136 59.114 59.114 59.389 59.381 59.336 59.444 59.479 59.501 59.844 60.536 62.746 60.074 59.921 59.861 59.926 59.929 59.924 59.919 59.924 59.936 59.944 59.969 60.014 60.054 60.136 61.201 60.446 60.519 60.824 60.366 63.461 61.786 60.319 60.244 61.941 63.931 63.804 63.364 63.836 60.346 60.329 63.509 63.504 63.334 63.816 63.651 60.489 60.449 60.526 60.696 60.686 60.984 60.696 60.689 60.701 60.714 60.876 61.164 63.664 60.899 61.604 61.241 61.301 61.226 61.216 63.541 63.569 63.561 61.349 61.446 61.614 61.639 61.704 61.694 61.649 61.669 61.826 61.879 63.664 67.031 68.071 68.396 68.611 62.701 62.464 67.064 69.334 70.774 70.454 69.194 64.416 64.026 63.136 63.299 62.869 62.879 63.284 63.626 64.784 64.361 64.381 64.366 64.351 64.421 64.324 64.271 64.321 64.314 65.414 64.306 64.494 64.626 64.556 64.609 64.544 64.711 65.464 64.786 64.824 65.739 64.161 64.024 64.049 65.979 64.321 64.199 64.359 64.744 64.909 64.914 67.764 67.764 67.321 67.329 72.749 73.849 72.684 65.739 65.386 65.369 65.446 65.434 65.861 66.209 65.649 73.199 74.436 74.811 73.299 70.866 66.019 65.621 65.114 66.744 65.731 64.064 64.014 64.009 64.091 70.574 71.664 71.421 70.116 64.591 65.174 65.384 65.424 64.959 65.651 65.186 64.711 64.776 64.891 65.076 65.189 65.236 65.294 65.304 65.379 65.419 65.421 65.431 65.549 65.726 66.339 66.134 65.929 66.246 72.356 73.804 73.886 73.919 73.544 72.019 68.884 66.479 66.569 66.599 67.044 66.859 66.816 67.984 67.849 66.844 66.866 67.004 67.256 70.111 73.081 74.851 74.846 73.931 68.036 68.174 68.214 68.231 68.439 68.496 68.554 68.686 68.739 68.724 68.764 68.799 68.789 68.876 68.851 68.886 72.984 75.019 74.829 69.561 70.981 70.181 70.291 70.484 70.626 70.734 70.816 70.916 71.026 71.144 71.316 71.299 73.229 73.731 72.284 72.941 74.019 72.806 72.644 73.136 75.821 78.549 78.791 73.024 73.264 74.009 73.661 73.764 73.811 73.814 75.771 74.914 74.211 74.254 74.446 74.606 74.731 74.776 74.886 75.054 76.856 76.126 75.976 76.086 76.646 76.506 78.821 82.149 83.734 83.341 78.486 79.344 81.016 78.876 80.289 79.856 80.129 80.194 80.641 80.766 82.806 81.926 85.761 82.849 83.409 83.739 84.046 84.374 84.776 85.006 86.559 85.769 88.536 86.596 86.874 87.261 88.534 88.681 88.519 89.391 89.596 91.549 94.059 93.689 95.984 96.726 90.406 90.524 90.656 90.741 90.831 90.984 91.169 91.349 91.376 91.856 91.561 92.109 91.766 91.861 92.199 92.896 98.641 99.369 98.704 93.724 94.437 92.869 92.686 92.796 92.744 92.391 92.364 92.381 92.419 92.499 92.571 92.606 92.616 92.716 92.834 92.871 92.969 92.971 92.931 94.024 93.384 92.736 92.709 92.661 92.559 92.449 95.974 98.331 99.419 100.001 96.004 92.969 95.104 92.966
66.264 64.334 62.301 62.316 58.731 58.964 59.109 59.329 59.411 59.314 58.974 58.934 58.969 59.236 65.511 67.721 61.089 58.656 60.174 59.656 59.564 59.519 59.469 59.431 60.136 67.036 72.519 71.559 69.231 60.439 59.256 59.219 59.224 59.189 59.126 59.114 59.009 58.964 58.996 58.981 58.984 59.064 59.199 59.226 59.316 59.334 59.351 59.454 59.586 59.801 60.649 59.749 59.681 59.706 59.679 59.634 59.689 59.624 59.666 59.611 59.651 59.716 59.764 60.226 60.586 60.261 60.306 60.489 60.019 61.024 60.184 60.181 60.061 60.036 61.729 61.154 60.779 60.394 60.279 60.281 60.476 60.944 61.051 60.816 60.816 60.509 60.331 60.394 60.884 61.039 61.331 60.579 60.576 60.634 60.661 60.964 61.641 62.041 60.956 61.416 61.171 61.199 61.089 61.594 63.556 63.566 62.819 61.301 61.404 61.496 61.511 61.609 61.574 61.554 61.594 61.844 61.899 62.486 63.654 62.801 65.366 65.581 62.384 62.419 68.071 69.429 70.346 70.129 68.681 62.849 62.944 63.164 66.749 62.941 62.936 63.271 63.379 63.924 64.109 64.319 64.404 64.404 64.419 64.454 64.374 64.249 64.291 64.294 64.271 64.244 64.346 64.509 64.396 64.429 64.561 64.741 64.724 64.706 65.949 64.291 64.344 69.821 68.474 64.104 64.094 64.164 64.599 64.899 64.736 66.144 64.936 64.924 66.086 72.644 73.801 72.756 67.061 65.251 65.384 65.301 65.514 65.859 66.181 65.574 72.884 73.866 74.319 73.034 71.124 65.476 65.141 64.949 64.749 65.799 64.076 63.956 63.906 64.029 70.449 71.546 71.309 69.176 64.219 65.066 65.036 64.634 64.929 64.554 64.504 64.556 64.686 64.836 64.906 64.939 65.069 65.209 65.229 65.299 65.319 65.324 65.441 65.479 65.679 65.764 66.241 66.269 66.836 72.631 73.916 74.391 73.799 73.514 72.146 69.196 66.284 66.491 66.506 67.649 66.804 67.314 66.799 66.874 67.769 67.301 67.154 67.204 67.424 67.706 72.991 72.951 73.041 68.039 68.031 68.106 68.196 68.434 68.394 68.501 68.584 68.604 68.644 68.686 68.716 68.721 68.786 68.769 70.551 74.751 75.571 76.409 77.224 71.511 70.016 72.589 70.556 70.471 70.596 70.731 70.851 70.999 71.154 71.089 72.029 71.579 72.489 73.676 73.716 74.764 73.444 72.689 75.786 78.514 79.471 79.756 78.846 73.149 73.341 73.636 73.676 73.749 73.829 73.956 74.029 74.249 74.264 74.411 74.536 74.591 74.656 74.856 75.586 75.749 75.856 76.054 81.199 82.306 78.524 77.151 78.781 80.654 81.049 80.466 78.319 81.586 78.881 79.171 79.319 82.136 80.941 80.766 80.749 81.131 83.019 83.359 82.969 83.536 83.426 83.791 84.326 84.636 85.389 85.471 87.266 86.119 86.549 86.861 87.204 87.591 88.026 88.521 89.324 89.479 89.799 92.324 94.306 96.214 96.756 91.566 94.309 96.239 90.741 90.836 90.946 91.386 92.324 91.471 92.464 91.766 94.486 94.361 91.769 92.284 92.789 93.066 98.054 93.944 93.021 92.104 93.254 92.641 93.131 92.274 92.294 92.249 92.289 92.379 92.461 92.499 92.534 92.571 92.776 92.784 92.876 92.959 92.959 93.786 93.056 92.851 92.809 92.761 92.661 92.546 92.711 98.271 99.214 100.114 99.134 97.601 92.544 92.904 92.934
63.781 65.246 63.699 58.679 59.174 59.341 59.201 59.274 59.414 59.436 59.391 59.506 59.376 59.609 67.809 69.809 65.509 59.651 59.616 59.596 59.591 59.934 64.501 64.066 61.419 66.564 69.214 67.451 71.611 66.344 59.386 59.231 59.184 59.156 59.046 58.961 58.879 58.841 58.809 58.834 58.871 58.946 59.064 59.194 59.254 59.261 59.211 59.281 59.741 60.806 61.234 59.619 59.486 59.451 59.691 59.449 59.456 59.491 59.484 59.534 59.741 59.521 59.576 60.006 60.634 60.326 60.036 60.164 59.924 61.154 59.899 59.996 60.056 59.921 62.111 60.686 59.756 60.204 60.231 60.279 60.259 60.226 61.104 60.579 60.151 62.356 60.721 62.494 60.309 60.334 60.364 60.226 60.489 61.714 61.609 60.829 60.791 60.764 61.106 60.984 61.091 61.064 61.006 61.076 63.991 63.731 61.484 61.249 61.336 61.389 61.414 61.451 61.451 61.454 61.449 61.384 61.481 61.646 61.876 62.411 62.091 62.201 62.774 62.381 66.116 67.776 68.514 68.966 68.189 62.726 62.736 67.541 69.354 68.611 67.221 62.959 63.471 63.546 63.721 63.974 64.744 64.351 64.304 64.416 64.349 64.326 64.216 64.219 64.241 64.411 65.549 64.376 64.274 64.701 64.801 64.634 64.641 64.646 65.841 64.231 69.806 70.284 69.964 69.316 64.109 64.086 64.111 64.749 64.576 65.506 65.509 64.856 65.089 72.546 73.754 73.419 68.221 65.119 66.286 65.151 65.154 65.111 65.364 65.474 72.431 73.364 74.326 72.966 70.776 66.151 65.351 64.806 64.974 64.614 64.034 63.984 63.944 63.949 70.336 71.446 71.411 70.296 64.406 64.504 64.554 65.101 64.536 64.481 64.406 64.441 64.636 64.741 64.874 64.971 65.159 65.194 65.151 65.199 65.221 65.214 65.394 65.491 65.694 65.749 65.829 65.906 67.456 72.441 72.441 72.606 72.394 72.296 72.119 69.201 66.269 67.824 67.769 67.729 66.836 66.619 66.699 66.971 66.759 67.959 66.719 67.049 67.349 67.561 70.834 70.769 70.394 67.731 67.919 68.864 70.136 68.419 68.319 68.426 68.441 68.484 68.529 68.589 68.691 68.766 68.774 69.456 74.479 75.301 76.126 76.956 77.309 75.851 73.159 69.626 71.106 70.844 70.534 70.656 70.819 71.006 70.989 71.106 72.016 71.769 71.491 73.814 74.184 73.716 72.654 74.184 78.309 79.414 80.721 80.736 79.806 78.854 73.216 73.301 73.689 73.671 73.791 73.851 74.944 74.611 74.229 74.364 74.391 74.456 74.631 74.951 75.236 75.811 76.129 79.104 82.384 83.236 82.409 78.656 77.534 78.626 78.511 80.421 77.694 81.394 81.369 79.189 79.254 81.829 82.179 80.436 80.959 81.766 83.334 83.169 82.931 83.741 83.449 84.194 84.184 84.671 85.009 85.664 86.431 86.031 86.389 86.824 87.234 87.569 87.979 88.704 91.694 92.409 89.944 89.741 89.876 95.874 96.454 94.211 97.231 97.909 94.431 90.834 90.949 91.051 91.156 91.526 91.594 93.716 94.764 97.449 96.326 91.781 91.776 92.639 92.189 92.129 92.049 92.029 92.764 94.381 92.186 92.164 92.316 92.184 92.241 92.336 92.389 92.504 92.491 92.619 92.691 92.771 92.866 92.891 93.816 93.396 92.806 92.931 92.864 92.729 92.584 92.484 94.394 92.464 100.051 99.326 98.239 93.019 92.454 92.494 92.701
63.834 64.861 58.279 59.149 59.369 59.401 59.314 59.211 59.394 59.396 59.349 59.384 59.604 61.081 70.531 70.591 65.301 59.596 59.601 59.596 64.669 67.889 66.446 68.191 60.266 65.984 69.161 68.574 67.749 65.414 59.889 59.169 60.456 60.424 58.979 58.899 58.831 58.781 58.769 58.766 58.856 58.854 58.966 59.091 59.114 59.161 59.169 59.561 62.331 62.504 60.839 59.461 59.381 59.429 59.441 59.346 59.269 59.246 59.229 59.196 59.196 59.194 59.236 59.354 59.796 59.554 59.569 59.609 59.824 61.424 61.276 61.131 59.751 59.664 60.286 59.801 59.589 59.689 60.346 60.206 60.046 59.981 60.839 60.054 60.059 62.341 61.411 62.459 61.784 60.091 60.091 60.191 60.254 62.749 62.739 61.486 60.319 60.361 60.951 60.816 60.904 60.921 60.919 61.006 64.004 64.051 64.701 63.531 61.829 61.261 61.311 61.336 61.361 61.371 61.304 61.236 61.334 61.381 61.451 61.946 61.606 61.976 62.504 62.341 62.386 63.186 65.456 65.949 63.931 63.489 63.049 70.896 70.686 70.369 69.141 68.384 63.079 63.174 63.386 63.606 63.339 64.274 64.436 64.276 64.311 64.244 64.236 64.231 64.151 64.189 64.254 64.141 64.106 64.771 64.999 65.609 64.474 64.466 66.154 64.124 64.911 69.664 70.184 70.126 69.619 65.261 66.724 64.101 64.409 64.794 64.634 64.699 64.959 72.481 73.674 73.094 69.041 64.964 65.166 65.014 65.016 64.979 65.236 65.316 72.381 73.624 74.366 73.194 71.734 65.231 65.291 64.666 64.919 65.214 65.226 65.196 64.631 64.206 70.249 71.329 71.481 70.389 64.181 64.304 64.596 64.481 64.434 64.344 64.349 64.439 64.619 64.726 64.799 64.866 65.099 65.076 65.064 65.094 67.879 66.306 65.279 65.866 65.876 65.726 65.809 65.904 66.016 67.066 66.496 66.389 66.121 66.104 67.599 66.226 66.309 68.589 68.521 66.444 66.951 66.309 66.261 66.329 66.971 68.379 66.909 67.989 67.124 67.496 67.549 67.564 67.544 67.589 67.784 69.481 68.396 68.169 68.236 68.291 68.339 69.024 69.556 68.459 68.634 68.664 68.726 73.399 75.034 75.861 76.696 77.419 76.731 75.396 71.774 70.919 68.781 72.444 72.594 71.296 70.889 70.966 70.969 71.309 71.371 72.891 71.424 71.574 73.004 73.376 72.481 74.041 76.611 79.219 80.179 80.414 79.051 76.569 73.084 73.344 73.446 73.631 73.684 73.719 74.279 74.039 74.179 74.219 74.311 74.451 74.679 74.824 75.349 76.376 79.909 82.314 83.509 84.189 83.301 82.459 79.774 77.986 78.156 77.594 78.121 78.571 80.786 81.729 79.329 80.129 80.859 80.469 81.654 82.069 85.276 82.669 83.189 83.296 83.564 83.626 84.094 84.641 85.079 85.521 85.824 86.624 86.391 86.796 87.381 87.701 87.966 88.484 89.046 92.799 93.189 91.731 94.426 96.299 93.884 91.089 97.391 97.989 96.481 90.824 90.921 91.046 91.189 91.394 93.026 93.221 97.309 98.256 98.174 97.269 91.766 91.741 91.971 92.021 92.006 92.006 93.561 92.064 92.034 92.201 92.121 92.121 92.211 92.274 92.311 92.334 92.516 92.576 92.641 92.791 94.259 93.889 93.469 92.559 92.709 92.824 92.801 92.574 92.429 96.454 98.496 97.814 92.404 97.636 92.999 92.414 92.956 92.789 92.491
68.719 59.896 58.739 59.184 59.461 59.464 59.431 59.386 59.409 59.409 62.059 59.689 59.761 61.011 65.104 63.061 59.629 63.159 65.946 60.366 63.241 61.229 64.296 59.459 59.401 62.399 67.449 66.634 64.779 63.474 60.454 59.024 58.951 58.956 61.304 58.811 58.764 58.726 58.721 58.736 58.729 58.801 58.849 58.901 59.011 59.039 60.064 59.009 63.354 63.194 62.394 59.306 59.171 60.016 59.166 59.194 59.179 59.159 59.099 59.981 58.969 58.891 58.964 59.064 59.186 59.284 59.246 59.339 60.039 60.601 60.869 59.774 61.091 61.009 62.514 59.691 59.449 59.534 60.439 60.106 59.769 59.779 60.979 59.979 59.941 62.349 60.741 62.226 61.186 60.056 59.956 60.049 60.226 62.651 62.649 60.629 60.209 60.279 60.766 60.791 60.749 60.754 60.816 60.954 61.054 64.141 65.999 66.109 65.061 64.571 63.576 61.841 61.286 61.281 61.199 61.166 61.261 61.324 61.351 61.706 61.509 61.561 61.689 61.739 62.454 62.801 62.576 62.506 62.506 62.484 66.194 69.584 70.356 70.999 70.459 66.486 64.304 63.341 63.079 63.019 62.974 63.191 63.556 64.146 64.389 64.246 64.249 64.801 64.199 64.096 65.054 64.879 64.086 63.999 64.214 65.641 64.341 64.426 65.414 63.991 64.164 64.091 69.296 70.019 70.246 69.769 67.786 64.076 64.241 64.821 65.454 65.969 65.244 72.029 73.261 72.796 70.871 64.851 64.776 64.884 64.886 64.846 65.009 65.136 72.274 73.401 74.401 73.329 72.124 65.201 64.969 64.469 64.461 64.234 63.936 63.889 63.876 63.851 70.149 71.236 71.589 70.484 64.576 64.246 64.524 64.394 64.311 64.324 64.349 64.409 64.359 64.589 64.664 64.711 65.011 64.939 64.979 65.011 66.981 65.069 65.129 64.999 64.959 66.244 65.789 65.899 66.014 65.911 65.874 67.546 66.174 65.984 66.069 66.144 66.296 68.546 68.524 66.379 66.381 67.729 71.701 72.091 72.316 72.496 71.261 66.514 68.249 68.599 67.401 67.479 67.494 67.521 67.874 68.611 68.039 68.059 68.126 68.244 68.319 68.289 68.316 68.381 68.469 68.591 70.051 74.744 75.596 76.414 75.869 77.031 76.181 75.354 74.539 68.764 69.304 69.731 71.899 75.331 71.096 71.176 71.051 71.079 71.124 72.164 72.824 72.109 72.021 72.026 72.071 72.631 72.771 76.599 79.201 79.119 74.224 72.951 73.096 73.259 73.449 73.511 73.534 73.696 73.846 73.969 74.044 74.111 74.276 74.584 74.834 74.884 74.994 76.079 77.966 82.216 83.124 83.774 82.666 82.479 82.526 79.936 78.414 79.066 78.469 78.439 78.559 80.556 86.921 84.851 80.111 80.641 81.231 82.189 82.419 82.939 83.324 83.454 83.439 83.676 84.259 84.839 84.986 85.509 85.731 85.999 86.449 86.781 87.104 87.651 88.021 88.451 88.939 89.706 93.556 95.474 95.734 95.866 90.009 91.204 95.441 96.116 92.984 91.016 90.966 91.114 91.201 91.871 93.821 96.994 98.479 99.104 98.854 97.904 95.646 91.756 91.761 91.904 91.946 91.951 92.036 91.939 92.049 92.061 91.981 92.069 92.169 92.199 92.219 92.371 92.459 92.491 92.619 92.899 94.396 96.544 93.799 92.474 92.626 92.771 92.696 92.441 95.476 98.316 99.314 98.486 96.114 92.641 92.454 92.364 93.124 93.151 92.411
62.391 58.926 59.231 59.501 59.516 59.484 59.554 59.401 59.569 59.531 59.854 59.996 59.711 59.686 59.681 59.659 58.856 67.999 61.741 59.556 58.056 58.979 59.426 59.381 60.056 62.511 65.296 65.961 65.084 61.594 59.119 59.001 58.864 58.826 58.811 58.704 58.671 58.686 58.704 58.721 58.739 58.736 58.811 58.849 58.896 58.921 58.964 59.581 63.159 64.681 64.459 59.999 58.989 61.726 58.939 58.929 59.321 59.349 58.899 58.889 60.311 61.586 58.724 58.804 58.966 59.061 59.611 59.386 60.769 60.031 61.386 59.216 59.014 59.259 59.026 59.184 59.279 59.374 60.156 59.561 59.666 59.709 60.006 59.896 59.859 60.794 60.274 60.006 59.824 59.854 60.116 59.946 59.961 60.019 60.306 60.064 60.101 60.379 60.741 60.679 60.681 60.661 60.701 60.831 60.981 67.094 67.249 66.881 66.776 66.774 66.179 64.964 64.461 61.264 61.604 61.106 61.184 61.251 61.291 62.919 61.446 61.509 61.559 61.624 61.941 62.374 62.424 62.621 62.516 62.471 66.281 68.321 69.396 71.061 70.746 63.421 63.134 63.676 68.444 64.371 63.091 63.184 63.011 63.614 64.121 64.256 64.426 64.196 64.239 64.164 64.121 64.164 64.059 64.046 63.969 63.989 64.811 64.296 65.316 64.799 63.974 64.049 64.109 67.454 69.859 70.281 65.671 64.366 64.101 64.249 64.599 64.296 64.346 71.906 73.141 72.879 71.161 64.819 64.634 64.741 64.756 64.706 64.809 64.971 72.256 73.969 73.829 72.814 71.544 65.976 64.654 64.274 64.316 65.506 65.691 65.944 66.409 66.376 69.234 71.164 71.839 70.591 65.329 64.264 64.551 65.246 64.254 64.319 64.266 64.396 64.401 64.454 64.536 64.631 64.924 64.844 64.899 64.926 66.141 64.966 65.021 64.956 64.866 64.844 66.089 66.924 66.961 65.821 65.854 67.004 67.061 65.891 65.914 66.176 66.286 68.504 67.611 67.244 66.191 69.121 73.189 73.446 73.861 73.871 73.194 71.844 69.326 69.724 68.889 67.414 68.314 70.164 68.601 67.801 67.881 67.981 68.021 68.201 68.229 68.221 68.206 68.274 68.311 68.844 74.471 75.299 76.136 76.971 77.309 76.459 75.631 74.811 70.629 68.776 69.634 70.021 70.399 70.649 70.896 73.451 73.321 71.094 71.146 71.141 72.729 72.526 72.229 75.386 74.531 72.146 72.746 72.779 75.331 75.314 74.421 73.191 73.616 73.796 73.326 73.384 73.521 73.671 73.811 74.021 73.891 74.089 74.464 74.999 75.044 75.144 76.104 75.116 75.936 77.606 82.179 82.724 81.781 81.176 82.279 77.216 77.569 78.334 78.604 78.454 78.594 78.729 86.516 85.046 80.791 80.719 81.231 81.931 82.364 83.254 83.201 83.179 83.416 83.766 84.194 84.624 84.966 85.366 85.761 85.999 86.364 86.854 87.271 87.641 88.146 88.381 88.766 89.479 94.564 97.099 96.624 94.979 89.994 90.161 90.291 90.394 91.149 92.031 92.884 93.279 91.199 91.496 96.376 97.999 98.989 99.099 98.021 97.131 91.761 91.719 91.769 91.781 91.886 91.794 91.786 91.799 92.001 91.829 91.946 92.024 92.059 92.084 92.211 92.336 92.366 92.496 92.619 93.059 92.594 96.111 92.241 92.389 92.539 92.741 92.641 92.486 98.161 99.224 98.649 96.894 95.329 93.741 92.374 92.421 92.411 92.326 92.311
59.504 59.549 59.399 59.484 61.596 59.576 59.524 59.544 59.844 59.784 59.681 59.679 59.689 59.681 59.674 59.706 59.129 59.051 60.409 61.239 65.374 60.519 62.029 62.419 63.971 61.291 65.961 61.336 64.369 66.331 65.731 61.374 59.139 58.739 58.806 58.611 58.626 58.654 58.669 58.681 58.714 58.736 58.784 58.779 58.784 58.809 58.819 59.531 61.571 64.011 64.886 60.684 58.829 58.849 58.786 58.746 58.754 58.739 58.661 58.656 58.879 58.819 58.564 58.576 58.744 58.834 59.089 59.216 59.681 59.471 61.264 59.649 58.936 58.881 58.941 59.129 59.146 60.411 59.689 59.449 59.514 59.501 60.969 59.821 59.719 60.524 60.221 59.869 59.794 60.144 60.086 59.844 59.884 59.901 59.979 60.019 60.014 60.564 60.609 60.566 60.574 60.561 60.594 60.824 61.684 65.806 66.529 66.834 67.209 67.214 66.836 66.276 63.669 61.224 61.251 61.184 61.139 61.154 62.309 62.351 61.381 61.679 61.496 61.599 61.621 61.616 61.656 61.756 61.894 62.446 62.586 63.729 67.034 70.869 63.514 62.751 62.699 67.424 69.434 68.949 67.999 62.876 63.311 63.576 63.774 63.949 64.176 64.151 64.129 64.166 64.156 64.054 63.954 63.989 63.981 63.926 63.881 63.976 63.894 63.951 63.949 63.971 63.934 64.086 65.146 67.026 64.011 63.891 63.949 64.059 64.586 64.299 64.356 71.779 73.049 72.831 72.694 64.609 64.489 64.601 64.631 64.584 64.691 64.776 73.296 73.361 73.671 71.951 71.649 64.759 65.096 64.129 64.146 65.784 64.516 63.904 63.874 63.834 69.074 71.064 71.759 70.666 65.039 64.209 64.381 64.781 64.294 64.264 64.319 64.291 64.326 64.421 64.426 64.571 64.819 64.784 64.824 66.114 65.594 64.949 64.961 64.911 64.871 64.826 64.814 65.201 66.264 67.984 66.229 66.019 66.679 65.774 65.894 65.914 65.986 65.991 67.641 67.204 66.184 68.999 73.066 74.286 74.229 73.976 73.364 72.056 69.814 69.269 69.669 69.241 68.394 70.179 68.429 67.681 67.789 67.839 67.966 68.151 68.219 72.056 68.199 68.131 70.546 74.189 75.034 75.861 76.699 77.479 76.744 75.911 75.096 73.934 68.781 69.454 69.766 70.149 70.656 70.521 72.274 73.641 73.471 72.601 71.141 71.419 71.794 71.971 73.809 80.124 80.159 76.676 72.234 72.481 72.796 72.869 72.884 72.894 73.071 73.186 73.286 73.369 73.506 73.646 73.696 74.201 73.894 74.339 74.779 74.871 74.991 79.404 81.029 79.476 75.196 76.001 77.906 81.821 79.474 78.924 77.359 76.779 78.159 78.759 78.276 78.824 78.636 78.736 79.479 84.876 83.564 82.221 81.776 81.689 81.879 82.314 82.664 82.951 83.321 83.789 84.174 84.711 84.959 85.324 85.596 86.001 86.556 86.831 87.251 87.734 88.109 88.921 90.241 89.186 89.371 93.249 93.666 92.614 90.379 90.116 90.284 91.029 91.819 92.801 91.751 93.094 91.279 91.304 97.576 98.434 99.096 98.166 96.609 91.881 91.669 91.739 91.764 91.771 91.679 91.639 91.639 91.659 91.709 91.799 91.906 91.946 91.966 92.039 92.206 92.244 92.369 92.509 92.621 92.774 91.994 91.969 92.156 92.296 92.886 92.824 92.664 93.316 96.471 98.826 97.156 92.524 93.131 92.169 92.156 92.544 92.221 92.166 92.304
59.526 59.734 59.846 63.361 59.696 59.886 60.001 59.914 59.726 59.689 59.651 59.641 59.626 59.571 59.649 59.676 59.494 60.841 60.384 60.119 62.319 61.699 63.916 60.884 59.391 62.024 64.931 64.624 63.896 68.989 71.149 69.929 65.579 58.861 58.706 58.604 58.799 59.189 58.661 58.666 58.726 58.696 58.679 58.686 58.699 58.699 58.736 58.716 58.729 62.756 62.251 60.259 58.731 58.684 58.666 58.649 58.646 58.626 58.629 58.644 58.604 58.506 58.444 58.414 58.481 60.521 58.654 58.786 59.366 59.166 59.146 59.416 58.869 58.891 58.904 59.086 60.246 73.096 71.621 59.529 59.411 59.401 60.809 59.684 60.066 59.704 59.796 59.761 59.759 60.674 61.691 59.834 59.861 59.901 60.031 59.934 59.979 60.521 60.476 60.481 60.476 60.474 60.516 60.811 62.659 64.519 65.054 66.096 66.786 66.769 67.064 67.301 61.219 61.181 62.621 61.059 61.001 63.419 64.431 61.736 62.299 61.586 61.514 61.561 61.659 61.541 61.601 62.006 61.719 61.801 62.181 63.064 65.276 65.804 62.764 62.664 65.731 69.059 70.331 70.804 69.256 68.214 63.119 63.316 63.456 63.644 63.676 64.171 64.139 64.004 64.054 63.941 63.889 63.861 63.894 63.916 63.876 63.779 63.809 63.831 63.919 63.874 63.894 63.871 63.996 64.179 63.886 63.809 63.789 64.096 64.436 63.941 63.966 71.661 72.926 72.871 72.164 64.566 64.356 64.479 64.499 64.459 64.584 64.731 70.174 72.781 73.596 73.029 71.769 66.149 64.394 63.996 63.969 63.946 63.984 64.051 64.121 64.004 69.729 70.999 71.806 70.754 66.259 64.196 64.194 64.231 64.694 64.174 64.164 64.201 64.264 64.329 64.414 64.716 64.706 64.714 64.744 64.724 64.786 64.859 65.026 64.874 64.856 66.504 70.836 68.196 64.994 65.199 66.261 66.061 66.476 65.739 65.876 65.894 66.171 65.961 66.304 67.646 66.111 67.444 72.816 73.014 72.846 72.586 72.389 72.121 69.859 69.331 67.144 69.569 67.201 67.901 67.501 67.599 67.666 68.159 69.129 67.626 69.249 69.034 68.046 68.999 73.919 74.756 75.604 76.444 77.269 77.034 76.196 75.379 74.556 68.786 69.109 69.591 69.909 70.449 70.404 71.924 71.909 72.049 73.651 71.469 71.581 71.974 72.236 75.144 79.954 78.929 80.184 79.839 74.266 72.274 72.511 72.814 72.901 73.074 73.046 73.156 73.226 73.369 73.481 73.531 73.544 73.709 73.939 74.164 74.771 74.921 76.274 80.969 81.964 81.491 79.989 75.334 75.971 76.511 76.999 77.524 78.881 78.211 77.736 77.819 77.856 78.419 79.324 78.929 79.596 79.761 82.391 84.041 81.766 81.666 81.809 82.104 82.431 83.064 83.586 83.751 85.714 86.991 84.901 85.229 85.636 86.069 86.709 86.894 87.554 87.891 88.126 88.924 89.109 89.249 89.306 90.064 90.214 89.594 93.214 90.459 90.286 90.454 90.514 91.869 92.941 91.991 91.376 91.659 94.096 97.461 98.189 97.341 91.871 91.546 91.611 91.669 91.694 91.756 91.499 91.489 91.514 91.569 91.651 91.761 91.819 91.851 91.874 92.094 92.149 92.214 92.594 92.564 92.556 92.336 91.804 91.909 92.049 92.249 92.206 92.241 96.994 92.134 92.019 93.329 92.609 92.519 92.566 91.904 91.934 91.944 92.991 92.689 92.861
59.736 59.756 59.836 59.736 59.626 60.101 60.049 59.834 59.731 59.681 59.644 59.576 59.556 59.564 59.581 59.654 62.704 59.529 60.204 59.914 67.351 63.599 69.459 62.421 65.516 63.316 59.249 59.321 67.449 71.791 72.909 71.604 67.174 60.076 58.714 58.676 58.641 58.624 58.681 58.694 58.701 58.711 58.649 58.656 58.706 58.614 58.631 58.614 58.601 59.296 58.859 59.789 58.661 58.506 58.579 58.579 58.631 58.599 58.519 58.501 58.476 58.394 58.339 58.336 58.641 58.451 58.521 59.219 59.919 58.789 58.979 59.531 58.771 58.831 58.779 58.939 58.886 69.141 63.479 59.304 59.291 59.314 59.611 59.654 59.719 61.861 60.896 59.696 59.686 59.656 60.641 59.759 59.836 59.881 59.901 59.871 60.281 60.386 60.389 60.406 60.376 60.374 60.386 60.491 60.631 60.801 61.099 63.564 64.646 65.149 65.576 66.074 61.099 60.961 62.539 60.884 60.904 61.001 61.089 61.114 61.549 61.284 61.349 62.956 61.909 61.541 62.896 61.846 61.639 61.726 61.966 63.721 65.666 65.449 64.106 62.524 68.446 69.421 70.529 70.759 69.501 67.449 62.864 63.101 63.169 63.309 64.246 68.271 64.279 63.931 63.899 63.854 63.876 63.891 63.839 63.801 63.839 63.786 63.711 63.686 63.759 64.084 63.859 63.834 63.821 63.871 63.759 63.684 63.669 63.709 65.241 63.936 64.749 71.121 72.309 72.514 72.284 64.529 64.419 64.406 64.389 64.349 64.444 65.499 68.189 72.269 73.486 73.126 71.896 65.119 65.124 63.869 63.834 64.244 64.031 64.044 63.949 63.929 67.449 70.909 71.824 70.879 67.881 64.069 64.146 64.141 64.574 64.031 64.059 64.129 64.194 64.251 64.369 64.689 65.941 64.639 64.661 64.654 64.774 64.734 65.069 64.839 64.821 65.816 71.106 71.886 72.721 72.531 64.941 66.036 68.729 66.576 65.736 65.954 66.044 65.919 66.219 67.814 66.086 66.159 71.851 71.206 70.424 69.984 69.511 69.421 69.311 69.231 66.579 66.576 68.174 67.321 67.386 67.499 67.516 68.001 67.281 67.416 67.384 67.731 68.011 72.799 74.481 75.309 76.159 76.734 76.234 76.454 75.659 74.839 71.361 68.864 69.439 69.709 70.146 70.341 71.246 71.294 71.374 71.386 71.486 72.264 72.689 71.996 72.064 80.004 80.229 80.231 79.516 78.999 78.074 73.124 72.956 72.631 72.809 72.906 72.979 73.069 73.211 73.331 73.391 73.449 73.586 73.751 74.274 74.274 74.566 74.884 80.904 81.886 82.869 82.419 81.481 79.926 75.856 76.489 76.579 77.111 77.014 78.946 77.941 77.889 78.391 78.544 78.816 79.346 79.429 79.754 80.514 82.321 81.606 81.616 81.754 82.101 82.459 83.576 84.766 83.981 84.289 84.859 84.831 85.566 86.946 88.801 86.901 86.984 88.214 89.006 92.801 88.631 89.116 89.236 89.286 89.344 89.439 89.394 89.374 93.341 90.799 90.486 90.574 90.659 90.739 90.776 91.916 91.234 93.699 94.051 97.311 94.009 91.696 91.464 91.531 91.589 91.809 91.409 91.391 91.396 91.444 91.516 91.624 91.691 91.734 91.734 91.934 92.016 92.671 95.259 93.004 92.536 92.224 91.776 91.676 91.801 91.944 92.396 92.744 97.319 98.416 98.574 92.691 91.736 91.589 92.446 91.519 91.569 91.751 93.334 92.211 93.021 93.219
60.239 62.261 59.906 59.776 61.144 60.616 59.859 61.294 59.651 59.611 59.504 59.479 59.481 59.521 59.604 59.636 59.664 59.631 59.216 58.871 58.294 62.374 70.781 70.024 60.279 60.079 60.334 59.146 66.124 71.011 72.109 72.611 67.941 59.611 58.724 58.644 58.614 58.606 58.666 58.664 58.689 58.689 58.624 58.591 58.664 61.889 58.504 58.506 58.526 58.519 58.659 58.716 58.671 58.341 58.501 58.436 58.454 58.429 58.384 58.409 58.374 58.314 61.161 58.316 59.556 60.174 58.389 58.609 58.779 58.604 60.484 58.921 58.839 58.654 58.651 58.814 58.734 59.744 60.934 61.939 59.219 59.756 60.784 59.544 59.699 61.339 60.389 61.871 59.861 59.774 62.199 60.771 59.639 59.784 60.059 60.084 60.591 60.291 60.329 60.326 60.271 60.314 60.306 60.326 60.429 60.511 60.624 60.711 60.839 61.999 64.096 62.691 60.989 60.896 60.826 60.791 60.829 60.871 61.009 61.041 61.311 61.226 62.076 61.771 62.529 63.236 62.836 61.929 61.756 61.729 62.356 62.389 62.424 65.189 62.624 63.121 65.776 68.039 69.086 69.759 68.621 62.699 62.749 62.749 65.191 62.996 63.044 65.841 62.944 63.636 63.769 63.824 63.841 63.824 63.909 63.904 63.739 63.719 63.691 63.641 63.749 64.549 64.154 63.839 63.714 63.654 63.669 63.619 63.539 63.754 63.774 63.796 63.819 70.889 72.164 72.584 72.166 64.486 64.454 64.659 64.269 64.239 64.321 65.294 67.929 72.349 73.071 72.844 71.741 65.074 64.091 63.816 63.749 64.794 64.421 63.981 63.984 63.934 67.096 70.801 71.829 70.989 68.604 64.109 64.184 64.019 63.936 63.986 63.964 64.066 64.154 64.231 64.314 64.604 65.194 64.571 64.581 64.556 64.724 64.669 64.981 65.121 65.321 68.776 71.424 72.534 72.694 72.664 65.109 65.159 65.939 65.819 65.766 65.769 65.791 65.784 67.126 68.389 65.814 66.176 67.909 66.976 66.571 67.514 66.716 66.484 66.814 66.544 66.521 67.354 67.361 67.216 67.324 67.394 67.601 67.256 67.249 67.246 67.299 67.691 71.256 74.221 75.049 75.879 76.716 76.224 75.404 74.581 74.631 73.376 68.811 69.359 69.596 70.054 70.309 70.986 70.771 70.494 71.271 71.391 71.419 73.424 72.374 71.706 72.241 72.561 79.884 79.946 79.031 78.111 74.869 72.314 72.489 72.614 72.716 72.796 72.906 73.036 73.161 73.246 73.279 73.446 73.744 73.991 74.354 74.876 74.584 74.874 79.581 81.704 82.544 81.744 80.729 78.339 76.796 75.636 78.301 78.851 77.084 77.161 78.184 78.406 78.584 78.641 78.841 79.054 80.109 79.744 80.831 83.064 83.511 82.099 81.819 82.149 82.564 82.956 83.306 83.684 84.141 84.474 85.276 85.251 89.106 86.589 86.459 87.391 87.669 87.764 87.896 88.171 88.771 89.181 89.261 89.341 89.421 89.464 89.986 89.951 90.529 90.851 90.571 90.629 93.224 97.316 91.054 90.769 91.181 93.489 91.299 91.374 91.424 91.421 92.599 91.646 91.269 91.259 91.449 91.394 91.394 91.464 91.551 91.586 91.606 91.751 91.876 91.919 94.314 95.906 93.021 92.434 92.466 91.506 91.551 91.619 91.866 92.096 95.744 98.254 98.924 98.046 93.446 92.321 91.949 91.274 91.874 91.246 92.229 91.546 91.874 91.489 91.359
59.754 60.114 59.769 59.774 65.166 59.884 59.684 59.634 59.589 59.521 59.456 59.416 59.421 59.416 59.574 59.596 60.194 59.686 59.536 59.269 60.166 62.026 62.794 67.164 66.714 62.881 60.026 59.131 60.326 68.509 69.316 67.916 64.746 60.126 58.591 58.564 58.576 58.599 58.611 58.626 58.674 58.661 58.644 58.581 62.139 60.849 59.854 61.041 58.456 58.429 58.526 59.234 58.869 58.369 58.354 58.431 58.334 58.256 58.281 58.619 58.236 59.549 61.699 69.776 65.886 61.004 60.324 58.479 58.946 58.601 60.321 59.126 59.669 58.589 58.559 58.721 58.676 58.779 60.551 60.196 59.734 62.291 61.751 59.786 59.451 59.359 69.159 70.714 61.154 60.084 62.414 63.271 62.489 59.826 59.916 60.086 61.806 60.244 60.296 60.284 60.209 60.219 60.254 60.269 60.386 60.471 60.566 60.611 60.666 60.726 60.786 60.956 60.904 60.809 60.744 60.729 60.766 60.791 60.924 60.994 61.071 61.141 61.169 61.169 61.286 61.344 62.336 61.826 63.049 63.184 63.909 62.489 61.981 62.079 61.784 62.264 62.434 63.126 66.979 68.689 62.589 62.604 62.641 63.844 68.751 68.374 64.011 62.776 62.864 63.314 63.546 63.816 63.839 63.774 63.886 63.881 63.824 63.666 63.614 63.776 63.696 64.501 63.514 63.514 63.601 63.584 63.586 63.596 63.424 63.741 63.939 63.884 63.806 69.664 72.046 72.646 71.669 64.251 64.031 64.224 64.159 64.469 64.201 64.541 66.256 72.936 72.986 72.861 71.804 66.881 64.081 63.646 63.609 64.759 64.401 65.816 64.771 64.426 66.211 70.704 71.779 71.076 69.409 63.911 63.876 63.936 63.876 63.984 63.986 64.064 64.104 64.159 64.339 64.499 64.464 64.506 64.496 64.464 64.591 65.964 64.869 64.911 64.896 70.566 71.716 72.661 71.931 69.084 65.039 65.154 65.161 65.181 66.406 65.804 65.819 65.811 67.474 68.279 65.764 65.986 66.421 66.444 66.241 66.349 66.301 66.266 66.306 66.359 66.426 67.104 67.276 67.124 67.241 67.261 67.269 67.254 67.286 67.296 67.554 68.079 73.921 74.759 75.599 76.426 76.509 75.674 74.854 74.039 70.269 68.121 69.074 69.441 69.884 74.794 70.406 72.714 70.446 70.454 70.486 71.226 73.624 74.961 73.981 71.391 71.564 72.066 72.736 79.069 78.131 74.371 73.449 72.319 72.956 72.576 72.659 72.759 72.894 73.006 73.069 73.086 73.294 73.676 73.859 73.964 74.179 74.481 74.686 74.624 75.049 80.716 81.574 80.821 78.344 77.786 77.304 77.459 77.781 78.211 78.594 77.181 77.281 78.459 79.366 78.976 78.946 79.766 79.831 79.994 80.414 80.921 81.231 81.464 81.684 82.064 82.541 83.149 83.434 84.969 86.394 84.439 85.101 85.164 85.541 85.966 87.031 87.666 87.836 87.811 87.994 88.061 88.269 89.526 89.194 89.366 89.496 89.644 89.776 89.924 90.009 90.521 91.304 92.564 97.191 98.479 98.459 91.131 90.779 91.136 91.231 91.201 91.369 91.356 91.929 91.129 91.114 91.296 91.334 91.241 91.329 91.419 91.451 91.479 91.604 91.726 91.779 91.996 92.189 92.284 93.624 91.699 91.329 91.359 91.399 91.429 91.396 92.404 98.094 98.991 98.191 93.131 92.286 92.349 92.856 92.446 94.551 93.381 92.684 93.329 91.506 91.306 91.169
60.349 60.061 59.774 59.779 59.694 59.649 59.634 59.619 59.571 59.521 59.419 59.416 59.409 59.389 59.566 59.594 60.581 61.804 60.851 60.219 60.146 60.481 60.844 63.186 66.521 58.206 59.739 58.784 59.094 62.374 62.071 58.861 58.749 58.539 58.561 58.569 58.561 58.606 58.614 58.616 58.644 58.654 58.659 58.636 58.699 58.526 58.776 60.641 58.466 58.371 58.431 58.829 59.266 58.479 58.176 58.306 58.226 60.489 58.176 58.181 58.189 58.179 58.206 61.619 59.199 63.424 61.901 59.536 59.046 58.531 58.629 62.279 73.441 59.131 59.414 60.114 60.216 59.321 58.826 61.651 59.564 58.919 58.961 58.991 59.014 59.376 68.429 67.974 62.191 59.429 59.504 60.969 59.359 59.659 60.676 61.449 61.689 60.726 60.226 60.204 60.161 60.139 60.166 60.254 60.361 60.444 60.511 60.529 60.556 60.594 61.371 61.841 60.824 60.736 60.664 60.671 60.726 60.689 60.841 60.934 60.964 61.054 61.069 61.134 61.189 61.226 61.229 61.369 61.294 61.771 62.239 62.516 62.634 61.819 61.569 61.726 62.169 62.389 64.111 64.049 62.516 62.649 62.671 68.309 69.544 69.929 68.741 67.251 62.826 63.036 63.316 63.441 63.631 64.516 63.716 63.736 63.749 63.591 63.526 63.614 64.514 63.479 63.401 63.371 63.444 63.501 63.489 63.479 63.339 63.534 63.476 63.541 63.599 67.849 71.901 72.706 71.659 64.091 63.936 63.964 64.044 64.474 64.059 64.521 64.541 71.729 72.824 72.956 71.789 67.231 63.846 64.049 63.504 63.699 63.989 63.871 63.911 64.251 66.369 70.601 71.691 71.154 70.056 63.899 63.831 63.849 63.816 63.864 63.884 63.991 64.021 64.064 64.399 64.366 64.421 64.409 64.391 64.411 64.506 66.199 64.806 66.384 66.729 70.866 71.991 72.689 71.196 66.431 65.189 66.656 65.296 66.256 67.129 65.646 65.851 65.771 67.926 68.234 65.729 65.734 65.776 65.789 65.811 66.294 66.281 66.289 66.286 66.471 66.339 67.266 67.026 67.104 67.146 67.251 68.464 67.224 67.279 67.559 67.576 73.666 74.474 75.306 76.129 76.729 75.961 75.136 74.296 71.304 68.131 68.399 69.161 69.526 70.311 71.014 71.986 72.324 73.086 70.426 70.506 70.831 71.889 74.531 77.711 79.081 71.839 71.524 72.084 72.126 72.191 72.614 72.361 72.671 72.424 72.541 72.694 72.739 72.869 72.921 72.941 73.094 75.734 74.104 74.301 74.021 75.274 80.079 80.081 74.366 74.889 75.169 80.499 78.381 75.671 76.789 75.821 76.019 77.621 77.744 77.284 77.326 77.366 77.536 78.401 79.874 79.044 79.146 79.979 82.456 80.506 81.289 81.471 81.766 81.821 82.129 82.471 82.951 83.576 83.851 84.474 84.474 85.554 86.166 86.299 86.309 87.466 87.626 87.894 88.091 87.956 88.059 88.156 90.696 89.951 89.431 91.231 90.631 89.819 89.876 90.021 90.509 90.374 96.506 98.409 98.491 97.686 96.711 91.461 91.491 91.039 91.114 91.051 91.404 91.001 90.996 91.139 91.176 91.079 91.189 91.264 91.341 91.336 91.434 91.601 91.629 91.736 91.941 92.114 93.036 91.216 91.149 91.184 91.211 91.224 91.231 91.134 91.151 93.454 98.211 94.266 92.359 91.744 91.541 91.876 92.111 92.811 94.599 92.606 91.424 91.771 91.189 91.096
59.764 59.699 59.684 59.651 59.654 59.656 59.614 59.619 59.596 59.534 59.436 59.429 59.771 60.139 60.716 60.609 59.396 59.354 59.371 59.819 59.506 58.984 59.509 60.836 57.499 62.269 60.704 59.621 58.854 58.976 58.901 58.836 58.736 58.601 58.594 58.559 58.531 58.594 58.624 58.636 58.649 58.641 58.649 61.589 58.576 59.294 58.671 58.789 61.006 58.354 58.356 58.429 59.296 58.644 58.161 58.064 58.064 58.049 58.104 58.096 58.139 58.126 58.129 59.074 58.319 58.231 58.259 58.569 58.411 58.361 58.844 58.276 66.154 58.366 58.291 58.239 58.284 59.204 58.396 58.479 58.499 58.574 58.619 58.644 58.691 58.741 58.846 58.836 58.829 58.826 58.941 60.994 59.114 59.164 60.831 63.026 60.014 61.336 62.886 62.151 60.134 60.089 60.124 60.226 60.286 60.376 60.446 60.416 60.461 60.509 60.526 63.141 61.146 60.854 62.671 60.669 60.671 60.676 60.719 60.826 60.849 61.326 60.954 60.981 61.194 60.936 60.914 60.939 61.001 63.329 63.296 61.194 61.319 61.636 62.389 61.809 61.644 62.109 62.364 62.431 62.669 62.464 66.501 69.119 70.304 70.839 69.754 68.606 63.756 62.851 63.471 63.121 63.206 63.334 63.736 63.621 63.566 63.501 63.476 63.519 63.366 63.374 63.381 63.344 63.264 63.341 63.401 63.386 63.261 63.301 64.344 64.076 64.099 68.714 71.846 72.521 71.036 65.891 63.836 63.844 63.939 63.966 64.009 64.231 64.421 72.179 72.916 73.021 72.239 66.379 63.981 63.504 63.346 63.866 64.204 64.734 66.249 64.221 63.951 68.969 66.014 65.874 64.309 63.924 64.874 63.919 63.779 63.744 63.786 63.911 63.976 64.006 64.351 64.244 64.691 64.316 64.284 64.301 64.399 65.586 64.741 65.206 64.914 67.659 70.841 72.039 70.884 64.871 66.374 67.016 64.881 64.891 65.061 65.111 65.421 66.059 66.894 66.779 65.729 65.729 65.754 65.791 65.771 66.461 66.271 66.304 66.311 68.656 68.224 66.896 66.969 67.034 67.049 67.186 68.586 67.994 67.314 67.411 68.411 74.219 75.026 75.854 76.699 76.224 75.406 74.581 73.719 68.099 68.641 68.944 69.289 70.146 70.081 72.031 72.441 73.249 72.519 73.221 71.059 71.209 74.294 76.474 79.596 79.591 79.486 71.566 71.651 72.109 72.151 72.946 72.206 72.281 72.544 74.866 72.751 72.734 72.791 72.809 72.961 73.101 73.344 74.106 73.966 75.276 80.051 80.986 81.014 80.134 74.674 74.781 75.306 76.016 76.849 75.504 75.941 76.056 76.116 77.411 77.294 78.176 77.654 77.611 77.741 78.064 80.746 79.066 80.066 80.576 80.276 80.629 80.906 81.261 81.634 82.149 82.611 83.006 83.416 83.794 84.166 84.524 84.806 85.219 85.841 86.194 86.849 87.586 88.041 88.419 87.929 88.011 88.751 89.471 88.889 89.626 91.859 92.164 90.961 89.921 90.124 90.234 95.916 98.519 98.294 97.781 96.829 93.231 90.681 90.899 91.549 90.861 91.109 90.874 90.861 90.934 91.059 90.941 91.029 91.194 91.181 91.189 91.264 91.439 91.491 91.601 91.729 91.984 92.191 91.669 91.144 91.061 91.304 91.511 91.236 91.044 90.999 90.909 90.856 91.841 91.979 91.706 91.449 91.651 91.194 91.709 93.699 91.786 90.804 90.954 91.609 91.606 92.646
59.691 59.636 59.659 59.671 59.656 59.601 59.674 59.634 59.531 59.816 60.781 60.219 60.194 61.559 59.821 59.526 59.386 59.344 59.264 59.194 59.106 59.009 58.889 61.329 59.359 57.219 58.894 58.626 58.574 58.809 58.926 58.834 58.739 58.639 58.566 58.561 58.531 58.611 58.646 58.646 58.651 58.641 58.641 60.369 58.564 64.864 61.154 58.366 58.341 58.359 58.321 58.346 58.549 58.726 58.274 58.111 58.096 58.066 58.064 58.021 58.066 58.081 58.064 58.119 58.166 58.184 58.609 58.216 58.674 58.474 58.341 58.504 58.206 58.224 58.471 58.131 58.161 58.196 58.259 58.294 58.264 58.259 58.316 58.364 58.416 58.471 58.489 58.556 58.576 58.626 58.699 58.809 58.916 59.041 61.559 59.196 60.184 59.689 59.871 60.049 62.819 62.699 60.141 60.141 60.241 60.324 60.381 60.399 60.426 60.491 60.451 62.171 61.211 61.976 62.716 62.711 60.674 60.706 60.769 60.729 60.749 61.136 61.389 63.684 66.144 67.729 67.249 61.574 61.004 63.521 61.291 61.114 61.126 61.149 61.419 62.149 61.626 61.771 63.729 64.596 62.459 62.416 66.201 68.374 69.201 69.994 68.989 65.921 62.824 63.266 63.041 62.864 63.009 63.191 62.901 63.391 63.514 64.506 63.419 63.441 63.356 63.246 63.251 63.269 63.249 63.189 63.224 63.286 63.624 63.331 63.359 63.434 63.479 67.681 71.529 72.569 71.254 67.174 63.744 63.734 63.829 63.829 63.791 64.219 64.396 69.871 65.499 63.721 65.996 63.899 63.616 63.729 63.264 63.694 63.434 63.346 63.354 63.356 63.536 63.984 64.499 64.001 66.291 65.311 63.744 63.664 63.709 63.654 63.709 63.846 63.956 64.054 64.241 64.399 64.234 64.229 64.191 64.151 64.196 65.889 65.001 65.214 64.766 65.764 65.361 67.789 67.751 66.079 66.896 65.809 64.784 64.761 65.074 64.899 65.594 65.206 65.434 65.974 66.056 65.751 65.754 65.786 65.796 66.176 66.346 66.326 66.336 66.734 66.811 66.831 66.919 66.941 67.191 67.349 67.386 67.309 67.374 67.471 70.329 72.899 75.594 76.406 76.521 75.671 74.849 74.019 68.904 68.264 68.781 69.134 69.631 69.744 72.556 70.511 70.849 72.496 72.394 71.531 71.154 73.274 76.891 77.914 79.336 79.564 78.559 77.294 71.639 71.729 72.089 72.131 72.159 72.246 73.384 72.814 72.576 72.649 72.676 72.849 73.086 73.064 73.396 73.784 74.026 80.019 80.961 82.009 81.931 81.044 80.121 74.501 75.316 75.326 75.346 75.729 75.896 76.299 76.174 76.396 76.719 77.749 78.159 77.686 77.826 78.029 84.116 81.419 79.689 80.176 80.254 80.506 80.809 81.164 81.631 82.114 82.686 83.101 83.394 83.739 84.149 84.674 85.061 85.436 85.994 86.069 86.144 86.741 87.739 87.799 87.929 88.911 88.624 88.871 88.821 89.129 90.549 91.656 89.696 89.821 90.171 96.064 98.506 98.536 97.901 97.029 94.864 90.654 90.764 90.774 90.701 90.711 90.716 90.729 90.719 90.739 90.791 90.856 90.949 91.011 91.056 91.091 91.316 91.374 91.449 91.599 91.811 92.671 91.561 91.071 91.099 91.104 91.699 91.251 91.099 90.924 90.849 90.784 90.699 90.621 91.696 91.416 91.744 91.664 91.179 93.796 93.384 90.629 91.269 91.069 90.901 93.454 93.924
59.684 59.664 59.676 59.696 59.654 59.671 59.731 62.991 60.141 61.001 61.681 59.711 59.579 59.961 59.634 59.436 59.356 59.266 59.214 59.214 59.769 62.461 59.591 59.101 58.786 58.576 57.149 58.546 58.881 58.514 58.879 58.814 58.829 58.741 58.651 58.624 58.639 58.671 60.536 58.656 58.679 58.636 58.629 58.624 67.124 63.139 59.571 58.329 58.281 58.359 58.279 58.286 58.761 59.739 58.351 58.096 58.049 58.051 58.021 57.996 57.969 58.001 58.034 58.101 60.451 58.096 58.309 58.346 58.284 58.199 58.229 58.306 58.216 58.106 58.106 58.044 57.981 58.104 58.206 58.194 58.139 58.076 58.071 58.101 58.116 58.174 58.216 58.284 58.344 58.396 58.446 58.589 58.714 58.811 59.961 59.141 59.241 59.364 59.744 59.841 60.004 62.906 62.784 62.196 60.196 62.139 60.514 60.381 60.396 60.451 61.204 61.871 60.751 61.116 60.576 62.746 60.619 60.689 60.696 66.281 68.046 66.976 67.114 67.364 67.666 67.939 67.531 63.569 60.881 60.949 62.339 61.031 61.036 61.076 61.121 61.379 61.889 62.106 64.521 64.929 65.004 63.129 62.961 63.754 67.149 68.809 68.169 62.531 62.544 62.659 68.151 67.866 63.031 62.819 62.814 62.936 63.254 65.414 68.311 63.444 63.291 63.266 63.099 63.121 63.156 63.159 63.104 63.104 63.121 63.124 63.554 63.424 66.976 67.219 71.771 72.659 71.679 67.761 63.621 64.844 63.704 63.711 63.661 63.739 63.769 64.001 65.509 68.989 71.061 70.034 63.534 63.714 63.174 63.764 63.379 63.311 63.319 63.321 63.324 63.369 63.366 63.404 63.521 64.831 64.571 63.709 63.674 63.714 63.759 63.789 63.934 64.056 64.106 64.076 64.131 64.129 64.116 64.101 64.101 64.214 64.554 64.819 64.921 65.194 64.779 67.541 66.659 66.976 66.759 64.754 64.644 64.729 65.956 64.886 65.044 66.034 66.224 65.109 66.249 66.156 65.709 65.734 65.774 66.101 66.279 66.306 66.299 66.869 66.721 66.786 66.844 67.011 67.136 67.211 67.216 67.361 67.634 67.641 72.154 72.534 76.114 76.751 75.961 75.116 74.301 72.596 68.104 68.681 69.011 73.024 69.714 70.624 70.171 70.304 71.054 70.699 70.374 70.379 71.124 71.224 75.686 77.916 78.894 79.394 77.629 76.194 71.614 72.316 71.929 72.029 72.046 72.154 72.306 72.431 72.496 72.514 72.686 73.936 73.504 73.276 73.309 73.659 74.104 78.286 80.686 81.619 81.249 80.314 77.971 75.966 74.741 76.724 76.956 75.734 75.986 76.101 76.729 76.556 76.871 77.171 77.289 77.844 77.984 78.214 80.181 79.734 80.206 80.229 80.274 80.469 80.741 81.139 82.349 82.576 82.909 82.984 83.409 83.756 84.054 84.809 85.684 86.119 86.066 86.026 86.131 86.429 86.764 87.701 88.324 88.769 88.659 88.796 88.854 88.976 89.031 89.191 89.921 89.591 90.129 90.196 97.906 98.081 97.131 96.181 90.569 90.739 90.716 90.746 92.574 90.554 90.556 90.564 90.581 90.614 90.696 90.786 90.861 90.896 90.921 91.146 91.271 94.224 91.876 91.534 94.634 91.524 91.034 91.024 91.144 91.214 91.269 91.166 96.886 91.201 90.776 90.646 90.554 90.474 90.414 90.939 91.786 90.576 90.441 93.436 92.949 90.824 91.021 91.059 90.726 90.924 93.819
59.691 59.669 60.031 60.244 60.706 60.369 59.931 60.166 61.646 61.251 60.206 60.094 59.534 59.511 59.454 59.414 59.321 59.221 60.581 65.361 62.306 62.361 63.396 65.506 64.531 58.739 58.184 57.124 57.696 63.286 59.726 58.849 58.859 59.009 58.736 58.661 58.646 64.266 63.106 58.719 58.666 58.661 58.624 59.676 58.436 58.359 58.339 70.584 63.334 58.264 58.286 58.274 58.304 60.241 58.501 58.171 58.146 58.751 58.776 58.414 58.454 59.201 61.251 59.186 57.961 58.734 58.269 58.191 58.194 58.191 58.206 58.171 58.119 58.111 58.024 58.026 57.961 57.964 58.054 58.056 57.996 57.911 57.921 57.939 57.954 57.964 57.966 58.056 58.139 58.219 58.266 58.349 58.461 58.579 58.731 58.891 59.376 59.214 59.311 59.519 59.744 59.831 61.226 62.806 60.391 62.396 63.104 63.126 61.684 60.766 61.119 61.049 60.534 61.056 60.534 60.484 60.576 60.609 60.641 66.609 67.966 68.196 68.489 68.684 68.676 68.519 67.804 66.056 60.804 60.836 60.856 60.924 60.774 60.706 61.041 61.069 61.171 62.171 64.181 64.894 64.674 61.731 62.699 62.626 65.129 66.561 62.439 62.494 62.456 67.199 69.116 69.064 68.071 63.409 62.691 62.871 65.156 64.494 64.756 63.769 63.256 63.216 63.151 63.306 63.041 63.069 63.094 63.044 63.011 63.059 63.089 63.099 63.111 66.064 70.661 72.634 71.426 69.331 63.521 64.691 63.586 63.609 63.546 63.666 63.804 71.049 71.934 72.864 71.964 70.829 63.639 63.739 63.106 63.376 63.339 63.321 63.316 63.324 63.379 63.331 63.334 63.386 63.411 63.464 63.511 63.559 64.231 63.826 63.861 63.809 63.876 63.931 63.941 64.006 64.056 64.039 64.034 64.059 64.104 64.134 64.164 64.206 64.306 64.421 64.479 65.254 64.914 64.711 64.856 64.654 64.616 64.686 64.774 64.939 65.046 65.084 67.501 71.554 71.431 65.354 66.131 67.296 65.859 66.154 66.294 66.321 67.591 66.656 66.664 66.754 66.786 67.046 67.046 67.094 67.286 68.236 73.359 72.836 72.759 75.576 76.646 76.239 75.376 74.559 73.729 68.076 68.631 68.771 69.289 69.689 70.304 69.944 69.934 70.401 70.234 70.276 70.304 70.351 70.384 71.204 71.311 76.059 77.886 77.666 74.761 71.521 72.301 75.454 71.891 71.919 71.991 72.161 72.281 72.331 72.364 72.476 73.021 76.386 74.731 73.354 74.386 74.834 73.639 74.351 78.581 80.661 80.349 76.634 75.639 74.859 74.759 76.871 76.246 75.799 76.026 76.154 76.249 76.876 77.051 77.226 81.149 80.019 78.146 78.441 79.091 79.629 79.824 80.256 80.361 80.474 80.766 81.206 81.911 83.206 83.026 83.016 83.444 83.859 84.114 84.789 85.736 85.996 85.926 86.016 86.296 86.586 86.726 87.066 87.619 89.714 88.669 88.756 88.859 88.969 89.066 92.046 90.809 90.324 89.694 90.464 90.186 95.529 95.746 90.369 90.416 90.476 90.589 93.631 90.371 90.394 90.391 90.411 90.429 90.521 90.624 90.699 90.749 90.784 90.974 91.091 91.186 93.584 91.449 92.931 91.234 93.486 92.614 90.954 91.054 91.256 93.029 96.461 97.661 98.759 91.441 90.616 90.419 90.329 90.271 90.229 90.261 90.246 90.336 91.764 97.024 95.779 90.834 90.601 90.616 90.729 90.824
60.009 60.941 62.356 60.161 59.749 59.569 59.571 59.531 61.564 60.431 60.124 59.939 59.489 59.501 59.466 59.424 59.344 60.784 66.114 66.434 64.691 64.161 65.916 66.599 66.524 60.319 58.976 59.306 60.866 61.139 60.664 58.774 58.934 58.786 58.771 58.676 63.479 72.736 62.379 66.276 61.381 58.581 58.566 58.491 60.289 58.679 58.339 59.001 63.464 58.286 58.299 58.314 58.339 58.959 58.564 58.274 58.324 58.659 58.971 58.971 58.891 59.311 63.641 58.296 58.566 58.209 58.161 58.174 58.139 58.166 58.146 58.109 58.006 57.976 58.034 57.976 57.974 58.024 57.984 57.924 57.869 57.841 57.831 57.839 57.854 57.856 57.869 57.894 57.996 58.056 58.121 58.191 58.274 58.356 58.491 59.544 58.839 59.074 59.184 59.271 59.429 59.579 59.956 60.096 60.831 60.529 60.311 60.714 62.094 62.449 61.634 60.981 60.494 63.019 62.889 62.034 60.554 60.584 60.614 64.841 67.699 68.256 68.271 67.689 67.404 67.201 67.996 66.771 60.754 60.591 60.571 60.569 65.079 61.416 60.889 60.989 60.979 61.529 62.766 63.349 61.871 61.266 61.939 62.489 62.324 62.421 62.394 64.359 66.641 68.784 70.059 70.354 69.311 68.316 63.496 62.626 62.889 63.204 62.341 64.029 62.741 63.176 63.181 64.176 63.821 62.964 63.006 63.034 62.984 62.919 62.994 63.336 63.424 65.889 71.704 72.604 71.866 69.111 63.424 63.434 63.476 63.501 63.444 63.586 63.849 70.934 71.866 72.911 72.009 70.964 63.649 63.676 62.991 63.196 63.354 63.339 63.334 63.404 66.289 63.654 63.449 63.456 63.479 63.454 63.494 63.516 63.509 63.511 63.571 63.616 64.269 63.861 63.879 63.929 63.964 63.946 63.944 63.981 64.044 64.134 64.206 64.246 64.261 64.294 64.336 64.404 64.469 64.504 64.514 64.561 64.626 64.651 64.884 65.909 65.024 66.431 71.054 72.101 72.981 72.034 69.636 66.191 68.001 66.301 66.756 66.909 67.846 66.529 66.626 66.666 66.851 66.909 67.006 67.254 67.364 73.074 73.889 74.739 75.564 76.396 76.511 75.671 74.379 73.999 72.106 68.511 68.716 70.141 70.456 69.781 70.301 69.779 69.884 69.929 70.111 70.224 70.356 73.479 71.324 70.491 71.114 71.354 75.341 76.146 71.481 72.666 71.661 73.001 71.786 71.824 72.016 72.149 72.204 72.234 72.314 72.494 72.854 73.179 75.471 74.456 79.299 79.491 74.159 73.661 74.394 78.136 78.359 76.111 75.004 74.891 74.661 74.854 74.826 75.856 76.006 76.159 76.299 76.546 77.416 77.299 77.371 77.606 79.301 78.971 78.971 79.509 79.541 79.859 80.159 80.516 80.756 81.206 81.846 82.431 82.591 82.971 83.376 83.739 84.306 85.291 85.661 86.136 85.981 86.041 86.409 86.596 86.951 87.124 87.959 87.754 88.939 88.786 88.929 88.894 91.881 92.309 92.609 91.584 90.626 89.856 90.249 90.181 90.256 90.299 90.389 90.391 90.476 90.274 90.236 90.289 90.294 90.254 90.329 90.444 90.531 90.586 90.629 90.796 90.941 93.831 91.151 91.274 94.694 92.581 93.501 95.864 93.999 92.576 91.091 97.984 91.266 97.479 98.571 98.696 97.621 92.996 90.866 90.189 90.146 90.124 90.079 90.151 90.379 96.336 97.214 97.209 96.326 91.274 90.599 90.674 90.859
60.004 59.821 62.384 59.789 59.646 59.614 59.584 59.559 59.729 62.089 59.601 59.631 59.521 59.479 59.514 59.489 59.404 59.299 65.259 66.571 65.971 66.421 66.684 66.069 65.431 61.651 59.046 61.259 60.089 66.591 65.659 63.771 59.871 58.721 58.816 60.274 64.244 60.601 59.536 58.544 58.484 58.444 58.436 58.471 58.446 58.396 60.216 58.461 58.459 58.359 58.234 58.236 58.319 60.446 58.641 58.454 58.439 58.536 58.764 58.621 58.919 59.126 60.984 57.706 57.996 57.974 57.984 58.041 58.076 58.104 58.056 58.039 57.941 57.941 57.979 58.184 58.014 57.974 57.959 57.886 57.839 57.829 57.824 57.824 57.786 57.779 57.811 57.829 57.881 57.946 57.999 58.049 58.119 58.199 58.294 58.546 58.619 58.804 59.086 59.231 59.266 59.356 59.544 64.209 65.721 65.204 60.236 60.229 60.251 62.606 60.661 60.799 61.444 62.891 63.029 60.494 60.501 60.546 60.556 63.321 67.414 67.631 66.674 66.074 63.149 61.096 60.861 60.689 60.684 60.531 62.144 66.421 67.169 67.719 60.589 60.904 60.941 60.894 61.356 61.871 61.681 61.636 61.229 61.369 64.056 64.256 64.164 65.366 67.056 68.674 69.649 70.289 69.079 66.351 62.371 63.471 62.314 61.759 61.666 61.904 61.981 62.704 63.126 63.121 63.354 62.914 62.886 62.909 62.946 62.916 62.896 62.974 63.086 63.969 70.664 72.479 71.776 69.994 63.291 63.256 63.361 63.396 63.341 63.446 63.936 70.501 71.509 72.491 71.604 70.591 63.421 63.324 62.886 63.104 63.366 63.356 63.374 63.411 68.956 68.889 68.889 69.001 68.999 67.804 65.699 63.586 63.541 63.501 63.511 63.544 63.666 63.766 63.806 63.849 63.864 63.849 63.871 63.929 64.074 64.166 64.189 64.224 64.269 64.311 64.366 64.404 64.421 64.456 64.531 64.599 64.609 64.689 64.916 64.961 64.986 67.524 71.629 72.664 72.501 71.456 67.869 65.496 65.629 67.404 67.719 67.064 67.876 66.481 66.556 66.606 66.756 66.884 67.066 67.294 71.486 73.616 74.449 75.276 76.109 76.734 75.944 75.096 74.276 73.466 70.444 67.799 68.129 69.304 69.509 70.539 69.694 69.709 69.816 70.089 70.181 70.196 71.714 76.016 76.664 73.151 70.589 71.086 71.421 71.929 71.486 71.671 71.611 71.671 72.546 71.871 71.999 72.074 72.096 72.184 72.344 72.516 72.676 72.991 74.544 79.241 80.409 80.454 79.544 75.489 73.716 74.431 74.536 74.729 74.769 74.614 74.721 74.949 75.071 75.316 76.316 76.334 76.304 76.486 76.599 77.291 78.201 78.389 79.606 78.879 78.969 79.246 79.391 79.496 79.901 80.389 81.076 81.186 81.991 83.014 82.496 82.864 83.261 83.781 84.464 85.904 85.241 85.491 86.126 86.189 87.141 86.976 86.969 89.594 87.894 87.839 87.881 88.521 89.456 89.089 89.016 93.769 95.106 93.231 91.911 90.474 90.006 90.091 90.044 90.176 90.271 90.544 90.436 90.074 90.176 90.271 90.196 90.146 90.271 90.356 90.424 90.466 90.571 90.819 90.896 91.246 91.131 93.026 90.969 91.474 93.619 93.621 93.601 92.901 90.114 93.099 92.334 91.306 98.826 97.806 95.924 91.144 91.086 91.046 90.011 89.984 89.969 89.971 90.981 90.609 96.129 97.031 97.411 96.329 90.694 90.561 90.551
59.701 59.811 60.944 59.694 59.644 59.624 59.586 61.034 60.916 60.939 60.711 59.586 59.519 59.464 59.454 59.454 59.409 59.344 59.806 65.774 66.779 66.316 65.649 64.646 62.774 59.486 58.911 58.829 59.866 60.881 64.769 65.876 58.056 61.514 66.594 66.431 65.836 61.404 58.521 58.486 58.369 58.351 58.396 58.466 58.456 58.486 58.501 58.626 58.744 58.781 58.526 58.204 58.286 59.381 59.039 58.334 58.069 57.791 57.756 57.761 59.329 67.029 67.941 62.579 62.124 58.544 57.819 62.051 59.241 59.526 58.661 57.849 57.916 57.906 57.934 57.964 58.184 58.044 57.961 58.119 57.869 57.819 57.804 57.796 57.756 57.779 58.391 57.769 57.834 57.861 57.899 57.924 57.969 58.026 58.379 58.259 58.434 58.629 58.869 59.161 59.229 59.291 59.369 59.909 64.204 63.956 62.111 60.409 60.234 60.194 60.719 60.391 60.684 60.796 62.304 60.466 60.441 60.446 60.501 60.524 60.574 60.551 60.519 60.561 60.679 60.631 60.731 61.244 60.566 61.499 66.324 67.539 68.156 67.109 63.974 60.469 60.769 60.719 62.334 61.204 61.211 64.019 61.191 62.299 64.551 62.324 65.331 65.346 64.514 64.146 68.381 69.201 68.174 62.304 62.321 63.279 61.694 61.504 61.599 61.456 61.951 62.734 63.011 63.146 63.056 62.986 62.856 62.799 62.816 62.866 62.884 62.861 62.879 63.279 71.149 72.399 71.879 70.564 63.156 63.139 63.236 63.274 63.229 63.341 63.451 70.409 71.501 72.486 71.746 70.661 63.346 63.651 62.824 62.984 63.336 63.346 64.554 63.401 68.901 68.876 68.876 69.936 69.931 69.659 67.784 69.219 68.971 66.659 64.394 63.786 63.664 63.674 63.719 63.756 63.779 63.786 63.931 64.076 64.244 64.284 64.371 64.316 64.311 64.326 64.341 64.354 64.419 64.469 64.544 64.589 64.574 64.711 64.779 64.891 67.264 71.119 72.176 72.929 71.959 70.631 65.384 65.514 65.616 66.386 67.014 66.779 66.644 66.424 66.449 66.619 66.736 66.889 67.091 68.911 73.346 74.171 74.991 75.844 75.831 76.229 75.384 74.556 73.734 72.929 69.466 67.774 69.339 70.716 69.494 70.734 69.796 69.656 70.136 70.164 70.206 73.406 76.716 77.111 77.686 76.764 72.044 70.746 71.169 72.744 71.519 71.446 71.514 72.019 71.901 71.841 71.934 73.546 72.106 72.204 72.401 72.486 72.814 73.061 79.151 80.119 81.146 81.461 80.189 79.221 74.246 73.949 74.499 74.564 74.429 74.541 74.676 75.204 75.074 75.711 76.374 76.146 76.519 76.811 76.649 79.019 77.966 78.214 81.759 80.596 78.959 79.264 79.191 79.599 79.884 81.124 81.534 81.281 81.519 82.029 82.536 83.114 83.266 83.779 88.601 87.956 85.346 86.729 86.629 92.234 91.704 87.051 87.364 87.396 87.539 87.889 88.069 89.546 89.594 90.299 91.381 95.251 95.949 95.209 91.766 90.906 91.139 89.916 91.369 90.239 90.051 90.641 89.911 89.986 90.134 90.054 89.959 90.079 90.179 90.254 90.296 90.391 90.646 90.721 90.856 91.334 91.109 90.951 90.751 91.716 90.836 90.384 89.646 89.979 89.956 89.831 89.699 91.601 93.339 94.844 91.129 91.169 90.874 90.559 90.431 89.851 89.851 89.836 89.889 90.559 92.036 95.211 96.824 91.031 90.569 90.889 90.339
60.309 63.396 65.326 64.049 59.654 59.636 59.821 63.361 60.206 59.719 61.314 59.611 60.406 59.524 59.451 59.414 59.386 59.546 59.229 62.574 66.256 66.009 62.241 63.034 63.316 62.434 58.911 58.979 58.861 58.964 60.544 64.259 62.494 64.129 69.244 68.706 59.651 58.611 58.501 58.471 58.396 58.394 58.409 58.449 58.469 59.976 62.034 59.631 63.759 61.991 59.279 58.261 58.134 57.944 58.084 58.519 58.764 57.919 58.024 62.229 59.791 65.176 71.189 62.796 62.581 61.016 60.644 60.736 55.874 60.129 65.656 57.621 57.614 57.586 57.916 57.909 57.901 58.004 58.026 57.934 57.896 57.851 57.789 57.756 57.721 57.689 57.709 57.711 57.719 57.764 57.784 57.794 57.814 57.876 58.484 58.101 58.261 58.459 58.661 59.029 59.154 59.249 59.254 59.346 59.546 59.689 59.849 60.434 63.319 62.379 60.751 60.144 60.381 60.106 60.136 62.834 60.659 60.406 60.424 60.464 60.479 60.516 60.524 60.556 61.591 60.626 61.371 60.626 60.486 60.461 64.759 67.134 68.251 67.861 66.694 60.469 60.474 62.494 60.581 60.989 61.036 61.111 61.074 62.349 64.374 61.086 61.214 62.501 62.761 62.891 65.661 68.091 62.241 62.234 62.224 61.651 61.421 62.224 61.394 61.406 61.711 61.929 62.701 62.706 63.034 63.049 62.954 62.899 63.206 62.731 62.804 62.834 62.819 62.804 66.459 69.144 69.154 67.571 63.094 63.034 63.106 63.166 63.891 63.234 63.406 69.899 71.351 72.431 71.814 70.756 63.226 63.041 62.794 62.864 63.341 63.319 64.056 63.431 68.899 68.884 68.869 70.194 70.444 70.561 70.391 70.136 69.921 69.649 69.436 69.184 67.024 63.581 63.646 63.671 63.684 63.794 63.916 64.179 64.434 64.176 64.196 64.264 65.436 64.494 64.444 64.356 64.339 64.429 64.494 64.529 64.584 64.754 64.756 64.901 65.091 68.914 72.716 72.434 71.396 66.589 65.704 65.579 65.586 65.786 67.921 66.351 66.316 66.359 66.446 66.579 66.684 66.959 67.044 72.869 73.889 74.731 75.574 75.986 75.146 74.329 74.271 74.004 73.211 69.819 67.699 68.371 70.806 69.574 69.729 69.551 70.111 70.059 70.234 70.264 70.536 77.586 78.616 78.754 78.526 77.524 76.549 70.809 71.066 71.291 71.286 71.314 71.461 71.559 71.684 71.781 72.806 71.959 72.056 72.464 72.531 72.604 72.649 73.136 75.401 81.041 81.349 80.576 79.346 76.841 74.621 73.964 74.096 74.479 74.884 74.546 74.659 74.729 75.354 75.324 75.509 75.769 81.921 77.896 76.786 81.046 81.986 78.629 79.864 78.696 78.814 79.071 79.174 79.549 80.604 80.724 80.769 81.144 81.571 81.901 82.409 83.119 83.376 84.326 86.094 87.024 84.929 85.164 85.334 85.944 88.019 90.084 93.146 90.479 88.459 87.914 89.151 89.406 92.009 92.596 95.139 95.789 96.724 95.939 95.074 89.056 89.744 90.916 90.066 89.834 89.786 89.764 89.786 89.889 89.901 89.786 89.891 89.999 90.069 90.126 90.189 90.491 90.621 91.751 90.801 93.276 90.851 90.754 90.561 90.296 89.269 89.141 89.251 89.506 89.576 89.569 89.556 90.929 91.661 92.686 91.104 91.056 90.344 90.279 90.629 89.749 89.721 89.711 89.724 89.869 90.434 90.686 91.721 90.806 90.379 90.114 90.044
60.131 65.361 66.129 65.734 65.246 62.739 61.179 59.696 59.564 59.614 60.729 61.271 60.769 59.664 59.439 59.549 59.351 59.266 59.214 59.264 62.141 59.139 60.186 62.436 63.434 62.971 60.421 59.156 59.036 58.844 58.646 60.806 64.164 62.064 64.649 63.414 59.371 58.561 58.484 58.436 58.409 58.471 58.499 58.894 58.546 64.824 67.601 64.074 64.756 62.261 58.726 61.446 61.694 60.331 61.086 58.124 59.056 56.219 58.654 56.724 57.079 57.011 56.844 57.679 57.374 56.794 56.039 56.164 56.961 55.896 70.564 61.841 59.386 59.046 57.921 57.901 57.976 57.981 59.686 57.936 57.859 57.866 57.801 57.754 57.689 57.654 57.634 57.636 57.639 57.656 57.679 57.671 57.721 58.016 57.836 57.961 58.119 58.286 58.491 58.864 59.021 59.106 59.151 59.191 59.376 59.534 59.689 59.739 62.511 61.371 60.484 60.211 60.104 60.084 60.131 66.846 66.576 66.319 66.036 60.556 60.431 60.459 60.514 60.536 60.569 60.681 60.516 60.504 60.454 60.459 60.409 66.291 67.391 68.411 67.424 66.319 60.616 62.816 61.536 60.601 60.989 61.049 60.999 60.976 61.154 61.091 61.116 61.121 62.236 62.274 62.851 62.809 62.201 62.214 61.744 61.461 63.751 67.231 62.896 61.401 61.396 62.144 61.601 62.016 62.531 62.989 62.989 62.916 63.051 62.984 62.659 62.741 62.779 62.786 62.729 62.846 66.006 65.466 62.979 62.936 63.004 63.054 64.484 63.121 63.489 67.971 71.279 72.336 71.911 70.859 63.734 63.149 62.739 62.789 63.479 63.431 63.451 63.434 63.486 63.459 66.114 69.266 69.501 69.774 70.031 70.291 70.539 70.539 70.324 70.071 64.589 64.576 63.576 63.604 63.604 63.859 63.856 63.954 64.014 64.029 64.066 64.146 64.284 64.264 64.481 64.401 64.269 64.339 64.409 64.434 64.624 64.846 64.744 66.424 70.669 67.564 67.166 71.426 69.366 65.196 65.306 66.541 66.461 66.161 69.939 66.211 66.276 66.274 66.426 66.539 66.634 66.856 69.899 73.621 74.459 75.284 76.154 75.421 74.604 73.769 72.956 68.059 70.866 67.514 67.819 68.829 71.661 69.256 69.264 69.529 69.734 69.931 70.701 70.231 70.801 70.939 78.631 78.566 77.581 76.589 74.349 70.851 71.034 71.131 71.159 72.424 71.716 71.541 71.614 71.631 71.736 71.901 72.169 72.449 72.541 72.646 73.206 72.726 73.306 76.124 81.204 79.326 76.021 74.211 73.714 73.776 74.104 74.199 74.916 74.664 74.624 74.789 74.901 75.769 77.319 75.644 76.621 76.409 76.684 78.386 80.631 78.356 78.574 78.646 78.649 78.851 79.049 79.519 79.824 80.294 81.224 81.119 81.496 82.019 82.466 83.231 83.554 83.814 86.854 85.116 85.046 85.109 85.316 85.746 86.086 87.876 93.751 95.044 90.379 90.286 88.189 91.739 92.126 95.014 95.899 97.319 96.071 95.189 89.334 89.239 89.236 89.321 89.624 89.699 89.609 89.601 89.599 89.611 89.619 89.719 89.821 89.881 89.921 89.969 90.289 90.481 90.591 90.671 90.684 92.226 90.614 90.506 90.546 89.059 89.099 88.991 89.036 89.081 89.124 89.349 89.271 89.364 89.974 90.021 91.109 90.549 90.281 90.159 90.121 89.706 89.556 89.584 89.634 89.746 89.954 91.386 89.989 89.996 89.919 89.879 89.909
64.384 65.831 66.744 66.586 66.049 65.571 65.111 60.919 59.646 62.241 61.209 61.194 59.569 59.501 59.474 59.431 59.349 59.289 59.236 59.191 59.194 59.046 58.971 61.499 62.811 63.466 62.811 58.799 58.871 58.861 58.751 58.631 60.106 63.759 61.964 58.489 58.179 58.376 58.389 59.146 65.719 66.426 64.189 65.524 66.184 65.376 66.714 66.359 64.761 61.924 61.684 63.106 59.906 58.219 56.764 57.376 57.794 57.869 57.979 58.066 58.099 58.269 57.931 60.026 57.974 57.594 57.326 57.274 57.511 56.779 56.621 59.006 60.964 60.379 57.884 57.886 57.901 57.916 57.904 57.936 57.909 57.811 57.949 57.749 57.686 57.631 57.584 57.576 57.566 57.559 57.564 57.584 57.601 57.641 57.701 57.806 57.974 58.111 58.311 58.586 58.859 58.971 59.029 59.114 59.314 59.421 59.501 59.524 61.814 60.169 59.949 60.126 60.399 60.049 60.539 66.851 67.556 67.536 67.319 60.291 60.494 60.436 60.429 60.501 61.729 60.539 60.454 60.446 60.456 60.409 60.351 61.256 66.626 67.789 68.209 67.041 65.811 64.044 64.364 60.594 60.799 61.039 60.979 60.911 60.671 61.144 61.859 61.631 61.426 62.116 63.219 62.851 62.261 61.946 61.451 62.471 67.091 67.616 67.034 62.334 61.519 61.386 61.356 61.446 61.929 62.454 62.891 62.949 62.901 62.754 63.574 62.611 62.659 62.739 62.749 62.799 62.821 62.839 62.869 62.836 62.886 62.949 63.276 63.054 64.351 66.734 71.069 71.931 70.914 69.794 66.109 65.286 62.734 62.776 63.254 63.401 63.476 63.461 63.471 63.419 63.366 63.366 64.269 68.201 69.151 69.374 69.641 69.909 70.106 70.374 63.521 64.536 63.529 63.529 63.524 63.801 63.811 63.861 63.921 65.756 64.216 64.189 64.304 64.346 64.399 64.341 64.229 64.291 64.331 64.469 65.084 64.651 64.764 69.591 71.196 72.186 71.834 68.689 65.286 65.604 65.314 67.364 67.639 67.024 66.759 66.184 66.199 66.294 66.406 66.559 66.736 72.424 73.356 74.184 75.004 75.826 75.694 74.879 74.069 73.244 67.954 67.426 67.804 67.776 68.554 70.106 70.186 69.106 69.176 69.256 69.579 69.686 69.826 71.366 71.259 70.449 72.276 77.639 76.639 71.706 71.999 70.899 70.986 71.034 71.089 71.539 71.409 71.481 71.484 71.556 71.739 72.339 72.946 72.351 73.524 78.199 78.784 75.636 72.781 73.984 75.661 77.126 75.216 74.359 75.619 74.541 73.931 74.159 76.246 75.051 74.876 74.811 75.026 77.301 82.134 75.736 75.944 77.749 80.631 78.539 77.899 78.109 78.519 78.594 78.539 78.721 79.054 79.431 80.059 80.589 80.726 81.089 81.469 81.889 82.406 83.111 83.519 83.661 85.054 95.716 92.834 85.206 85.359 85.756 86.126 87.106 89.701 91.071 89.149 90.331 90.039 88.241 94.746 95.571 96.386 96.181 95.296 91.314 89.169 89.241 89.321 89.471 89.454 89.456 89.449 89.404 89.414 89.424 89.534 89.636 89.701 89.754 89.781 90.016 90.294 90.429 90.534 90.631 90.586 90.514 90.444 90.119 89.399 89.146 89.011 88.906 88.911 88.924 88.931 89.359 89.061 89.176 89.619 89.274 89.289 90.611 90.286 90.051 89.971 89.811 89.461 89.469 89.536 89.599 89.706 89.804 89.784 89.796 89.811 89.831 89.859
65.346 66.009 66.559 67.049 66.861 66.356 65.894 65.434 64.906 62.379 61.214 59.571 61.639 59.736 59.569 59.469 59.359 59.311 59.246 59.176 59.109 59.014 58.934 59.089 62.196 63.229 63.169 58.986 58.811 58.796 58.766 58.684 58.574 62.604 65.334 59.351 59.209 59.659 58.044 59.389 66.331 68.134 65.156 67.476 68.056 61.851 61.559 64.434 61.631 59.239 59.904 59.169 58.204 58.136 58.131 58.176 58.034 57.981 57.949 57.916 57.899 57.941 57.901 57.869 63.526 57.979 58.104 58.161 58.044 57.801 57.849 56.621 60.411 59.704 61.679 57.906 57.874 57.864 57.931 57.936 57.894 57.814 57.776 57.791 57.701 57.631 57.561 57.534 57.516 57.491 57.491 57.519 57.591 57.634 57.576 57.704 57.809 57.941 58.126 58.431 58.619 58.781 58.851 58.996 59.126 59.219 59.351 59.606 60.821 59.914 59.874 59.916 59.964 59.994 61.514 66.476 67.834 67.359 66.329 60.271 60.369 60.389 60.421 60.554 60.726 60.351 60.349 60.396 60.421 60.381 61.031 60.321 63.304 67.059 68.204 67.796 67.299 64.501 63.966 63.614 60.581 61.444 62.646 63.011 63.036 62.799 65.709 61.174 61.259 62.394 64.751 64.764 62.376 62.699 61.624 66.949 67.569 67.166 64.276 61.369 61.579 61.374 61.329 61.366 61.509 61.921 62.331 62.776 62.894 62.801 62.844 62.611 62.561 62.619 62.686 62.706 63.971 62.801 62.761 62.749 62.776 62.849 63.161 63.026 62.936 66.276 70.946 71.951 70.971 69.789 66.821 65.864 62.821 62.671 63.291 63.234 63.069 65.001 63.114 63.251 63.336 63.279 63.294 63.311 63.351 63.439 65.489 67.996 69.281 68.856 63.394 63.449 63.451 63.459 63.534 63.686 63.899 63.799 64.819 65.884 63.874 64.316 64.281 64.331 64.294 64.359 64.319 64.264 64.279 64.481 64.581 64.599 64.624 70.746 71.714 72.284 71.306 69.116 65.129 65.336 65.304 68.661 68.554 66.244 66.064 66.119 66.151 66.256 66.476 66.699 71.426 73.086 73.909 74.739 75.564 75.969 75.154 74.339 73.516 70.276 67.579 67.579 67.879 67.851 68.484 69.701 68.926 68.989 69.089 69.141 69.309 69.214 69.684 69.901 71.439 70.404 70.516 70.959 71.801 70.789 70.879 71.589 70.879 70.954 71.111 71.254 71.339 71.351 71.411 71.601 71.856 71.906 72.154 74.886 77.849 79.091 79.724 78.796 75.026 72.829 74.779 74.136 74.516 73.621 74.256 74.151 73.961 74.169 74.646 74.584 75.046 75.841 74.959 75.254 75.511 75.854 77.304 76.441 78.111 78.169 77.691 77.939 78.224 78.374 78.356 78.624 79.036 79.476 79.851 80.194 80.624 81.146 81.624 81.941 82.359 83.074 83.496 83.754 84.499 97.216 95.226 91.346 85.419 85.734 86.151 86.506 87.321 88.299 87.666 88.009 88.229 88.226 88.741 94.694 95.486 95.399 92.376 90.519 89.546 89.244 89.274 90.186 89.254 89.254 89.234 89.191 89.226 89.344 89.464 89.546 89.571 89.606 89.636 89.926 90.196 90.361 90.664 90.679 90.519 90.479 90.311 89.526 88.961 90.059 89.629 91.471 91.114 89.144 88.896 89.121 89.081 89.156 89.129 89.229 89.226 89.171 89.874 90.141 89.866 90.106 89.316 89.376 89.464 89.534 89.609 89.681 89.701 89.734 89.761 89.791 89.886
60.689 65.109 65.569 66.261 66.721 67.051 66.681 66.226 65.739 65.114 59.714 59.604 60.454 60.651 59.459 59.456 59.511 59.299 59.229 59.156 59.071 58.979 58.891 58.856 62.229 61.791 59.014 58.741 58.786 58.816 58.794 59.371 58.541 59.296 57.019 56.469 60.491 61.751 56.561 60.274 60.799 65.341 61.601 66.204 63.619 59.124 58.626 59.041 58.359 58.271 58.261 58.241 58.176 58.121 58.031 58.001 58.009 57.979 57.946 57.911 57.891 57.886 57.864 61.561 60.261 58.136 57.916 58.179 58.889 58.534 58.011 57.886 63.336 68.991 57.714 60.246 57.824 57.886 58.034 57.839 57.826 57.741 57.871 57.719 58.184 57.756 57.559 57.519 57.504 57.471 57.449 57.484 57.484 57.456 57.781 57.824 57.731 57.904 58.064 58.286 58.514 58.626 58.749 58.881 59.006 59.111 59.269 60.446 61.429 61.849 59.851 59.879 59.919 59.949 62.589 66.714 68.004 67.046 65.261 60.256 60.369 60.666 60.521 60.256 60.259 60.289 60.259 60.214 60.294 61.564 60.324 60.196 60.266 67.286 67.579 66.929 67.026 66.341 63.184 60.334 60.441 62.636 63.029 62.194 61.176 61.484 63.156 61.584 61.236 64.721 64.704 62.651 62.111 61.376 66.496 67.464 67.316 66.191 61.414 61.401 61.371 61.396 61.371 61.376 61.436 61.486 61.826 62.324 62.739 62.809 62.764 62.716 62.666 62.551 62.566 62.634 62.654 62.641 62.641 62.604 62.674 62.754 63.116 62.914 62.844 66.726 70.881 71.941 71.051 68.031 65.886 65.866 63.149 62.631 62.981 63.766 63.061 64.506 63.071 63.071 63.626 63.151 63.374 63.419 63.336 63.361 63.311 63.304 63.296 63.429 63.266 63.349 63.376 63.396 63.554 63.544 63.774 63.761 65.734 66.181 65.761 63.941 64.194 64.044 64.104 64.269 64.344 64.324 64.346 64.399 64.676 64.874 69.686 71.249 72.229 71.746 70.761 64.949 64.956 65.094 65.529 66.374 66.664 65.956 66.016 66.034 66.174 66.361 66.674 68.109 72.804 73.619 74.444 75.291 75.464 75.434 74.616 73.794 72.891 67.431 67.596 67.729 67.764 68.164 68.926 70.916 68.864 68.889 68.981 69.109 69.201 69.409 69.281 71.596 70.206 70.341 71.504 70.534 70.564 70.644 71.004 70.759 71.596 71.091 71.086 71.191 71.191 71.324 71.476 71.654 71.696 71.991 74.109 77.656 79.026 80.016 80.529 79.544 78.634 75.031 72.881 74.199 76.016 73.581 73.541 75.004 75.576 74.234 74.334 74.444 76.416 76.014 75.191 75.276 75.439 75.609 76.331 76.434 80.874 81.086 80.951 77.986 78.171 78.316 78.301 78.696 79.059 79.691 79.769 80.269 80.729 80.996 81.574 82.411 82.829 83.516 83.424 83.844 84.594 86.274 84.981 85.894 86.341 85.861 86.134 87.126 87.196 87.234 88.061 87.926 89.729 88.089 88.259 88.789 92.546 93.449 88.874 88.886 90.156 90.614 89.621 89.021 89.064 89.046 89.039 89.046 89.141 89.266 89.354 89.391 89.421 89.434 89.466 89.701 89.971 91.316 93.016 90.804 90.549 90.384 89.839 88.991 89.931 92.229 92.256 92.521 94.911 93.696 90.216 90.096 89.851 88.864 88.959 89.014 89.029 89.029 89.624 90.129 89.594 89.246 89.216 89.309 89.374 89.446 89.516 89.589 89.644 89.711 89.849 89.944 90.271
59.896 59.614 61.611 62.324 62.886 66.316 66.739 66.276 65.471 62.116 61.929 62.784 61.069 61.369 59.604 59.494 59.539 59.274 59.204 59.121 59.036 58.951 58.976 64.241 64.824 58.731 59.151 59.594 59.376 59.451 59.491 59.874 59.754 59.721 58.421 62.901 62.001 60.594 59.364 57.116 58.831 58.966 58.574 58.566 58.516 58.494 58.431 58.326 58.274 58.201 58.176 58.131 58.129 58.109 58.109 58.099 57.984 57.976 57.904 57.884 57.856 57.811 57.789 57.799 57.789 57.884 58.229 57.981 58.136 58.341 58.479 57.966 60.866 59.906 57.866 59.146 58.101 57.809 57.844 57.849 57.916 57.796 57.759 60.794 57.684 57.704 57.564 57.494 57.449 57.434 57.426 57.374 57.916 57.376 57.401 57.536 57.636 57.844 58.116 58.269 58.391 58.594 58.651 58.794 58.956 59.054 59.199 59.439 60.636 59.731 59.914 59.811 60.229 59.936 64.226 66.989 68.084 66.781 61.531 60.409 60.884 60.621 60.249 60.206 60.229 60.231 60.194 60.134 60.206 60.229 59.966 59.879 59.884 62.466 66.496 66.184 66.716 60.884 60.129 60.221 60.359 60.819 60.436 61.974 62.824 60.726 61.176 61.514 64.779 64.661 62.024 62.369 61.211 61.311 65.869 67.451 67.609 67.191 65.926 64.314 61.756 61.364 61.364 61.486 61.389 61.391 61.444 61.884 62.239 62.404 63.014 62.911 62.676 62.609 62.551 62.501 62.561 62.604 62.594 62.561 62.576 62.624 62.649 62.699 62.769 66.611 70.776 71.901 71.136 68.489 65.876 65.856 63.689 62.584 63.006 63.819 62.994 63.124 63.051 63.331 63.421 63.086 63.111 63.129 65.011 63.284 63.409 63.424 63.274 63.244 63.216 63.286 63.309 63.334 63.531 63.454 63.619 63.724 65.056 70.449 69.926 68.946 65.141 63.861 63.926 64.044 64.139 64.239 64.404 64.281 64.224 64.509 70.799 71.774 72.211 71.206 68.614 65.701 64.974 65.086 65.216 65.854 65.811 65.904 65.954 66.006 66.136 66.404 67.914 72.516 73.334 74.179 74.994 75.191 74.364 73.521 74.031 73.239 67.399 67.504 67.564 67.734 67.844 70.024 68.701 68.914 68.836 68.894 68.989 69.401 69.204 72.016 74.209 73.181 71.666 70.114 70.169 71.666 70.519 70.534 70.559 70.849 71.199 70.941 71.024 71.049 71.164 71.319 72.054 71.669 71.704 71.709 72.461 74.934 78.581 79.479 79.691 78.729 76.776 74.889 73.174 73.964 75.811 76.054 74.706 73.571 74.544 77.431 74.336 74.456 75.489 74.819 75.219 75.306 75.414 75.529 75.741 76.989 77.169 81.786 79.994 77.806 77.926 78.129 78.339 78.744 79.189 79.509 79.904 80.336 80.701 81.194 81.644 82.886 82.886 88.149 88.519 87.914 83.939 84.641 84.854 85.056 85.626 87.179 87.349 87.241 87.191 87.846 88.676 93.406 93.154 90.726 88.759 88.449 89.654 88.564 88.571 88.819 88.896 89.171 88.846 88.864 88.951 88.889 88.874 88.949 89.064 89.159 89.226 89.256 89.276 89.294 89.296 89.501 90.211 90.244 90.599 90.369 90.169 89.881 89.194 89.139 91.836 92.764 93.291 95.116 96.369 95.439 94.549 89.821 88.614 88.719 88.746 88.796 88.839 88.909 90.119 89.029 89.054 89.051 89.131 89.189 89.289 89.381 89.461 89.559 89.689 90.154 89.764 89.639 89.136
60.591 60.039 60.519 60.791 59.639 59.581 63.036 65.844 65.031 59.989 63.306 63.779 62.779 60.849 59.811 59.496 59.369 59.266 59.184 59.086 59.136 63.346 64.544 65.094 64.831 63.241 61.374 60.596 60.469 59.799 60.954 61.184 57.829 57.424 57.121 57.844 59.926 58.439 58.529 58.529 58.539 58.551 58.571 58.359 58.294 58.274 58.276 58.241 58.184 58.174 58.164 58.136 58.061 58.014 58.004 57.941 57.911 57.909 57.876 57.871 57.799 57.744 57.731 57.759 57.781 57.884 57.929 57.979 57.946 57.976 57.926 58.006 61.256 59.214 62.289 60.681 60.079 57.854 57.806 57.991 57.581 57.821 57.779 58.619 57.729 57.621 57.646 57.494 57.409 57.351 57.356 57.301 57.324 57.824 57.346 57.519 57.639 57.884 58.161 58.661 58.359 58.829 58.791 59.244 58.874 58.949 59.224 59.459 59.906 59.541 59.581 59.674 61.884 62.879 65.786 67.264 68.111 66.556 60.141 60.104 60.156 60.894 60.171 60.146 60.151 60.146 60.119 60.066 60.139 60.006 59.866 59.804 59.759 60.041 62.634 61.921 59.876 59.889 60.321 62.074 62.269 62.391 60.959 60.519 60.639 60.626 60.859 60.924 61.114 63.909 61.374 60.891 60.904 61.159 61.306 63.724 67.041 67.554 67.349 66.839 61.531 63.959 61.379 61.356 61.396 61.569 61.389 61.601 62.039 62.219 63.111 63.161 67.084 64.459 62.594 62.536 62.439 62.496 62.556 62.564 62.524 62.499 62.554 62.591 62.686 65.791 70.679 71.791 71.194 70.124 65.874 65.851 63.764 62.551 62.814 63.886 62.906 62.956 63.001 63.024 63.046 63.074 63.094 63.119 64.744 63.126 63.486 63.586 63.601 63.186 63.164 63.209 63.256 63.261 63.444 63.486 63.581 63.721 66.376 71.379 70.884 70.426 69.889 69.029 64.181 63.954 64.034 64.099 64.249 64.184 64.251 69.584 64.196 66.086 71.674 70.676 64.686 64.736 65.021 65.131 65.404 65.716 65.779 65.844 65.874 65.991 66.271 66.579 71.826 73.074 73.886 74.726 75.409 74.651 73.821 72.991 71.624 67.544 67.814 67.539 67.679 67.726 67.909 68.941 68.496 68.389 68.559 68.904 69.786 72.251 74.211 75.474 75.566 75.649 74.839 69.526 69.869 71.064 70.989 70.439 70.434 70.619 70.766 70.851 70.879 71.011 71.166 71.384 71.634 71.669 76.491 73.269 71.759 72.571 75.796 77.916 78.744 76.171 73.266 72.939 72.929 75.859 75.814 75.861 76.139 73.706 73.621 75.266 78.144 74.456 74.569 74.694 74.924 75.936 75.461 75.509 75.624 78.331 77.304 77.779 77.566 77.541 77.784 77.996 78.339 78.754 79.399 79.481 79.989 80.311 80.654 81.344 82.306 82.681 82.864 82.971 88.994 86.429 83.891 84.139 84.804 85.156 85.274 85.664 87.364 88.071 87.269 88.079 91.969 94.064 94.266 93.634 92.079 90.384 88.106 88.319 88.356 88.601 88.821 88.626 88.654 89.146 88.871 88.756 88.746 88.861 88.954 89.026 89.081 89.114 89.151 89.154 89.151 89.301 89.991 90.426 90.171 90.191 89.739 89.394 89.089 88.899 88.871 91.686 93.009 95.256 96.134 96.474 90.434 90.511 91.946 88.589 88.631 88.646 88.704 89.459 88.841 88.799 88.869 88.931 89.029 89.116 89.241 89.466 89.556 89.634 89.701 89.556 89.564 89.099 89.006
