ncols 434
nrows 32
xllcorner    428062
yllcorner    434646
cellsize     2
NODATA_value -9999
59.314 61.496 62.103 61.906 59.922 56.273 51.391 48.986 49.367 49.456 49.334 49.078 49.008 43.698 44.132 43.966 43.918 43.955 43.932 43.938 44.174 44.286 48.338 48.381 48.543 48.398 48.418 48.415 48.388 48.392 45.472 43.988 43.938 43.982 44.073 44.123 44.974 44.352 44.304 45.626 44.656 47.068 47.56 51.751 56.289 53.087 49.382 45.581 45.904 46.148 46.506 46.746 49.704 56.82 58.622 54.781 48.318 49.867 51.708 56.269 49.99 51.225 48.533 47.535 47.783 52.647 57.156 57.894 57.672 56.939 58.352 58.677 56.799 56.26 55.428 53.325 49.991 49.022 49.17 49.286 49.416 49.547 49.581 49.574 49.705 49.768 49.833 49.87 50.033 50.133 50.331 50.221 50.649 50.346 50.189 50.266 50.254 50.289 54.014 58.814 60.543 60.033 58.361 52.538 50.364 50.444 50.455 50.48 50.548 51.082 57.425 59.342 55.4 51.678 51.686 51.672 51.661 51.626 51.674 51.659 51.681 51.639 51.648 51.622 51.649 51.631 51.639 51.627 51.667 51.604 51.487 51.452 51.379 51.361 51.999 52.249 52.394 52.146 52.092 54.377 52.159 52.015 58.56 60.635 60.932 60.169 59.762 59.987 57.451 57.91 57.229 57.092 52.664 52.496 52.347 52.366 52.323 52.38 52.381 52.412 52.53 52.666 53.035 53.268 53.348 53.615 53.686 53.714 54.253 57.777 59.578 59.692 58.757 54.133 54.253 54.583 54.958 54.962 55.077 55.569 56 56.482 57.441 58.17 63.615 63.603 59.519 58.188 58.531 61.101 60.632 60.224 61.549 60.949 63.246 62.367 61.893 63.377 62.258 62.562 61.484 61.162 61.188 62.144 63.57 63.901 64.653 65.308 66.227 66.764 67.136 67.239 67.159 67.113 70.188 72.122 67.479 67.247 67.199 68.822 69.094 70.175 69.179 67.018 66.924 66.962 70.785 70.071 66.636 67.045 64.161 62.923 62.941 62.915 63.001 63.207 64.655 69.916 70.608 71.256 71.421 71.951 72.028 73.072 71.308 71.144 71.441 71.739 71.903 72.437 61.912 61.674 60.306 60.086 60.154 60.214 60.29 60.536 60.653 60.659 60.629 60.708 60.686 60.137 59.527 58.788 58.669 58.656 58.651 58.612 58.635 60.191 59.297 58.385 59.315 57.958 57.515 58.05 57.237 57.213 57.205 57.237 57.257 57.26 57.299 57.332 58.163 57.835 58.93 59.96 60.146 61.335 63.643 65.587 62.246 61.52 61.535 62.178 63.514 62.222 63.946 66.714 66.825 67.684 66.613 62.078 62.673 68.251 68.937 68.462 68.392 65.967 73.325 74.134 74.025 74.509 73.229 71.919 64.053 62.253 62.331 70.031 73.972 75.239 74.535 74.666 71.209 67.641 65.917 65.298 67.274 66.281 66.21 65.658 66.933 66.553 66.276 66.777 67.625 67.966 67.426 67.377 70.944 73.17 74.133 73.976 72.623 70.262 68.602 67.331 67.313 67.742 68.309 68.692 68.772 69.089 72.265 74.753 75.106 74.361 71.576 69.721 69.642 70.005 70.409 70.853 70.983 71.055 71.151 71.128 71.133 71.119 -9999 -9999 -9999 -9999 -9999 -9999 -9999 73.882 73.905 74.221 74.793 76.378 78.096 78.257 -9999 -9999 84.626 85.724 81.986 75.561 76.282 77.423 77.053 76.97 77.523 77.546 81 81.372 78.969 77.395 76.402 77.146 -9999 -9999 -9999 -9999 -9999 -9999 88.151 88.184 88.19 88.092 88.085 88.084 87.959 87.855 87.801 87.001 84.06 82.863 82.921 82.935 82.935 82.948 82.913 82.958 83.155 83.218 83.172 83.324 83.524 83.457
61.298 61.814 61.349 62.895 60.95 59.359 54.608 49.043 49.12 49.611 49.422 49.143 48.953 44.03 44.272 43.902 43.934 43.944 43.883 43.922 44.398 44.402 48.297 48.38 48.414 48.408 48.381 48.391 48.414 46.08 44.353 43.885 43.929 44.084 44.093 44.123 44.121 44.248 44.336 44.45 45.086 44.912 44.775 46.027 55.39 57.783 50.927 50.187 46.022 46.158 46.43 46.625 46.701 52.997 57.196 57.505 50.013 47.162 48.996 50.833 49.128 52.729 52.549 48.356 47.876 52.376 55.734 57.549 55.958 55.553 58.09 58.494 55.884 57.303 57.229 56.622 51.476 51.609 49.358 49.322 49.404 49.526 49.536 49.65 49.739 49.79 49.834 49.899 49.946 49.985 50.068 50.145 50.204 50.276 50.32 50.381 50.348 50.301 53.317 58.473 60.293 59.567 58.902 51.775 50.352 50.419 50.432 51.574 50.95 50.889 57.597 58.512 55.123 51.626 51.585 51.591 51.59 51.556 51.552 51.558 51.548 51.55 51.532 51.535 51.532 51.533 51.527 51.559 51.551 51.425 51.249 51.206 51.191 51.116 51.054 51.015 51.019 51.309 52.021 54.968 52.079 51.949 58.994 61.211 61.151 60.794 60.782 60.736 60.408 60.426 59.887 60.468 59.048 60.425 58.402 53.658 52.241 52.317 52.339 52.77 52.655 52.689 53.058 53.819 53.259 53.557 53.661 53.693 55.524 57.148 59.658 59.51 56.114 55.352 55.715 54.658 54.925 54.887 55.054 55.493 56.039 56.607 57.386 59.536 63.741 64.474 64.438 61.182 58.711 60.74 59.603 60.695 62.073 61.454 62.927 62.217 64.002 62.108 62.177 62.666 60.818 63.085 61.091 63.102 63.175 64.219 65.281 66.144 65.43 65.959 66.926 68.05 66.871 67.062 70.781 70.05 68.694 67.127 67.088 67.029 67.429 68.665 67.973 67.013 66.839 71.735 72.108 70.637 68.672 66.89 63.585 62.59 62.628 62.644 62.897 63.476 66.312 68.566 66.187 69.265 65.293 66.484 68.857 70.208 69.857 70.279 70.329 71.144 71.669 64.302 61.228 59.99 59.882 59.989 59.964 60.047 60.18 60.374 60.317 60.313 59.999 60.2 59.896 59.751 59.341 59.033 58.668 58.647 58.673 58.65 58.633 58.602 58.454 58.159 57.939 63.087 57.617 57.998 57.578 57.118 57.159 57.21 57.252 57.257 57.285 57.327 57.351 57.369 57.425 57.735 59.091 59.943 60.323 60.624 61.202 61.1 61.355 61.342 61.506 61.856 63.882 62.147 62.489 65.377 61.972 61.734 62.765 67.801 68.709 66.701 62.047 67.632 67.938 69.631 70.548 71.091 74.325 73.105 69.764 62.076 62.304 70.045 73.77 74.318 72.191 70.547 65.009 64.47 64.742 65.013 65.504 64.966 65.872 67.948 67.827 65.036 64.808 66.033 66.836 66.515 66.828 67.159 68.377 73.016 73.934 74.252 72.923 71.109 69.182 67.76 67.311 67.713 68.165 68.677 68.79 69.855 71.986 74.544 75.211 74.74 72.18 70.38 70.007 70.337 70.601 70.787 70.942 71.05 71.111 71.076 71.046 71.065 -9999 -9999 -9999 -9999 -9999 -9999 -9999 73.765 73.979 74.185 75.99 80.816 83.587 80.964 -9999 -9999 80.732 80.706 78.197 75.434 75.346 76.289 76.5 76.954 78.732 80.603 83.84 82.528 79.588 78.361 77.117 77.304 -9999 -9999 -9999 -9999 -9999 -9999 88.145 88.161 88.144 88.037 88.043 88.02 87.86 87.735 87.432 85.424 83.199 82.841 82.886 82.97 82.941 82.894 82.784 82.778 83.019 83.151 83.115 83.288 83.448 83.323
61.683 62.602 61.988 62.477 62.325 57.888 48.634 48.918 48.999 49.031 49.009 48.999 48.955 42.657 43.931 43.865 43.829 43.878 43.831 43.903 44.327 44.458 48.147 48.415 48.895 48.404 48.437 48.453 48.366 44.381 43.844 43.89 44.024 44.041 43.989 48.344 48.203 51.635 44.502 44.49 44.614 44.688 44.923 48.877 50.897 51.717 55.906 50.564 45.862 46.085 46.263 46.36 46.466 48.132 54.089 51.628 47.284 47.279 47.396 48.001 47.864 47.998 49.507 47.794 47.82 48.31 49.955 54.274 49.865 55.652 57.342 57.587 57.437 57.442 51.301 55.075 56.187 53.859 50.294 49.519 49.523 49.648 49.679 49.688 49.731 52.635 53.415 50.139 49.962 50.001 50.076 50.118 50.129 50.12 50.164 50.268 50.286 50.336 50.375 50.655 51.978 53.021 56.461 50.443 50.256 50.363 50.367 50.607 50.41 52.513 57.67 58.632 52.462 51.513 51.52 51.499 51.481 51.448 51.416 51.443 51.421 51.389 51.419 51.399 51.375 51.376 51.406 51.469 51.339 51.213 50.995 51.025 50.994 51.006 50.984 52.717 54.89 53.908 51.651 50.987 52.392 51.862 53.462 59.985 61.262 60.915 61.118 61.071 61.234 61.105 60.913 60.848 60.696 60.668 60.29 53.691 52.932 52.35 52.219 53.07 52.545 52.691 52.931 53.205 53.233 53.41 53.571 53.531 54.446 57.495 59.877 59.4 54.516 54.052 54.308 54.634 54.724 54.874 55.063 56.2 55.951 57.476 57.454 61.484 63.832 64.372 66.488 62.406 60.582 59.93 59.343 60.526 59.76 61.104 62.339 60.415 62.118 61.31 61.027 62.529 60.638 60.675 60.767 64.674 65.387 65.673 67.586 67.829 66.438 65.739 68.078 69.112 68.185 66.522 70.36 68.993 68.848 67.146 67.241 66.952 68.916 70.342 67.448 66.926 70.203 71.966 73.194 71.201 69.703 69.009 64.168 62.31 62.325 62.351 62.479 62.759 64.552 66.217 65.763 62.907 62.598 64.207 68.778 69.162 64.422 65.336 65.273 70.211 71.225 61.329 60.991 59.65 59.711 59.778 59.805 59.864 60.066 60.179 60.057 59.662 59.64 59.636 59.387 59.252 58.916 58.889 58.661 58.651 58.651 58.644 58.622 58.516 58.31 57.919 57.615 58.064 63.326 58.965 57.899 57.1 57.102 57.087 57.179 57.212 57.276 57.319 57.342 57.387 57.415 57.374 57.383 58.244 59.157 59.837 60.245 60.766 60.424 61.277 61.081 61.364 61.481 61.783 62.796 62.972 61.735 62.338 66.903 67.66 67.361 64.968 66.986 68.439 72.383 72.054 67.654 64.519 69.95 72.006 69.323 62.138 61.842 61.999 63.778 66.149 62.427 62.638 63.44 66.082 64.522 66.66 65.939 65.547 64.401 65.145 64.444 64.459 64.489 65.72 67.657 68.082 66.816 67.172 68.132 72.887 73.89 74.202 73.548 72.07 68.363 67.677 67.281 67.502 68.05 68.608 68.811 69.055 70.858 74.273 75.245 75.135 73.018 71.178 70.164 70.521 70.811 70.791 70.948 71.298 71.208 71.053 71.05 71.057 -9999 -9999 -9999 72.585 72.933 73.062 73.19 73.317 73.453 74.086 75.982 80.346 82.802 81.648 -9999 -9999 -9999 76.82 75.923 74.664 74.716 75.536 75.847 76.67 77.577 82.964 80.248 79.838 82.504 79.67 -9999 -9999 -9999 -9999 -9999 86.393 87.878 -9999 88.182 88.135 88.047 87.941 87.89 87.821 87.707 87.497 85.679 83.446 82.855 82.816 82.804 82.857 82.902 82.904 82.854 82.814 82.907 83.037 83.149 83.32 83.323 83.261
60.423 59.482 62.785 62.528 62.113 54.955 53.825 49.815 49.122 49.144 49.069 49.063 48.259 42.608 43.913 43.837 43.823 43.876 43.992 43.901 45.285 44.552 47.996 48.452 48.5 48.474 48.467 48.018 44.314 43.824 43.88 43.944 44.043 44.991 49.961 44.737 49.198 45.639 48.783 44.593 44.63 44.765 44.882 44.88 45.37 54.509 56.01 51.578 47.969 46.094 46.24 46.524 46.763 46.953 47.031 47.07 47.159 47.204 47.317 48.115 48.698 48.287 47.649 47.612 47.741 48.08 48.577 48.766 48.936 49.077 53.815 56.545 55.788 56.235 54.19 56.948 57.059 55.732 50.021 49.579 49.666 49.729 49.809 49.891 49.894 55.927 53.548 51.805 49.925 50.012 50.06 50.089 50.18 50.194 50.195 50.235 50.223 50.225 50.188 50.271 50.315 50.487 50.65 50.342 50.341 50.348 50.282 50.34 50.416 55.246 58.071 59.534 51.632 51.42 51.414 51.413 51.388 51.336 51.349 51.331 51.309 51.273 51.284 51.285 51.274 51.247 51.272 51.358 51.206 51.051 50.907 53.601 51.761 52.495 51.067 51.831 59.612 60.202 54.342 53.996 52.778 51.762 51.721 54.174 58.991 59.563 59.846 60.785 60.597 60.739 60.829 60.991 61.147 61.167 60.932 52.288 52.485 52.152 52.162 52.324 52.345 52.654 52.935 53.158 53.199 53.319 53.465 53.468 53.907 58.598 59.909 59.264 53.882 53.794 54.033 54.804 54.666 54.812 55.007 56.222 55.943 57.889 57.79 58.826 63.6 64.308 64.829 59.852 61.294 58.707 58.795 60.986 59.168 59.276 61.086 60.135 62.159 62.587 60.336 61.631 60.363 60.437 60.535 64.85 65.154 63.233 63.731 67.298 64.757 66.218 68.81 70.258 69.581 67.527 68.79 67.783 68.201 68.598 68.334 67.703 69.169 69.763 68.269 67.12 72.12 72.351 71.773 68.683 67.51 67.184 62.963 62.117 62.097 62.145 62.71 63.047 64.771 65.308 66.405 66.42 65.32 66.076 68.908 69.311 62.481 61.266 61.188 60.735 60.974 60.731 60.297 59.526 59.572 59.616 59.586 59.799 59.93 59.952 59.752 59.393 59.423 59.352 59.205 58.97 58.725 58.633 58.584 58.482 58.468 58.437 58.358 58.366 58.116 57.821 57.377 57.857 58.41 56.874 56.924 57.041 56.993 56.974 57.06 57.137 57.245 57.249 57.255 57.291 57.36 57.383 57.467 57.522 57.653 58.227 58.79 60.8 67.394 61.654 60.511 60.894 61.306 61.5 63.955 64.95 69.945 63.946 67.014 67.844 65.902 61.529 71.529 73.162 74.987 75.88 71.793 69.841 69.766 66.707 62.876 61.719 61.781 63.27 67.76 66.998 64.382 62.383 63.86 72.698 73.952 74.303 72.309 65.207 64.328 64.303 64.398 64.616 65.22 66.001 66.693 67.532 66.396 66.909 67.443 71.937 73.751 74.25 73.703 72.441 70.424 68.812 67.313 67.403 68.192 69.468 69.566 70.05 71.919 73.986 75.098 75.33 73.881 71.863 70.377 70.377 70.928 70.853 71.077 71.45 71.244 71.029 71.052 71.05 71.103 -9999 72.033 72.458 72.981 73.255 73.176 73.313 73.316 73.511 75.268 -9999 -9999 -9999 -9999 -9999 75.443 75.234 75.045 74.727 74.542 74.796 75.47 76.134 77.196 77.732 77.11 78.638 78.861 77.58 77.848 -9999 -9999 -9999 84.715 86.412 87.459 88.08 88.228 88.168 88.065 87.913 87.829 87.785 87.623 86.137 83.918 83.261 82.813 82.761 82.757 82.746 82.843 82.914 82.919 82.933 82.939 82.967 83.062 83.186 83.238 83.244
60.453 61.502 55.124 61.044 59.88 57.977 56.591 54.577 50.014 50.029 49.848 49.157 49.513 44.213 44.1 43.767 43.796 44.026 44.038 43.771 44.729 44.639 48.378 48.431 48.424 48.455 48.384 44.336 43.734 43.795 43.944 43.996 48.546 53.047 51.649 54.057 50.751 52.243 49.642 44.66 44.761 44.833 44.993 45.02 45.443 50.462 46.69 46.927 46.096 46.398 46.769 46.862 46.958 46.996 47.068 47.104 47.14 47.187 47.272 47.745 49.49 48.739 48.759 47.795 47.722 47.974 48.296 48.624 49.015 49.224 49.202 49.317 49.406 49.552 54.95 56.159 56.96 54.694 50.133 49.689 49.893 50.019 56.7 50.158 50.158 57.363 51.11 50.086 50.146 50.112 50.256 53.099 50.309 50.121 50.163 50.23 50.284 50.227 50.199 50.202 50.213 50.22 50.236 50.245 50.344 50.368 50.377 50.515 51.135 56.52 57.321 57.681 51.492 51.265 51.342 51.315 51.308 51.285 51.239 51.221 51.21 51.192 51.218 51.189 51.143 51.168 51.136 51.231 51.105 50.967 50.878 55.319 55.464 55.817 54.298 54.963 57.306 58.026 54.296 54.217 52.906 51.774 51.664 51.944 52.029 52.025 54.066 55.363 59.08 59.485 59.809 60.838 60.696 60.759 54.778 52.768 52.479 52.072 52.053 52.086 52.301 52.63 52.828 53.08 53.1 53.234 53.354 53.314 53.563 55.051 58.649 58.249 53.909 53.786 53.85 54.883 54.598 54.77 54.979 56.321 55.724 57.17 57.669 57.877 63.466 64.148 64.756 63.909 63.221 57.953 59.724 61.333 59.713 59.251 59.356 59.464 59.79 59.654 60.223 61.664 60.131 60.164 63.033 64.439 64.153 62.007 62.578 62.895 62.896 63.346 67.433 66.35 67.962 65.878 66.999 65.749 67.824 68.523 68.364 68.169 68.553 67.856 67.876 67.959 69.845 69.107 67.881 66.145 66.422 65.533 62.542 61.755 62.161 62.448 62.048 63.892 64.019 64.002 63.126 62.707 65.571 66.443 68.553 68.91 62.304 61.642 60.727 60.572 60.62 60.123 59.378 59.342 59.402 59.399 59.433 59.633 59.825 59.781 59.117 59.023 59.076 58.994 58.904 58.687 58.59 58.45 58.303 58.118 57.945 57.86 57.976 57.945 57.813 57.431 57.018 57.049 56.874 56.819 56.84 56.899 56.868 56.885 56.946 57.007 57.092 57.055 57.098 57.198 57.299 57.428 57.472 57.429 57.605 57.935 59.537 69.72 70.682 70.906 62.801 60.594 61.026 61.288 67.107 74.278 73.655 70.986 67.652 67.462 66.406 63.608 69.854 75.564 75.74 76.361 73.616 69.866 61.995 61.411 61.475 61.512 65.468 67.844 68.178 67.548 66.336 62.108 68.022 69.1 75.497 74.082 73.502 64.64 64.304 64.281 64.381 64.408 64.393 64.551 68.587 68.97 67.652 67.333 67.443 71.107 73.785 74.245 73.833 73.065 70.521 69.276 67.386 67.453 68.267 69.336 68.918 69.057 69.528 72.53 74.631 75.263 74.331 72.356 70.011 69.813 70.142 70.432 70.945 71.152 71.175 71.075 71.04 71.041 71.122 71.488 71.769 72.055 72.822 73.317 72.798 73.081 73.122 73.022 -9999 -9999 81.87 -9999 -9999 -9999 75.155 74.179 75.202 75.007 74.661 74.774 75.302 75.727 76.138 76.673 76.819 77.379 77.144 76.598 77.269 -9999 -9999 -9999 82.755 85.644 87.455 87.677 88.356 88.235 88.071 87.857 87.853 87.882 87.599 85.326 83.509 83.036 82.737 82.74 82.769 82.828 82.82 82.982 82.991 83.04 82.97 83.015 83.139 83.204 83.276 83.269
60.063 62.675 61.879 60.177 56.877 56.942 56.664 53.314 50.915 51.147 50.825 49.657 49.136 45.707 43.814 43.755 43.733 43.732 44.133 43.802 43.763 43.726 44.461 45.217 45.026 45.103 44.603 44.651 43.881 43.807 44.102 50.722 54.447 56.355 55.213 50.127 46.818 50.839 49.237 44.731 44.84 44.861 44.976 45.111 51.474 45.565 45.664 46.007 46.354 46.681 46.83 46.891 46.963 46.982 47.039 47.134 47.19 47.239 47.305 47.397 47.977 48.27 48.656 48.743 48.059 47.871 48.041 48.463 48.805 49.117 49.273 49.364 49.896 49.735 49.628 54.239 52.185 50.189 49.774 49.813 54.802 57.391 58.742 56.636 56.946 58.23 51.714 50.208 50.268 50.327 55.61 56.474 54.902 50.26 50.155 50.288 51.025 51.006 50.204 50.229 50.262 50.234 50.267 50.274 50.237 50.192 50.237 50.301 50.376 50.318 51.499 51.644 51.384 51.304 51.191 51.195 51.155 51.164 51.158 51.108 51.057 51.039 51.105 51.031 51.028 51.05 51.024 51.086 50.99 50.83 50.827 56.539 56.355 56.063 55.857 55.526 56.469 56.83 57.591 55.054 55.044 51.78 51.633 51.689 51.82 51.932 52.57 51.995 52.194 52.358 55.533 57.805 59.2 60.138 54.263 52.687 52.556 52.033 52.012 52.039 52.248 52.527 52.802 52.976 53.039 53.185 53.232 53.167 53.21 53.247 57.216 59.179 59.047 55.259 53.968 54.555 54.551 54.697 54.933 55.519 57.864 58.536 58.911 59.078 63.621 64.445 64.741 63.983 62.272 58.43 58 58.529 58.692 58.987 59.146 59.323 59.392 59.6 59.786 59.811 59.871 59.903 61.752 63.511 62.254 61.449 61.555 62.55 62.209 63.015 62.615 63.668 63.426 63.624 63.973 64.191 64.911 67.116 67.041 66.732 68.483 69.528 69.333 68.682 68.501 67.955 68.305 67.19 66.365 64.71 61.59 61.441 62.401 61.91 63.091 64.63 64.687 64.456 61.512 61.964 70.13 71.272 71.36 69.357 66.939 63.026 60.711 60.538 60.563 59.664 59.14 59.171 59.257 59.273 59.374 59.527 59.629 59.557 58.562 58.655 58.553 58.576 58.522 58.435 58.397 58.283 58.18 57.946 57.707 57.443 57.551 57.491 57.709 57.044 56.859 56.775 56.722 56.691 56.747 56.741 56.809 56.856 56.866 56.89 56.941 56.98 57.026 57.022 57.152 57.327 57.439 57.482 57.578 57.965 58.901 69.514 71.88 71.751 67.843 60.524 60.727 65.861 68.528 74.235 74.297 72.206 68.878 67.255 61.5 61.718 69.872 75.418 75.824 76.358 74.907 72.524 61.763 61.429 61.819 64.469 66.145 67.823 68.312 67.779 66.757 62.548 63.769 66.716 72.437 73.937 74.079 70.351 64.648 64.262 64.311 64.406 64.411 64.411 65.722 68.618 67.721 66.734 67.127 68.672 72.479 74.066 74.282 73.376 71.973 68.827 67.676 67.399 67.816 68.503 68.706 68.919 70.484 71.742 74.457 75.014 74.857 72.357 69.925 69.58 69.921 70.731 70.747 70.865 70.918 71.006 70.946 71.035 71.137 71.357 71.569 71.706 71.95 72.374 72.059 72.084 72.431 72.613 -9999 80.52 83.109 82.851 80.368 78.364 75.647 73.807 74.354 74.707 74.705 74.914 75.148 75.522 76.047 76.825 76.991 76.986 77.243 77.172 -9999 -9999 -9999 79.135 79.649 80.823 82.763 85.078 87.109 87.61 88.011 87.96 87.933 87.952 87.701 84.654 82.849 82.611 82.627 82.662 82.751 82.865 82.931 82.983 82.978 83.107 83.027 83.101 83.203 83.246 83.299 83.3
61.048 58.638 58.409 58.343 56.399 56.799 55.284 51.425 50.312 50.575 50.617 48.694 48.704 46.552 43.812 43.708 43.713 43.677 43.687 43.681 43.693 44.065 44.139 43.869 43.803 43.66 43.729 43.753 43.686 47.706 52.835 55.46 56.493 56.724 54.774 50.243 56.508 47.936 45.158 44.714 45.075 55.053 45.112 47.665 52.484 48.012 45.743 46.197 46.498 46.751 46.838 46.894 46.97 47.031 47.069 47.107 47.186 47.246 47.316 47.422 47.514 47.582 47.956 48.212 48.486 48.397 47.971 48.146 48.365 48.744 49.029 49.24 49.777 50.107 49.953 50.198 50.087 49.767 49.836 49.874 55.292 54.041 57.947 56.353 55.817 55.986 50.942 50.244 50.248 50.494 56.903 58.2 55.234 51.174 50.349 54.669 56.399 52.851 50.369 50.18 50.189 50.25 50.245 50.99 51.569 50.322 50.303 50.319 50.29 50.273 50.348 50.358 50.769 51.122 51.025 51.388 51.273 51.18 51.111 51.085 51.049 51.005 51.065 50.876 50.909 50.909 51.029 50.99 50.869 50.737 55.02 57.68 57.199 56.954 56.806 56.568 56.763 57.623 58.099 57.368 56.208 51.813 51.75 51.676 51.654 51.648 51.7 52.29 52.24 51.932 52.258 52.273 52.004 53.343 52.918 52.343 51.936 51.95 51.953 52.037 52.27 52.531 53.135 52.928 53.001 53.085 53.152 53.171 53.199 55.446 57.592 59.133 58.789 54.006 53.843 54.34 54.463 54.63 54.883 56.009 56.574 56.86 57.075 60.986 63.189 64.084 63.977 63.313 62.424 60.358 58.25 58.806 58.485 58.467 58.83 58.891 59.065 59.255 59.472 59.577 59.605 59.67 63.062 64.076 62.203 60.74 60.792 61.466 61.621 61.801 62.028 62.016 62.314 63.615 62.825 63.214 63.663 63.979 64.283 64.262 64.341 66.744 68.003 66.833 66.753 67.845 67.435 66.61 65.608 61.591 61.08 61.2 61.139 61.257 61.848 61.764 63.255 63.161 61.158 62.811 71.511 72.165 72.231 71.58 70.227 60.832 61.334 60.669 60.531 59.209 58.988 59.052 59.021 59.095 59.29 59.458 59.48 59.314 58.176 58.114 57.995 58.096 58.054 58.148 58.036 58.121 57.951 57.763 57.55 57.284 57.109 57.159 57.841 56.841 61.898 56.982 56.582 56.656 56.675 56.718 56.735 56.804 56.844 56.876 56.914 56.925 56.925 56.993 57.087 57.198 57.338 57.454 57.582 58.005 58.252 62.958 71.38 72.121 71.575 62.976 60.282 62.392 64.918 71.27 71.728 67.626 63.603 64.779 61.032 62.458 65.997 74.285 75.527 74.898 73.788 69.064 61.423 61.318 62.019 63.937 64.891 67.49 68.269 67.817 67.112 64.445 62.111 63.722 66.548 70.733 71.426 64.84 64.306 64.224 64.215 64.433 64.563 65.176 65.619 66.392 66.383 66.932 67.111 67.844 72.156 74.055 74.31 73.606 72.738 70.217 68.63 67.332 68.622 73.082 70.784 68.881 69.926 72.18 71.231 71.655 72.468 69.205 70.884 69.854 69.807 70.593 70.583 70.683 70.732 70.958 70.869 71.05 71.196 71.406 71.436 71.636 71.741 71.787 71.728 72.084 72.257 73.28 76.589 81.837 85.185 83.867 80.959 80.402 77.437 74.886 74.631 74.849 74.979 75.095 75.433 76.861 77.211 76.843 76.772 76.341 -9999 -9999 -9999 -9999 -9999 77.743 77.102 77.045 79.629 80.448 81.75 84.269 86.84 87.683 87.852 87.775 86.701 83.934 82.502 82.482 82.553 82.581 82.73 82.832 82.907 82.984 82.961 82.976 82.996 83.069 83.172 83.251 83.35 83.37
60.398 50.376 56.707 52.595 54.782 54.731 52.894 49.726 49.788 49.582 49.586 49.038 49.323 43.289 43.906 43.655 43.704 43.687 43.685 44.368 43.886 44.53 44.401 43.914 43.679 43.565 43.662 43.727 43.722 48.066 53.158 55.746 57.315 57.758 55.959 55.317 50.765 45.784 44.804 44.689 44.648 52.53 47.557 51.512 52.782 45.612 45.888 46.331 46.629 46.814 46.868 46.917 46.958 47.016 47.137 47.135 47.197 47.249 47.305 47.413 47.5 47.564 47.688 47.796 47.816 47.976 48.02 48.002 48.24 48.385 48.672 48.815 49.033 49.277 49.431 49.786 50.459 50.79 50.012 49.917 53.287 57.021 56.937 53.985 55.099 56.607 53.892 52.11 53.711 56.75 56.966 57.942 55.452 50.303 52.502 56.866 57.425 56.884 52.035 50.347 50.318 50.284 50.23 50.293 50.8 50.246 50.316 50.318 50.291 50.352 50.329 50.328 50.315 50.328 50.314 50.402 51.1 50.819 50.752 51.396 51.096 51.079 50.994 50.767 52.662 51.459 51.438 50.871 50.763 50.626 55.951 57.88 58.098 57.943 57.717 57.406 57.348 57.829 57.983 57.123 56.493 51.932 51.775 51.788 51.764 51.746 51.726 51.697 51.667 51.695 51.749 51.883 52.022 52.005 52.031 52.537 51.862 51.898 51.824 52.016 52.231 52.494 52.689 52.872 52.974 52.94 54.562 53.17 53.125 54.006 58.117 59.214 58.586 54.103 53.837 54.101 54.476 54.775 56.317 57.627 58.092 58.235 57.387 61.797 63.404 64.071 63.782 62.878 60.812 58.525 57.835 58.149 58.203 59.483 59.428 59.334 59.29 58.748 58.892 59.255 59.354 61.618 63.766 64.216 60.838 61.279 62.24 62.914 62.708 60.821 62.061 62.989 61.322 62.431 62.494 62.209 64.388 65.014 65.134 63.713 65.085 64.553 65.421 66.183 66.232 65.881 65.944 65.747 63.505 61.791 60.983 60.867 60.852 60.918 61.02 60.997 61.003 61 60.93 61.088 70.698 71.626 72.026 71.487 71.09 60.489 60.454 59.715 60.37 58.812 58.773 58.867 58.88 58.983 59.149 59.247 59.062 58.294 57.724 57.652 57.637 57.596 57.72 57.786 57.821 57.867 57.66 57.493 57.297 57.155 56.928 56.865 56.838 57.327 60.917 56.607 56.584 56.641 56.671 56.681 56.715 56.765 56.805 56.805 56.814 56.859 56.937 56.926 57.01 57.095 57.209 57.391 57.642 57.83 65.25 66.372 71.59 72.168 65.379 60.884 63.911 62.652 60.699 66.105 62.333 60.6 60.545 60.579 65.448 69.111 73.042 73.323 73.744 73.683 71.328 63.704 61.071 61.252 61.424 61.853 63.551 67.197 68.073 67.906 67.205 65.085 62.22 63.267 63.34 64.788 64.656 64.623 64.306 64.271 64.229 64.326 64.452 65.355 65.119 66.345 66.461 67.919 68.462 67.698 69.139 73.694 74.464 73.779 73.025 70.43 69.242 68.744 67.75 68.71 72.347 69.092 68.874 69.155 69.166 69.325 69.344 69.606 73.415 70.333 69.967 70.38 70.503 70.56 71.232 70.947 71.126 71.143 71.331 71.671 71.938 72.017 71.762 71.757 71.84 72.203 72.595 74.607 -9999 82.264 84.537 82.968 80.536 81.547 77.954 74.622 74.377 74.759 75.381 75.553 76.104 79.055 77.817 76.093 76.358 -9999 -9999 -9999 -9999 -9999 -9999 76.807 76.47 76.849 79.275 77.246 76.668 79.169 81.737 84.775 85.651 85.051 84.371 83.32 82.704 82.484 82.539 82.538 82.628 82.739 82.769 82.819 82.879 82.928 82.962 83.024 83.156 83.223 83.32 83.369
57.04 52.254 51.255 58.863 58.903 55.411 53.486 50.208 49.1 49.026 49.084 48.984 49.315 42.738 43.986 43.659 43.591 43.627 43.59 43.661 43.765 44.189 43.969 43.647 43.578 43.614 43.705 43.944 43.716 43.709 51.87 55.723 56.864 57.293 56.642 55.761 46.01 48.471 51.327 46.54 53.397 48.803 54.89 53.952 47.058 47.116 46.062 46.341 46.658 46.795 46.852 46.92 46.994 47.049 47.137 47.142 47.187 47.249 47.342 47.429 47.535 47.586 47.694 47.783 47.827 47.918 48.015 48.066 48.106 48.251 48.405 48.494 48.648 48.792 48.991 49.267 49.323 50.207 49.883 49.715 49.938 51.636 50.283 50.234 51.234 54.156 50.809 53.292 54.836 56.082 56.089 54.993 51.656 50.478 53.141 55.961 56.911 56.159 51.819 50.468 50.476 50.442 50.458 50.399 50.357 50.336 50.308 50.29 50.304 50.301 50.335 50.346 50.338 50.342 50.358 50.317 50.341 50.392 50.373 50.914 50.795 51.684 50.562 50.531 50.597 50.712 52.149 50.765 50.67 50.588 55.841 57.169 57.459 57.632 57.882 58.025 58.009 58.161 57.813 56.774 56.384 52.477 52.687 54.204 54.006 52.396 53.203 51.826 51.804 51.815 51.688 51.682 51.67 51.664 51.683 51.756 51.754 51.79 51.804 51.992 52.29 52.492 52.684 52.858 52.947 52.842 53.835 53.371 54.332 55.809 58.671 59.22 58.459 55.906 56.354 56.966 59.285 57.824 54.743 55.567 56.669 58.832 59.188 62.201 63.268 64.153 63.58 62.835 57.274 57.55 57.466 57.847 58.547 58.947 58.182 58.465 58.413 58.446 58.587 58.749 58.976 62.17 62.732 62.792 63.342 63.368 60.227 63.227 61.647 61.365 60.734 61.298 60.759 60.768 60.78 61.063 63.485 63.784 63 64.09 67.373 65.972 65.015 66.545 66.861 67.084 65.793 65.153 61.677 61.006 60.518 60.526 60.543 60.742 60.837 60.869 61.549 61.255 63.453 69.89 70.78 72.011 71.874 70.797 64.227 60.275 60.269 60.003 59.174 58.551 58.651 58.685 58.701 58.824 58.986 58.982 58.781 58.305 57.534 57.37 57.435 57.355 57.409 57.498 57.609 57.561 57.471 57.208 57.072 56.974 56.835 56.739 56.689 57.011 59.35 56.66 56.657 56.655 56.581 56.574 56.652 56.712 56.701 56.709 56.723 56.908 57.442 57.535 57.105 57.072 57.186 57.251 57.549 57.717 58.098 61.167 69.384 69.602 62.743 65.228 66.085 59.699 59.741 59.888 60.115 60.178 60.165 60.139 68.275 72.767 74.55 74.775 75.297 71.267 72.359 69.029 61.311 61.106 61.333 62.914 64.84 66.775 67.919 68.181 67.335 66.253 62.083 63.703 64.467 66.302 64.648 65.128 64.311 64.282 64.288 64.324 64.742 66.579 64.923 66.837 68.298 67.943 67.104 67.582 70.409 73.559 74.407 74.053 73.186 71.429 69.764 67.363 67.485 67.757 68.392 68.541 68.637 69.19 69.736 69.832 69.847 69.947 72.973 70.177 69.848 70.222 70.32 70.927 71.79 80.024 80.298 -9999 -9999 72.041 72.586 72.826 71.997 71.803 71.69 72.46 74.804 77.547 80.009 -9999 83.177 -9999 78.093 76.742 74.128 73.944 74.208 74.327 74.848 76.076 78.432 80.783 78.942 75.355 75.73 76.557 -9999 -9999 -9999 -9999 -9999 76.652 76.844 77.072 77.554 76.847 76.368 77.207 78.657 80.352 81.752 81.849 82.346 82.873 82.655 82.49 82.519 82.554 82.592 82.651 82.682 82.77 82.856 82.907 82.97 82.922 83.085 83.183 83.232 83.315
51.378 56.982 56.892 59.75 59.41 55.452 53.113 52.229 49.143 49.129 49.257 49.002 48.951 42.616 43.677 43.558 43.566 43.613 43.529 43.57 43.669 43.681 43.563 43.533 43.618 43.637 43.899 43.601 43.833 47.784 49.783 52.831 55.945 55.724 54.887 54.35 54.279 52.575 50.647 45.128 45.836 45.259 45.948 45.087 48.216 47.31 46.22 46.501 46.664 46.814 46.867 46.967 46.993 47.072 47.119 47.172 47.223 47.324 47.362 47.428 47.55 47.595 47.659 47.712 47.818 47.921 48.015 48.096 48.172 48.207 48.257 48.387 48.497 48.623 48.742 48.81 48.978 50.108 49.556 49.327 50.224 50.585 50.005 49.958 50.061 50.171 50.238 50.777 54.07 55.124 54.644 51.104 50.467 50.683 50.888 51.59 53.205 51.676 50.749 50.65 50.61 50.542 50.581 52.859 52.059 50.635 50.448 50.46 50.407 50.218 50.254 50.257 50.278 50.307 50.323 50.34 50.382 50.39 50.424 50.359 50.382 50.387 50.395 50.384 50.364 50.483 51.723 50.695 50.57 50.644 55.852 56.147 56.392 56.723 56.94 57.236 57.611 58.089 57.544 56.793 56.469 54.1 52.788 57.382 58.981 57.135 57.771 53.494 54.744 54.021 51.906 52.024 51.808 51.648 51.635 51.679 51.711 51.703 51.731 51.925 52.234 52.468 52.67 52.833 52.857 52.841 53.004 53.003 53.095 55.634 58.908 59.195 57.568 54.493 55.548 56.381 58.778 58.423 55.197 55.936 56.52 56.59 56.72 62.27 63.118 63.652 62.865 62.199 57.012 57.106 57.43 57.656 57.635 57.814 57.769 57.863 58.04 58.146 58.332 58.473 60.245 61.939 63.076 64.651 65.397 65.176 64.956 64.673 64.535 64.13 63.521 63.176 59.988 60.799 60.935 60.884 60.91 60.933 60.77 61.465 67.115 66.669 62.182 64.597 66.274 65.679 64.518 63.052 60.139 60.098 60.206 60.184 60.23 60.582 60.673 60.749 61.703 61.584 63.77 70.284 71.003 72.255 71.834 71.578 62.458 60.223 60.253 59.485 58.328 58.374 58.444 58.533 58.54 58.791 58.824 58.684 57.998 57.636 57.311 57.318 57.345 57.278 57.424 57.385 57.406 57.297 57.194 56.979 56.893 56.78 56.721 56.643 56.542 56.535 56.59 56.624 56.633 56.574 56.555 56.541 56.557 56.56 56.554 56.548 57.245 57.843 57.115 60.853 59.348 57.075 57.141 57.286 57.388 57.581 57.82 57.939 58.25 58.288 59.163 63.348 64.684 62.726 60.093 59.382 59.476 59.694 59.811 60.984 71.23 73.752 75.315 75.599 69.87 75.726 74.667 71.628 66.6 61.036 61.356 62.954 64.679 66.861 67.673 68.202 67.607 66.847 62.236 62.489 63.287 63.629 64.641 64.719 64.341 64.346 64.296 64.304 65.946 66.617 66.532 66.788 68.91 68.118 67.696 69 72.153 73.41 74.34 74.254 73.302 71.599 67.598 67.538 67.328 67.556 67.921 68.265 68.308 68.833 70.984 69.667 69.682 70.966 71.147 71.697 70.003 70.028 70.145 70.158 70.827 83.015 84.365 76.739 72.691 72.05 72.267 72.372 71.974 71.977 72.668 74.848 79.551 82.359 82.521 83.825 -9999 76.111 75.227 74.556 73.76 74.138 74.534 74.475 74.776 75.709 79.626 80.213 79.269 76.612 76.352 -9999 -9999 -9999 77.846 -9999 76.508 76.29 76.762 77.27 77.219 76.944 76.624 76.844 78.565 79.992 80.696 81.496 82.071 82.449 82.433 82.46 82.519 82.559 82.58 82.626 82.594 82.736 82.84 82.94 83.012 83.06 83.086 83.146 83.208 83.269
57.111 53.467 56.934 60.292 60.11 55.937 52.856 53.393 50.053 49.916 49.697 48.949 48.601 42.631 43.713 43.572 43.554 43.585 43.539 43.505 43.593 43.565 44.691 44.002 43.589 43.628 47.967 46.092 48.561 53.406 53.764 53.611 54.605 55.629 56.198 54.919 53.285 44.733 44.641 44.693 44.754 44.87 45.004 45.274 45.539 45.908 46.341 46.587 46.723 46.803 46.878 46.957 47.013 47.068 47.118 47.159 47.274 47.341 47.412 47.442 47.576 47.624 47.725 47.751 47.866 47.956 48.022 48.144 48.202 48.295 48.376 48.36 48.447 48.573 48.705 48.864 48.917 48.993 49.113 49.21 49.282 49.434 49.537 49.632 49.795 49.932 50.032 50.233 50.4 51.55 52.17 50.95 50.552 50.752 51.038 51.286 51.271 51.12 50.996 50.878 50.807 50.808 54.928 57.908 56.962 52.572 50.496 50.405 50.333 50.124 50.135 50.903 50.346 50.402 50.485 50.321 50.386 50.397 50.427 50.418 50.429 50.42 50.395 50.39 50.381 50.41 50.409 50.557 50.947 54.936 55.257 55.342 55.58 55.823 56.096 57.788 57.934 58.133 57.37 57.126 56.828 56.18 53.325 60.173 60.582 60.199 59.998 59.515 58.805 57.917 53.951 54.722 54.375 51.825 51.606 51.619 51.62 51.651 51.637 51.952 52.196 52.419 52.61 52.802 53.556 52.799 52.873 52.99 53.162 54.238 59.033 59.015 55.971 53.551 53.719 53.935 54.549 55.807 54.639 55.11 55.501 57.12 56.952 62.209 63.188 63.343 62.731 61.903 57.253 57.199 57.302 57.413 57.338 57.423 57.477 57.629 57.798 57.968 58.068 58.207 58.434 60.96 61.973 65.489 66.378 66.291 66.087 65.787 65.452 65.465 65.277 65.06 63.568 58.509 59.002 58.945 59.213 61.231 60.374 61.323 61.683 59.175 60.165 59.247 62.799 60.858 60.902 60.964 59.787 59.852 59.987 60.042 60.617 60.344 60.531 60.563 61.221 61.24 60.85 69.027 71.076 72.255 71.668 71.308 60.537 60.166 59.886 58.325 58.14 58.232 58.267 58.325 58.438 58.618 58.598 58.456 57.718 57.387 57.307 57.415 57.287 57.327 57.321 57.352 57.347 57.182 56.969 56.86 56.744 56.656 56.581 56.519 56.443 56.388 56.449 56.571 56.564 56.529 56.532 56.447 56.389 56.421 56.439 56.397 57.416 61.97 58.357 59.758 58.729 56.975 57.005 57.173 57.269 57.462 57.601 57.774 57.948 58.123 58.342 59.945 66.41 69.617 67.938 66.754 59.569 59.544 59.734 62.659 68.761 74.583 74.862 75.738 76.024 74.676 71.513 71.632 67.15 60.95 61.253 63.028 63.522 66.479 67.514 68.26 67.655 66.959 63.014 62.605 63.466 63.587 65.807 66.646 64.561 64.547 64.3 64.294 64.712 66.567 66.67 66.764 67.692 67.392 67.412 67.134 68.223 73.158 74.045 74.322 73.688 72.1 69.763 68.516 67.384 67.48 67.797 67.99 68.205 68.552 69.034 70.972 76.875 75.515 75.004 73.948 71.059 69.881 69.938 71.353 73.641 83.046 85.219 84.012 -9999 71.759 71.64 71.553 71.673 71.833 72.716 78.744 81.58 82.972 84.176 83.754 81.702 77.762 74.503 74.227 73.787 74.477 75.579 76.53 75.945 76.201 80.216 79.225 80.546 78.83 -9999 -9999 77.044 77.894 78.662 78.033 76.611 75.595 76.529 76.559 76.86 77.361 78.446 79.645 80.435 80.57 81.127 81.69 82.202 82.375 82.405 82.48 82.528 82.541 82.578 82.673 82.698 82.771 82.833 82.905 82.956 83.027 83.101 83.117 83.15 83.236
55.954 57.452 58.962 59.352 59.066 57.011 54.081 54.433 50.904 49.137 49.017 48.953 49.425 47.28 46.769 43.482 44.231 43.553 43.529 43.542 43.559 43.529 43.674 43.537 43.51 47.209 49.88 52.25 52.639 54.347 55.181 54.896 55.522 55.457 55.206 53.113 46.238 44.62 44.686 44.743 44.795 44.97 45.113 45.417 45.761 46.116 46.438 46.642 46.798 46.818 46.909 46.868 46.94 47.029 47.119 47.16 47.287 47.341 47.383 47.438 47.565 47.603 47.726 47.784 47.906 47.995 48.045 48.143 48.195 48.296 48.35 48.464 48.523 48.589 48.637 48.718 48.812 48.948 49.006 49.163 49.207 49.299 49.455 49.544 49.749 49.997 50.216 50.557 50.797 54.303 51.888 50.834 50.557 50.876 51.222 51.537 51.61 51.498 51.276 51.063 50.943 53.973 59.072 60.365 59.816 51.416 50.338 50.317 50.243 50.126 50.156 50.399 50.659 57.43 56.795 51.196 52.161 50.583 50.396 50.352 50.404 50.398 50.418 50.436 50.503 50.478 50.485 50.473 51.198 50.466 50.439 51.703 51.887 54.762 55.186 57.085 57.478 57.732 57.8 57.845 57.595 56.314 52.203 61.539 61.735 61.419 61.072 60.793 60.461 60.191 59.965 58.953 58.272 54.287 52.354 51.642 51.552 51.579 51.66 51.899 52.182 52.329 52.516 52.638 52.738 52.747 52.747 52.863 52.942 54.032 54.877 58.657 54.807 55.267 55.125 54.38 55.797 54.76 54.383 54.805 54.987 55.176 55.414 55.509 55.611 57.083 57.927 58.769 59.053 57.305 57.064 57.169 58.001 57.231 57.245 57.397 57.54 57.706 57.863 57.939 60.283 60.373 59.972 65.629 65.96 66.051 66.286 66.482 66.405 66.589 66.334 66.127 66.033 66.04 66.697 64.346 62.913 64.873 63.393 61.038 62.602 59.607 59.097 59.094 59.393 59.28 59.358 59.455 59.424 59.563 59.617 59.636 60.355 60.498 60.43 60.458 61.217 61.175 60.795 70.429 71.523 72.09 71.186 70.896 60.46 60.239 59.688 58.424 57.978 58.067 58.137 58.148 58.348 58.455 58.409 58.495 57.655 57.418 59.203 58.536 57.284 57.323 57.215 57.312 57.327 57.123 56.844 56.773 56.568 56.564 56.532 56.491 56.379 56.249 56.322 56.429 56.486 56.448 56.374 56.321 56.225 56.266 56.248 56.233 59.608 61.706 62.106 62.884 57.761 56.813 56.893 57.014 57.239 57.306 57.248 57.49 57.454 58.7 62.786 62.926 68.218 70.153 71.483 69.206 65.191 59.859 59.419 59.537 62.743 72.362 72.319 74.58 73.794 72.66 71.872 68.865 60.778 60.982 61.315 61.507 64.139 66.18 67.415 68.009 67.987 67.105 64.049 62.362 63.361 67.078 68.117 66.549 64.969 64.621 64.294 64.312 64.437 66.467 66.661 67.142 66.611 68.882 67.575 67.553 67.422 72.634 73.834 74.382 73.805 72.917 70.44 69.6 67.458 67.416 67.727 67.923 68.11 68.477 72.602 71.846 78.045 77.287 75.971 74.859 71.326 70.074 70.015 70.144 71.79 81.658 85.534 86.139 84.842 72.343 71.534 71.494 71.526 71.97 74.216 81.584 82.813 84.081 84.798 83.95 82.393 78.149 74.315 73.664 73.768 74.061 75.496 77.969 77.376 76.35 76.926 77.093 81.588 79.026 76.939 76.666 77.067 77.31 80.367 78.988 76.272 74.935 75.627 76.115 76.638 78.119 80.65 83.814 84.168 82.944 82.086 81.998 82.103 82.303 82.387 82.513 82.542 82.54 82.549 82.668 82.755 82.772 82.839 82.889 82.94 83.045 83.116 83.117 83.147 83.236
54.856 56.151 57.356 53.356 56.431 54.978 47.131 53.009 50.442 48.956 48.944 48.955 48.984 48.421 45.419 43.486 44.544 43.54 43.556 43.57 43.528 43.531 43.585 43.516 46.883 51.907 55.078 54.091 56.442 55.876 54.854 54.34 53.6 47.479 50.46 53.356 44.647 44.663 44.704 44.769 44.889 44.958 45.255 45.571 45.851 46.219 46.527 46.659 46.753 46.84 46.854 46.94 46.973 47.071 47.11 47.163 47.282 47.379 47.409 47.496 47.588 47.643 47.726 47.805 47.885 48.009 48.087 48.19 48.257 48.323 48.372 48.471 48.52 48.636 48.661 48.777 48.868 48.956 49.053 49.128 49.203 49.239 49.449 49.721 49.896 50.258 50.498 50.735 50.88 50.883 50.68 50.529 50.578 50.9 51.457 51.791 52.076 51.792 51.518 51.223 51.076 51.142 59.277 59.763 58.331 51.653 50.315 50.304 50.076 50.083 50.534 50.556 51.078 58.706 59.168 59.485 58.814 56.02 50.491 50.322 50.437 50.455 50.411 50.385 50.487 50.451 50.48 50.478 50.497 50.489 50.498 50.49 50.549 50.548 51.647 52.319 52.787 57.156 56.979 57.287 56.199 55.72 59.226 60.965 61.034 61.378 61.708 61.825 61.746 61.443 61.235 60.844 60.311 52.337 52.615 51.603 51.516 51.529 51.622 51.877 52.052 52.267 52.384 52.505 52.604 52.664 52.7 52.768 52.901 52.97 53.04 53.212 53.629 54.055 54.218 54.657 54.619 54.213 54.332 54.861 54.993 55.013 55.742 55.498 55.695 55.772 55.908 56.118 56.3 56.613 56.866 56.872 56.83 56.893 56.934 57.162 57.269 57.458 57.591 57.753 59.97 63.843 62.769 65.011 64.975 64.977 65.231 65.338 65.657 65.744 66.021 66.316 66.547 66.42 66.596 65.5 64.787 65.247 64.327 60.274 60.825 60.407 59.178 60.9 59.568 59.256 58.979 59.083 59.187 59.254 59.295 59.292 60.013 60.326 60.654 60.437 61.5 60.723 67.446 71.217 71.683 72.274 72.282 71.114 61.604 59.25 59.007 57.797 57.849 57.948 57.954 58.061 58.161 58.216 58.182 57.999 57.566 57.441 57.969 57.59 58.195 57.356 57.257 57.223 57.146 56.864 56.704 56.663 56.566 56.476 56.453 56.409 56.251 55.953 55.985 56.196 56.81 56.205 56.281 56.248 56.145 56.14 56.111 56.07 56.269 56.458 59.58 60.008 56.735 56.838 56.839 56.893 56.923 56.842 57.918 56.928 60.653 62.605 63.45 66.768 70.087 70.753 71.318 71.155 69.452 59.697 59.337 60.054 63.969 66.206 70.842 72.644 71.508 71.135 67.28 63.863 60.423 60.822 61.226 61.518 63.447 65.155 67.333 67.93 68.122 67.298 65.545 62.227 63.009 63.537 63.694 64.378 65.077 64.646 64.297 64.32 64.353 65.74 66.679 67.044 67.5 69.59 69.48 67.618 67.32 71.894 73.655 74.481 73.902 73.103 71.02 67.667 67.337 67.346 67.704 67.992 68.14 68.315 69.544 71.701 75.207 72.299 75.771 76.931 70.291 70.131 69.784 70.393 72.512 85.432 86.285 86.772 84.311 72.592 71.646 71.256 71.42 71.792 75.002 81.513 83.582 84.527 84.278 83.688 83.118 77.015 73.584 73.491 73.605 73.834 74.108 77.677 77.532 75.44 75.632 76.631 78.201 77.456 75.672 75.409 76.71 76.474 78.518 77.939 76.975 74.908 75.244 75.767 77.139 80.829 84.585 85.438 85.406 83.966 83.889 83.028 82.303 82.287 82.414 82.594 82.575 82.555 82.583 82.665 82.766 82.766 82.786 82.827 82.912 82.984 83.062 83.106 83.142 83.235
54.083 53.232 51.784 54.042 50.037 51.566 52.645 49.202 47.99 47.455 47.492 47.661 46.14 46.783 43.909 43.482 43.767 43.497 43.535 43.497 43.514 43.543 44.021 43.681 50.705 53.127 56.078 57.535 58.245 58.16 56.526 52.663 51.19 46.259 44.475 44.514 44.6 44.673 44.733 44.857 44.932 45.103 45.444 45.764 46.047 46.358 46.579 46.677 46.75 46.846 46.91 46.953 47.025 47.071 47.09 47.213 47.267 47.366 47.422 47.517 47.584 47.647 47.744 47.811 47.925 48.023 48.091 48.167 48.298 48.315 48.402 48.52 48.525 48.591 48.666 48.781 48.846 48.909 48.971 49.097 49.163 49.243 49.422 49.564 49.774 50.222 50.553 50.735 50.811 50.77 50.578 50.482 50.653 50.882 51.535 52.002 52.243 52.028 51.705 51.3 51.142 50.942 52.909 60.345 60.516 51.652 51.845 50.128 50.024 50.038 50.2 50.26 56.266 58.774 59.658 59.031 58.784 51.265 50.256 50.251 50.273 50.28 50.488 54.189 50.725 50.484 50.427 50.441 50.484 50.516 50.552 50.592 50.543 50.541 50.574 50.589 50.607 50.675 51.697 52.397 52.059 54.467 57.92 59.345 59.555 60.22 60.987 61.874 61.303 61.407 61.488 61.679 61.387 51.708 51.606 51.461 51.417 51.45 51.543 51.753 51.877 52.033 52.149 52.278 52.426 52.549 52.61 52.707 52.807 52.9 53.139 53.274 53.487 53.636 53.755 54.063 54.466 54.217 55.406 55.032 55.01 55.046 55.464 55.481 55.685 55.827 55.772 55.882 56.103 56.324 57.01 57.333 56.847 56.864 56.764 56.901 57.101 57.226 57.308 57.439 57.739 61.766 63.291 64.989 64.814 60.778 63.029 64.086 64.518 64.838 64.879 65.356 65.524 66.438 66.339 65.242 65.14 65.065 64.648 63.243 63.196 63.608 59.46 60.813 60.574 59.492 58.784 58.847 58.884 58.931 59.018 58.951 59.384 61.224 61.094 61.601 61.016 60.978 67.05 72.183 72.345 71.847 71.24 69.632 61.465 59.399 57.931 57.602 57.668 57.721 57.725 57.895 57.946 57.841 57.96 57.932 57.528 57.379 57.338 57.282 57.311 57.608 57.246 57.127 56.933 56.677 56.641 56.467 56.445 56.423 56.374 56.257 56.161 55.851 55.643 59.233 57.202 61.685 58.86 55.988 55.984 55.937 55.9 55.938 56.075 56.154 56.269 56.415 56.561 63.56 58.297 57.153 57.039 60.629 62.36 63.239 62.865 61.915 59.953 58.972 69.286 72.252 72.381 72.876 71.363 64.229 64.507 64.888 64.837 65.355 66.201 66.373 67.113 66.103 65.613 65.245 60.8 60.702 61.02 61.33 63.4 64.675 66.668 67.825 68.192 67.619 66.006 62.195 62.739 63.396 63.568 64.147 64.858 64.993 64.326 64.283 64.425 65.221 66.673 66.681 68.424 68.385 69.478 68.266 67.434 70.583 73.636 74.329 74.095 73.322 71.597 69.463 67.414 67.391 67.707 68.109 68.283 68.457 68.539 68.72 73.216 75.531 77.617 70.7 69.399 70.414 70.407 71.351 72.79 75.097 74.58 87.635 74.011 72.569 71.62 71.221 71.66 73.384 78.253 84.06 84.682 84.832 84.091 83.171 81.413 76.381 72.69 73.024 73.603 73.958 74.425 75.416 75.52 74.58 74.978 76.162 -9999 76.314 75.09 74.774 76.791 78.183 78.964 77.038 75.557 75.69 75.198 75.881 78.288 81.036 85.897 84.544 82.886 83.017 84.73 83.583 82.409 82.279 82.37 82.452 82.487 82.529 82.598 82.706 82.746 82.724 82.727 82.777 82.871 82.966 83.005 83.06 83.113 83.236
49.37 46.728 47.815 47.795 47.679 48.549 48.975 47.69 47.742 47.664 47.696 47.659 47.713 44.291 43.574 43.48 43.505 43.498 43.467 43.459 43.469 43.502 43.507 43.569 52.37 53.805 57.354 58.223 55.744 58.613 55.84 55.958 50.482 44.483 44.466 44.691 44.656 44.742 44.813 44.891 45.052 45.277 45.541 46.049 46.198 46.42 46.547 46.673 46.74 46.793 46.908 46.996 47.044 47.111 47.188 47.271 47.366 47.417 47.487 47.529 47.594 47.705 47.75 47.867 47.948 48.013 48.131 48.207 48.295 48.355 48.467 48.49 48.546 48.636 48.669 48.744 48.85 48.876 48.954 49.08 49.142 49.241 49.361 49.486 49.642 50.011 50.455 50.693 50.758 50.702 50.438 50.451 50.673 50.879 51.132 52.005 52.158 52.061 51.658 51.297 51.061 50.947 54.7 60.175 57.989 58.158 54.177 56.213 50.052 50.026 50.737 50.8 58.117 59.052 59.318 59.244 57.12 51.351 50.165 50.224 50.206 50.247 53.887 58.547 59.329 57.183 55.24 51.982 50.443 50.462 50.483 50.552 50.555 50.619 50.63 50.698 50.694 50.661 50.634 50.654 50.686 50.89 51.367 51.738 52.114 53.625 59.154 60.089 59.68 60.045 60.72 61.188 57.162 51.777 51.329 51.346 51.375 51.361 51.504 51.662 51.822 52.036 52.186 52.321 52.457 52.535 52.558 52.598 52.785 52.963 53.215 53.372 53.548 53.664 55.102 55.475 55.508 54.554 54.723 55.021 55.053 55.095 55.402 55.527 55.684 55.789 55.698 55.697 55.891 56.079 56.23 56.419 56.541 56.603 56.659 56.781 56.923 57.102 57.16 57.266 58.721 61.294 62.943 64.825 64.059 57.824 57.516 57.551 58.231 59.215 61.313 64.438 65.334 66.621 66.175 65.246 64.961 65.235 65.217 65.428 65.344 65.121 64.942 64.597 58.255 58.356 58.46 58.53 58.567 58.694 58.747 58.768 61.289 66.931 61.112 61.866 60.434 60.396 66.13 71.363 72.056 71.679 70.93 62.667 60.225 60.476 57.44 57.397 57.476 57.569 57.641 57.826 57.842 57.685 57.551 57.47 57.324 57.296 57.329 57.249 57.237 59.967 61.159 59.611 56.725 56.56 56.441 56.323 56.294 56.253 56.221 56.16 56.083 55.727 55.4 55.512 57.155 61.478 58.522 57.217 56.837 55.738 55.699 55.971 56.102 56.215 56.256 56.272 56.427 66.179 68.412 67.862 59.526 58.852 62.529 63.332 63.133 62.247 59.862 64.501 69.876 71.633 70.871 72.612 71.65 65.993 65.738 66.315 64.982 64.604 65.167 61.658 62.818 61.433 62.637 60.465 60.291 60.542 60.982 61.212 61.731 61.578 64.244 67.715 68.082 67.575 66.981 62.3 62.308 63.399 63.404 64.044 64.841 64.432 64.332 64.29 64.265 64.849 66.561 66.671 68.069 67.571 69.342 69.771 69.302 69.048 73.356 74.072 74.285 73.464 72.531 70.041 67.7 67.306 67.601 67.963 68.29 68.482 68.597 68.708 68.775 69.035 69.364 69.141 69.211 71.58 72.497 72.886 73.124 74.703 75.196 74.887 74.434 71.827 72.024 72.336 73.256 76.248 81.13 83.884 84.707 85.002 83.789 82.902 81.521 73.801 72.78 72.897 73.541 74.542 74.338 74.679 75.036 74.99 75.578 75.363 75.206 -9999 75.915 76.176 78.122 80.802 81.706 78.765 79.114 76.248 76.19 76.865 78.899 80.334 83.208 82.925 82.284 82.129 82.214 82.364 82.168 82.205 82.277 82.376 82.381 82.4 82.562 82.629 82.679 82.706 82.718 82.757 82.862 82.958 83.036 83.08 83.143 83.206
49.888 48.039 47.945 47.952 47.931 47.876 47.878 47.847 46.589 46.546 46.805 47.535 46.86 44.341 43.828 43.46 43.421 43.463 43.46 43.446 43.43 43.517 43.468 45.062 50.328 53.605 55.789 57.211 51.306 59.275 59.342 57.774 53.466 48.178 52.305 47.827 46.415 44.84 44.824 44.957 45.49 46.321 52.932 55.639 48.728 46.763 46.575 46.615 46.768 46.81 46.948 47.024 47.071 47.159 47.209 47.272 47.386 47.423 47.53 47.61 47.631 47.714 47.795 47.862 47.93 48.022 48.119 48.207 48.272 48.376 48.462 48.497 48.567 48.674 48.716 48.764 48.875 48.926 49.003 49.114 49.231 49.427 49.469 49.5 49.596 49.828 50.172 50.679 50.732 50.561 50.411 50.431 50.63 50.817 51.144 51.906 52.006 51.801 51.418 51.233 51.078 50.874 50.84 61.088 59.663 54.587 56.389 51.332 49.961 50.304 50.464 54.751 58.172 59.002 59.024 57.711 52.645 50.1 50.254 50.176 50.158 50.363 56.556 59.359 59.622 59.131 57.656 52.365 50.396 50.442 50.463 50.44 50.542 50.566 50.595 50.629 50.646 50.65 50.645 50.707 50.701 50.744 50.756 50.75 50.786 51.468 51.828 51.815 55.035 54.793 57.811 59.2 55.897 51.227 51.24 51.267 51.26 51.296 51.468 51.761 51.899 52.125 52.227 52.319 52.398 52.479 52.486 52.588 52.783 53.017 53.356 54.246 53.673 53.869 55.936 58.166 54.53 55.702 54.341 54.878 55.499 56.065 55.424 55.523 55.67 55.698 55.634 55.612 55.827 56.022 56.108 56.25 56.398 56.452 56.574 56.694 56.822 56.829 56.975 57.093 57.168 58.104 57.163 58.577 58.35 57.722 57.407 57.669 57.203 57.813 59.89 64.482 65.69 66.646 66.069 64.848 64.199 63.56 64.404 64.395 64.787 65.054 65.247 64.861 58.278 58.186 58.206 58.196 58.296 58.402 58.383 58.5 65.418 70.872 72.106 71.72 68.883 61.349 69.78 71.321 72.376 72.302 72.07 65.56 60.28 58.274 57.204 57.273 57.306 57.372 57.586 60.498 59.913 58.259 57.555 57.379 57.249 57.178 57.1 57.239 59.859 61.957 64.123 63.623 57.125 56.429 56.296 56.203 56.079 56.045 55.967 55.936 55.76 55.642 55.456 55.135 55.827 59.688 60.623 59.906 56.225 55.586 55.751 55.875 55.974 56.078 56.162 56.807 56.729 63.654 61.263 68.044 60.787 60.529 62.239 63.067 63.241 62.643 58.05 60.051 68.097 71.179 68.183 69.616 70.143 68.825 68.778 68.616 61.518 60.423 59.661 60.001 60.263 60.399 60.4 60.223 60.261 60.487 60.876 61.2 61.393 63.976 65.07 67.595 68.218 67.895 67.253 62.35 62.755 66.549 63.782 64.031 64.63 64.402 64.411 64.282 64.216 64.527 66.152 66.659 66.647 66.595 67.79 67.8 68.507 68.201 72.694 73.982 74.275 74.039 75.467 73.601 67.968 67.299 67.424 67.775 68.166 68.383 68.524 68.64 68.786 69.457 69.434 70.212 77.617 72.638 75.005 76.753 77.033 76.449 75.82 75.399 74.685 71.104 71.243 72.294 73.358 80.671 82.779 84.005 84.482 84.67 83.975 81.284 78.6 74.794 73.008 73.161 73.578 73.73 73.522 73.944 75.484 75.363 75.703 75.178 74.807 -9999 -9999 -9999 78.936 81.715 82.662 78.148 76.426 76.43 77.57 77.394 78.735 80.747 82.937 83.075 82.922 84.608 83.436 81.997 82.031 82.089 82.182 82.243 82.316 82.295 82.471 82.561 82.639 82.659 82.721 82.757 82.834 82.98 83.011 83.037 83.131 83.175
49.431 49.293 47.903 47.793 47.807 46.848 44.079 43.268 46.037 46.068 46.003 46.024 46.53 45.432 43.56 43.401 43.384 43.397 43.409 43.514 43.507 43.431 44.568 46.117 47.152 52.498 53.741 56.8 58.426 59.276 59.209 59.413 57.199 56.592 57.948 58.072 52.303 49.848 45.849 44.985 57.452 59.022 60.376 61.652 57.496 48.326 46.624 46.636 46.71 46.805 46.885 47.047 47.101 47.195 47.23 47.326 47.404 47.492 47.546 47.672 47.697 47.746 47.851 47.881 47.997 48.057 48.178 48.263 48.281 48.374 48.47 48.521 48.602 48.638 48.722 48.807 48.885 48.981 49.074 49.347 49.63 49.75 49.701 49.611 49.626 49.704 50.015 50.508 50.583 50.493 50.362 50.456 50.69 50.878 51.183 51.922 51.829 51.594 51.306 51.117 51.027 50.72 51.032 59.205 59.262 60.269 59.351 50.15 49.902 50.464 50.225 54.966 58.59 59.396 58.696 53.957 50.124 50.813 50.069 50.085 50.076 50.357 57.444 59.422 59.443 58.431 53.893 50.437 50.325 50.356 50.378 50.41 53.953 53.99 54.343 50.914 50.664 50.646 50.641 50.692 50.711 50.741 50.729 50.771 50.715 50.753 50.828 51.501 51.171 51.526 52.02 53.228 51.812 51.142 51.209 51.213 51.207 51.24 51.479 51.672 51.876 52.095 52.213 52.295 52.337 52.454 52.454 52.506 52.751 53.089 53.351 54.006 53.798 54.148 56.254 59.536 58.891 59.246 58.97 59.348 58.686 56.074 55.967 55.507 55.585 55.642 55.483 55.594 55.778 55.897 56.033 56.186 56.344 56.44 56.57 56.717 56.742 56.854 56.829 56.827 56.885 56.957 56.968 56.968 57.007 57.043 57.03 57.198 57.023 57.098 57.433 64.326 65.668 66.614 65.863 64.462 58.354 57.461 58.431 57.257 59.962 63.533 65.162 61.251 58.167 58.203 58.12 57.862 58.023 58.034 58.067 58.179 68.384 72.042 72.328 71.535 71.463 67.528 69.609 71.65 72.151 71.629 71.163 62.63 60.759 57.055 57.029 57.133 57.151 57.24 58.184 60.313 60.362 60.045 59.796 59.587 57.596 57.049 57.022 56.883 59.744 63.46 63.824 59.261 56.325 56.23 56.182 55.961 55.775 55.628 55.639 55.424 55.198 55.049 55.016 54.888 55.498 57.11 59.306 59.631 55.692 55.558 55.585 55.663 55.744 55.842 56.055 56.208 56.033 58.245 62.54 63.789 56.551 57.348 61.767 62.931 63.383 62.623 60.826 57.65 65.378 66.244 70.89 71.299 69.167 69.59 71.207 70.936 69.152 60.294 60.044 60.8 60.362 61.332 62.201 60.263 60.233 60.461 60.869 61.171 61.463 62.222 64.622 67.201 68.081 68.094 67.223 65.166 63.48 63.747 63.14 63.595 64.256 64.339 64.464 64.329 64.288 64.341 65.52 66.447 66.089 66.351 66.782 66.722 68.78 69.917 70.598 73.447 72.232 75.687 79.081 78.263 70.521 66.869 67.115 67.567 68.004 68.285 68.412 68.496 68.61 69.637 78.821 81.679 84.705 74.375 76.741 78.945 78.191 77.708 76.31 75.752 73.063 71.077 71.063 71.476 74.416 80.124 81.954 84.021 84.876 84.247 82.919 79.057 75.177 73.616 73.853 73.725 74.075 73.746 73.442 75.436 78.618 77.452 75.495 74.6 75.151 -9999 -9999 -9999 77.377 77.615 76.697 75.294 75.002 75.489 77.734 78.157 80.173 83.016 84.023 84.787 87.64 89.908 86.583 83.02 82.012 81.988 82.078 82.19 82.316 82.348 82.413 82.664 82.501 82.606 82.732 82.775 82.811 82.894 82.941 82.983 83.072 83.103
47.267 47.321 47.573 47.567 47.563 44.159 44.286 42.84 47.057 47.099 46.376 46.861 46.471 44.428 43.471 43.385 43.38 43.394 43.384 43.464 43.405 43.566 47.289 49.777 46.437 43.827 48.987 55.459 57.222 58.35 59.295 58.747 57.712 57.829 59.033 59.062 56.196 47.906 46.555 51.856 60.43 62.863 64.416 65.012 56.918 57.387 51.643 46.648 46.747 46.796 46.918 46.999 47.089 47.173 47.296 47.366 47.463 47.529 47.575 47.692 47.723 47.806 47.857 47.946 47.986 48.088 48.135 48.249 48.27 48.33 48.421 48.533 48.546 48.651 48.738 48.862 48.903 48.957 49.105 49.472 50.068 50.147 50.078 49.809 49.722 49.727 49.854 50.332 50.476 50.361 50.336 50.506 50.691 50.879 51.297 51.713 51.722 51.371 51.163 51.033 50.887 50.675 52.429 61.362 62.428 61.767 60.357 51.763 49.944 50.292 50.373 58.712 59.185 59.153 59.247 52.315 49.979 50.253 49.996 49.995 50.027 54.138 58.428 59.385 59.277 58.125 54.064 50.247 50.235 50.254 50.302 50.586 56.653 58.411 59.397 58.711 56.99 51.771 51.023 50.698 50.724 50.694 50.733 50.766 50.803 50.816 50.811 50.836 50.894 51.016 52.004 52.067 51.552 51.1 51.134 51.154 51.179 51.244 51.403 51.603 51.81 51.983 52.133 52.249 52.304 52.323 52.318 52.339 52.688 53.113 53.414 53.66 53.92 56.307 56.848 60.656 60.528 60.494 60.284 60.234 61.351 61.044 60.432 59.368 55.735 55.579 55.444 55.557 55.712 55.843 56 56.161 56.284 56.428 56.547 56.673 56.738 56.819 56.79 56.827 56.843 56.81 56.842 56.868 56.88 56.864 56.87 56.925 56.978 56.952 56.94 56.989 57.118 59.638 63.009 62.917 57.686 57.707 57.78 57.476 57.755 64.467 64.745 62.974 58.235 58.211 57.842 57.626 57.744 57.746 57.759 59.849 68.595 71.706 72.241 72.166 72.319 72.192 71.976 71.816 72.001 71.633 68.575 60.217 57.542 56.836 56.832 56.914 56.947 57.362 63.867 64.347 63.348 62.319 60.145 60.017 59.841 59.552 57.478 56.792 56.654 56.77 58.014 56.973 56.17 55.992 55.902 55.738 55.711 55.367 55.295 55.084 55.039 54.988 54.932 55.02 54.95 55.07 55.449 55.974 55.292 55.312 55.413 55.485 55.539 55.619 55.802 55.995 55.947 55.921 56.1 56.42 56.827 59.263 61.42 62.807 63.296 62.721 61.177 57.161 60.299 60.046 60.877 66.262 67.201 68.05 70.898 71.283 68.338 62.711 65.956 66.989 65.926 64.089 61.289 60.228 60.26 60.377 60.879 61.137 61.328 61.764 66.018 66.299 67.983 68.249 67.315 65.701 62.037 62.851 63.793 63.592 64.128 65.139 66.308 64.745 64.296 64.316 64.898 66.024 66.697 66.079 66.008 66.504 69.292 67.025 66.887 66.75 67.839 77.082 74.834 75.941 68.069 66.588 66.789 67.332 67.741 68.057 68.172 68.376 68.347 74.356 78.451 84.029 85.104 86.019 76.563 77.938 78.528 78.149 77.47 73.236 71.216 72.18 71.524 71.58 75.879 79.174 82.914 83.848 83.766 83.167 82.663 76.507 73.445 72.634 72.869 73.11 74.055 74.002 74.21 75.165 78.901 79.348 75.563 74.718 75.088 -9999 -9999 -9999 76.093 75.227 74.683 74.417 74.389 74.655 76.326 77.97 83.467 84.489 83.347 83.726 87.676 89.362 87.854 83.721 83.042 82.904 83.739 82.127 82.466 83.319 83.755 83.447 82.502 82.644 82.741 82.746 82.77 82.863 82.925 82.962 83.011 83.067
44.459 45.413 47.033 47.354 47.3 43.192 45.856 45.447 47.367 47.356 47.328 47.372 45.237 43.404 43.429 43.415 43.37 43.373 43.353 43.413 43.443 48.313 52.053 50.964 47.189 47.144 44.409 47.093 55.582 56.654 57.851 57.114 58.269 59.045 59.182 59.12 58.724 57.685 52.928 56.396 53.183 63.66 64.381 63.412 63.683 59.105 51.993 46.68 46.777 46.829 46.939 47.021 47.112 47.245 47.334 47.422 47.479 47.53 47.592 47.661 47.775 47.848 47.914 47.964 48.063 48.106 48.176 48.259 48.314 48.347 48.468 48.539 48.615 48.703 48.774 48.83 48.908 48.983 49.185 49.577 50.096 50.431 50.427 50.07 49.792 49.758 49.872 50.188 50.334 50.261 50.329 50.512 50.713 51.129 51.631 51.85 51.551 51.245 51.062 50.944 50.715 50.446 52.212 54.968 58.864 62.354 59.724 51.082 50.245 50.294 55.871 58.516 59.262 58.946 58.544 52.198 49.838 49.888 49.977 50.552 50.545 57.478 59.218 59.694 58.632 57.522 50.292 50.588 50.148 50.279 50.327 53.79 57.612 58.958 59.474 58.716 57.011 50.551 50.391 50.631 50.649 50.744 50.754 50.842 50.726 50.813 50.782 50.854 50.896 50.894 50.96 51.424 51 51.023 51.08 51.147 51.147 51.725 51.292 51.476 51.706 51.837 52.008 52.146 52.194 52.213 52.22 52.222 52.46 52.845 53.418 53.753 53.902 56.076 59.138 60.428 60.596 60.72 60.79 61.723 62.043 61.969 61.782 61.579 57.109 55.446 55.363 55.542 55.677 55.824 55.959 56.084 56.227 56.359 56.555 56.755 56.842 56.848 56.793 56.774 56.764 56.773 56.776 56.781 56.807 56.811 56.792 56.784 56.792 56.791 56.836 56.827 56.833 56.877 56.851 56.867 56.908 56.875 56.88 57.051 57.249 59.416 64.485 59.833 58.153 58.151 57.521 57.274 57.435 57.464 57.47 59.718 67.981 71.187 72.062 70.892 69.203 63.864 71.106 71.939 72.035 71.412 68.477 60.933 56.679 56.598 56.753 56.759 56.814 57.158 64.948 65.449 65.65 64.258 63.721 61.871 60.637 59.844 57.349 56.42 57.691 58.772 56.303 56.204 56.139 55.968 55.834 55.708 55.513 55.439 55.33 56.048 55.165 55.075 55.063 55.034 54.917 55.006 55.02 55.075 55.154 55.151 55.234 55.211 55.377 55.446 55.622 56.167 55.886 55.945 56.033 56.402 56.582 59.27 61.265 62.645 63.378 63.045 62.085 57.564 57.921 57.99 62.408 67.619 68.99 68.985 69.833 69.452 66.666 66.287 67.017 67.098 66.393 65.281 61.432 60.23 60.254 60.482 60.831 61.108 61.348 63.176 64.705 66.517 67.866 68.27 67.739 66.698 62.095 62.386 62.968 63.363 64.324 65.657 65.714 64.692 64.341 64.327 64.603 65.948 66.728 66.161 65.124 65.827 66.319 66.225 65.896 65.958 65.575 67.805 77.406 72.151 66.436 66.549 66.749 67.094 67.482 67.707 67.972 68.07 68.181 75.431 81.159 84.737 85.611 85.781 79.25 79.384 78.736 76.485 75.324 70.797 70.768 71.423 71.924 74.942 80.128 81.122 82.904 83.289 81.726 81.14 79.808 74.52 72.292 72.582 72.594 72.837 73.322 73.667 74.017 74.896 75.295 76.229 75.448 74.97 75.276 -9999 -9999 -9999 75.335 74.54 74.232 74.083 74.194 74.283 75.841 78.406 81.157 82.682 82.338 82.504 86.719 87.824 88.083 86.874 86.79 85.937 85.717 84.12 86.75 86.475 83.903 82.557 82.443 82.587 82.654 82.677 82.729 82.843 82.921 82.948 83.012 83.086
42.78 43.381 44.498 42.269 42.407 42.349 42.494 42.596 42.665 42.776 42.852 43.015 43.161 43.374 43.409 43.333 43.311 43.496 43.323 43.44 43.45 46.215 53.244 52.769 52.127 49.863 48.702 44.98 45.341 47.448 47.396 52.488 55.098 57.891 58.764 58.994 58.685 51.855 57.05 47.204 51.213 61.531 63.022 62.776 61.772 58.762 49.517 46.737 46.826 46.897 46.951 47.045 47.12 47.255 47.313 47.4 47.504 47.549 47.644 47.7 47.811 47.856 47.941 47.99 48.091 48.126 48.155 48.232 48.326 48.394 48.463 48.556 48.618 48.698 48.749 48.839 48.919 49.009 49.12 49.409 49.971 50.499 50.606 50.301 50.021 49.861 49.865 50.004 50.168 50.239 50.381 50.626 50.95 51.385 51.73 51.776 51.346 51.1 50.969 50.832 50.654 50.413 50.375 51.114 57.241 60.292 54.127 50.283 50.799 50.734 58.047 58.716 59.121 58.165 53.429 49.932 50.069 49.884 50.454 50.787 54.714 57.811 59.12 59.495 58.388 52.634 50.137 50.398 50.126 50.651 50.426 55.152 58.673 59.326 59.172 58.102 52.301 50.466 50.33 50.388 50.444 50.702 56.642 57.204 51.505 50.829 50.766 50.819 50.87 50.909 50.987 50.961 50.942 51.017 51.084 51.114 51.124 51.195 51.223 51.349 51.522 51.691 51.811 51.975 52.043 52.082 52.109 52.099 52.166 52.65 53.146 53.598 53.907 55.411 58.127 59.069 59.565 59.999 59.925 61.164 61.647 61.765 61.882 62.001 56.652 55.33 55.312 56.481 56.059 56.797 56.673 56.279 56.235 56.352 56.685 56.923 56.898 56.87 56.922 56.85 57.078 56.803 56.783 56.777 56.836 57.695 56.716 56.687 56.701 56.695 56.711 56.722 56.727 56.745 56.71 56.73 56.721 56.782 56.849 56.791 56.816 56.791 56.804 57.116 57.232 57.243 57.105 57.015 57.047 57.142 57.143 59.37 60.306 60.306 63.561 63.542 62.413 69.08 71.284 72.252 71.761 71.083 65.493 57.747 56.446 56.427 56.577 56.582 56.709 58.621 65.764 66.246 65.998 65.352 64.969 64.307 63.547 63.228 62.478 57.962 63.289 65.468 64.995 59.448 56.059 56.035 55.867 55.802 55.667 55.532 55.348 55.212 55.063 55.079 54.976 54.94 54.793 54.892 54.854 54.853 54.843 54.893 54.99 55.788 59.747 57.785 60.65 61.367 61.104 55.984 56.071 56.247 56.567 58.318 59.88 62.281 63.335 63.015 62.36 59.227 58.612 63.66 67.076 69.342 69.634 67.409 62.811 60.854 60.334 65.823 66.694 67.062 66.521 65.481 62.903 60.508 60.244 60.455 60.661 60.975 61.302 61.652 64.175 63.874 67.326 68.304 67.823 66.834 62.08 62.207 63.207 63.313 67.242 71.383 72.084 65.615 64.347 64.335 64.395 66.106 65.119 65.6 64.611 64.923 64.917 64.914 65.071 65.228 65.467 65.66 66.208 67.507 66.652 66.573 66.665 66.905 67.209 67.457 67.728 67.868 68.351 71.122 82.852 82.575 86.15 82.138 80.917 77.778 70.853 72.157 71.597 70.52 70.703 70.748 71.606 76.1 82.302 82.46 83.545 81.881 80.491 79.829 75.851 73.873 72.767 73.063 73.387 72.849 72.826 73.099 73.963 74.554 73.632 74.167 75.071 -9999 -9999 -9999 -9999 75.684 75.375 74.801 74.197 74.056 74.416 74.897 77.053 77.831 81.306 81.615 81.429 81.477 85.909 85.137 86.117 88.417 91.382 89.793 88.791 90.872 95.539 95.191 85.828 82.96 82.382 82.487 82.548 82.626 82.723 82.801 82.879 82.954 83 83.035
42.228 48.564 44.229 44.255 42.603 42.666 42.434 42.504 42.588 42.747 42.861 43.914 43.103 43.55 43.262 43.305 43.289 43.312 43.299 43.416 43.439 49.924 53.396 53.627 53.226 53.201 52.064 50.684 48.482 44.554 44.483 44.541 47.051 56.327 58.344 59.188 49.503 51.509 49.81 47.638 48.649 60.759 54.453 61.856 59.307 50.309 48.946 46.794 46.82 46.946 47.029 47.039 47.171 47.214 47.33 47.456 47.49 47.601 47.645 47.738 47.807 47.928 47.983 48.065 48.123 48.177 48.198 48.253 48.334 48.453 48.501 48.548 48.62 48.71 48.766 48.878 48.915 48.981 49.066 49.354 49.826 50.587 50.623 50.494 50.266 49.99 49.913 49.994 50.11 50.195 50.358 50.781 51.236 51.682 51.826 51.732 51.267 50.959 50.893 50.693 50.566 50.615 50.104 49.926 49.752 49.657 49.605 50.159 49.947 53.708 57.425 59.215 58.77 57.698 51.622 49.96 49.756 49.801 50.268 50.115 56.339 58.026 59.101 58.486 57.293 51.927 50.146 49.946 50.042 51.022 50.418 57.489 58.885 59.526 58.906 57.407 50.601 50.729 50.267 50.332 50.34 50.697 58.347 59.546 60.04 56.502 54.291 50.861 50.793 50.865 50.904 50.936 50.987 51.036 51.047 51.063 51.064 51.164 51.218 51.201 51.366 51.48 51.597 51.762 51.837 51.928 51.974 52 51.967 52.349 52.86 53.442 53.785 54.007 55.225 54.304 55.095 55.607 55.835 57.622 59.803 60.887 61.039 61.014 55.482 55.32 55.409 56.057 55.936 56.212 56.433 56.738 56.624 56.554 56.66 57.189 56.751 57.648 57.433 57.321 57.01 58.008 57.271 57.942 61.299 63.55 61.829 59.928 56.736 56.609 56.598 56.657 56.636 56.69 56.619 56.604 56.614 56.645 56.655 56.636 56.626 56.697 56.676 56.677 56.648 56.713 56.695 56.769 56.816 56.873 57.009 59.93 60.216 60.23 60.273 60.229 60.353 69.719 72.121 72.405 71.973 71.24 62.413 56.276 56.225 56.291 56.342 56.385 57.404 63.461 64.932 65.188 65.512 65.521 65.759 65.249 64.825 64.95 64.786 64.855 64.848 65.876 64.46 56.572 56.027 55.917 55.866 55.749 55.591 55.393 55.227 55.128 55.048 55.002 54.884 54.791 54.751 54.842 55 54.92 58.911 59.016 60.261 61.391 61.572 61.78 61.889 62.011 61.592 56.288 56.135 56.286 56.469 58.392 60.214 62.18 62.998 63.218 62.503 59.731 56.956 58.492 61.356 68.63 70.037 69.281 61.187 59.777 61.201 64.661 66.726 67.146 66.679 65.976 62.889 60.616 60.163 60.272 60.494 60.849 61.163 61.42 61.88 65.754 67.298 68.269 67.99 67.132 64.246 62.464 64.664 66.286 72.753 72.973 72.795 66.846 64.329 64.378 64.392 64.441 65.259 64.505 64.502 64.544 64.697 64.814 64.951 65.148 65.335 65.508 65.784 66.034 66.324 66.973 66.655 66.816 66.971 67.217 67.412 67.577 68.181 73.487 82.068 78.042 85.062 82.109 77.505 70.437 69.899 70.909 70.812 71.4 70.917 70.874 73.683 76.299 79.681 81.33 81.403 80.598 80.399 80.052 74.343 72.537 72.508 72.729 72.592 72.998 73.593 73.434 74.137 74.595 73.683 73.718 -9999 -9999 -9999 -9999 75.665 76.23 76.145 74.804 74.394 74.131 75.078 79.273 80.488 81.644 82.71 82.639 81.619 81.295 83.517 83.385 85.066 89.362 91.33 90.964 89.333 93.194 95.884 91.9 83.855 83.191 82.312 82.379 82.463 82.556 82.672 82.777 82.862 82.892 82.939 82.994
49.641 52.759 53.094 48.327 42.345 42.266 42.339 42.401 42.574 42.669 42.836 42.9 43.074 43.207 43.261 43.289 43.346 43.311 43.343 43.399 43.43 46.888 52.035 52.714 53.768 53.76 53.227 52.974 52.502 50.715 47.088 44.857 45.079 51.905 55.667 57.515 57.772 50.047 47.745 45.438 45.738 54.589 58.355 57.654 51.643 47.009 46.956 46.976 46.964 47.006 47.07 47.1 47.146 47.236 47.323 47.425 47.488 47.59 47.702 47.781 47.855 47.913 47.983 48.038 48.139 48.184 48.217 48.263 48.344 48.43 48.476 48.569 48.622 48.701 48.769 48.885 48.921 48.97 49.096 49.335 49.887 50.302 50.587 50.56 50.35 50.07 49.973 49.981 50.094 50.19 50.409 50.991 51.451 51.957 51.923 51.726 51.178 52.286 50.94 50.645 56.126 56.282 54.007 49.829 49.64 49.601 49.644 50.011 50.175 56.226 58.726 59.097 58.562 56.434 51.562 49.62 49.721 49.736 50.977 50.002 57.876 58.844 59.015 58.025 56.678 50.666 50.151 49.905 49.947 50.363 54.008 58.509 59.132 58.987 58.469 53.556 50.27 50.355 50.132 50.219 50.452 56.465 58.312 59.706 59.584 59.425 53.238 50.79 50.784 50.798 50.841 50.928 50.969 51.023 51.038 51.009 51.038 51.053 51.186 51.21 51.206 51.228 51.352 51.54 51.593 51.755 51.768 51.798 51.836 52.031 52.613 53.242 54.343 54.138 54.069 54.161 54.214 54.242 54.456 54.975 55.346 56.32 55.581 56.961 56.269 59.757 55.784 55.824 55.88 55.903 56.178 56.265 56.252 56.388 59.852 59.904 56.8 58.012 57.028 58.363 58.262 58.093 57.028 56.926 62.871 64.256 64.335 61.331 57.562 56.469 56.44 56.454 56.515 56.57 56.578 56.542 56.553 56.554 56.561 56.572 56.561 56.534 56.512 56.514 56.509 56.486 56.48 56.514 56.55 56.543 56.5 57.165 59.655 60.15 60.22 60.222 62.305 68.01 71.434 71.243 71.357 70.704 60.668 56.257 56.123 56.118 56.158 56.304 56.474 58.537 62.502 63.315 64.145 64.643 65.074 65.254 65.603 65.75 65.526 65.215 65.311 65.422 62.614 56.213 56.035 55.755 55.673 55.52 55.357 55.194 55.087 54.97 54.908 54.84 54.789 54.718 55.285 59.553 60.19 60.536 60.462 60.739 60.833 61.674 61.882 61.429 61.194 61.174 60.169 55.864 56.045 56.347 56.44 57.101 58.485 60.972 62.785 63.413 62.644 61.314 58.357 59.887 66.938 68.959 70.603 70.323 61.588 59.672 59.943 63.188 66.465 67.137 66.773 66.04 63.31 61.016 60.18 60.266 60.389 60.741 61.146 61.665 63.934 65.215 67.013 67.928 68.023 67.217 64.675 62.695 64.684 70.122 70.678 72.837 73.382 68.659 64.609 64.413 64.366 64.386 64.368 64.399 64.457 64.477 64.548 64.631 64.864 65.088 65.203 65.668 65.762 66.127 66.349 66.561 66.664 66.778 66.918 67.076 67.252 67.461 67.633 67.91 70.953 73.015 81.414 72.387 74.057 69.853 69.873 69.775 69.859 70.177 70.525 70.378 72.74 81.405 82.12 81.188 82.216 80.501 77.609 74.619 72.873 72.347 72.346 72.555 72.382 72.848 73.474 73.568 73.741 74.077 73.651 -9999 -9999 -9999 -9999 -9999 75.323 75.98 76.235 74.472 74.448 74.835 75.086 79.246 82.056 82.793 82.985 83.035 83.122 83.631 82.998 79.743 83.666 87.197 86.418 88.02 87.264 85.254 90.462 86.969 88.255 85.502 82.555 82.346 82.407 82.732 82.635 82.721 82.781 82.834 82.893 82.96
50.724 50.279 53.427 49.14 42.298 42.26 42.398 42.479 42.897 42.647 42.853 42.963 43.108 43.166 43.278 43.275 43.303 43.349 43.329 43.417 43.458 44.245 50.419 51.558 52.672 53.155 53.628 53.894 53.395 52.563 52.203 50.689 46.738 44.919 47.615 46.187 47.079 46.332 45.135 45.259 45.69 56.815 57.987 56.635 51.831 47.049 47.093 47.182 47.207 47.199 47.135 47.156 47.23 47.251 47.306 47.447 47.48 47.605 47.702 47.739 47.851 47.941 48.052 48.081 48.169 48.194 48.253 48.3 48.354 48.416 48.493 48.539 48.619 48.683 48.784 48.837 48.912 48.996 49.391 49.203 49.738 50.133 50.434 50.481 50.411 50.159 49.964 49.946 50.053 50.164 50.36 51.118 51.439 51.797 51.797 51.691 52.864 56.038 54.175 60.225 63.121 63.442 54.314 56.843 49.681 49.585 50.105 49.882 53.194 57.679 58.487 58.758 58.471 52.398 50.274 49.752 49.618 49.692 50.008 56.086 59.082 59.208 58.671 57.514 51.407 50.275 49.967 49.855 49.855 50.004 55.735 58.898 59.396 59.076 57.426 51.502 49.987 50.033 50.083 50.125 50.424 58.127 59.695 59.679 59.484 59.242 50.733 50.667 50.738 50.757 50.774 50.933 50.867 51.001 51.318 51.056 51.021 51.032 51.037 51.119 51.183 51.109 51.144 51.226 51.337 51.473 51.559 51.624 51.702 51.76 52.12 52.725 53.459 53.931 54.045 54.134 54.48 56.485 56.524 54.942 55.195 55.377 55.49 55.841 59.584 61.8 62.427 61.97 61.066 56.764 57.066 56.337 56.165 60.6 62.435 62.224 62.064 61.169 60.98 61.152 59.828 57.487 56.244 56.198 58.725 57.939 61.337 57.641 56.445 56.241 56.209 56.231 56.314 56.331 56.352 56.398 56.426 56.465 56.463 56.49 56.508 56.567 56.461 56.456 56.421 56.418 56.387 56.425 56.393 56.351 56.3 56.27 56.291 56.134 56.054 56.798 57.444 60.014 59.397 61.465 67.472 64.743 56.386 55.842 55.94 55.986 55.984 56.201 56.947 55.113 55.026 54.459 56.408 62.417 63.608 64.155 65.139 65.126 65.376 65.859 65.808 65.482 64.901 56.47 55.875 55.635 55.448 55.2 55.071 54.955 54.861 54.824 54.733 54.66 54.642 54.599 54.559 57.656 60.691 60.519 60.352 59.739 60.239 57.669 57.056 56.428 58.277 56.399 56.008 55.784 55.943 56.321 56.463 57.847 58.313 61.743 62.543 63.407 62.932 62.076 57.426 60.219 67.091 69.303 70.247 70.066 61.437 59.547 59.909 62.213 66.268 67.048 67.128 66.261 64.07 62.597 60.189 61.296 60.568 62.326 61.124 61.377 63.526 64.712 66.967 67.659 68.123 67.443 66.48 63.009 64.64 67.818 67.191 65.406 72.945 69.66 64.392 64.39 64.316 64.345 64.332 64.394 64.374 64.548 64.708 64.227 64.954 65.104 64.288 64.975 65.694 66.224 66.486 66.626 66.714 66.732 66.902 66.973 67.134 67.313 67.466 68.095 69.71 75.606 69.89 68.56 69.304 69.622 70.238 69.812 69.763 69.815 70.058 74.462 75.331 81.444 82.334 81.202 82.736 80.712 76.093 73.319 72.019 72.118 72.277 72.787 72.797 73.087 73.116 73.251 73.337 73.058 72.599 72.698 -9999 -9999 -9999 -9999 74.724 74.403 73.99 74.377 74.171 76.336 78.883 82.03 82.702 82.94 82.95 82.93 83.095 83.52 84.305 83.544 85.716 84.321 87.131 86.035 85.66 84.417 86.24 89.45 88.801 86.188 83.761 84.29 84.762 83.61 82.603 82.712 82.732 82.76 82.815 82.923
50.569 51.439 51.993 48.656 42.309 42.99 42.508 42.637 43.581 42.814 43.523 43.443 43.826 44.534 43.478 43.275 43.286 43.331 43.304 43.359 43.381 43.428 43.521 45.159 50.607 51.728 54.478 53.184 53.532 53.987 53.45 54.097 51.963 49.72 46.157 45.08 45.104 45.339 45.363 45.271 48.441 54.586 56.837 57.338 49.118 46.616 47.05 47.317 48 47.439 47.372 47.315 47.279 47.288 47.328 47.477 47.514 47.582 47.677 47.773 47.88 47.917 48.037 48.114 48.149 48.225 48.29 48.324 48.382 48.47 48.519 48.566 48.687 48.714 48.782 48.906 48.927 50.128 49.176 49.246 49.592 49.999 50.297 50.477 50.406 50.149 49.955 49.907 49.985 50.115 50.401 51.098 51.347 51.465 51.618 51.599 56.014 56.342 53.225 61.855 63.605 64.209 60.804 56.912 49.596 49.491 50.414 51.476 56.315 58.444 58.868 58.192 56.89 49.655 50.343 49.55 49.533 49.556 49.806 57.423 59.059 59.223 58.18 53.325 50.11 49.732 49.736 49.896 50.115 53.439 57.889 58.916 58.869 59.571 54.293 49.983 49.922 49.975 50.023 50.059 51.92 59.146 59.593 59.628 59.465 54.321 51.201 50.767 50.628 50.698 50.912 55.808 51.754 50.991 51.92 51.803 50.997 50.975 51.06 50.994 51.01 51.055 51.051 51.054 51.097 51.187 51.324 51.425 51.514 51.628 51.883 52.366 52.897 53.565 54.045 58.817 62.591 61.864 57.842 55.147 55.053 55.273 55.456 55.951 59.62 62 62.425 61.823 57.536 55.915 56.293 57.228 56.413 60.32 62.431 62.441 62.514 62.542 62.629 62.406 62.401 62.126 55.52 55.578 55.604 55.593 56.626 56.691 56.498 56.077 56.037 56.099 56.148 56.196 56.334 56.449 56.493 56.478 56.431 56.397 57.442 57.055 56.405 56.814 56.827 56.34 56.278 56.304 56.265 56.247 56.212 56.17 56.103 56.097 55.976 55.91 55.785 55.758 55.703 56.975 56.512 56.959 55.582 55.655 55.713 55.762 55.814 56.043 57.311 57.028 54.649 54.473 54.321 56.01 59.604 61.62 63.241 63.878 64.791 65.075 65.467 65.71 58.098 55.825 55.666 55.484 55.226 55.04 54.807 54.731 54.653 54.619 54.548 54.53 54.509 54.473 54.459 55.118 56.255 57.315 55.231 54.986 55.52 54.934 55.047 55.453 55.66 55.609 55.531 55.637 55.9 56.182 56.418 57.747 58.963 61.039 62.467 63.401 63.046 62.268 58.779 57.788 63.457 65.414 68.513 66.702 59.795 59.484 59.821 61.357 65.856 66.866 67.108 66.379 65.233 60.373 61.884 68.995 69.991 64.915 61.004 61.138 65.249 64.621 65.79 67.553 68.224 67.694 67.003 64.55 63.178 63.879 63.327 64.039 64.789 65.903 64.34 64.478 64.417 64.251 64.782 64.416 63.888 64.586 65.34 64.414 64.508 66.347 64.667 64.772 65.196 66.139 66.552 66.752 66.698 66.712 66.826 66.938 66.992 67.209 67.291 67.415 69.121 68.549 68.243 69.002 68.81 69.015 69.045 69.813 70.423 69.825 70.07 71.261 72.034 81.415 82.384 80.35 79.577 77.671 74.405 72.333 71.8 72.034 72.277 73.168 73.229 73.487 73.222 73.1 72.966 72.308 71.956 72.13 -9999 -9999 -9999 -9999 74.182 74.019 74.064 74 74.335 77.951 81.194 82.765 82.931 83.069 82.999 82.931 83.014 83.119 83.613 83.791 87.318 84.893 87.831 88.281 89.16 91.322 87.255 83.959 85.349 87.652 86.097 86.878 85.779 83.759 82.851 83.003 82.635 82.691 82.69 82.802
44.305 43.782 42.38 42.332 45.078 45.384 46.15 48.11 50.188 50.125 51.567 50.795 43.606 43.299 43.344 43.245 43.291 43.317 43.306 43.302 43.355 43.361 43.448 43.63 43.732 47.312 50.715 52.879 53.938 53.495 53.898 54 53.248 53.785 53.521 51.462 46.086 45.34 45.933 45.638 45.814 49.52 55.99 54.391 46.973 46.329 46.756 50.591 49.538 47.51 47.554 47.573 47.483 47.39 47.4 47.482 47.505 47.629 47.668 47.749 47.86 47.986 48.058 48.116 48.15 48.255 48.299 48.365 48.43 48.494 48.531 48.606 48.659 48.69 48.791 48.904 49.008 50.643 49.189 49.3 49.725 50.061 50.335 50.419 50.354 50.106 49.885 49.866 49.916 50.001 50.252 50.472 50.932 51.12 51.237 52.894 53.639 53.071 52.235 60.837 62.914 62.924 61.409 52.584 49.491 49.542 49.755 51.588 58.19 58.975 58.955 57.884 52.958 49.411 49.619 49.453 49.525 49.972 51.151 49.675 52.394 59.106 57.648 51.766 50.526 49.697 49.696 50.985 50.335 53.619 57.807 58.832 58.258 57.387 51.861 49.846 49.868 49.909 49.898 50.191 56.667 58.91 59.803 59.505 59.234 51.546 51.635 50.507 50.584 50.591 54.48 57.503 58.721 54.34 52.62 51.085 50.911 50.943 51.006 50.955 50.947 50.95 50.94 50.929 50.979 51.03 51.109 51.227 51.364 51.493 51.479 51.94 52.401 53.196 53.693 60.662 63.542 63.679 61.021 55.211 54.828 55.056 55.206 55.516 59.795 61.969 62.336 61.705 58.603 55.912 56.096 57.526 56.13 57.252 57.958 59.586 61.747 61.96 62.018 62.341 62.532 58.834 57.964 60.9 60.307 56.942 55.946 57.306 57.185 55.879 55.838 55.865 55.91 56.162 56.316 56.381 56.48 56.519 56.501 56.49 56.437 56.494 56.346 56.518 56.997 56.238 56.202 56.146 56.131 56.13 56.026 56.063 56.033 55.953 55.869 55.793 55.663 55.634 55.585 55.496 55.478 55.461 55.458 55.532 55.593 55.554 55.698 56.173 56.27 55.168 54.591 54.388 54.288 54.306 54.434 55.99 61.41 63.985 64.702 64.265 64.259 64.654 57.321 55.594 55.423 55.227 55.058 54.794 54.593 54.561 54.464 54.464 54.451 54.435 54.43 54.403 54.398 54.539 54.662 54.7 54.843 54.931 55.13 55.146 55.426 56.097 56.681 55.467 55.396 55.536 55.824 56.129 56.366 56.485 56.595 59.903 62.175 63.179 63.252 62.414 59.283 57.139 60.497 63.208 64.439 60.598 59.073 59.7 59.83 60.412 64.971 66.69 67.187 66.484 65.884 63.35 64.061 69.39 69.851 67.692 63.227 62.889 62.148 64.362 65.369 67.553 68.142 67.858 67.167 63.179 62.407 63.128 63.132 64.003 64.545 64.438 64.623 64.894 63.144 63.178 65.125 63.97 66.068 64.903 66.19 66.933 64.391 66.317 66.558 64.21 64.938 65.765 66.473 66.726 66.648 66.556 66.696 66.825 66.938 67.04 67.038 67.703 69.688 69.563 69.205 70.222 69.852 69.19 68.861 69.165 69.008 69.937 71.04 71.202 76.122 78.497 83.015 83.065 82.442 75.657 73.481 72.217 71.879 72.262 72.777 72.162 72.379 73.097 73.056 72.905 72.614 72.12 71.864 71.743 71.896 -9999 -9999 -9999 73.791 73.705 73.848 74.543 76.632 80.34 82.524 82.969 82.959 83.015 83.013 83.057 83.058 83.087 83.091 83.022 82.967 82.507 86.691 84.708 90.09 84.134 81.621 82.401 86.339 86.577 83.588 87.013 85.97 84.344 83.407 84.292 85.599 84.29 85.661 91.493
42.005 43.229 42.385 42.231 42.467 44.902 46.047 49.945 51.813 53.146 53.299 54.491 48.318 44.176 43.713 43.246 43.268 43.305 43.265 43.279 43.32 43.385 43.475 43.535 43.754 43.917 44.256 46.809 51.477 53.206 53.997 53.539 53.927 54.15 53.87 54.556 49.344 49.453 47.494 45.741 45.734 45.808 48.471 47.928 45.885 46.064 46.355 51.543 52.758 47.362 47.53 47.709 48.689 48.573 47.633 47.588 47.636 47.627 47.696 47.803 47.921 47.958 48.045 48.104 48.168 48.268 48.333 48.394 48.454 48.499 48.594 48.66 48.731 48.784 48.863 48.915 49.006 49.401 49.17 49.308 49.637 50.031 50.263 50.336 50.122 49.962 49.834 49.799 49.821 49.897 49.978 50.042 50.341 50.588 50.936 51.085 50.96 50.627 50.306 57.448 59.515 59.553 52.75 49.443 49.403 49.525 49.707 54.441 58.357 58.732 58.75 58.598 50.206 50.24 49.586 49.411 50.127 49.786 51.151 49.644 50.864 49.999 52.296 49.653 50.162 49.678 49.603 50.503 50.016 56.806 58.096 58.84 57.76 56.47 49.992 49.743 49.827 49.842 49.837 50.156 57.763 59.432 59.674 59.462 58.365 50.664 50.47 50.371 50.472 50.564 51.982 57.976 59.139 58.96 57.231 54.29 50.875 50.853 50.912 50.911 50.873 50.88 50.799 50.795 50.868 50.906 50.988 51.079 51.192 51.348 51.341 51.486 52.13 52.652 54.163 61.086 63.04 62.66 60.471 55.563 54.647 54.766 55.045 55.396 60.297 62.207 62.242 61.478 57.158 56.37 55.722 55.666 55.867 56.795 56.532 58.932 62.394 60.172 57.24 58.114 57.852 59.645 59.856 61.175 60.871 57.311 55.665 55.903 56.63 55.553 55.606 55.656 55.81 55.924 55.79 55.647 55.725 55.911 56.07 56.148 56.203 56.268 56.331 56.364 56.324 56.32 56.171 56.124 56.036 55.944 55.839 55.869 55.867 55.769 55.651 55.636 55.492 55.493 55.337 55.328 55.259 55.265 55.337 55.383 55.395 55.408 55.649 56.987 56.081 56.381 56.254 54.89 54.362 54.316 54.32 60.71 63.203 64.391 64.68 63.752 62.901 55.902 55.249 55.278 55.282 55.002 54.841 54.606 54.512 54.413 54.362 54.37 54.385 54.349 54.353 54.302 54.292 54.496 55.492 56.917 56.285 58.628 58.981 60.725 61.972 61.338 56.511 55.9 55.3 55.484 55.852 56.105 56.404 56.506 58.487 59.668 62.023 62.926 63.344 62.712 61.694 57.392 59.052 63.831 59.439 64.25 59.003 59.737 59.954 60.137 64.604 66.683 67.33 66.733 65.857 61.556 63.043 68.205 69.966 70.096 63.728 66.476 63.831 67.016 65.254 67.346 67.96 67.865 67.392 64.957 62.736 63.828 63.318 62.68 63.731 62.767 63.167 65.064 63.323 63.724 65.424 64.05 66.974 65.512 66.66 69.322 69.635 69.735 68.079 64.159 64.667 65.636 66.156 66.648 66.654 66.447 66.488 66.604 66.78 66.881 66.989 68.04 70.046 70.145 70.118 70.074 69.585 69.206 68.925 68.952 69.064 69.186 72 75.764 80.321 81.301 79.587 77.32 75.689 74.345 72.085 72.208 72.369 72.752 72.218 71.702 71.816 72.239 72.368 72.164 72.095 71.749 71.653 71.623 71.731 -9999 73.249 73.406 73.536 73.699 74.757 76.102 79.95 82.101 82.978 82.96 82.995 83.024 83.087 83.127 83.095 83.09 83.087 83.048 83.01 82.975 83.122 83.071 83.234 82.77 81.393 78.706 83.095 81.727 83.856 83.366 86.466 85.278 85.567 88.519 87.363 98.32 93.441 99.45
42.622 42.435 42.357 42.283 42.657 44.356 42.664 48.107 52.909 53.063 53.26 52.349 47.652 43.469 43.352 43.225 43.275 43.239 43.272 43.341 43.379 43.439 43.513 43.576 44.343 44.316 44.135 44.078 44.524 48.785 48.232 52.908 54.436 53.907 54.384 54.307 53.762 53.26 52.032 47.989 50.249 45.987 46.242 46.126 46.521 46.05 46.126 48.039 48.299 46.922 47.199 51.815 56.146 52.096 47.95 47.853 47.796 47.783 47.78 47.866 47.944 48.02 48.069 48.128 48.183 48.286 48.34 48.375 48.422 48.525 48.62 48.684 48.729 48.783 48.897 48.962 50.56 49.101 49.155 49.328 49.738 50.065 50.19 50.17 50.008 49.821 49.727 49.726 49.849 49.904 49.84 49.863 49.905 50.271 50.703 50.897 50.794 50.569 50.174 51.511 50.549 49.535 49.397 49.353 49.371 49.78 49.961 57.312 58.181 58.844 58.156 58.409 49.432 50.179 51.64 49.343 49.315 53.13 57.045 55.856 54.148 50.251 49.626 49.498 49.467 49.544 49.542 49.543 54.537 57.86 58.531 58.526 57.332 51.585 49.62 49.649 49.762 49.727 50 56.796 58.762 59.575 58.939 58.929 50.515 51.265 50.354 50.32 50.845 50.615 56.759 58.612 59.685 58.429 57.442 52.547 50.782 50.782 50.788 50.892 50.859 50.831 50.821 50.755 50.695 50.785 50.838 50.988 51.06 51.127 51.278 51.248 51.659 52.244 59.578 63.068 63.165 61.859 56.271 55.543 54.584 54.578 54.661 57.416 60.637 62.121 61.789 61.138 56.497 55.401 55.307 56.305 55.781 56.154 56.439 63.145 64.678 64.759 63.317 57.496 56.228 55.749 58.586 61.276 60.633 55.638 55.276 55.504 55.518 55.308 55.387 55.42 55.593 55.545 55.189 55.007 54.992 55.234 55.292 55.366 55.44 55.642 55.861 55.852 55.922 56.483 56.062 55.976 55.945 55.99 55.88 55.779 55.717 55.613 55.512 55.448 55.413 57.146 57.61 55.221 55.049 55.109 55.189 55.225 55.191 55.244 55.476 55.802 55.367 55.181 55.882 55.193 54.481 54.364 54.355 61.759 63.618 64.853 64.378 63.393 62.196 54.906 55.047 55.013 54.984 54.817 54.653 54.471 54.341 54.297 54.251 54.255 54.265 54.295 54.266 54.261 54.243 58.3 60.221 61.198 58.613 59.721 61.269 62.059 62.21 61.346 60.53 58.184 56.088 55.415 55.748 56.085 56.369 56.48 57.169 56.697 61.105 62.779 63.399 62.874 62.005 57.351 58.666 63.341 65.924 66.078 60.104 58.992 59.659 59.908 64.286 66.284 67.227 67.069 66.209 64.791 63.791 62.295 69.651 64.512 60.645 64.947 68.389 61.984 63.997 64.97 63.377 67.226 67.458 65.628 61.738 62.091 62.368 61.904 62.131 62.845 63.385 66.085 64.943 67.1 68.095 69.49 69.573 69.84 69.931 70.339 70.309 70.658 69.191 64.03 64.453 65.345 65.918 66.351 66.462 66.262 66.327 66.413 66.612 66.665 67.643 71.448 71.783 70.39 70.573 70.188 70.465 76.012 70.398 69.128 69.211 70.186 70.674 74.992 79.355 80.218 82.244 78.002 75.694 73.672 70.805 71.236 71.451 72.226 72.242 72.563 72.403 72.137 72.194 72.078 71.913 71.558 71.549 71.607 -9999 -9999 73.123 73.308 73.304 74.038 74.708 76.109 81.06 82.498 82.987 83.027 83.08 83.109 83.137 83.145 83.095 83.092 83.118 83.063 83.016 83.027 83.04 83.118 83.165 83.164 83.136 83.082 83.376 83.873 83.303 83.737 88.657 85.293 85.852 87.141 98.769 89.885 95.324 94.075
42.6 42.478 42.479 42.307 45.593 45.505 43.558 47.215 51.654 53.185 53.443 52.417 45.196 43.554 43.662 43.206 43.222 43.231 43.238 43.305 43.438 43.502 43.557 43.633 43.715 43.875 44.916 44.763 44.12 44.252 45.78 49.892 51.244 53.655 54.548 53.962 54.422 54.678 53.812 52.507 52.242 47.907 47.157 46.006 46.214 46.464 46.167 46.256 46.365 46.55 47.055 55.434 57.709 52.567 48.037 47.976 48.008 48.028 47.99 48.008 48.056 48.053 48.107 48.149 48.234 48.284 48.367 48.412 48.449 48.555 48.594 48.675 48.704 48.805 48.86 48.973 49.369 49.077 49.171 49.368 49.914 50.07 50.12 49.944 49.814 49.652 49.622 49.626 49.945 50.177 49.971 49.82 49.795 49.983 50.422 50.719 50.761 51.889 51.823 49.843 49.622 49.441 49.316 49.279 49.924 49.611 50.582 58.735 58.675 58.37 57.996 51.528 49.767 49.463 49.256 49.247 49.438 55.852 57.527 58.718 56.44 55.295 50.98 49.351 49.407 49.448 49.414 49.733 56.338 58.441 58.965 58.305 56.781 50.336 49.527 49.571 49.66 49.631 53.584 57.832 59.177 59.757 58.445 53.697 50.204 50.291 50.212 50.763 50.824 53.987 59.45 59.136 59.213 58.073 53.924 50.65 50.636 50.734 50.759 50.727 50.792 50.776 50.752 50.777 50.701 50.666 50.726 50.772 50.943 50.973 51.093 51.152 51.225 51.714 59.543 62.69 61.655 60.427 55.975 57.826 60.661 54.614 54.48 58.308 60.552 61.226 60.666 59.116 55.439 55.207 55.296 55.765 55.12 55.346 55.616 63.704 65.623 65.746 65.05 57.218 55.802 55.705 59.696 61.293 60.31 55.497 55.293 57.394 55.204 55.044 55.136 55.241 55.341 54.969 55.506 55.321 54.782 54.595 54.595 54.666 54.702 54.895 54.943 54.995 55.044 55.159 55.311 55.338 55.467 55.436 55.548 55.834 55.535 55.433 55.567 57.588 58.826 61.045 60.142 57.7 54.966 54.914 55.043 55.07 54.985 55.126 55.295 55.266 55.026 54.93 54.873 54.567 54.972 54.819 54.857 59.539 63.948 64.823 63.876 63.033 56.94 54.465 54.661 54.763 54.69 54.641 54.494 54.423 54.238 54.21 54.175 54.163 54.203 54.23 54.193 54.132 54 57.364 61.159 61.351 60.273 59.087 60.98 61.992 62.403 61.705 60.699 55.861 55.554 55.394 55.68 55.991 56.241 56.498 56.85 59.261 61.168 62.667 63.311 63.011 62.242 59.28 58.59 62.645 64.168 64.999 62.173 59.015 59.498 59.927 64.554 66.236 67.029 67.1 66.404 65.41 62.752 65.21 68.65 65.789 60.861 61.091 62.322 61.622 62.435 61.498 62.583 65.551 67.493 66.237 62.254 62.58 64.316 64.228 63.045 65.609 67.976 68.468 68.486 68.765 68.869 70.323 70.508 70.632 70.786 70.575 70.713 70.458 70.273 64.72 64.36 65.088 65.693 66.049 66.242 66.178 66.134 66.28 66.425 66.541 67.793 72.834 73.527 72.365 72.533 69.913 72.437 77.195 76.823 72.493 71.657 72.068 75.899 76.801 78.892 81.002 80.804 76.838 75.383 72.173 71.645 71.377 71.156 71.502 71.942 72.079 72.543 72.545 72.066 71.943 71.901 71.656 71.555 71.619 -9999 -9999 73.26 74.186 74.441 75.125 75.371 77.844 80.542 82.785 82.988 83.016 83.092 83.163 83.162 83.14 83.101 83.123 83.158 83.042 83.032 83.035 83.086 83.161 83.191 83.249 83.252 83.221 83.321 82.281 90.474 95.537 93.019 84.044 85.75 100.416 98.843 95.46 102.91 98.084
42.577 43.541 42.359 42.273 45.357 46.087 47.907 50.668 51.985 53.463 53.214 51.719 44.998 43.894 43.395 43.235 43.261 43.266 43.299 43.44 44.052 43.6 43.73 45.034 43.91 43.845 43.935 44.187 44.505 45.129 44.379 44.489 45.926 48.961 51.964 53.658 53.86 54.447 54.744 54.557 54.17 53.197 52.256 50.122 48.141 46.333 46.293 46.422 46.384 46.47 47.986 55.76 57.348 52.399 50.007 47.851 48.049 48.179 48.202 48.243 48.246 48.193 48.22 48.219 48.249 48.268 48.354 48.422 48.506 48.548 48.593 48.667 48.741 48.815 48.876 48.963 49.01 49.071 49.194 49.541 49.834 50.062 49.984 49.716 49.555 49.541 49.496 49.518 49.766 49.945 49.887 49.763 49.674 49.885 50.115 53.01 52.716 52.817 49.753 49.625 49.446 49.282 49.248 49.244 49.539 50.184 55.968 58.207 58.864 59.072 56.336 49.958 50.054 49.271 49.608 50.013 54.124 57.039 58.026 58.567 57.532 53.42 49.363 49.234 49.323 49.349 49.362 49.549 49.738 52.753 57.491 57.753 51.861 49.436 49.476 49.551 49.572 49.592 55.265 59.52 59.773 59.751 58.343 52.103 50.021 50.099 50.124 50.642 50.442 55.588 58.681 59.391 58.716 57.415 51.439 50.495 50.583 50.613 50.649 52.246 50.914 50.622 50.73 50.762 50.742 50.722 50.636 50.621 50.676 50.854 50.979 51.049 51.004 51.228 53.54 59.917 60.756 58.583 55.274 62.64 62.75 58.235 55.03 57.49 60.584 61.204 60.519 57.879 54.667 55.565 55.274 55.298 54.795 54.624 58.161 63.764 64.912 65.285 60.479 56.59 57.414 57.388 60.661 61.204 59.95 55.125 58.124 60.961 58.289 54.871 54.944 55 55.149 54.754 54.764 55.15 54.612 54.315 54.335 54.3 54.317 54.416 54.559 55.551 56.062 54.627 54.395 54.368 54.484 54.489 55.342 55.477 54.68 54.787 55.05 57.662 58.323 61.236 62.03 57.734 54.701 54.764 54.87 54.817 54.911 55.05 55.104 55.039 54.942 54.745 54.646 54.513 55.284 55.093 54.569 54.063 54.655 57.375 62.736 62.345 54.505 54.116 54.304 54.375 54.427 54.397 54.294 54.251 54.099 54.098 54.111 54.161 54.029 53.964 53.841 53.824 54.272 55.3 60.068 60.562 57.968 56.455 60.204 61.79 62.404 61.847 61.05 57.536 57.227 55.357 55.595 55.83 56.207 56.487 56.571 57.578 60.062 62.599 63.134 63.093 62.401 57.836 57.169 57.77 58.694 59.303 59.515 59.023 59.924 59.83 60.729 65.792 66.745 67.208 66.448 65.721 61.855 63.128 66.364 63.729 60.323 60.446 60.846 61.587 62.267 61.673 63.779 66.202 67.696 67.066 66.184 64.445 66.971 67.08 67.294 67.583 68.986 69.045 69.424 69.261 69.585 70.349 70.519 70.581 70.149 70.214 69.803 69.714 69.05 66.662 64.214 64.902 65.441 65.84 65.924 65.938 66.037 66.088 66.249 66.988 71.594 72.889 72.842 71.383 66.876 68.434 75.412 78.115 78.436 77.311 74.561 71.616 77.128 78.401 80.905 80.586 79.411 78.222 76.018 71.28 71.578 72.002 71.837 71.423 71.713 71.39 71.985 81.73 72.485 72.301 71.837 71.556 71.415 71.667 -9999 -9999 83.543 84.482 75.79 75.507 77.798 81.191 82.193 82.902 82.919 82.954 83.086 83.161 83.161 83.133 83.104 83.097 83.093 83.079 83.057 83.071 83.148 83.227 83.258 83.294 83.294 83.145 81.429 80.082 90.536 90.43 87.052 95.989 101.126 92.805 100.194 91.96 103.467 100.791
42.514 42.848 42.355 42.33 45.65 45.778 47.895 49.785 51.916 53.394 53.078 51.835 45.673 43.476 43.402 43.233 43.258 43.236 43.217 43.94 46.508 47.291 51.752 46.909 44.697 43.846 43.954 44.08 44.14 44.327 45.112 44.787 44.543 44.694 45.169 51.842 52.713 53.279 55.008 54.317 54.652 54.542 54.437 55.071 52.877 48.786 48.127 46.53 46.587 46.658 46.54 48.431 55.407 53.371 47.377 47.592 47.811 48.111 48.273 48.401 48.445 48.417 48.427 48.441 48.407 48.327 48.358 48.431 48.519 48.584 48.622 48.696 48.795 48.805 48.865 48.921 49.009 49.083 49.337 49.745 49.987 49.919 49.721 49.487 49.414 49.412 49.356 49.352 49.473 49.456 49.536 49.617 49.535 49.595 49.91 50.828 54.659 51.681 50.419 49.485 49.321 49.186 49.195 49.996 49.446 53.035 56.997 58.303 58.344 57.425 55.43 49.308 49.154 49.153 49.315 49.777 56.183 57.385 58.574 58.437 56.766 50.91 49.167 49.225 49.232 49.229 49.369 49.619 49.714 50.895 49.555 51.408 50.51 49.342 49.457 49.444 49.442 49.724 57.636 59.34 59.604 59.601 57.884 50.032 49.91 49.967 50.467 51.147 50.431 57.674 58.92 59.44 58.146 52.83 50.438 50.39 50.474 50.54 50.556 53.97 52.86 51.308 50.637 50.667 50.686 50.673 50.629 51.125 50.748 50.582 50.783 50.877 50.927 50.896 51.22 52.971 52.888 56.61 60.102 62.685 63.395 59.663 54.49 58.378 60.84 61.14 60.432 56.068 54.516 54.487 54.474 54.541 54.543 54.539 54.763 58.299 62.331 61.267 56.288 54.878 58.988 60.106 60.835 61.072 58.61 58.987 59.859 60.684 56.556 54.607 54.699 54.692 54.793 54.371 54.224 54.247 54.189 54.135 54.032 54.03 54.077 54.157 54.3 61.619 57.111 55.777 58.037 58.086 58.01 57.987 54.44 54.933 53.516 53.513 53.875 58.815 57.892 57.701 60.475 56.622 54.485 54.659 54.657 54.653 54.764 55.122 55.249 54.767 54.729 54.618 54.526 54.444 54.334 54.355 54.222 54.167 54.876 54.545 53.881 54.008 54.036 54.032 53.97 54.012 54.08 54.069 54.072 54.035 54.003 53.858 53.906 53.742 53.74 53.726 53.777 53.822 54.213 54.06 54.209 56.384 55.181 55.237 59.143 61.544 62.4 62.017 61.235 59.176 55.7 55.328 55.504 55.802 56.055 56.397 56.457 56.549 56.75 62.258 63.033 63.286 62.645 59.012 58.034 58.497 59.009 58.458 58.981 58.818 59.2 59.658 60.014 65.189 66.448 66.884 65.798 60.614 60.19 60.462 62.147 62.487 60.705 62.681 61.542 60.347 63.315 64.237 64.923 67.034 67.525 67.218 67.282 67.557 67.545 67.683 67.433 67.398 68.899 69.601 69.4 69.221 68.943 69.571 69.813 69.722 69.064 68.835 67.057 65.191 64.272 64.213 64.195 64.725 65.233 65.699 65.675 65.705 65.832 65.925 66.071 66.863 71.39 73.413 72.622 66.612 66.642 69.09 73.622 78.714 79.137 78.058 75.464 71.514 75.808 79.788 80.371 80.602 79.818 78.961 75.781 72.738 71.457 71.684 71.906 72.18 72.684 71.783 73.497 73.569 73.385 77.803 71.841 71.612 71.583 71.902 72.84 73.258 73.865 75.015 75.904 76.448 78.62 82.539 82.756 82.905 82.874 82.98 83.089 83.13 83.127 83.152 83.131 83.101 83.123 83.113 83.134 83.099 83.158 83.213 83.255 83.309 83.307 82.585 77.282 80.106 89.287 87.506 97.605 87.972 88.773 85.992 92.747 99.138 97.833 95.848
42.703 42.659 42.382 43.162 44.818 46.208 47.864 52.113 51.89 53.3 53.193 51.624 45.03 44.686 43.836 43.221 43.283 43.249 43.191 44.968 45.003 47.685 53.973 53.88 48.228 43.882 44.331 44.286 44.184 44.247 44.365 44.558 44.491 44.957 44.757 44.941 45.462 51.427 52.45 53.22 55.903 54.862 55.003 54.955 53.966 54.803 52.158 48.366 46.911 46.728 46.806 46.866 46.797 46.882 47.03 47.298 48.328 47.793 48.057 48.298 48.517 48.607 48.624 48.652 48.568 48.491 48.502 48.481 48.535 48.594 48.647 48.712 48.79 48.866 48.895 48.965 48.963 49.209 49.454 49.857 49.937 49.759 49.435 49.312 49.324 49.315 49.312 49.297 49.272 49.248 49.237 49.257 49.292 49.402 49.469 49.612 49.636 49.536 49.458 49.378 49.219 49.173 49.145 49.576 50.114 56.377 57.881 58.636 58.216 56.837 49.155 49.584 49.044 49.09 49.322 53.788 56.713 58.093 58.705 57.933 56.283 49.931 49.077 49.099 49.145 49.137 49.462 56.426 55.544 49.892 50.435 50.968 49.348 49.25 49.342 49.395 49.434 51.33 57.298 59.154 59.564 58.556 52.759 49.828 49.83 49.951 50.078 50.398 56.131 59.021 59.475 59.007 57.645 51.145 50.318 50.372 50.463 50.425 50.543 56.298 58.26 57.338 51.007 50.589 50.571 50.624 50.603 50.558 51.018 50.476 50.509 50.712 50.792 50.745 50.893 51.275 51.932 58.799 62.009 63.03 62.507 59.079 54.565 59.49 60.768 60.948 60.121 54.71 54.198 54.293 54.342 54.304 54.355 54.283 56.183 58.404 58.257 55.521 55.676 54.9 59.417 60.388 60.717 59.484 57.888 59.997 60.044 58.675 56.04 54.434 54.482 54.449 54.396 54.11 53.911 53.928 54.806 53.893 53.8 53.771 53.78 53.881 53.85 59.212 56.367 59.419 60.453 60.477 60.398 60.292 57.679 57.454 55.792 54.005 53.218 57.157 60.892 61.881 56.74 56.659 54.329 54.474 54.509 54.532 54.639 55.042 54.633 55.298 54.854 54.505 54.409 54.333 54.227 54.137 54.069 54.038 53.99 54.725 56.355 54.301 54.041 54.026 53.911 55.676 55.212 54.055 53.968 53.985 53.953 53.798 53.74 53.735 53.747 53.734 53.78 53.807 53.824 53.885 54.046 54.941 55.019 55.159 59.101 61.43 62.32 62.191 61.155 58.778 55.864 55.722 55.412 55.654 55.971 56.236 56.44 57.731 59.989 61.874 62.734 63.315 61.755 57.46 57.865 58.319 57.503 57.805 57.922 59.085 59.423 58.787 59.016 61.805 60.488 61.682 60.115 59.442 59.662 62.94 62.417 64.78 61.253 64.559 65.078 65.25 66.852 67.508 67.445 67.763 67.595 67.441 67.457 67.035 67.017 63.361 65.643 64.186 66.628 68.69 68.2 68.299 67.707 65.612 68.268 67.012 64.872 64.632 65.62 64.062 64.032 65.05 64.234 64.647 65.146 65.416 65.448 65.46 65.639 65.776 66.583 71.789 72.818 72.969 70.793 66.539 66.636 68.502 71.569 77.914 78.84 77.549 75.969 77.631 79.024 80.639 80.953 80.178 79.775 75.431 73.671 73.688 72.49 70.975 71.106 71.632 73.197 72.628 73.694 73.895 73.356 72.968 74.018 71.53 71.862 72.504 73.296 73.97 73.459 74.628 74.992 74.776 77.171 81.054 82.621 82.897 82.976 83.06 83.093 83.135 83.106 83.094 83.102 83.105 83.115 83.138 83.206 83.172 83.208 83.23 83.259 83.334 83.361 78.937 74.324 74.649 80.854 83.756 95.441 88.167 92.119 83.957 86.45 95.802 89.603 90.085
42.783 42.63 42.409 43.195 44.466 44.081 44.019 49.607 51.277 53.493 53.006 52.238 45.356 45.023 43.655 43.227 43.207 43.235 43.223 45.243 45.323 48.169 50.986 48.992 51.356 46.489 44.272 44.435 44.495 44.437 44.401 44.512 44.53 44.887 45.083 44.879 44.97 45.35 46.651 51.612 53.525 53.724 55.367 54.802 55.083 55.589 54.408 53.866 53.225 48.097 47.418 47.229 47.408 47.037 46.962 47.047 47.37 48.038 47.966 47.992 48.253 48.542 50.999 48.853 48.761 48.717 48.638 48.62 48.599 48.594 48.689 48.736 48.802 48.84 48.91 48.97 49.022 49.28 49.596 49.851 49.802 49.506 49.29 49.259 49.294 49.3 49.27 49.242 49.235 49.185 49.182 49.173 49.203 49.22 49.238 49.333 49.35 49.285 49.274 49.234 49.107 49.073 49.14 49.7 50.103 56.495 58.543 58.531 58.14 52.548 48.925 49.144 48.977 49.734 49.367 51.035 57.826 58.836 58.253 57.29 52.584 48.955 49.011 49.086 49.058 49.299 54.981 57.645 58.123 57.885 55.543 50.324 49.164 49.236 49.258 49.881 49.379 50.126 49.872 52.636 57.768 59.236 51.539 49.672 49.782 49.852 49.841 53.354 56.866 57.998 58.819 59.7 56.854 50.262 50.227 50.289 50.316 50.304 53.867 57.671 58.754 59.458 56.765 51.927 50.484 50.512 50.555 50.514 50.478 50.388 50.366 50.457 50.653 50.681 50.647 50.866 51.45 59.574 61.839 62.749 62.267 59.647 54.462 58.958 59.81 59.942 59.364 53.624 53.64 53.863 54.076 59.112 59.088 55.158 53.739 57.809 58.959 54.247 56.132 57.424 59.81 60.548 60.346 59.486 54.539 57.611 55.908 55.96 54.462 54.171 54.213 54.253 54.178 54.058 54.628 54.882 54.11 53.594 53.519 53.511 53.515 53.59 53.659 53.732 53.77 59.003 61.452 61.396 61.393 61.195 59.465 58.912 58.838 58.795 53.826 56.193 56.757 60.588 60.015 56.204 54.245 54.288 54.311 54.391 54.763 55.794 55.665 55.478 54.588 55.619 54.857 54.43 54.11 54.08 53.98 54.261 54.613 59.306 60.426 58.324 56.382 54.038 56.752 57.603 57.074 56.197 55.817 54.054 53.913 53.854 53.767 53.734 53.742 53.728 53.741 53.796 53.85 53.856 53.923 55.231 55.505 55.353 56.619 61.173 62.003 62.366 61.55 60.886 58.031 55.899 55.395 55.631 55.933 56.229 56.428 56.928 57.547 57.743 61.32 62.504 60.846 57.166 56.984 57.068 57.488 57.491 57.801 57.994 58.354 58.406 58.711 58.74 58.944 59.125 59.283 60.807 62.532 61.067 59.848 65.014 66.083 66.166 66.421 66.671 67.517 67.323 67.244 66.913 66.97 62.976 65.596 63.548 63.086 61.515 62.016 63.693 65.728 63.911 64.245 63.735 62.892 63.038 63.757 63.813 64.259 64.073 64.074 64.037 64.022 64.422 64.288 64.722 65.08 65.178 65.156 65.322 65.482 65.613 65.85 71.533 73.375 72.447 67.814 66.853 67.797 68.126 68.217 74.031 72.21 75.394 76.361 77.396 78.58 80.064 80.797 80.821 80.084 73.524 70.671 72.526 71.6 70.997 70.879 70.867 72.325 73.057 73.549 74.584 73.31 73.233 71.572 71.248 71.635 72.091 73.895 74.942 74.881 74.465 75.226 75.992 77.87 83.068 82.482 82.899 82.981 83.064 83.113 83.156 83.14 83.125 83.104 83.086 83.098 83.07 83.114 83.199 83.237 83.245 83.305 83.334 83.321 74.929 75.062 74.934 79.466 84.526 87.474 82.985 82.441 83.062 86.029 88.828 89.627 99.639
