ncols 423
nrows 32
xllcorner    428040
yllcorner    435676
cellsize     2
NODATA_value -9999
-9999 -9999 81.445 81.179 81.072 81.958 82.565 83.096 83.444 84.01 84.236 84.383 84.422 84.383 84.407 84.396 84.468 84.547 84.589 84.574 84.767 85.57 86.197 86.365 89.262 91.685 93.696 92.759 92.205 94.23 95.007 95.14 94.347 92.525 90.307 88.987 88.804 89.109 90.617 94.92 96.173 95.828 94.532 93.746 91.483 89.528 89.876 91.371 91.767 90.936 -9999 89.893 89.836 89.703 90.051 90.397 90.607 91.119 91.06 91.454 93.641 94.676 93.405 96.838 97.763 97.283 96.677 93.408 92.3 92.204 92.423 92.553 92.625 92.731 93.495 94.422 94.407 94.48 -9999 -9999 -9999 92.108 91.771 92.174 93.721 95.718 94.926 93.175 93.335 93.495 94.044 95.129 98.414 99.733 101.342 101.886 101.578 101.497 101.285 100.516 100.311 100.534 99.538 99.491 97.74 96.399 94.929 94.834 94.812 94.685 94.952 95.94 95.205 95.033 94.966 95.066 95.191 95.321 95.335 95.626 96.218 96.715 96.133 96.828 97.408 100.022 99.407 100.364 104.054 104.007 105.383 105.429 103.155 101.31 102.492 105.506 106.714 105.031 104.583 103.749 99.984 98.8 -9999 -9999 -9999 97.791 97.774 97.783 97.792 97.729 97.618 97.804 98.673 100.48 98.227 97.876 97.657 97.726 97.717 97.722 97.745 97.738 97.659 97.47 97.341 97.403 97.434 97.506 97.601 97.71 98.536 101.016 103.246 104.213 104.741 101.386 99.056 99.122 100.482 101.716 101.723 101.978 104.874 107.356 101.481 99.562 99.368 99.168 99.092 99.063 99.307 100.279 100.935 99.49 99.072 98.788 98.6 98.513 98.568 98.541 98.52 98.396 98.319 98.534 98.455 98.362 98.47 98.558 98.483 98.486 98.531 98.952 100.341 101.906 101.178 99.598 100.476 105.015 107.111 106.174 104.685 101.881 99.836 103.939 104.702 101.682 99.797 99.239 99.285 99.315 99.333 99.355 99.383 99.416 100.246 106.201 100.606 99.609 99.411 99.336 99.351 99.383 99.383 99.438 99.402 99.382 99.45 99.403 99.311 99.241 99.862 101.468 101.099 97.471 97.451 98.246 98.554 98.949 99.121 99.196 99.199 99.201 99.219 99.261 99.311 99.736 103.186 103.314 101.419 98.766 98.756 98.771 98.759 99.591 98.404 98.429 98.444 98.496 99.506 101.519 98.596 98.534 98.284 99.514 95.966 96.099 96.076 101.356 106.566 107.464 106.891 106.751 107.234 106.904 102.824 97.849 103.774 106.104 102.916 106.054 106.166 106.154 105.759 97.269 98.596 97.409 97.441 97.426 97.406 97.359 97.369 96.451 95.726 96.159 95.979 96.211 96.094 96.036 105.571 106.634 107.674 107.831 105.469 105.716 97.079 96.679 96.504 96.464 96.406 96.351 96.396 96.394 96.071 98.739 97.171 96.939 97.229 97.371 97.366 97.494 101.009 106.301 107.211 108.026 107.354 106.201 100.576 97.579 97.596 97.686 98.414 97.594 96.914 96.944 97.286 96.999 99.779 98.801 98.904 98.926 99.024 98.764 103.816 98.859 98.949 99.664 105.446 100.436 99.624 99.094 99.604 99.246 104.631 104.236 102.096 101.951 99.411 98.924 98.924 98.949 98.964 98.969 98.961 98.934 98.926 99.236 99.169 99.574 99.524 99.404 99.924 99.896 100.144 97.731 97.791 97.721 97.789 97.774 97.681 98.119 99.926 100.041 99.759 99.766 99.819 99.896 99.759 99.656 102.136 102.241 101.124 98.281 97.671 97.184 97.074 97.094 97.136 97.209 97.254 97.256 97.256 97.276 97.294
82.442 82.517 82.086 81.654 81.229 81.469 82.251 82.647 82.949 83.522 84.08 84.44 84.432 84.381 84.398 84.345 84.448 84.544 84.552 84.466 84.527 85.044 85.732 86.079 88.141 91.121 93.16 93.734 94.439 95.656 94.656 93.724 93.949 92.478 90.607 88.781 89.472 90.627 94.172 96.637 96.11 94.82 92.798 91.238 89.992 89.443 89.769 90.74 91.25 -9999 -9999 -9999 89.945 89.916 90.251 90.569 90.912 91.179 91.909 95.06 96.458 96.017 93.902 93.771 95.616 95.222 93.439 93.133 92.386 92.666 92.549 92.605 92.581 92.632 93.037 93.725 94.149 94.109 -9999 -9999 -9999 91.935 92.014 92.007 92.039 93.637 92.849 92.233 92.858 93.132 93.347 93.802 94.557 95.333 98.323 100.365 100.101 100.117 100.808 101.017 100.988 101.439 101.082 100.406 99.369 96.963 95.168 94.964 94.821 94.887 95.041 95.387 95.012 95.033 94.883 95.042 95.243 95.597 95.87 95.977 95.865 95.726 96.402 96.918 96.874 97.155 96.413 96.653 98.598 96.971 99.016 99.616 98.059 97.338 99.452 102.703 105.059 104.953 105.436 105.387 98.636 98.167 98.008 97.344 97.593 98.2 98.095 98.285 98.213 98.009 97.891 97.769 100.504 104.073 98.542 97.81 97.65 97.648 97.709 97.681 97.749 97.779 97.773 97.549 97.429 97.392 97.407 97.445 97.515 97.727 98.044 98.828 101.254 104.295 104.16 100.938 97.917 100.189 104.656 108.144 107.136 103.986 102.898 102.441 102.13 101.953 100.694 99.925 99.124 99.076 99.462 100.391 100.192 99.181 98.872 98.7 98.525 98.445 98.475 98.507 98.563 98.452 98.316 98.42 98.412 98.376 98.441 98.518 98.471 98.472 98.562 99.021 100.442 101.925 101.701 101.148 101.174 108.642 109.493 109.183 105.097 102.049 100.053 100.132 102.561 102.533 99.422 99.139 99.199 99.226 99.224 99.239 99.297 99.316 105.346 108.039 105.806 99.354 99.914 99.436 99.256 99.264 99.286 99.326 99.329 99.316 99.339 99.269 99.199 99.114 99.171 100.651 103.201 97.306 97.291 98.066 98.609 98.861 98.984 99.029 99.059 99.109 99.116 99.156 99.241 99.269 99.309 99.354 98.741 98.704 98.689 98.731 100.714 98.496 98.391 98.401 98.416 98.429 98.439 98.464 98.476 98.114 98.179 99.364 95.889 95.964 95.939 104.139 106.721 107.184 107.354 107.441 107.456 106.694 100.994 97.689 105.324 106.161 105.596 105.606 106.106 105.401 101.001 97.126 98.161 97.371 97.401 97.379 97.364 97.364 97.384 96.046 95.816 95.549 95.479 95.539 96.161 96.946 96.691 97.884 104.466 106.259 106.571 105.489 97.164 96.739 96.314 96.289 96.289 96.254 96.266 97.094 95.926 98.499 97.264 97.314 96.824 96.966 97.124 97.256 104.634 106.344 107.409 107.909 108.056 105.791 98.781 97.646 97.371 97.109 96.974 97.059 96.804 96.831 96.761 96.946 100.269 98.219 97.906 98.084 98.236 98.301 98.504 98.696 98.836 98.964 99.054 99.919 99.106 99.691 99.246 99.999 104.481 104.279 100.704 99.216 99.584 98.926 98.936 98.936 98.946 98.956 98.966 98.944 98.934 98.921 98.909 98.891 98.879 98.916 99.051 98.961 100.356 97.466 97.444 97.586 97.664 98.651 98.041 98.546 99.491 99.486 99.726 99.969 101.831 101.731 99.794 100.419 102.949 104.756 99.106 98.041 97.419 97.746 97.619 98.239 97.569 97.686 97.229 97.229 97.251 97.276 98.294
83.395 82.916 82.915 83.205 82.198 81.189 81.75 82.386 82.671 83.002 83.701 84.328 84.44 84.415 84.412 84.427 84.463 84.566 84.616 84.481 84.486 84.719 85.123 85.76 87.028 88.777 91.651 92.547 94.564 94.968 92.338 91.226 91.761 90.282 88.518 89.164 91.935 93.989 95.031 95.431 94.994 94.403 92.68 89.696 89.448 89.446 89.523 -9999 -9999 -9999 -9999 90.164 90.026 89.852 90.433 90.927 90.88 92.311 96.341 97.236 97.279 95.941 94.758 92.73 92.387 93.361 92.066 92.2 92.709 93.046 92.692 92.646 92.615 92.483 92.452 92.467 93.643 93.491 -9999 -9999 -9999 -9999 91.903 91.905 92.089 92.427 92.159 92.08 92.297 92.427 93.03 93.108 93.074 93.319 93.738 94.69 96.4 99.032 98.475 98.496 99.666 100.49 100.932 101.445 101.685 99.939 99.594 98.695 96.878 96.247 96.227 96.208 95.68 95.406 95.073 95.121 95.378 95.853 96.633 96.205 96.054 96.19 96.644 96.809 96.707 96.537 96.412 95.98 96.127 96.39 96.832 96.792 96.657 96.733 97.56 100.679 103.351 103.146 101.969 99.665 98.199 98.035 97.438 97.151 97.719 98.174 98.079 98.18 98.817 98.206 98.089 98.059 99.029 99.831 98.701 97.755 97.693 97.574 97.592 97.621 97.772 97.785 97.702 97.43 97.445 97.42 97.44 97.441 97.442 97.598 97.842 97.87 100.491 104.693 106.514 106.54 101.555 105.176 109.988 109.629 110.773 103.5 102.345 102.138 103.709 103.671 106.491 103.665 99.691 99.245 99.883 100.737 100.015 99.135 98.808 98.607 98.507 98.434 98.416 98.42 98.479 98.486 98.358 98.419 98.448 98.369 98.373 98.424 98.434 98.479 98.536 98.867 100.811 102.374 102.746 102.094 103.491 106.078 107.961 108.759 107.557 107.865 103.949 100.033 99.532 99.644 99.115 99.037 99.169 99.702 99.432 99.202 99.28 99.236 104.896 106.371 101.741 99.224 99.164 99.129 99.096 99.166 99.191 99.194 99.191 99.199 99.141 99.114 99.046 99.084 99.816 99.611 100.419 97.146 97.784 98.056 98.554 98.716 98.819 98.841 98.911 98.961 99.009 99.069 99.124 99.221 98.841 98.471 98.459 98.549 98.604 98.651 100.871 98.334 98.311 98.309 98.334 98.366 98.381 98.379 98.264 98.076 98.061 97.399 95.769 95.814 95.824 103.416 106.099 106.239 106.404 106.551 106.729 106.484 98.664 98.126 105.446 106.191 106.714 106.146 106.019 104.926 97.046 97.071 99.009 97.324 97.294 97.591 97.361 97.721 97.914 95.596 95.389 95.401 95.616 95.544 95.964 98.591 98.461 98.329 97.289 96.139 96.149 96.651 96.264 96.356 96.351 96.329 96.644 96.124 95.816 95.941 95.756 96.106 96.281 96.449 96.639 96.876 97.079 97.269 105.514 106.549 107.624 107.639 107.549 105.529 98.154 97.584 98.286 97.549 96.636 97.691 96.696 96.689 96.644 96.686 96.924 97.171 97.356 97.624 97.914 98.184 98.419 98.626 98.794 98.919 99.006 99.059 99.094 99.149 99.149 103.014 104.369 104.046 99.181 99.091 98.926 98.911 98.926 98.946 98.946 98.936 98.946 98.929 98.901 98.881 98.879 98.879 98.864 98.819 98.744 98.781 99.719 97.301 97.319 97.454 97.496 102.456 98.236 98.864 98.611 98.919 99.104 99.284 99.081 99.461 99.466 99.561 99.924 98.676 97.156 96.289 96.609 95.966 96.144 97.511 97.049 97.809 98.041 97.219 99.039 97.694 99.529
82.542 82.678 83.155 83.112 82.529 81.385 81.512 82.286 82.553 82.872 83.272 84.01 84.375 84.448 84.44 84.44 84.464 84.472 84.448 84.47 84.435 84.377 84.986 85.7 86.394 88.42 90.289 89.945 92.208 93.096 91.086 89.353 88.761 88.045 88.969 90.369 92.855 94.236 94.526 94.759 94.004 91.56 89.515 89.371 89.696 89.59 89.695 -9999 -9999 -9999 90.182 90.201 90.165 90.205 90.486 90.794 91.743 95.398 97.429 98.166 97.593 96.961 95.833 92.892 91.851 91.71 91.903 92.292 92.627 92.28 92.597 92.824 92.539 92.264 92.148 92.307 92.621 92.432 92.071 91.694 -9999 91.675 91.76 91.807 -9999 92.123 92.26 92.275 92.352 92.397 92.533 92.555 92.456 92.836 92.718 93.23 93.921 94.931 94.436 94.698 96.011 97.476 98.604 100.581 101.221 102.119 102.358 102.277 101.467 100.883 102.209 101.936 100.84 98.411 95.995 95.603 95.63 95.875 96.989 96.981 97.065 96.414 96.906 97.378 97.076 96.777 96.832 96.297 96.08 96.251 96.676 96.733 96.624 97.019 97.588 99.177 103.16 101.06 99.317 97.577 97.725 97.822 97.454 97.438 97.91 98.473 98.366 98.767 98.345 98.017 98.157 98.046 98.073 98.245 97.887 97.703 97.743 97.607 97.622 97.693 97.731 97.78 97.73 97.561 97.51 97.455 97.546 97.651 97.646 97.608 97.503 98.634 101.345 105.181 105.963 107.048 107.683 107.935 109.852 109.939 108.446 105.712 105.942 106.987 106.319 106.336 106.796 104.346 100.676 100.143 101.063 101.338 100.319 99.016 98.697 98.575 98.447 98.417 98.391 98.434 98.447 98.433 98.389 98.437 98.321 98.321 98.353 98.342 98.333 98.464 98.486 98.699 100.578 102.088 101.752 101.904 102.595 104.084 105.38 106.769 101.562 105.951 102.348 99.262 98.789 98.827 98.871 98.871 99.097 100.291 99.363 99.122 99.43 99.312 99.946 101.921 99.179 99.119 99.044 99.006 99.014 99.084 99.026 99.006 99.041 99.004 99.009 98.966 98.966 99.034 99.089 100.501 100.124 101.894 98.246 97.999 98.449 98.604 98.661 98.724 98.754 98.784 98.851 98.899 98.979 98.344 98.264 99.089 98.906 98.371 98.421 99.939 102.001 101.014 98.356 98.159 98.201 98.236 98.239 98.211 98.109 97.621 98.396 95.594 95.654 95.639 96.991 97.641 98.711 100.199 100.991 103.706 105.471 106.019 97.566 99.034 105.064 105.426 105.524 105.631 105.706 101.189 96.929 96.861 97.296 97.331 97.194 99.134 98.671 99.411 98.914 95.309 95.149 95.256 95.291 95.314 102.504 102.446 103.861 103.656 99.114 98.491 96.339 95.674 95.656 95.674 95.809 96.044 101.014 102.676 95.749 95.529 95.751 96.441 97.146 97.431 97.256 97.454 97.274 97.586 105.749 106.801 107.841 107.361 106.894 105.089 97.349 99.394 98.669 96.831 96.469 98.004 96.566 96.569 96.524 96.629 96.836 97.071 97.336 97.709 97.909 98.179 98.406 98.596 98.756 98.869 98.946 98.999 99.056 99.101 99.136 103.041 103.751 102.716 98.991 99.026 98.879 98.899 98.914 98.919 98.924 98.929 98.934 98.916 98.884 98.856 98.844 98.851 98.829 98.794 98.651 98.769 98.946 97.234 97.384 97.311 97.329 101.021 97.356 99.609 97.836 98.081 98.216 98.439 98.479 98.611 98.509 98.341 100.566 98.041 96.429 96.096 95.381 95.361 95.331 95.381 98.374 96.174 96.074 98.519 97.534 98.599 98.814
81.466 81.993 82.912 83.014 83.215 82.24 81.523 81.98 82.32 82.676 82.996 83.727 84.05 84.38 84.412 84.396 84.41 84.4 84.404 84.43 84.432 84.509 85.116 85.55 86.614 87.265 87.695 88.148 89.028 92.371 90.32 88.135 88.346 89.712 92.102 92.849 92.404 91.36 92.523 93.336 91.227 89.409 89.336 89.41 89.828 90.032 89.911 89.922 89.874 89.949 90.116 90.249 90.217 90.207 90.363 92.403 96.011 96.787 97.751 97.807 96.807 93.547 92.319 91.627 91.56 92.805 92.955 92.008 91.988 92.104 92.321 93.472 93.053 92.747 92.302 92.396 92.272 91.967 91.699 91.59 91.601 91.709 91.813 91.87 92.044 92.259 92.445 92.399 92.357 92.379 92.429 92.497 92.47 92.603 92.734 92.951 92.968 93.048 93.796 93.762 94.347 95.173 96.395 98.023 97.874 100.26 102.663 101.87 100.877 102.43 104.297 103.735 103.973 102.502 99.425 96.868 96.751 97.09 99.7 100.883 99.634 97.268 96.543 97.038 96.921 96.946 97.689 96.75 96.356 96.602 96.841 96.798 96.993 97.344 97.487 98.113 99.579 98.66 98.013 97.825 97.693 -9999 -9999 97.798 97.684 98.795 97.93 98.075 98.064 99.134 98.585 98.054 98.001 97.96 97.612 97.608 97.657 97.719 97.781 97.587 97.669 97.707 97.637 97.622 97.57 97.447 97.561 98.074 97.83 97.504 97.596 98.055 99.202 100.962 102.23 103.935 106.264 106.899 107.368 108.501 109.548 109.3 109.476 110.51 108.009 107.957 107.464 101.235 101.884 102.31 103.073 102.028 100.383 98.852 98.682 98.588 98.48 98.443 98.432 98.453 98.463 98.355 98.353 98.349 98.323 98.331 98.31 98.29 98.215 98.295 98.376 98.48 99.107 100.585 100.828 101.282 100.739 101.699 100.065 101.149 100.322 100.659 99.373 98.737 98.652 98.669 98.646 98.67 98.98 100.82 99.228 98.882 98.961 99.006 99.029 99.059 99.076 98.956 98.906 98.886 98.916 98.926 98.889 98.861 98.851 98.841 98.831 98.844 98.854 98.914 98.851 98.276 96.851 96.794 98.011 98.131 98.354 98.441 98.524 98.551 98.594 98.634 98.679 98.724 98.711 98.054 99.256 99.049 98.099 98.181 98.239 101.304 100.889 99.234 99.084 98.174 98.054 98.081 98.084 98.011 97.894 96.491 98.179 95.469 95.511 95.496 98.139 98.244 98.214 97.861 97.424 97.759 97.556 97.516 97.971 98.841 99.181 99.139 98.516 101.656 102.471 98.659 96.751 96.776 96.996 96.764 96.879 97.051 100.421 99.011 97.511 95.174 95.054 95.069 95.224 95.251 99.361 101.321 104.709 104.574 104.939 104.346 104.039 95.769 95.571 95.546 95.506 95.456 95.401 95.339 95.289 95.369 96.009 96.164 96.404 96.989 97.474 97.349 97.681 98.651 105.974 107.046 108.001 107.141 106.109 104.356 97.266 97.291 97.491 98.964 96.306 96.796 96.454 96.414 96.986 99.841 98.066 97.976 98.364 98.911 98.804 98.624 98.411 98.604 98.744 98.861 98.926 98.984 99.031 99.081 99.664 103.326 103.589 102.121 98.841 98.846 98.869 98.876 98.874 98.886 98.909 98.919 98.906 98.891 98.876 98.849 98.831 98.821 98.799 98.766 98.519 99.454 97.456 97.841 97.169 97.159 97.166 97.056 97.194 99.654 97.749 97.746 97.721 97.811 97.824 97.829 98.274 97.416 109.674 102.031 101.361 94.289 93.866 96.684 99.551 95.369 94.979 95.356 95.104 95.504 95.594 96.014 97.649
81.025 82.146 82.58 82.384 82.449 81.92 81.849 81.926 82.283 82.548 82.841 83.237 83.641 84.17 84.381 84.376 84.407 84.337 84.417 84.452 84.549 84.762 84.975 85.924 87.012 86.667 87.245 88.132 88.475 88.436 88.083 87.791 89.707 92.931 93.577 93.857 92.117 89.087 90.081 90.808 89.278 88.901 89.259 89.585 89.637 90.076 90.295 90.504 90.064 89.837 90.07 90.252 90.236 89.856 90.31 91.976 93.863 94.564 97.42 95.733 93.312 91.623 91.502 91.528 91.747 93.467 92.485 92.484 92.143 92.075 92.467 94.818 94.58 93.785 93.351 92.628 92.008 91.853 91.395 91.437 91.638 91.791 91.786 91.892 92.138 92.324 92.423 92.348 92.236 -9999 92.527 92.626 92.59 92.695 92.807 93.185 92.889 92.887 93.485 93.689 93.875 93.982 94.745 95.923 94.824 95.95 97.718 97.597 98.002 98.494 100.267 103.967 104.307 103.329 -9999 -9999 -9999 100.73 104.128 105.543 102.225 98.067 96.181 96.543 96.547 97.075 97.501 96.483 96.432 96.897 97.204 96.767 96.916 97.127 97.26 97.486 97.646 97.258 96.824 97.018 96.938 -9999 -9999 97.727 97.892 97.951 97.831 98.184 100.64 105.616 102.563 99.433 99.285 98.471 98.79 98.352 97.883 97.719 97.686 97.916 97.739 97.679 97.676 97.689 97.648 97.655 97.802 98.441 98.093 97.566 97.415 97.412 97.565 97.523 97.756 98.72 100.011 101.072 101.559 102.29 102.973 109.169 108.932 108.073 107.494 107.132 105.214 101.945 102.518 103.994 103.386 102.171 100.748 99.533 99.545 98.738 98.459 98.439 98.476 98.45 98.386 98.357 98.361 98.333 98.308 98.247 98.299 98.328 98.198 98.228 98.312 98.575 99.581 100.136 100.325 100.051 99.733 99.335 98.925 99.753 98.727 98.636 98.654 98.568 98.501 98.486 98.506 98.613 99.161 100.895 99.696 98.71 98.744 98.861 98.934 99.044 98.914 98.859 98.796 98.799 98.816 98.801 98.814 98.781 98.759 98.774 98.724 98.691 98.716 98.766 98.681 97.059 96.649 96.874 97.459 98.111 98.271 98.334 98.356 98.411 98.441 98.491 98.506 98.569 98.466 97.881 97.919 97.859 97.934 97.996 98.321 99.909 100.929 99.921 99.204 98.621 97.969 97.891 97.859 97.796 97.681 97.249 95.779 95.366 95.381 95.384 95.616 96.044 97.304 96.296 96.391 97.049 96.281 96.361 97.454 98.961 96.984 97.031 97.041 97.019 97.096 96.999 96.591 96.654 96.879 96.484 96.604 100.106 99.694 100.544 98.679 95.266 95.561 95.859 95.189 95.229 95.234 95.266 105.509 105.524 105.549 104.846 103.881 95.679 95.414 95.216 95.921 95.886 96.521 95.404 95.139 95.241 96.069 95.856 96.029 96.129 96.349 96.771 96.779 96.984 97.106 98.404 103.191 104.804 105.884 100.339 97.159 97.209 97.634 97.516 96.186 96.296 96.336 96.276 100.084 104.634 101.111 101.529 98.921 99.701 102.986 101.864 98.704 99.086 98.804 99.181 99.619 99.004 99.084 99.094 100.871 103.566 103.374 100.381 98.764 98.709 98.726 98.914 98.784 98.816 98.861 98.891 98.881 98.869 98.844 98.819 98.816 98.814 98.796 98.739 98.356 99.964 96.854 96.901 96.914 97.011 96.984 98.339 98.464 101.409 101.666 97.814 97.999 97.649 97.599 97.514 97.259 100.891 111.334 111.449 103.031 93.784 93.646 93.516 97.344 93.739 94.406 94.329 94.394 94.756 94.946 95.194 97.086
81.009 82.296 83.795 82.194 81.954 81.937 81.906 81.963 82.294 82.432 82.699 82.939 83.172 83.789 84.304 84.479 84.516 84.478 84.491 84.549 84.83 85.289 85.205 85.798 86.282 87.006 87.662 88.769 88.526 88.058 87.396 87.863 91.163 93.643 94.003 93.415 92.372 91.038 90.894 90.539 89.372 88.924 89.478 89.875 89.895 90.26 90.808 91.066 90.526 90.149 89.843 90.289 91.093 92.506 91.218 92.174 92.836 94.947 94.33 92.869 91.588 91.374 91.453 91.562 91.615 91.735 92.411 92.594 91.683 93.336 94.16 95.781 94.394 94.064 93.418 92.743 92.2 92.061 91.554 91.393 91.632 91.846 91.891 91.986 91.886 91.759 91.928 91.961 92.056 92.329 92.543 92.75 92.66 92.693 92.864 93.138 93.142 93.431 93.928 93.59 93.638 93.922 94.788 95.374 93.999 94.402 94.491 94.934 95.93 95.584 95.929 99.113 100.03 100.212 99.854 99.684 100.401 101.26 103.825 105.253 104.57 101.575 97.854 96.581 96.786 97.172 96.848 96.394 96.501 96.672 96.805 96.561 96.693 96.646 97.01 97.06 96.829 96.742 96.736 96.871 96.925 97.253 97.227 97.332 97.692 97.432 97.731 101.389 105.961 106.483 105.213 104.333 102.993 103.997 101.922 100.051 101.525 99.379 98.625 99.069 98.049 97.712 97.696 97.711 98.043 98.391 98.351 98.704 97.972 97.517 97.518 97.682 97.542 97.497 97.303 97.096 97.382 97.033 97.176 98.049 98.077 102.702 103.572 103.499 106.644 105.625 102.484 99.045 100.808 103.265 103.227 102.749 101.991 101.389 101.167 99.274 98.594 98.345 98.458 98.446 98.242 98.282 98.309 98.31 98.288 98.289 98.326 98.274 98.185 98.245 98.526 99.157 100.576 100.332 99.889 99.193 99.197 99.11 99.92 100.84 99.277 98.562 98.442 98.392 98.347 98.367 98.391 98.535 99.903 101.162 98.863 98.582 98.615 98.691 98.796 98.878 98.784 98.689 98.681 98.689 98.701 98.649 98.681 98.686 98.629 98.609 98.566 98.554 98.574 98.621 98.601 96.494 96.464 97.016 97.521 98.049 98.159 98.194 98.226 98.259 98.284 98.304 98.349 98.406 97.809 99.666 97.711 97.696 97.741 99.804 98.136 101.236 100.664 99.421 98.379 98.551 98.374 98.509 97.701 97.521 97.439 98.414 95.801 98.214 95.224 95.299 95.599 95.891 96.006 96.116 96.154 96.179 96.201 96.226 98.074 98.519 96.474 96.594 96.554 96.641 96.684 96.709 96.399 96.489 96.366 96.271 96.079 102.746 100.406 100.044 95.409 95.021 95.096 95.116 95.144 97.411 95.256 98.781 105.534 105.611 105.634 104.654 103.524 95.659 95.126 95.134 95.134 95.104 96.719 96.891 95.011 95.081 96.074 95.984 96.074 96.146 96.249 96.381 96.601 104.934 105.754 105.361 102.001 99.994 96.951 97.121 97.621 97.126 99.206 96.384 97.339 96.196 96.206 96.121 96.131 96.364 96.599 96.784 98.454 100.404 100.491 100.879 99.474 99.686 99.544 99.199 99.191 99.031 100.204 99.084 102.251 103.791 103.101 99.974 98.661 98.641 98.691 98.789 98.749 98.609 98.624 98.741 98.749 98.784 98.806 98.809 98.811 98.794 98.771 98.624 98.236 99.661 96.699 97.306 96.776 96.834 96.781 96.819 99.871 100.096 97.759 97.796 97.741 97.581 97.349 97.366 96.454 97.079 110.729 107.684 100.461 102.076 93.641 95.224 93.474 93.531 93.746 93.901 93.984 94.036 94.164 97.776 95.056
80.442 81.599 82.717 82.037 81.864 82.131 82.218 -9999 82.578 82.45 82.713 82.841 83.03 83.394 84.186 84.312 84.377 84.45 84.565 84.711 85.697 86.56 85.637 85.858 86.822 87.477 87.912 88.293 88.384 88.083 87.512 89.988 93.526 93.933 93.496 92.924 92.023 91.101 91.946 91.255 89.791 88.883 89.284 89.676 90.119 90.855 91.221 91.95 90.89 90.906 90.688 91.089 92.679 94.327 93.724 93.422 91.612 90.703 91.023 91.129 91.072 91.168 91.516 91.519 91.49 91.654 91.873 91.971 93.373 95.608 94.792 94.302 91.881 92.62 92.885 -9999 91.901 92.098 92.149 91.689 92.253 92.336 91.915 91.968 91.961 91.919 91.954 91.962 92.073 92.358 92.566 92.6 92.48 92.416 92.651 92.906 93.091 93.293 93.607 93.723 93.808 94.06 94.436 94.454 93.95 93.947 94.262 94.036 94.873 95.269 94.569 94.866 95.426 96.829 98.837 99.67 101.463 99.288 101.142 103.798 105.285 103.497 101.562 -9999 97.335 97.03 96.687 96.766 97.696 97.922 97.069 97.109 96.682 96.724 97.165 96.937 96.736 96.747 96.697 -9999 -9999 97.273 97.141 97.083 97.236 97.385 98.408 104.851 106.349 106.459 106.461 106.214 106.142 106.193 106.187 105.236 107.242 106.694 103.707 102.216 99.433 98.081 97.935 97.742 97.991 100.48 100.372 99.943 98.243 97.722 97.854 98.675 98.588 97.791 97.415 97.146 97.143 97.125 96.95 96.89 97.427 97.878 97.853 98.134 102.444 103.112 101.68 99.06 100.31 102.828 102.7 102.759 101.472 101.82 102.081 100.326 98.885 98.784 98.867 98.54 98.334 98.34 98.358 98.335 98.35 98.312 98.271 98.216 98.239 98.281 98.705 99.488 100.394 99.668 98.651 97.835 98.534 99.319 100.891 102.446 100.562 98.719 98.692 98.564 98.258 98.23 98.26 98.301 98.618 98.805 98.458 98.414 98.444 98.621 98.72 98.644 98.552 98.509 98.499 98.539 98.531 98.539 98.511 98.506 98.479 98.444 98.409 98.421 98.501 98.554 97.921 96.316 96.279 97.006 97.626 97.964 98.041 98.074 98.074 98.084 98.079 98.154 98.156 98.229 98.034 98.749 101.986 97.511 97.574 97.631 98.699 99.629 98.989 98.144 98.056 98.074 98.361 97.796 97.586 97.326 97.109 98.324 95.034 95.116 95.094 95.354 95.649 95.879 96.031 96.096 96.121 96.139 96.186 96.211 98.306 97.591 96.139 96.176 96.191 96.221 96.154 96.149 96.201 96.584 96.224 96.094 95.959 97.276 101.584 97.861 94.991 94.891 94.836 94.781 94.846 94.986 95.016 103.531 105.559 105.839 106.106 104.444 98.821 95.491 95.151 95.126 95.106 95.089 95.341 95.721 94.869 94.966 96.404 95.979 96.081 96.156 96.259 96.344 96.736 104.914 105.969 107.019 106.766 105.611 104.706 96.596 96.786 96.971 97.766 95.989 97.539 96.054 96.056 95.984 96.684 96.704 96.664 96.829 96.924 96.984 97.031 97.851 100.169 101.096 101.011 100.409 99.276 99.109 99.586 99.101 102.954 103.836 102.821 98.714 98.631 98.604 98.691 98.769 98.751 98.639 98.626 98.349 98.496 98.536 98.604 98.601 98.596 98.714 98.711 98.456 98.114 98.499 96.531 97.476 96.639 96.676 97.159 96.801 100.326 100.059 97.769 97.781 97.736 97.599 100.071 103.204 95.901 95.481 100.269 106.059 100.151 93.531 93.461 93.299 93.486 93.506 93.436 93.569 93.694 93.629 93.729 95.026 96.524
80.054 81.12 81.574 81.722 82.326 83.143 82.657 82.498 82.712 83.803 83.083 82.755 82.92 83.238 83.748 84.106 84.246 84.341 84.436 85.668 88.426 89.33 88.02 86.775 87.209 87.517 87.481 87.67 88.271 87.639 87.516 92.174 93.554 93.165 92.902 92.427 90.35 89.771 93.174 90.921 89.178 88.356 88.776 -9999 -9999 -9999 90.896 90.599 90.752 90.926 92.014 92.547 95.27 96.691 96.264 93.759 91.43 90.74 91.379 91.932 91.203 91.169 91.071 91.278 91.508 91.46 91.729 92.211 93.865 95.658 95.368 91.574 91.858 91.853 91.575 91.268 -9999 -9999 93.784 93.976 95.63 94.778 93.823 93.794 92.734 92.272 92.671 92.522 92.188 92.196 92.398 92.358 92.354 92.332 92.541 92.705 92.957 93.124 93.397 93.567 93.666 93.904 94.359 94.449 94.383 93.898 94.038 93.99 94.779 94.685 93.881 94.752 94.961 95.707 97.456 97.641 96.894 96.459 96.65 99.504 102.246 103.762 102.229 100.16 98.866 -9999 -9999 99.774 100.95 102.359 99.765 97.881 96.751 96.758 96.758 96.646 96.63 96.552 96.586 -9999 -9999 97.385 97.278 97.101 97.238 97.506 101.51 105.094 106.486 106.652 106.627 106.433 106.438 106.556 107.645 106.964 106.85 107.259 106.188 105.063 100.073 99.47 100.691 98.827 98.102 100.479 101.021 100.8 98.882 97.735 97.735 98.937 99.326 98.433 98.086 97.498 97.391 97.264 97.071 96.973 96.814 96.819 96.91 96.889 97.889 99.098 -9999 99.427 100.153 99.815 99.478 101.192 101.93 102.146 101.261 100.454 100.005 100.624 101.452 99.354 99.063 98.865 98.658 98.352 98.296 98.228 98.19 98.172 98.255 98.269 98.494 99.469 99.961 98.058 96.453 96.677 97.724 98.496 99.566 100.778 99.268 99.325 99.265 98.941 98.274 98.069 98.078 98.087 98.166 98.192 98.193 98.223 99.506 99.978 99.218 98.597 98.39 98.386 98.406 98.404 98.399 98.381 98.376 98.354 98.339 98.291 98.246 98.301 98.386 102.369 96.469 96.086 96.284 96.904 97.744 97.904 97.949 97.976 98.021 98.004 97.981 97.996 98.041 98.079 98.151 101.739 97.794 97.341 98.046 100.189 101.601 97.844 97.789 97.866 97.826 97.841 97.694 97.619 98.759 97.509 96.859 96.396 94.936 95.589 97.394 96.156 95.931 95.934 95.989 96.044 96.066 96.086 96.096 96.151 98.089 96.181 95.976 95.991 95.999 96.021 96.041 95.949 96.001 96.116 95.936 95.849 95.789 95.744 95.681 95.556 101.411 99.021 95.464 94.761 94.769 101.699 96.134 104.026 105.821 105.891 105.601 104.804 97.401 96.899 96.219 95.491 95.474 95.441 95.369 95.111 94.679 95.554 97.399 98.211 95.986 96.111 96.254 96.399 99.154 105.571 106.201 107.254 106.556 105.491 101.776 96.509 96.554 96.676 96.444 95.819 95.871 95.929 96.471 95.969 97.061 97.274 96.954 96.901 96.959 97.006 98.279 105.981 103.549 100.921 97.016 97.029 97.066 97.094 97.759 99.044 103.461 103.649 103.611 98.676 98.654 98.629 99.184 99.079 98.936 99.809 99.561 99.206 98.386 98.274 98.219 98.254 98.451 98.504 98.591 98.076 98.221 97.439 96.351 96.406 96.501 96.506 97.761 96.739 99.661 99.696 97.771 97.714 97.684 103.024 108.076 95.706 95.186 95.116 109.939 107.136 105.654 99.734 93.356 93.306 93.316 93.344 94.591 93.706 93.354 93.294 93.411 93.736 95.446
80.062 80.914 81.278 81.662 82.328 83.686 82.519 82.283 82.078 82.761 82.408 82.504 82.786 82.979 83.369 83.831 84.148 84.735 85.395 88.103 90.977 90.12 88.301 86.72 87.837 86.874 86.782 87.063 88.855 88.727 87.662 90.158 91.958 92.229 91.586 90.76 90.049 89.397 90.202 89.72 89.263 88.572 88.834 -9999 -9999 -9999 90.089 89.986 89.973 90.414 91.363 94.545 97.215 97.081 95.218 93.214 90.499 91.234 92.496 92.803 91.705 91.047 90.972 91.012 91.101 91.434 91.722 92.283 94.521 95.637 94.663 92.376 91.375 90.608 90.192 90.65 91.712 94.673 96.08 97.794 100.973 99.532 98.026 99.72 97.917 95.986 96.678 93.565 92.889 92.705 92.707 92.302 92.265 92.449 92.559 92.677 92.857 93.128 93.303 93.189 93.305 93.546 -9999 93.934 94.067 -9999 93.982 94.108 94.312 94.178 93.803 94.199 94.362 94.789 95.089 94.944 95.376 95.385 95.408 96.52 99.316 103.521 100.788 98.804 97.938 98.139 98.601 101.334 104.039 105.266 101.652 99.301 97.63 96.777 96.71 96.563 96.463 96.349 96.474 -9999 97.453 97.372 97.52 97.865 97.349 97.646 101.266 106.15 106.759 106.781 106.694 106.671 106.631 106.812 107.02 106.837 106.684 106.75 106.629 105.025 102.638 102.76 102.722 100.656 98.988 100.428 100.247 99.672 98.388 97.877 97.385 97.916 98.186 98.431 97.923 97.646 97.599 97.517 97.27 97.101 96.956 96.916 96.747 96.854 97.009 97.208 96.755 97.13 97.571 97.325 97.071 99.058 100.409 100.803 100.525 100.186 100.142 100.619 102.404 102.653 102.754 100.918 99.933 98.765 98.247 98.111 98.091 98.089 98.226 98.439 98.97 100.087 100.211 98.181 96.51 96.19 97.609 98.246 98.312 98.325 99.056 99.588 99.764 99.418 98.841 97.95 97.914 97.919 97.989 98.02 98.033 98.077 98.402 99.522 99.908 98.961 98.279 98.231 98.261 98.281 98.216 98.206 98.191 98.174 98.149 98.096 99.039 99.031 100.691 98.206 96.569 95.894 96.716 97.011 97.994 97.909 103.006 101.919 97.926 97.894 97.899 97.944 97.954 97.934 97.981 100.031 99.204 97.179 97.236 97.289 97.749 97.556 97.524 97.601 97.744 97.549 97.519 97.459 97.151 96.801 96.704 95.126 94.816 94.821 100.939 96.169 95.834 95.876 95.931 95.961 95.981 95.984 95.999 100.731 97.824 95.836 95.779 95.781 95.791 95.804 95.839 95.811 95.816 96.396 95.889 95.779 95.716 95.559 95.461 95.621 99.554 102.069 97.006 94.609 94.646 102.409 102.694 104.234 104.806 105.146 105.326 104.016 97.404 95.494 95.029 94.744 94.734 94.899 96.086 94.509 94.539 97.591 95.844 95.506 96.744 97.476 97.124 96.816 100.526 104.931 105.584 107.281 106.306 105.294 98.699 96.456 96.456 96.799 95.911 96.559 95.881 95.776 96.661 95.879 97.086 97.336 97.291 96.961 96.986 97.029 102.024 106.426 107.551 106.744 105.631 97.024 97.039 97.049 97.089 97.236 97.671 103.606 98.534 98.591 98.454 99.011 99.386 99.061 99.444 100.426 100.114 100.466 100.276 100.204 98.676 98.504 98.749 99.704 98.174 98.191 98.314 96.369 96.161 96.281 96.359 96.341 96.729 96.451 98.366 99.184 97.599 97.744 97.466 99.219 96.141 102.061 95.689 103.831 97.906 106.149 106.764 97.059 93.336 93.379 93.226 93.219 93.771 93.626 93.369 93.631 95.529 93.896 95.401
80.02 80.463 81.177 81.589 81.921 82.145 81.973 81.968 81.937 82.031 81.991 82.211 82.621 82.905 82.977 83.441 83.91 84.616 84.706 87.208 90.347 88.876 86.337 86.235 86.798 86.182 86.239 88.6 91.034 90.878 88.721 88.23 90.843 88.8 88.528 88.908 89.603 89.337 89.768 89.677 89.357 89.142 89.247 89.346 89.363 89.201 89.2 89.011 89.415 90.684 94.651 96.397 96.45 94 90.805 90.496 90.457 91.724 92.693 93.326 92.083 90.91 90.859 91.188 91.273 91.502 92.785 93.749 94.598 94.673 92.426 91.272 90.802 90.658 90.105 90.16 91.643 94.879 95.932 96.949 99.875 99.444 100.415 103.112 101.68 100.819 100.473 97.005 94.79 95.05 94.071 93.061 92.573 92.564 92.491 92.699 92.921 93.05 93.023 93.085 93.175 93.31 93.498 93.615 93.686 93.607 93.717 93.909 94.075 94.122 93.998 94.066 94.133 94.642 94.68 94.316 94.449 94.901 95.314 95.696 96.542 97.394 97.407 97.189 98.141 98.456 98.538 99.389 101.92 103.549 101.52 -9999 -9999 97.172 96.871 96.616 96.528 96.504 -9999 -9999 97.09 97.247 97.67 97.23 97.131 99.439 103.548 106.478 106.843 106.883 106.846 106.745 106.771 106.658 106.937 106.953 106.761 106.787 106.807 106.144 105.546 105.078 100.579 99.244 99.257 100.624 100.841 99.617 101.386 97.971 97.446 97.531 97.642 97.788 97.466 97.592 97.506 97.475 97.442 97.427 97.314 97.37 96.964 96.955 96.877 96.888 96.805 96.691 96.741 96.785 96.779 97.148 97.569 98.429 98.266 98.026 98.532 99.273 102.374 104.16 104.939 103.99 102.087 99.392 98.281 98.134 98.078 97.968 97.972 98.834 99.712 101.966 101.694 99.12 96.596 96.255 98.01 98.08 97.919 98.027 99.186 100.444 100.118 99.421 98.378 97.764 97.792 97.816 97.842 97.79 97.881 97.957 98.08 98.831 100.166 98.926 98.086 98.076 98.099 98.116 98.089 98.039 98.034 98.849 97.989 99.674 98.689 97.989 97.969 97.629 95.694 95.724 96.639 97.364 98.174 98.128 99.561 98.191 97.927 98.229 97.887 97.896 97.825 97.819 98.152 98.825 97.956 96.991 97.019 97.121 97.514 97.344 97.324 97.341 97.364 97.256 97.161 97.079 96.781 96.866 98.286 95.606 94.719 94.681 95.929 95.779 95.706 95.774 95.804 95.809 95.864 95.876 95.866 98.174 97.586 95.601 95.609 95.606 95.621 95.606 96.369 98.121 95.629 97.844 95.624 95.526 95.599 95.399 95.244 95.881 95.546 96.011 94.936 94.604 94.604 95.086 97.661 102.976 103.841 105.219 104.246 103.441 95.549 95.276 94.706 94.694 94.671 94.699 94.896 94.311 94.374 97.579 95.344 95.251 95.469 95.666 96.169 96.576 102.626 106.016 106.714 107.131 106.539 105.041 96.444 96.351 96.256 96.051 95.589 96.996 95.611 95.641 95.611 95.776 96.981 97.089 97.216 96.966 97.591 100.829 105.586 106.681 107.556 106.499 104.216 97.021 97.004 97.031 97.061 97.931 98.994 98.194 97.831 97.671 99.211 98.396 97.446 97.534 97.946 98.474 99.274 100.136 100.841 100.209 98.469 100.029 99.489 100.551 98.409 97.266 96.291 96.084 96.371 96.151 96.201 96.159 96.171 96.761 96.796 97.611 97.659 97.731 96.641 97.986 97.676 100.006 100.744 102.044 99.769 106.624 108.199 94.649 95.236 93.484 93.219 93.099 93.281 93.221 93.301 93.179 93.436 94.394 96.104
80.371 80.35 81.101 81.392 81.632 81.59 81.688 82.064 82.056 81.929 82.13 82.597 82.554 82.991 83.292 83.578 84.267 84.268 84.609 85.555 87.27 86.564 86.527 87.184 86.612 87.879 88.619 91.544 92.219 91.639 89.75 87.394 87.677 87.431 87.728 88.102 88.702 88.864 89.433 89.563 89.374 89.445 89.096 89.436 89.695 89.288 89.331 88.917 89.35 89.93 94.004 95.528 94.344 92.985 90.943 90.315 90.254 90.528 92.078 94.053 92.6 91.041 90.899 91.198 91.716 92.726 94.928 95.038 93.783 91.357 90.168 90.689 90.725 -9999 90.023 90.279 90.834 98.165 96.054 94.143 95.276 96.31 98.523 100.768 101.671 102.095 101.368 99.572 97.731 97.592 98.014 94.472 93.325 93.135 92.868 92.783 92.912 93.093 92.782 93.033 93.432 93.433 93.486 93.505 93.486 93.512 93.74 93.762 93.923 94.241 94.171 94.145 94.323 94.571 94.6 94.507 94.645 94.557 94.886 95.226 95.364 96.464 96.611 96.633 96.954 97.557 97.945 97.129 97.576 98.292 98.504 97.9 97.463 97.545 97.343 96.902 96.635 96.688 -9999 96.936 96.91 97.148 97.387 97.148 97.631 101.727 103.813 105.962 106.895 106.857 106.811 106.721 106.855 106.839 107.084 108.016 107.295 106.994 107.014 106.887 106.18 104.184 99.405 98.5 99.45 102.784 105.71 105.239 99.901 98.32 97.602 97.353 97.698 98.758 99.007 98.142 97.392 97.398 97.414 97.408 97.4 97.367 97.225 97.281 97.369 97.004 96.772 96.712 96.642 96.536 96.559 96.487 96.361 96.396 96.283 96.162 96.495 96.894 101.497 104.813 104.736 104.459 103.773 100.007 98.823 98.575 98.202 98.127 98.237 99.235 100.404 101.739 101.764 99.994 97.793 98.086 100.523 98.535 97.898 97.943 98.36 99.332 99.398 99.095 97.886 97.644 97.681 97.713 97.722 97.664 97.951 97.983 97.906 98.075 98.205 98.143 97.915 97.918 97.933 97.909 97.871 97.864 97.829 97.844 97.899 97.846 97.741 97.719 97.754 96.246 95.561 95.594 96.326 97.583 98.193 98.638 98.816 98.749 98.124 97.766 97.594 97.67 97.688 97.784 100.372 98.205 97.537 96.788 96.839 97.071 99.324 98.421 97.109 97.131 97.079 96.944 96.776 102.021 96.891 97.826 99.616 96.529 94.576 94.564 95.711 95.781 95.614 95.641 95.676 95.694 95.716 95.726 100.851 101.156 96.801 95.411 95.426 95.426 95.426 95.414 95.841 96.141 95.429 95.469 95.444 95.456 95.471 95.154 95.064 94.606 94.196 94.491 94.986 96.049 95.856 94.646 94.546 94.571 94.614 96.216 98.891 100.091 95.239 94.771 95.591 94.614 94.634 95.191 94.656 94.149 94.549 97.381 94.914 95.121 95.359 95.571 96.206 96.751 105.914 106.081 106.911 106.894 105.864 104.826 96.896 96.534 96.499 96.736 95.439 95.406 95.489 95.491 95.466 95.816 96.841 96.981 97.094 96.934 100.201 105.469 105.834 106.944 107.524 106.231 102.331 97.009 96.986 97.031 97.099 99.236 99.466 99.539 99.824 100.336 97.096 97.414 96.941 96.874 96.916 97.329 97.329 97.359 98.249 98.211 102.736 98.866 99.954 98.984 99.109 98.486 98.374 95.954 98.471 96.009 96.036 95.989 96.076 96.951 96.796 97.429 97.609 97.459 99.269 104.671 96.369 104.999 107.384 101.971 109.096 104.244 96.654 93.134 93.106 93.189 93.181 93.259 93.004 93.111 93.239 93.176 94.161 96.071 95.126
80.327 79.978 80.553 81.353 81.821 81.77 81.992 82.632 83.732 82.958 83.322 84.091 83.784 84.139 84.231 83.824 84.654 85.288 84.661 84.941 86.321 86.451 87.892 90.431 89.926 90.349 91.825 92.612 92.746 91.943 90.856 87.819 86.72 87.073 87.669 88.021 88.533 88.746 88.95 -9999 89.605 90.027 89.284 89.374 89.372 89.121 90.521 91.401 91.936 90.504 92.349 94.566 93.034 91.224 90.462 90.168 90.274 91.757 92.837 94.152 92.812 91.025 90.729 91.273 91.475 92.318 94.938 94.331 93.125 90.569 90.263 -9999 -9999 89.274 89.743 90.12 90.922 93.159 91.007 91.162 91.798 94.023 95.546 -9999 99.032 99.333 99.572 -9999 99.12 98.719 98.66 -9999 99.958 97.654 -9999 93.745 92.89 92.695 92.556 92.71 93.685 93.416 93.445 93.463 93.507 93.384 93.455 93.606 93.696 93.917 93.966 94.01 94.23 94.345 94.548 94.877 95.093 94.748 94.88 95.106 95.045 95.866 97.022 97.351 96.84 96.787 96.544 96.406 96.521 96.707 97.218 97.232 97.762 97.715 97.558 97.214 96.901 96.906 96.938 97.007 96.656 96.96 97.125 97.139 97.86 102.022 104.22 106.237 106.959 106.647 106.312 106.018 106.978 107.164 106.996 107.191 107.097 106.986 107.121 106.977 106.252 104.736 99.62 98.421 98.065 101.348 105.185 104.981 100.323 98.307 97.488 98.001 98.537 103.08 103.323 99.134 97.786 97.323 97.219 97.216 97.234 97.297 97.301 97.333 97.305 97.127 96.928 96.881 96.682 96.473 96.396 96.375 96.392 96.284 96.127 95.992 95.982 96.559 99.139 101.174 102.654 103.398 101.074 99.565 98.925 99.549 99.387 99.005 98.479 98.736 99.591 101.169 101.058 99.438 98.824 99.353 100.905 99.206 98.224 98.191 98.346 98.285 97.834 97.808 97.682 97.492 97.526 97.555 97.571 98.11 98.969 99.829 100.914 98.352 97.81 97.639 97.646 97.722 97.736 97.705 97.704 97.674 97.656 97.631 97.659 97.629 97.576 97.574 97.581 95.456 95.449 96.151 96.356 102.183 98.272 98.474 98.851 98.217 98.544 97.678 97.607 97.765 97.665 97.775 98.525 98.07 97.427 96.623 96.808 99.854 99.674 97.206 96.976 96.924 96.779 96.581 96.486 97.159 96.881 97.769 94.861 94.426 94.434 94.689 95.519 95.546 95.476 95.516 95.541 95.566 95.601 95.601 97.371 96.556 96.079 95.209 95.229 95.229 95.211 95.194 95.186 95.196 95.226 96.416 98.186 98.516 96.439 94.926 94.856 93.911 93.936 93.979 94.006 94.384 93.909 96.004 96.206 94.321 94.461 94.546 94.509 94.464 94.426 94.341 94.869 94.234 94.756 95.211 94.109 93.994 96.041 96.174 94.854 95.059 95.259 95.401 96.346 96.644 105.049 105.384 107.156 106.694 105.644 103.706 97.116 97.629 97.641 95.444 95.149 95.274 95.356 95.336 95.254 95.769 96.716 96.696 96.761 96.921 105.426 105.511 106.074 107.209 107.144 106.009 98.441 97.001 97.006 97.054 97.114 99.324 99.426 99.551 101.521 101.549 98.319 96.569 99.991 96.961 96.444 96.416 96.401 96.666 96.976 96.999 97.054 97.104 97.139 98.734 99.339 99.439 100.579 95.771 96.886 95.879 95.884 96.569 95.956 96.501 97.304 97.209 97.966 96.996 96.479 98.651 95.909 106.311 104.886 109.119 104.794 106.849 93.521 93.066 92.901 92.876 92.894 92.706 92.931 92.941 93.101 93.221 93.494 96.316 95.769
79.971 80.09 80.781 82.422 82.94 82.481 82.52 84.074 84.469 84.572 84.376 83.625 83.507 86.243 86.691 85.818 84.949 86.504 84.768 84.768 85.911 85.829 85.876 90.206 91.774 92.484 93.531 92.964 92.05 91.366 89.527 86.949 86.676 86.837 87.32 -9999 88.326 88.432 88.404 88.707 89.311 89.788 89.699 89.58 89.493 89.864 92.608 94.472 94.668 92.011 91.072 90.988 90.927 90.029 89.759 89.882 90.636 91.652 93.18 92.427 91.047 90.723 90.858 91.245 91.489 91.929 92.96 92.537 92.196 91.698 90.703 89.615 89.027 89.095 89.309 89.567 89.506 90.029 89.667 89.605 90.309 93.862 94.098 91.598 91.299 92.841 93.133 96.24 98.289 100.19 99.555 100.122 101.079 101.464 99.471 -9999 -9999 94.319 95.068 95.27 93.844 94.011 94.603 94.272 93.399 93.409 93.493 93.613 93.655 93.658 93.771 93.84 94.252 94.167 94.299 94.61 94.773 94.837 94.924 95.071 95.369 96.123 96.873 97.225 97.004 96.945 96.172 96.764 96.596 96.575 96.69 96.64 97.663 97.466 97.218 97.224 97.087 97.111 97.234 97.333 97.334 97.517 97.103 97.377 98.775 103.604 106.282 106.796 106.927 106.77 106.349 106.226 107.424 108.187 107.839 107.423 107.183 107.014 107.114 107.11 106.444 104.923 99.458 97.923 98.2 100.259 -9999 104.34 101.425 99.248 98.421 100.29 104.121 106.713 108.677 103.969 98.385 97.301 97.271 97.41 97.076 96.997 97.145 97.173 97.111 97.344 97.613 97.197 96.965 96.438 96.309 96.253 96.35 96.29 96.074 96.034 95.961 96.113 96.633 96.943 98.429 98.571 98.696 98.864 99.309 100.331 100.528 100.022 99.104 98.657 98.337 96.78 98.358 97.936 97.987 98.212 99.385 99.027 98.552 98.825 99.054 98.161 97.369 97.528 97.515 97.422 97.44 97.432 97.429 98.208 101.483 99.734 98.08 97.531 97.457 97.392 97.442 97.461 97.482 97.545 97.484 97.496 97.451 97.504 97.414 97.429 97.426 98.984 97.276 95.309 95.297 96.023 96.809 97.886 98.001 97.918 98.049 97.982 98.268 97.643 97.526 97.612 97.653 98.057 99.001 98.182 97.145 96.509 96.928 99.346 97.462 96.761 96.734 96.724 96.581 96.306 96.384 96.146 96.009 96.051 94.219 94.306 94.251 95.431 95.414 95.324 95.351 95.386 95.389 95.449 95.494 95.481 95.529 96.971 95.144 95.004 95.041 95.026 95.009 95.034 95.011 94.981 95.001 97.146 98.779 98.501 97.066 95.159 94.699 93.989 93.916 93.941 93.904 93.699 93.559 101.691 103.144 104.281 104.221 103.249 99.256 94.256 94.334 94.254 94.154 94.064 93.964 93.846 93.784 93.846 96.184 95.544 96.209 95.011 95.206 98.629 96.686 98.349 105.781 106.321 107.291 106.454 105.136 101.001 95.831 95.821 97.074 95.089 95.001 95.139 95.184 95.149 95.109 95.456 95.954 96.394 96.721 96.926 97.646 104.844 106.309 107.544 106.889 105.741 97.016 97.004 97.021 97.064 97.126 99.341 99.426 99.164 97.436 97.916 96.501 96.494 96.449 96.476 96.431 96.414 96.354 96.309 96.266 96.211 96.849 96.249 97.914 96.601 96.704 97.756 101.719 96.516 95.666 95.749 95.734 98.056 96.139 96.656 96.829 97.039 97.289 96.379 95.716 96.134 95.326 103.711 105.264 100.871 94.596 93.129 93.629 93.796 93.206 93.111 92.849 92.921 92.844 92.849 92.746 93.579 95.819 94.824 94.806
81.982 81.105 80.53 84.702 85.37 85.108 83.863 84.108 84.623 84.59 83.436 82.238 82.515 85.648 88.785 88.85 87.055 84.786 84.451 84.278 84.717 85.044 85.596 88.31 91.253 92.396 92.76 92.255 91.349 90.083 88.095 87.745 87.367 86.957 -9999 -9999 -9999 87.963 87.878 87.811 88.478 88.953 89.438 90.236 90.574 91.69 94.314 95.047 94.563 92.738 89.508 89.424 89.554 89.519 90.47 90.933 90.814 90.401 90.913 90.381 90.363 90.493 91.227 91.58 91.792 91.6 91.948 91.978 92.221 91.725 90.468 89.321 88.887 88.965 89.049 89.408 89.575 89.769 89.754 89.68 89.963 90.764 90.809 90.052 89.921 89.985 90.222 93.028 98.115 100.244 97.386 99.243 101.345 102.121 99.68 -9999 -9999 97.588 100.02 101.282 98.312 97.347 98.481 95.178 95.678 93.745 93.636 94.013 93.769 93.96 93.868 93.783 94.002 94.087 94.135 94.484 94.71 94.73 94.944 95.06 95.096 -9999 -9999 96.912 96.73 96.463 96.155 96.234 96.38 96.395 96.249 96.104 96.303 96.109 96.608 97.127 97.228 97.37 97.359 97.723 97.835 97.09 97.059 97.514 101.771 106.819 106.828 106.855 107.056 106.763 106.575 106.88 107.5 108.765 108.897 108.294 107.801 108.25 107.871 107.047 104.576 100.22 98.809 98.375 98.62 -9999 104.234 104.931 103.906 100.006 101.677 105.788 107.409 107.798 108.725 104.882 99.999 99.038 98.565 98.721 97.145 97.126 97.22 97.183 97.192 97.123 97.082 97.261 97.374 96.762 96.425 96.449 96.547 96.385 96.212 96.098 95.988 95.945 95.979 96.06 96.275 95.966 96.957 98.058 98.975 100.597 100.401 98.958 98.492 98.569 97.464 96.454 96.185 96.279 96.971 97.346 97.563 97.867 98.98 100.58 98.863 98.019 97.429 98.63 100.81 99.531 98.63 97.404 97.33 97.456 97.996 97.614 97.51 97.311 97.239 97.23 97.254 97.333 97.61 97.778 97.399 97.276 97.286 97.226 97.196 97.659 97.376 97.196 95.974 95.185 95.392 95.775 97.721 98.55 98.098 97.751 97.651 97.661 97.808 97.535 97.468 97.658 98.314 98.103 98.465 99.18 97.466 96.815 97.285 99.32 97.146 96.616 96.511 96.364 96.211 96.009 96.004 95.886 95.629 95.431 94.106 94.146 94.129 95.194 95.346 95.171 95.224 95.251 95.261 95.281 95.301 95.304 95.486 96.771 94.896 94.756 94.776 94.806 94.789 94.809 94.881 96.284 94.789 96.231 98.121 97.599 96.821 95.691 94.629 95.069 93.884 93.836 93.881 93.504 94.081 102.409 103.451 104.531 104.531 103.491 102.379 94.179 94.291 94.186 94.214 94.166 96.691 93.921 93.656 93.746 94.189 95.179 94.776 94.734 95.094 96.056 96.674 96.994 100.461 105.944 107.241 106.226 105.169 97.061 95.784 95.789 95.891 94.926 95.591 94.996 95.029 94.981 95.201 98.504 97.224 96.854 96.799 98.336 97.006 105.314 106.564 107.594 106.611 105.359 97.009 96.991 97.009 97.081 98.021 99.359 99.449 98.099 97.076 96.496 96.451 96.434 96.416 96.394 96.559 97.576 96.356 96.291 96.241 96.146 96.056 96.371 95.841 95.734 95.576 95.491 96.186 95.431 95.549 95.596 95.581 95.526 95.756 96.259 96.644 97.166 97.124 95.926 95.671 95.661 95.271 93.289 94.156 94.004 93.114 93.139 92.841 94.694 93.364 94.591 93.951 92.904 92.764 92.711 92.726 94.071 99.331 94.699 94.754
82.522 81.518 80.629 83.319 85.384 86.421 84.088 82.403 82.972 83.399 82.185 82.198 84.656 87.273 90.13 89.212 86.817 84.505 84.18 84.347 84.943 85.272 85.533 85.602 89.353 89.808 91.622 90.981 89.682 87.727 87.55 87.605 87.194 86.769 -9999 -9999 88.572 88.48 87.852 87.521 87.705 88.283 88.886 90.44 91.975 94.26 95.003 93.995 92.391 90.13 89.145 88.959 89.559 90.565 93.392 91.989 90.219 89.991 90.309 90.056 90.052 90.534 90.548 91.44 92.918 93.982 92.46 92.294 -9999 -9999 89.627 88.96 88.829 88.872 89.075 -9999 89.594 89.597 89.456 89.572 89.681 89.556 89.738 89.96 89.989 90.067 90.175 91.067 92.071 93.517 92.134 96.533 99.056 98.05 96.248 -9999 -9999 98.238 100.321 101.722 101.792 100.924 99.323 100.402 97.902 94.387 95.16 97.272 94.758 94.139 93.906 93.953 93.938 93.995 94.124 94.309 94.283 94.501 95.047 95.094 94.909 -9999 95.311 95.658 95.977 96.189 96.133 96.232 96.287 96.199 96.421 96.023 95.926 95.968 96.216 96.652 97.424 97.633 98.278 97.794 96.991 96.875 97.1 97.923 101.447 106.031 106.735 106.82 106.93 106.57 106.22 106.938 107.499 109.374 109.909 109.524 109.065 108.8 107.962 106.688 101.398 98.627 98.828 100.563 100.834 102.654 105.043 105.173 108.604 102.87 101.607 107.408 108.414 109.181 107.613 103.737 100.187 99.617 99.429 99.389 97.74 97.79 98.244 98.043 98.158 97.276 97.073 97.181 97.606 97.17 96.736 96.911 97.117 96.782 96.401 96.117 95.966 95.867 95.752 95.655 95.654 95.66 95.843 96.481 96.725 96.656 98.641 96.585 96.839 97.127 96.42 95.595 95.263 95.376 95.454 96.787 97.775 97.508 98.469 102.844 100.973 98.394 98.369 98.231 103.777 101.416 99.727 98.182 97.212 97.173 97.673 98.098 97.894 97.477 97.085 97.048 97.079 97.204 98.084 98.264 97.646 97.134 97.106 97.026 96.961 96.996 96.934 96.876 95.124 95.121 95.47 95.804 97.217 98.172 98.116 97.586 97.646 97.6 97.557 97.524 97.454 97.916 98.506 98.511 98.324 99.613 98.626 97.1 96.543 97.639 96.803 97.22 96.279 96.234 95.939 95.781 95.741 95.644 95.359 94.619 94.014 94.004 94.034 95.044 95.041 95.001 95.086 95.094 95.109 95.139 98.004 95.979 98.011 96.489 94.316 94.684 94.516 94.284 94.499 94.711 94.729 97.914 94.571 95.981 97.134 96.119 95.601 95.774 95.234 94.674 94.049 94.319 93.894 93.389 93.231 102.646 103.856 104.751 104.324 103.196 100.066 94.109 93.966 93.821 93.879 93.796 93.796 94.121 93.506 93.571 94.116 94.799 94.264 94.479 94.721 94.936 95.086 98.756 96.349 96.349 95.784 96.916 99.821 95.794 95.769 96.124 96.826 94.799 96.194 94.866 94.864 94.819 95.374 98.051 97.931 97.994 96.829 97.621 96.994 105.701 106.814 107.454 106.351 103.994 96.996 96.974 96.994 97.066 98.789 99.371 99.464 98.204 97.151 96.406 96.459 96.394 96.371 96.334 96.334 96.334 96.261 96.219 96.169 101.116 103.101 103.269 99.201 97.401 96.879 96.109 95.226 95.321 95.416 95.449 96.489 95.424 96.459 96.124 96.339 96.814 96.491 95.389 95.494 98.034 94.019 92.819 93.021 92.954 93.039 93.334 93.799 94.269 93.916 94.049 94.631 94.951 92.654 92.659 92.871 93.439 94.081 94.659 94.971
82.697 81.83 80.971 83.224 84.343 82.811 82.284 81.852 82.088 82.168 82.654 84.695 88.68 90.602 92.985 88.25 86.317 84.075 84.717 84.653 85.407 88.716 88.192 86.145 86.115 85.957 89.584 88.452 86.21 86.251 87.057 87.208 86.312 86.352 86.904 87.93 88.367 88.91 88.366 87.689 87.357 87.641 88.217 90.091 93.298 95.202 94.329 91.353 89.272 89.01 88.696 88.87 89.581 91.559 93.05 92.353 90.679 90.062 89.264 89.344 89.654 89.708 90.175 90.69 91.361 91.62 91.69 -9999 -9999 -9999 88.876 88.793 88.811 88.775 -9999 -9999 -9999 89.499 89.451 89.443 89.348 89.509 89.76 90.059 90.413 90.603 90.255 90.315 90.683 90.419 90.853 92.416 93.098 91.53 91.581 91.327 92.844 95.223 98.763 101.496 101.501 102.632 100.675 100.248 98.832 98.406 98.565 102.096 97.983 95.255 94.364 95.293 94.79 94.543 94.333 94.28 94.251 94.481 94.716 94.854 94.773 94.677 95.023 95.719 95.724 95.856 95.775 95.751 95.982 96.138 96.036 95.571 95.254 95.679 -9999 96.079 96.542 97.21 97.691 97.299 96.773 96.924 97.292 98.041 103.769 106.228 106.77 106.734 106.858 106.729 106.741 107.511 108.84 109.752 109.915 109.769 109.377 108.526 107.209 106.889 103.701 97.701 100.509 101.323 101.697 104.736 106.114 104.359 101.225 98.299 97.873 100.214 103.663 105.658 103.668 101.254 100.038 99.893 99.141 98.344 97.73 99.32 100.582 100.473 100.389 98.094 97.297 97.095 97.317 97.142 97.374 97.863 97.843 97.554 97.175 96.163 95.879 95.813 95.7 95.577 95.688 95.534 95.336 95.436 96.007 95.915 96.328 96.023 95.673 95.575 95.374 95.125 95.056 94.953 95.439 96.713 97.654 97.43 97.879 100.802 101.322 104.189 101.375 99.605 101.088 100.676 100.419 98.385 96.999 96.954 98.342 103.311 105.373 98.138 97.012 96.938 97.039 97.732 98.852 101.172 97.664 96.989 96.921 96.844 96.769 96.769 96.716 96.829 94.859 94.8 95.254 96.057 97.726 98.421 98.544 97.663 97.677 97.58 97.529 97.531 97.381 98.089 100.776 100.568 97.505 98.681 99.11 96.245 96.193 96.442 98.325 97.157 96.194 95.911 95.716 95.549 95.479 95.326 95.026 93.816 93.884 93.844 94.564 94.984 94.869 94.884 94.951 94.944 94.961 94.961 94.961 100.296 96.301 96.389 93.401 93.359 93.411 93.374 94.479 94.021 94.354 97.616 94.369 95.776 95.036 94.399 96.056 104.274 97.346 93.541 93.486 93.534 93.856 94.266 95.446 102.899 103.964 104.911 104.089 102.971 100.299 94.051 93.719 93.569 93.534 93.609 93.711 93.694 93.746 93.394 94.451 94.999 94.211 94.399 94.619 95.349 95.311 103.544 104.586 105.674 102.064 100.591 95.579 97.886 98.506 96.654 96.726 94.619 94.869 94.706 94.701 94.696 95.909 96.781 96.696 96.726 96.791 97.174 97.369 97.404 102.331 106.354 106.096 99.861 97.029 97.026 97.031 97.074 99.304 99.399 99.489 97.186 96.321 100.011 98.769 96.519 96.466 96.389 96.266 96.239 96.209 96.149 96.129 102.379 101.191 99.754 101.969 96.226 96.981 96.566 95.144 95.191 95.271 95.294 96.154 95.304 96.846 95.981 95.921 96.319 96.161 95.064 96.001 97.999 93.426 92.854 93.224 92.761 92.534 93.389 93.724 97.139 95.774 95.924 95.764 92.796 99.949 95.044 92.649 93.159 94.349 94.604 94.644
83.044 82.066 80.092 80.235 80.822 81.315 81.457 81.709 82.161 82.945 83.694 85.441 92.262 90.512 88.99 85.66 83.932 84.987 85.566 85.341 87.626 89.78 90.274 87.74 85.019 85.649 86.64 85.896 85.602 85.804 86.526 87.163 86.396 86.314 86.746 87.547 87.282 90.086 90.456 88.167 87.269 87.666 88.391 91.204 94.392 93.975 92.746 90.463 88.747 88.72 88.722 88.911 89.333 90.992 92.388 91.884 91.163 90.448 90.836 91.368 90.43 89.508 89.19 89.574 89.878 89.896 89.258 89.782 -9999 -9999 88.699 88.757 88.758 88.794 88.916 89.094 89.377 89.332 89.349 89.299 89.351 89.547 89.913 90.252 90.539 90.582 90.43 90.476 90.921 90.465 90.443 90.609 90.532 90.501 90.483 90.977 91.989 92.351 94.274 95.934 98.575 101.162 99.844 101.091 101.553 102.129 101.156 100.749 98.912 97.784 98.14 100.743 98.147 95.289 95.417 94.45 94.466 94.355 94.561 94.587 94.624 94.567 94.593 94.945 95.24 95.715 95.477 95.204 95.272 95.554 95.7 95.493 95.328 95.462 95.739 95.721 95.714 96.449 96.342 96.614 97.079 97.217 98.439 102.093 105.819 106.894 106.837 107.029 106.997 106.98 107.398 108.246 109.179 109.51 109.62 109.828 109.34 107.484 107.015 106.77 102.338 98.11 99.759 100.881 100.151 104.657 106.878 102.59 98.176 97.357 97.114 97.086 98.982 101.618 101.224 100.089 99.923 99.779 99.204 97.258 98.543 100.908 100.797 101.143 101.261 99.101 97.573 97.584 97.774 97.097 97.341 98.62 98.245 97.792 98.018 97.372 96.267 95.811 95.848 95.756 95.669 95.548 95.477 95.468 95.511 95.569 95.542 95.292 95.06 95.147 95.133 95.034 95.01 94.875 95.029 96.082 96.924 96.788 96.927 97.7 98.466 100.556 98.685 100.202 100.486 100.23 98.376 97.258 96.926 96.91 97.777 101.422 100.352 98.254 96.813 98.06 102.359 99.051 101.293 104.348 97.343 96.847 96.742 96.631 96.594 96.581 96.589 95.831 94.674 94.677 94.955 96.335 97.125 97.763 97.719 97.531 97.802 98.791 98.29 97.4 97.216 96.942 98.737 100.544 96.574 96.949 96.818 96.005 95.839 96.222 97.304 96.783 95.747 95.607 95.424 95.306 95.499 95.164 94.996 93.701 93.741 93.684 94.699 94.734 94.619 94.726 94.789 94.786 94.794 94.814 94.781 95.751 96.044 94.221 93.341 93.331 93.296 93.291 93.304 93.264 94.074 94.241 94.166 95.501 94.334 94.269 98.751 105.934 99.521 93.306 93.271 93.291 93.226 93.241 98.404 103.136 104.431 104.929 104.219 102.764 95.866 94.204 93.584 93.514 93.454 93.446 93.739 93.884 93.161 93.411 94.459 94.176 94.206 94.369 94.521 95.361 95.326 103.776 104.851 105.781 105.071 104.069 101.286 96.324 97.296 94.936 96.084 94.379 94.471 94.539 94.514 94.561 96.844 96.566 96.629 96.591 96.484 95.976 98.329 95.861 96.271 96.821 97.394 97.294 97.109 97.106 97.091 97.106 99.094 99.499 99.599 96.239 97.264 104.246 104.069 105.264 105.879 105.226 105.844 101.216 96.279 96.241 96.104 96.071 96.064 96.034 96.019 96.059 96.654 97.506 95.229 95.294 95.129 95.124 95.036 95.161 96.154 95.624 95.644 95.856 95.411 94.746 95.491 96.716 94.201 93.534 93.779 92.939 94.306 92.746 92.879 95.276 96.896 93.179 92.696 94.261 97.389 98.464 92.554 93.021 94.344 94.686 96.529
82.923 82.725 81.706 80.134 79.964 80.808 81.184 81.522 81.82 83.403 84.955 87.564 90.659 88.981 85.876 84.904 84.336 85.171 87.899 88.792 90.157 91.015 90.508 89.039 85.764 85.003 85.597 85.565 85.581 85.637 85.769 86.302 86.39 86.351 86.418 86.819 87.83 91.683 91.292 89.426 89.22 89.474 89.427 90.552 91.428 92.553 91.83 89.89 88.207 88.425 88.816 89.216 89.982 90.799 89.898 89.857 89.758 91.262 93.223 94.14 92.319 90.064 89.693 88.843 89.179 88.595 88.062 88.424 -9999 88.378 88.544 88.764 88.628 88.55 89.041 89.275 89.283 89.343 89.362 89.252 89.456 89.869 90.243 -9999 90.426 90.341 90.516 90.682 90.902 90.684 90.393 90.556 90.906 90.902 90.78 91.706 92.83 92.013 91.333 90.826 93.077 95.843 95.158 98.196 101.215 103.125 101.377 -9999 -9999 99.513 100.576 103.427 101.873 100.352 100.72 98.533 95.627 95.245 94.974 94.708 94.694 94.759 94.739 94.712 94.802 95.276 95.286 94.912 95.025 95.202 -9999 -9999 -9999 -9999 95.636 95.611 95.649 96.922 96.529 96.565 97.262 97.241 101.79 106.89 107.019 106.696 106.682 106.933 107.06 107.009 107.291 108.018 108.393 108.792 109.345 109.265 108.422 107.242 106.82 103.235 97.778 97.344 97.823 98.157 97.495 99.576 100.598 100.288 98.743 97.801 97.039 96.917 97.779 101.779 103.72 101.093 100.614 100.422 100.662 98.168 98.216 100.775 101.029 100.923 99.314 98.538 98.5 99.335 99.699 97.708 97.329 98.203 98.012 97.961 99.848 100.985 97.542 96.648 95.992 95.749 95.679 95.548 95.505 95.487 95.479 95.443 95.307 95.224 95.14 95.141 95.21 94.819 94.826 94.787 94.784 94.927 95.612 95.233 95.855 96.322 96.359 96.687 97.013 98.64 98.136 97.021 96.885 96.762 96.774 96.777 97.139 97.837 97.239 97.223 96.536 99.294 97.326 98.829 99.841 99.133 97.554 96.655 96.457 96.416 97.149 97.811 96.794 94.606 94.54 94.561 94.947 96.067 96.819 97.247 97.047 97.34 98.502 101.263 99.497 97.888 96.786 96.401 99.566 100.067 97.268 96.164 95.825 95.726 95.761 96.13 96.84 96.351 95.529 95.393 95.221 95.159 95.399 96.744 94.519 93.594 93.569 96.996 94.444 94.524 94.434 94.539 94.606 94.564 94.629 94.586 94.574 96.046 95.839 97.049 93.266 93.274 93.246 93.269 93.224 93.254 94.684 94.159 93.936 95.129 94.206 95.911 94.169 97.776 94.061 95.416 93.246 93.221 93.194 93.724 101.709 103.474 104.356 104.621 104.046 102.536 96.051 96.069 95.181 94.171 93.539 93.621 93.639 92.946 93.011 93.744 94.074 95.781 94.146 94.271 94.749 95.636 101.456 103.929 104.966 105.769 105.034 103.879 99.256 94.861 96.936 95.459 94.411 94.211 94.319 94.351 94.326 94.436 96.461 96.441 96.496 96.386 97.164 95.516 103.859 104.944 105.914 102.294 97.899 96.686 96.266 97.064 97.559 97.914 98.951 99.331 99.474 96.189 100.629 104.239 104.434 105.959 105.954 106.134 105.854 105.504 105.936 105.006 96.809 96.034 95.986 95.939 95.904 95.911 95.999 95.081 95.519 94.934 94.976 95.056 95.609 95.299 95.484 95.309 95.426 95.554 95.296 95.269 96.631 95.024 94.734 94.444 93.661 92.529 91.976 92.004 92.699 93.289 95.846 93.534 92.764 92.556 98.154 99.591 93.919 92.526 92.871 93.564 94.784
82.974 83.018 81.904 79.905 79.831 80.339 80.828 81.432 81.916 82.777 84.338 84.663 85.48 84.806 84.312 84.164 84.263 86.011 89.531 90.689 90.993 90.91 90.184 88.86 85.618 84.556 84.916 85.02 85.459 85.351 85.829 86.262 86.301 86.202 86.464 86.521 87.417 88.545 87.805 89.865 91.171 91.387 90.453 89.512 88.23 90.397 90.808 89.669 88.321 88.165 89.022 89.753 90.92 90.468 89.465 88.872 89.409 92.374 93.961 94.408 93.47 93.343 90.257 88.771 88.256 88.351 88.297 88.246 88.235 88.349 88.479 88.78 88.534 88.282 89.132 89.203 89.112 89.358 89.59 89.678 89.733 90.313 90.608 90.663 90.352 90.139 90.246 90.649 90.986 90.808 90.328 90.758 91.224 91.47 92.12 93.364 93.149 91.73 90.862 90.722 90.639 91.13 91.757 93.467 98.873 99.394 97.376 93.998 92.203 -9999 98.925 102.409 102.469 102.975 104.419 102.878 100.598 99.807 96.816 95.2 95.037 95.502 95.537 95.29 95.208 96.139 96.747 95.354 95.63 95.332 95.393 -9999 95.494 -9999 -9999 95.675 95.813 95.92 96.193 96.524 96.708 97.186 102.679 107.439 106.768 106.686 106.61 106.321 106.577 106.878 106.994 107.22 107.052 107.582 108.402 108.515 108.689 107.773 106.268 101.753 97.242 98.929 99.11 99.098 97.731 97.195 97.091 97.723 100.219 100.929 98.48 97.694 97.897 100.62 103.277 102.915 102.584 101.454 102.253 99.247 97.337 99.785 99.131 97.943 98.117 97.835 99.79 101.275 99.13 98.632 98.913 98.696 98.224 100.648 102.922 104.564 102.157 99.145 97.055 95.584 95.458 95.377 95.452 95.392 95.361 95.366 95.324 95.237 95.143 94.997 95.068 94.835 94.692 94.73 94.737 94.598 94.516 94.569 94.97 95.083 95.042 95.014 96.126 96.682 96.447 96.463 96.477 96.496 96.56 96.59 96.624 97.12 96.946 96.939 96.64 96.16 96.761 97.4 97.493 99.346 97.877 96.374 96.22 96.315 96.906 96.354 96.213 94.569 94.406 94.844 95.108 95.832 96.27 96.787 96.857 97.389 98.421 100.035 98.758 99.206 96.149 95.602 95.768 97.354 96.85 96.316 95.785 95.63 95.872 96.522 99.281 96.82 95.359 95.239 95.037 94.989 94.849 95.339 93.486 93.459 93.416 96.394 95.196 94.301 94.264 94.316 94.349 94.366 94.396 94.391 94.401 95.859 96.374 99.976 97.371 93.249 93.229 93.239 93.231 93.254 94.441 94.724 93.719 94.686 94.179 94.136 94.029 94.141 94.539 94.149 93.264 93.151 93.084 95.079 102.504 103.716 104.586 104.381 103.376 102.321 93.969 93.606 93.629 93.964 94.776 96.969 96.799 94.556 92.851 93.456 93.324 95.731 93.911 94.529 95.171 95.241 101.634 104.174 105.209 105.631 104.979 103.704 95.721 93.794 95.196 95.939 94.271 94.051 94.161 94.174 94.116 94.356 96.194 96.256 96.196 96.076 95.761 95.431 104.256 105.071 106.179 106.416 105.261 104.094 95.349 96.184 96.614 96.539 97.114 97.924 99.071 96.159 97.986 101.776 103.474 105.164 105.326 105.496 105.651 105.774 105.916 105.871 96.086 95.986 95.924 95.889 95.849 95.794 95.956 94.749 94.674 94.764 94.814 95.001 94.904 95.809 95.156 94.999 95.226 95.361 95.586 94.899 94.554 95.626 94.359 94.181 93.626 93.261 92.584 92.066 92.574 92.584 92.591 92.564 92.926 92.466 92.429 92.481 92.374 92.386 92.506 92.859 94.231
82.662 82.852 82.508 81.639 80.788 80.292 80.72 81.735 82.537 82.389 82.874 82.178 82.313 82.375 83.038 83.179 83.82 85.279 90.228 90.679 90.534 90.501 89.266 86.809 84.742 84.799 84.814 84.793 85.13 85.33 85.991 86.433 86.176 86.142 86.048 86.919 88.887 88.496 88.075 91.686 92.356 92.266 90.668 89.205 88.033 88.717 89.575 -9999 88.776 88.492 89.104 89.376 90.147 90.641 89.142 89.065 90.289 93.207 94.286 94.904 93.918 91.146 89.068 88.759 88.539 88.424 88.522 88.408 88.265 88.41 89.07 90.32 89.299 88.236 88.442 88.533 89.328 89.407 90.141 89.589 89.655 90.179 90.703 90.607 90.256 90.002 90.056 90.328 90.828 90.806 90.731 91.145 91.196 91.789 93.344 94.247 92.324 91.188 90.947 90.784 90.883 91.101 91.116 91.651 92.546 92.185 91.951 91.627 91.572 92.438 94.601 96.038 98.474 101.252 103.318 102.848 102.626 102.808 98.818 -9999 97.468 99.435 100.235 98.215 96.986 96.916 96.715 95.662 95.254 95.309 95.422 95.548 95.604 95.528 95.463 95.457 95.628 95.502 95.918 96.6 96.605 97.312 104.275 106.589 106.585 106.85 106.446 105.918 105.567 106.346 106.795 107.072 106.978 107.128 107.158 107.591 108.157 107.303 104.16 99.067 97.624 101 102.772 102.024 98.122 96.954 96.853 97.801 100.413 101.707 101.065 99.866 97.474 100.259 102.954 105.034 105.291 101.665 98.16 97.716 97.134 97.749 97.21 97.503 97.884 97.382 98.82 100.676 99.83 99.355 99.851 99.896 100.328 103.255 103.826 103.748 103.357 101.294 98.345 95.834 95.237 95.185 95.056 94.927 95.147 95.253 95.326 95.321 95.23 95.005 94.9 94.823 94.792 94.712 94.585 94.498 94.443 94.46 94.56 94.616 94.545 94.579 95.514 95.31 95.644 95.915 96.168 96.189 96.085 96.262 96.599 98.725 99.765 97.492 96.275 96.291 97.242 96.946 98.489 99.639 97.827 96.283 96.051 96.03 99.908 99.334 95.428 94.406 94.169 94.369 95.325 95.724 96.075 97.818 96.694 97.324 102.304 104.334 102.787 99.965 96.294 95.522 95.671 95.928 97.34 96.727 94.778 96.887 99.856 99.355 96.221 95.396 95.202 94.992 94.94 94.836 94.629 94.536 93.284 97.681 99.104 94.646 94.214 94.131 94.071 94.119 94.146 94.211 94.224 94.181 96.181 95.361 96.206 104.129 99.459 93.219 93.231 93.241 93.219 93.201 93.769 94.344 93.506 94.661 95.216 93.989 93.824 94.116 95.294 95.366 94.926 93.061 92.986 94.499 102.766 103.791 104.829 103.171 103.139 99.054 93.974 93.391 93.179 93.094 93.074 93.011 95.094 95.414 92.679 93.281 93.566 93.686 93.829 93.914 94.726 95.469 103.374 104.956 105.486 105.899 104.549 103.499 95.226 93.391 93.594 93.814 93.801 93.891 93.979 93.981 93.896 94.944 96.106 96.249 95.784 95.614 95.354 96.486 104.154 104.954 106.486 106.131 104.971 103.479 94.719 95.649 94.859 95.684 96.239 98.609 99.244 98.686 96.264 97.634 103.006 104.279 104.456 104.631 105.206 105.744 105.166 104.719 96.034 95.909 95.836 95.879 95.924 95.761 95.916 94.556 94.536 94.606 94.629 94.571 94.636 94.794 94.856 94.769 94.919 95.101 94.909 94.631 93.826 93.489 93.981 93.366 92.749 93.726 99.936 92.671 92.621 92.609 92.261 92.304 92.261 92.219 92.279 92.289 92.316 92.434 92.501 93.574 95.654
81.454 82.787 83.417 84.322 83.691 80.806 81.184 82.033 82.447 82.124 81.831 81.731 81.879 82.168 82.692 82.878 83.316 85.354 89.298 90.128 89.883 88.67 86.795 85.718 84.653 84.69 84.891 85.492 86.273 86.501 86.461 86.186 85.908 85.901 86.219 87.458 89.381 90.022 91.29 92.682 92.737 91.526 90.857 89.097 87.812 88.291 88.515 -9999 -9999 -9999 89.693 89.698 89.813 89.829 89.256 88.754 89.783 93.209 95.173 94.49 92.193 89.233 88.311 88.065 88.18 88.425 88.644 88.943 88.984 88.871 91.228 93.42 92.826 90.379 90.866 89.675 89.007 88.756 88.946 89.721 89.399 89.557 91.545 90.671 89.894 89.786 89.901 90.34 90.622 90.686 90.637 90.873 91.221 -9999 92.955 93.035 91.541 90.537 90.81 90.882 90.971 91.173 91.216 91.2 91.131 91.31 91.393 91.436 91.648 91.798 91.949 92.476 92.876 95.337 98.006 98.981 98.791 98.533 -9999 101.008 101.724 102.856 103.385 101.892 99.982 97.824 96.473 95.36 94.694 95.308 95.404 95.43 95.892 95.663 95.276 95.259 95.496 95.638 95.854 96.206 96.128 96.529 100.897 100.55 103.865 104.916 104.901 106.493 104.571 102.802 106.442 106.97 107.106 107.078 107.06 107.021 107.029 106.25 100.808 97.693 98.3 102.819 102.705 102.384 98.082 97.087 96.88 97.125 99.698 102.401 101.885 101.198 100.711 102.921 103.67 105.329 104.461 102.446 99.319 98.871 99.438 98.641 97.692 98.859 99.606 98.272 98.223 99.814 99.296 99.232 100.458 102.393 102.935 102.206 102.637 103.158 103.856 100.629 96.421 95.632 95.174 95.074 94.594 94.273 94.387 94.789 95.313 95.363 95.23 94.918 94.774 94.884 94.782 94.583 94.521 94.454 94.432 94.445 94.472 94.31 94.283 94.141 94.256 94.132 94.263 94.711 94.877 94.579 94.634 95.889 96.727 98.333 102.99 97.842 96.604 96.737 98.071 99.788 99.466 99.599 101.772 97.405 95.995 95.903 96.109 95.976 94.237 94.017 94.084 94.786 96.263 96.37 95.807 97.981 96.377 95.906 97.918 104.761 103.075 97.592 96.272 95.586 95.622 98.089 103.025 100.03 95.44 94.506 95.154 99.881 95.797 95.308 95.203 95.109 94.803 94.746 95.289 93.934 93.151 93.169 93.174 94.026 93.974 93.929 93.891 93.916 93.951 93.979 94.004 94.034 96.671 100.884 95.621 94.154 94.181 93.201 93.186 93.229 93.206 93.334 93.909 93.459 93.296 94.526 94.599 93.931 93.681 93.906 94.964 95.344 94.401 93.034 92.924 93.521 96.989 101.911 104.394 103.961 102.891 95.244 93.961 93.151 93.139 93.074 93.004 92.984 93.154 92.429 92.616 92.869 93.416 93.501 93.731 93.876 94.886 97.551 103.574 104.609 105.646 105.326 105.249 97.721 94.609 94.966 93.921 93.736 93.621 93.721 93.789 93.799 93.706 93.826 94.136 95.221 96.054 95.461 95.466 98.859 104.534 105.609 106.719 105.919 104.999 98.524 94.626 95.211 94.799 95.984 98.589 99.154 98.501 99.524 96.896 101.689 103.084 103.049 103.511 104.561 105.366 105.364 104.076 97.686 95.986 95.851 95.769 95.716 95.676 95.761 95.819 94.351 94.379 94.444 94.454 95.279 94.489 94.614 94.579 94.554 94.596 94.776 94.634 94.939 94.411 93.674 94.689 94.151 92.599 92.464 92.334 98.289 93.664 92.336 92.089 92.244 92.144 92.161 92.129 92.119 92.271 92.381 92.566 93.806 94.924
80.012 82.824 85.36 88.261 89.163 84.722 83.738 83.271 83.129 82.006 81.284 81.49 81.661 81.774 82.781 83.454 82.742 84.753 88.526 89.589 88.724 85.299 85.101 85.48 85.016 84.529 84.759 86.548 89.475 87.656 -9999 86.423 85.811 85.662 85.851 86.375 87.706 90.711 92.271 92.81 92.496 91.177 88.178 87.86 87.107 88.179 88.172 88.255 91.072 92.19 -9999 89.784 89.045 88.909 88.353 88.517 90.442 93.771 94.284 93.583 90.249 88.605 88.094 87.831 87.984 88.486 88.675 89.029 91.211 93.606 94.64 95.302 95.752 94.479 93.848 93.229 92.366 90.727 89.087 88.837 88.852 89.248 89.852 89.576 89.689 89.879 89.682 90.611 90.36 90.661 90.65 90.611 90.649 91.358 91.866 91.936 91.496 90.752 90.734 90.901 91.013 91.197 91.25 91.246 91.329 91.456 91.52 91.521 91.773 91.843 91.921 91.951 91.955 92.951 97.222 95.461 93.629 94.156 95.476 99.104 103.675 103.678 103.351 104.198 102.842 99.114 96.188 94.787 94.694 95.147 95.126 95.114 95.339 95.274 95.158 95.227 95.453 95.598 95.656 95.607 95.498 95.821 96.465 96.657 98.193 101.272 102.465 103.532 100.392 103.079 105.852 107.317 107.313 107.164 107.058 107.005 106.453 103.994 99.528 97.321 97.74 100.648 101.353 100.935 98.032 96.846 96.759 96.773 98.334 101.699 101.957 101.748 103.363 105.022 104.572 105.265 104.037 102.938 102.916 100.242 99.912 99.416 98.938 99.253 99.777 99.303 98.973 99.505 99.45 98.631 99.197 104.127 105.968 101.695 101.185 102.487 101.53 97.599 95.306 95.011 94.872 94.895 94.174 93.843 93.896 94.181 95.993 95.512 95.238 95.179 94.923 94.902 94.799 94.601 94.498 94.388 94.397 94.418 94.358 94.223 94.176 94.114 94.058 93.961 93.978 93.927 93.753 93.88 93.925 94.769 95.239 96.343 97.666 96.822 96.527 100.266 105.95 103.42 99.132 98.549 100.327 98.363 96.96 96.973 95.923 95.996 94.198 93.916 94.502 96.537 99.487 97.673 96.168 95.209 94.393 95.902 99.15 102.788 102.573 96.442 96.259 97.675 98.154 97.52 102.932 103.352 95.897 95.272 96.61 95.498 95.488 95.27 95.231 95.187 94.714 96.319 96.459 95.271 93.061 93.006 93.379 93.856 93.844 93.721 93.676 93.731 93.771 93.771 93.781 93.861 94.314 95.944 95.241 94.214 95.606 93.196 93.194 93.209 93.206 93.586 95.104 94.799 93.069 96.191 99.789 94.296 93.479 93.229 94.289 94.496 94.774 92.509 94.731 93.756 92.999 92.754 93.196 94.696 95.424 92.541 92.931 92.714 94.446 93.624 93.366 93.951 96.744 92.251 92.539 93.649 93.214 93.411 94.104 93.891 94.946 96.274 103.789 104.836 105.839 104.966 103.991 94.326 94.179 94.241 94.779 93.706 93.421 93.556 93.609 93.601 93.616 94.529 93.896 93.979 94.261 94.831 95.719 102.419 105.371 105.894 106.654 105.539 104.394 95.316 94.586 94.679 94.754 95.769 97.714 96.866 95.754 98.971 99.209 102.864 103.164 102.829 103.904 104.746 105.489 104.676 103.326 96.086 95.974 95.891 95.696 95.651 95.619 95.834 95.724 100.834 94.246 94.274 94.444 96.409 94.371 96.226 94.626 94.484 94.391 94.326 94.229 94.331 94.181 94.866 94.431 93.831 92.699 92.776 91.986 92.159 92.981 93.964 92.619 92.106 92.084 92.099 92.026 92.054 92.126 92.969 92.426 93.839 95.299
80.126 85.863 86.207 89.165 87.744 85.443 90.077 85.476 84.931 83.548 82.196 81.566 81.636 82.193 84.478 86.342 85.797 86.06 86.762 87.172 85.952 84.14 84.265 86.551 86.053 84.59 84.626 85.515 88.049 87.457 -9999 86.113 85.548 85.317 85.544 86.028 86.448 89.847 92.178 92.879 92.297 90.626 88.071 87.095 86.973 87.298 87.433 88.236 90.246 92.659 93.42 90.293 88.705 88.083 87.69 88.032 88.513 91.069 91.517 91.436 89.214 88.245 87.502 87.501 87.794 88.52 88.835 89.87 93.362 94.646 95.236 95.15 95.282 95.037 94.831 94.835 94.836 93.95 90.722 88.952 89.117 90.296 90.946 89.5 89.324 88.871 89.895 91.807 91.146 90.841 90.5 90.441 90.348 90.943 91.719 91.131 90.875 90.601 90.636 90.827 91.051 91.17 91.27 91.343 91.427 91.433 91.346 91.488 91.779 91.904 91.941 91.996 92.034 91.896 93.815 93.034 92.329 92.452 92.938 96.79 103.934 103.182 101.993 102.603 101.593 -9999 95.582 94.402 94.606 94.821 94.895 94.669 94.417 94.601 -9999 -9999 -9999 95.512 95.607 95.549 95.572 95.652 95.787 96.245 96.258 98.57 101.746 101.068 99.787 101.544 105.667 106.848 107.154 107.022 106.995 105.453 103.393 101.399 103.469 97.952 96.872 97.732 98.831 97.7 96.915 96.668 96.591 96.752 98.594 102.018 101.944 100.976 102.145 104.154 104.567 103.753 103.993 101.026 98.362 99.708 99.649 99.415 -9999 98.538 98.797 98.873 99.239 99.029 98.694 97.974 97.466 101.996 106.464 100.704 101.813 105.141 103.577 96.35 95.629 94.554 94.572 93.737 93.4 93.329 93.578 93.759 94.392 93.994 95.709 95.578 95.216 95.039 95.041 94.906 94.549 94.426 94.419 94.432 94.352 94.222 94.027 93.933 93.889 93.815 93.784 93.712 93.651 93.68 93.723 93.893 93.842 93.996 93.795 94.371 95.773 102.714 104.298 103.326 101.73 101.858 98.523 100.792 104.463 97.671 95.744 95.431 94.117 94.425 95.896 99.765 100.518 99.573 97.348 94.16 94.465 95.532 100.619 102.036 103.325 103.994 101.904 104.976 106.494 97.954 99.281 100.47 95.603 94.998 94.122 95.535 95.487 95.295 95.168 94.759 94.489 96.476 96.979 92.871 92.904 92.841 94.016 94.421 93.639 93.556 93.546 93.549 93.584 93.584 93.636 93.631 97.344 95.524 93.934 96.076 93.251 93.184 93.174 93.166 97.939 96.689 95.444 94.256 92.826 96.889 99.776 93.364 93.219 92.649 93.886 94.139 95.166 92.121 92.006 93.419 91.779 91.774 92.059 92.659 92.709 92.494 92.356 92.306 92.234 92.136 92.021 99.066 92.041 92.069 92.456 92.279 92.374 92.674 93.311 95.046 94.879 99.174 103.774 105.114 105.801 104.781 103.304 95.254 94.091 94.076 94.584 93.339 93.279 93.391 93.439 93.416 93.579 96.109 95.236 94.596 94.039 94.131 94.191 96.086 100.359 105.511 106.421 104.886 104.096 94.676 94.611 94.669 94.736 95.889 96.031 96.044 95.574 95.586 95.614 102.796 103.711 103.174 104.094 104.881 105.766 104.521 102.281 96.594 98.399 98.299 97.349 96.184 95.744 95.941 95.619 109.256 94.074 94.114 94.086 94.069 94.569 94.759 94.549 94.434 94.284 94.214 94.146 94.206 94.036 94.456 93.896 93.574 92.331 92.421 92.169 92.071 92.036 92.231 91.986 92.011 92.041 92.096 92.054 92.049 92.491 92.339 92.854 93.874 95.011
80.192 82.591 81.608 85.463 85.104 85.37 84.355 82.836 84.953 84.332 83.978 83.079 82.358 82.807 85.916 88.192 88.21 87.205 84.328 83.008 83.406 83.321 84.007 85.656 87.035 85.111 84.398 85.313 -9999 -9999 86.527 86.143 86.514 87.179 87.359 88.2 86.811 89.803 91.787 92.358 91.45 88.806 86.988 87.011 86.883 87.014 87.082 87.961 89.603 96.671 95.75 90.063 87.787 88.216 88.259 87.017 88.046 88.798 87.988 88.709 87.907 87.307 87.183 87.31 87.88 88.618 88.973 89.936 90.094 92.564 92.621 93.681 94.636 94.744 94.906 95.233 94.979 94.473 -9999 91.395 92.731 93.786 93.166 92.347 91.523 89.529 89.213 89.956 90.339 90.311 91.382 90.296 90.208 90.419 91.184 90.897 90.722 90.542 90.59 90.676 90.863 90.994 91.217 91.398 91.513 91.481 91.365 91.486 91.691 91.839 92.114 92.2 92.219 92.16 92.181 92.177 92.359 92.541 92.443 93.728 96.223 96.609 97.247 98.289 99.994 98.1 95.249 94.216 94.342 94.746 95.009 95.003 94.32 94.435 -9999 -9999 -9999 -9999 95.51 95.485 95.483 95.642 95.72 95.978 96.073 96.286 97.12 96.781 96.715 98.036 100.741 106.417 107.148 106.851 104.193 100.811 102.517 100.397 98.173 96.719 97.018 96.735 96.826 96.878 96.625 96.559 96.682 97.942 100.931 103.554 103.412 100.567 102.061 103.781 104.789 102.887 101.739 101.425 97.164 98.251 98.826 98.793 97.545 97.305 97.325 97.336 97.444 98.422 97.904 98.187 100.004 103.857 108.887 107.194 107 108.022 106.045 97.232 95.516 94.185 93.677 93.344 92.855 93.69 93.97 93.497 93.128 93.608 94.828 95.755 95.099 94.809 95.355 95.914 94.775 94.582 94.516 94.374 94.429 94.282 94.016 93.98 93.915 93.841 93.764 93.687 93.636 93.612 93.634 93.618 93.544 93.541 93.492 93.599 97.076 99.489 103.245 99.877 103.835 100.538 100.007 100.959 96.639 96.254 95.291 93.781 93.729 94.408 95.684 100.893 97.53 98.891 96.228 95.488 94.955 95.47 95.99 100.376 105.675 108.225 106.229 106.665 105.659 100.35 96.603 95.202 94.506 94.713 92.192 94.739 95.933 96.137 95.158 94.961 94.691 95.336 94.314 92.756 92.766 98.551 96.486 93.581 93.514 93.396 93.406 93.394 93.401 93.451 93.499 93.464 94.016 94.941 98.904 99.171 93.354 93.396 93.756 93.154 94.424 94.594 95.466 94.409 92.626 95.944 93.501 93.369 93.161 92.366 91.626 91.551 91.646 92.539 95.491 99.986 101.149 100.639 97.791 94.759 92.769 91.719 93.044 92.081 93.571 92.501 91.996 91.854 91.824 91.906 92.126 92.239 92.369 92.561 92.726 93.704 93.686 102.204 103.381 105.006 102.946 102.491 101.406 94.846 94.259 94.056 95.274 93.141 93.114 93.224 93.254 93.771 93.614 94.779 94.751 95.741 95.169 94.716 95.696 94.256 94.351 94.861 95.891 96.504 98.094 94.599 94.626 94.669 95.271 95.389 94.814 95.896 95.529 102.849 102.859 103.639 104.614 104.444 104.321 105.086 105.134 104.316 98.574 95.336 95.389 95.939 96.179 96.654 97.676 95.816 93.874 93.906 93.936 93.956 94.914 94.314 94.726 94.429 94.274 94.794 94.456 94.004 94.044 94.004 94.021 93.919 94.274 93.099 92.219 92.091 92.026 91.986 91.944 91.929 91.989 92.001 92.021 92.034 92.099 92.014 92.264 92.346 92.966 93.956 93.696
79.088 79.105 79.818 80.583 80.38 82.575 81.266 80.302 80.952 81.475 84.162 83.413 82.771 83.96 87.332 88.716 88.198 85.918 83.071 82.444 82.667 83.45 84.146 84.511 86.187 85.514 85.222 -9999 -9999 -9999 86.111 85.366 85.974 88.75 87.565 90.858 88.465 86.715 88.723 90.806 89.219 87.018 86.785 86.726 86.779 87.295 87.572 87.574 89.981 94.047 93.291 87.919 87.774 90.201 90.601 89.272 89.038 88.541 87.469 87.142 86.654 86.75 86.902 -9999 88.185 88.185 87.828 89.057 88.569 88.436 88.934 91.9 91.041 91.9 93.92 93.916 94.127 93.765 93.194 94.182 96.051 95.703 95.048 94.944 94.609 92.336 89.735 89.307 89.395 90.055 90.671 89.808 89.499 89.94 90.738 90.684 90.728 90.525 90.701 90.717 90.775 90.939 91.068 91.41 91.686 91.478 91.424 91.51 91.643 91.88 92.417 92.706 92.616 92.296 92.131 92.185 92.352 92.392 92.461 92.409 92.392 92.516 94.187 96.867 99.195 96.412 95.146 94.201 94.264 94.651 95.059 95.123 94.947 94.871 -9999 -9999 -9999 -9999 95.431 95.412 95.312 95.423 95.59 95.515 95.736 95.947 96.074 95.965 96.038 96.15 98 102.517 104.491 102.411 98.798 99.711 99.889 97.637 96.475 96.958 97.555 96.96 97.147 96.668 96.677 96.58 97.621 98.634 102.012 105.109 104.69 103.481 104.517 104.859 105.048 103.615 100.032 97.733 97.288 98.207 99.313 98.3 96.714 96.747 96.892 96.123 96.473 97.592 97.236 97.109 100.385 104.3 104.372 106.835 109.036 109.78 103.245 95.889 94.817 93.996 93.647 93.293 93.38 93.864 95.167 93.431 92.886 92.697 93.075 93.51 93.505 93.088 94.099 94.744 94.4 94.108 94.375 94.243 94.606 94.693 94.589 94.321 93.987 93.911 93.781 93.669 93.651 93.598 93.574 93.557 93.525 93.371 93.215 93.624 97.131 99.56 101.103 98.952 99.705 102.816 97.373 94.1 93.757 94.258 94.518 93.204 93.342 93.935 94.993 96.072 96.885 98.404 103.773 100.663 97.096 95.045 95.962 99.848 106.703 106.227 105.509 105.861 104.811 101.784 95.608 94.066 94.259 94.686 92.655 93.971 96.285 97.687 95.689 94.666 95.029 94.211 92.799 92.631 92.554 93.291 96.006 93.411 93.319 93.226 93.206 93.174 93.211 93.209 93.346 94.641 95.906 95.026 94.356 94.146 93.521 96.351 95.216 94.981 94.984 94.676 94.924 94.206 92.416 96.696 95.699 93.686 92.864 91.949 91.586 91.511 91.744 91.589 96.911 100.241 101.511 102.334 100.786 100.251 94.691 91.649 91.671 91.886 91.679 91.696 91.699 91.631 91.681 91.689 92.046 92.226 92.396 92.581 92.791 93.621 93.656 102.534 103.579 103.986 102.971 98.436 97.844 97.316 96.049 94.074 93.189 92.936 92.936 93.039 93.416 93.309 94.144 94.494 94.446 94.429 94.681 95.871 97.436 95.211 94.294 94.391 94.476 94.844 94.789 94.579 94.616 94.646 94.744 94.726 94.979 95.729 95.521 105.869 104.424 105.161 105.466 105.299 105.139 105.289 105.166 104.431 96.026 95.134 95.034 94.999 94.961 95.021 95.034 94.751 94.669 94.474 93.779 93.784 96.216 93.844 94.709 95.324 94.201 94.059 94.464 93.486 93.916 93.899 93.709 93.596 93.614 93.371 92.086 91.956 91.889 91.859 91.879 91.944 91.976 91.994 92.001 91.971 91.999 92.086 92.276 92.456 93.754 94.766 93.634
78.764 78.875 79.087 79.32 80.401 81.095 80.178 80.119 80.155 80.359 81.161 81.326 82.476 86.151 89.432 88.934 87.642 83.996 82.221 82.47 83.227 83.929 84.448 84.927 -9999 -9999 -9999 -9999 -9999 -9999 85.515 85.602 85.998 87.04 88.301 90.876 89.888 88.05 87.784 87.017 86.97 86.698 86.495 86.362 86.588 87.825 88.827 87.873 89.235 91.517 90.077 87.33 87.187 89.307 92.021 92.348 91.465 90.919 87.771 86.782 86.459 86.576 86.818 -9999 88.389 88.322 88.204 87.703 87.53 87.44 87.534 88.228 87.799 88.619 90.123 90.012 92.283 91.522 90.818 91.571 94.3 95.736 95.783 95.939 95.721 95.592 93.49 91.256 92.088 92.625 91.192 91.071 90.511 89.96 90.115 90.619 90.641 90.502 90.735 90.691 90.723 90.767 90.903 91.275 91.705 91.521 91.313 91.324 91.53 91.891 92.454 92.942 92.785 92.548 92.3 -9999 92.363 92.441 92.447 92.444 92.377 92.621 92.804 93.954 93.45 94.857 94.935 94.645 94.396 94.54 94.836 94.978 95.171 95.089 -9999 -9999 -9999 -9999 -9999 95.378 95.325 95.352 95.419 95.539 95.6 95.686 95.813 95.73 95.782 96.047 96.382 96.929 97.668 96.782 97.002 98.367 99.172 97.265 98.001 99.733 101.359 100.152 97.82 96.764 96.661 96.588 97.567 100.572 102.585 105.399 105.558 105.299 105.095 105.405 106.152 104.791 100.548 97.382 97.062 98.71 99.02 98.346 96.255 95.975 95.878 95.604 95.551 95.919 95.824 95.65 96.333 98.232 99.559 -9999 106.639 106.615 101.858 97.855 94.297 93.947 93.795 93.095 93.016 93.145 93.466 93.193 92.632 92.469 92.493 92.647 92.658 92.599 93.2 93.839 93.543 92.907 93.026 93.383 94.487 96.005 94.909 94.234 94.158 94.06 93.853 93.687 93.834 93.638 93.523 93.561 93.477 93.384 93.326 93.342 93.611 98.438 98.652 97.839 99.796 96.964 97.926 95.44 93.295 93.121 93.022 92.969 93.085 93.466 94.446 95.175 97.618 100.265 98.562 98.515 98.023 93.488 94.696 99.492 104.946 103.494 102.144 101.27 102.713 100.528 96.068 94.192 94.537 94.913 93.31 93.908 96.206 96.286 95.592 94.527 94.287 93.891 92.429 92.459 92.389 93.464 93.326 93.244 93.089 93.054 93.024 92.979 93.001 93.064 93.804 94.381 94.631 94.271 94.501 93.141 93.354 93.284 94.121 96.024 103.784 94.439 94.401 93.316 92.179 96.481 94.591 93.609 93.584 92.656 91.756 91.549 91.461 91.386 98.299 100.669 101.789 102.161 101.081 99.994 92.524 91.166 91.341 91.584 91.561 91.544 91.571 91.379 91.436 91.734 92.104 92.201 92.389 92.631 93.221 93.601 95.851 103.936 103.811 103.764 102.739 98.421 98.584 98.329 97.856 97.939 95.476 92.681 92.764 92.829 92.839 92.944 94.489 94.244 94.231 94.256 94.279 94.961 95.339 97.476 95.121 95.126 94.531 94.489 94.531 94.559 94.584 94.624 94.756 95.374 95.899 95.114 95.289 103.786 103.956 105.469 105.721 105.899 106.036 105.731 105.566 105.421 99.276 95.044 94.901 94.814 94.776 94.784 94.849 94.436 93.586 93.951 93.621 93.611 93.539 93.781 94.236 94.039 93.576 93.806 93.944 93.369 93.049 93.781 94.161 94.879 93.771 92.831 92.066 92.004 91.859 91.861 91.861 91.919 91.959 91.956 91.996 91.936 91.954 92.149 92.266 92.814 94.184 93.761 93.409
78.719 78.791 78.813 79.51 80.171 81.66 80.231 80.261 80.237 80.285 80.431 81.748 84.977 87.84 89.248 88.861 86.7 82.638 82.231 82.732 84.841 84.75 85.133 -9999 87.09 86.827 86.805 85.658 84.711 84.346 84.898 85.439 86.224 85.871 86.602 86.882 88.823 89.374 87.987 87.021 86.511 86.297 86.151 86.281 86.6 86.934 87.983 88.685 89.242 87.967 86.99 86.735 87.149 87.951 91.816 93.14 92.136 88.469 87.101 86.293 86.374 86.52 -9999 -9999 88.162 88.522 88.408 87.593 87.069 87.46 87.446 87.281 87.392 87.635 87.428 87.417 89.115 89.259 89.002 88.931 89.828 93.45 95.031 95.291 95.582 96.372 96.112 95.782 96.094 95.865 94.837 94.624 92.929 93.517 93.076 91.487 90.547 90.615 91.01 91.316 90.634 90.544 90.665 90.963 91.264 91.289 91.247 91.172 91.341 91.681 92.271 92.469 92.481 -9999 -9999 -9999 -9999 92.446 92.426 92.447 92.492 92.717 93.461 94.789 94.768 95.759 96.493 95.041 94.383 94.254 94.466 94.695 94.943 94.987 -9999 -9999 -9999 -9999 -9999 95.325 95.351 95.374 95.332 95.429 95.54 95.585 95.607 95.575 95.663 95.814 96.063 96.301 96.575 96.599 97.099 97.754 97.937 101.378 106.368 104.486 102.212 100.594 97.928 96.797 96.49 96.415 96.961 99.668 103.552 105.757 105.784 105.58 105.414 105.44 106.058 105.134 104.114 99.646 97.922 97.214 97.955 98.508 97.112 95.838 95.58 95.537 96.047 95.805 95.688 96.281 96.937 96.499 97.069 99.508 -9999 -9999 -9999 95.724 93.861 93.757 93.532 92.916 92.586 92.666 92.802 92.98 92.617 92.464 92.434 92.472 92.515 92.471 92.707 93.215 92.99 92.565 92.464 92.543 93.078 93.667 93.457 94.058 94.675 94.737 94.004 93.87 93.757 93.58 93.645 93.822 93.484 93.367 93.355 93.492 93.347 93.544 96.383 95.429 95.264 94.396 96.601 95.382 93.447 92.979 92.901 92.928 92.916 92.967 93.262 93.691 94.456 96.685 97.235 96.869 95.481 92.703 93.266 96.862 99.313 99.367 96.099 93.489 94.985 95.136 92.039 92.084 92.086 92.054 91.981 94.417 95.362 95.914 95.219 94.211 93.874 93.661 92.311 92.314 92.206 93.241 93.076 93.036 92.921 92.871 92.849 92.821 92.826 94.486 94.166 93.731 94.961 94.489 94.124 93.159 93.129 93.116 93.196 94.961 96.016 92.896 92.279 92.014 91.934 91.941 91.946 92.189 92.291 92.386 91.116 91.599 93.344 93.406 99.571 100.876 101.884 101.909 101.416 102.094 93.824 91.021 91.119 91.099 91.119 91.126 92.154 91.194 91.244 91.681 92.014 92.039 92.154 92.521 93.294 93.571 95.934 103.939 104.011 103.536 102.524 100.741 100.074 98.209 92.626 93.949 92.576 92.454 92.574 92.631 92.634 92.764 93.939 93.944 93.934 93.986 94.064 94.139 95.176 94.714 94.914 95.606 95.301 94.936 94.494 94.524 94.546 94.616 95.636 95.704 96.406 95.076 94.971 95.096 97.264 103.339 104.666 105.121 105.926 104.401 105.589 105.836 97.636 94.934 94.991 94.714 94.659 94.691 94.814 93.484 93.304 93.426 93.474 93.449 93.389 93.946 94.084 93.819 92.856 92.491 92.814 92.626 92.349 93.581 93.616 93.474 93.259 92.784 92.094 93.444 91.926 91.896 91.854 91.911 91.931 91.949 91.946 91.921 91.936 92.061 92.224 96.001 94.519 94.399 93.329
78.363 78.575 78.935 79.32 79.48 81.04 80.957 80.661 80.626 80.412 80.526 83.288 87.058 88.279 88.68 87.916 85.626 82.571 82.207 82.518 83.787 84.915 86.38 87.654 86.407 86.999 88.947 84.931 84.153 83.908 84.069 84.26 84.639 84.571 84.711 85.424 87.153 89.07 88.637 87.361 85.764 86.056 86.152 86.574 86.969 87.327 87.469 89.927 89.858 87.066 86.936 86.981 87.714 90.758 92.925 92.619 91.047 87.882 86.628 86.342 86.269 -9999 -9999 -9999 -9999 88.018 87.757 87.193 86.702 88.452 88.033 87.221 87.274 87.427 87.072 87.063 87.491 87.538 88.323 88.694 88.12 89.362 92.385 93.67 94.667 95.2 95.545 95.836 96.39 96.351 96.55 96.101 95.854 95.991 95.882 94.348 93.651 92.282 91.554 90.409 90.551 90.635 90.602 90.792 91.379 92.293 91.226 91.098 91.268 91.533 92.032 91.993 91.802 91.906 91.744 -9999 -9999 -9999 -9999 -9999 92.566 93.02 94.622 95.978 98.356 98.57 94.69 94.397 94.103 94.219 94.33 94.461 -9999 95.143 95.14 95.28 95.273 -9999 95.289 95.327 95.344 95.351 95.159 95.266 95.454 95.436 95.483 95.5 95.419 95.705 95.964 96.868 97.457 96.257 97.323 101.05 100.424 105.056 110.511 107.217 103.66 101.662 99.289 96.776 96.395 96.427 98.057 101.315 105.152 105.814 105.801 105.608 105.609 105.785 106.236 105.949 103.997 103.319 98.422 96.68 97.086 96.781 95.933 95.624 95.514 95.643 97.018 96.924 97.006 97.63 98.479 98.543 97.358 98.027 -9999 -9999 -9999 93.901 93.724 93.703 93.975 92.91 92.521 92.448 92.446 92.624 92.553 92.407 92.351 92.381 92.41 92.354 92.365 92.552 92.418 92.285 92.324 92.362 92.371 92.831 93.244 93.968 94.72 95.101 94.237 93.992 93.633 93.656 93.972 94.759 95.435 94.088 93.487 93.456 93.583 94.293 94.021 93.447 93.677 94.255 94.493 93.93 93.355 92.956 92.962 92.926 92.872 92.844 92.793 92.784 92.852 93.09 93.282 93.765 93.472 92.599 92.452 92.768 93.755 93.007 92.506 91.996 91.806 92.187 91.939 91.954 91.964 91.936 91.894 93.734 95.284 94.45 94.576 94.806 93.64 92.449 92.184 92.141 92.216 93.244 92.971 92.866 92.794 92.741 92.691 92.709 92.736 92.784 93.549 94.019 93.829 94.819 94.256 93.556 93.281 95.436 100.054 95.539 95.729 95.359 91.886 91.721 91.736 91.759 91.434 91.104 90.979 90.924 90.951 91.419 90.921 92.386 99.811 101.091 102.101 101.699 103.171 99.126 92.496 92.524 91.034 92.534 91.396 90.999 93.271 91.034 91.076 91.956 91.976 91.971 91.981 92.081 93.546 93.561 96.669 104.584 104.279 103.789 103.411 101.946 102.331 98.411 93.539 92.524 92.511 92.254 92.391 92.429 92.414 92.654 93.626 93.664 93.701 93.739 93.754 93.844 97.531 96.186 94.469 94.734 94.639 95.299 94.776 94.571 94.504 94.579 94.611 94.649 95.024 94.609 94.659 94.636 94.909 95.429 95.341 96.069 101.839 102.681 104.131 104.941 94.999 94.791 94.691 94.644 94.594 94.531 94.709 93.231 93.759 93.261 93.299 93.261 93.281 93.836 93.809 93.086 92.751 92.529 92.881 91.896 92.584 93.324 93.516 93.224 93.119 92.611 91.984 91.934 91.966 91.861 91.809 91.824 91.859 91.896 91.899 91.881 91.944 92.159 92.181 92.709 93.344 93.776 93.219
78.164 78.449 78.71 78.909 79.468 81.073 82.94 80.32 80.418 80.503 80.796 81.847 85.802 85.378 86.812 86.255 83.675 82.315 82.121 82.342 82.986 84.267 87.017 89.595 86.386 84.732 86.032 83.837 83.81 83.574 83.624 83.752 84.111 84.843 84.833 85.097 88.039 89.811 89.624 87.969 86.085 86.41 85.956 86.385 88.135 89.084 89.921 90.345 88.428 86.837 86.551 86.939 89.278 92.178 93.479 92.137 89.31 87.499 86.509 86.273 -9999 -9999 -9999 -9999 -9999 -9999 87.582 87.358 87.485 87.806 87.015 87.335 87.216 86.807 86.99 86.685 87.248 87.138 88.19 90.075 88.124 88.403 89.603 89.343 91.122 91.901 92.876 93.899 95.236 94.915 95.947 96.106 96.422 96.916 96.905 96.647 96.191 95.517 94.38 93.182 90.936 93.755 92.178 90.632 90.836 91.794 91.19 91.046 91.168 91.436 91.652 91.446 91.267 91.695 91.83 91.863 91.876 91.879 -9999 -9999 -9999 92.914 94.346 94.813 95.488 98.354 94.703 94.197 93.74 93.972 94.213 94.215 -9999 95.258 95.23 95.188 95.173 95.117 95.21 95.305 95.326 95.279 95.193 95.266 95.397 95.396 95.418 95.487 95.536 96.322 98.012 100.715 100.404 96.723 96.969 98.338 98.771 101.751 107.061 108.543 104.58 103.568 99.273 96.536 96.313 96.922 98.005 101.716 105.415 106.032 105.857 105.926 106.238 106.757 107.491 106.372 102.967 102.613 97.745 96.559 96.259 95.917 95.323 95.148 94.967 95.478 97.525 97.765 97.89 97.986 97.376 96.911 97.339 98.531 100.532 -9999 -9999 94.732 93.572 93.584 93.572 92.82 92.413 92.36 92.397 92.455 92.261 92.317 92.277 92.217 92.296 92.285 92.223 92.173 92.139 92.202 92.196 92.211 92.309 92.377 92.802 93.792 93.701 93.662 93.809 94.511 94.001 94.178 94.969 97.296 97.909 95.02 93.617 93.868 93.682 93.589 93.369 93.233 93.021 93.232 93.187 93.049 93.025 92.939 92.943 92.892 92.792 92.753 92.768 92.692 92.64 92.647 92.68 92.755 92.39 92.175 92.167 92.198 92.235 91.999 91.9 91.827 91.654 91.668 91.694 91.869 91.688 91.89 92.568 92.964 92.935 92.626 98.997 94.379 95.291 91.999 92.044 91.944 92.614 92.901 92.751 92.656 92.621 92.626 92.656 92.679 92.686 92.981 93.451 94.371 94.286 93.201 92.486 92.496 92.511 93.729 94.026 93.309 94.601 92.586 91.856 91.724 91.509 92.009 91.401 90.916 90.899 90.884 90.829 90.786 90.881 95.446 100.531 101.201 102.269 101.856 101.151 97.984 91.141 90.954 90.879 92.674 91.846 92.564 93.226 90.866 90.901 96.839 91.976 91.949 92.001 92.124 93.521 93.541 96.631 104.179 104.564 104.914 105.044 104.791 104.496 97.944 97.704 96.234 92.081 92.089 92.181 92.234 92.231 93.249 93.199 93.389 93.426 93.429 93.469 93.469 95.996 93.774 93.756 93.786 94.061 98.786 105.336 94.864 94.581 94.554 94.586 94.634 94.384 96.256 94.566 94.194 94.646 94.956 94.946 95.161 95.111 94.976 95.299 94.866 94.736 94.606 94.609 94.476 94.414 94.434 94.504 93.041 93.949 93.116 93.129 93.064 93.131 95.369 94.349 92.749 91.959 92.124 92.319 91.729 92.769 93.194 93.351 93.841 94.339 92.499 91.991 91.904 91.844 91.789 91.771 91.766 91.796 91.844 91.856 91.884 91.859 92.094 92.176 92.789 93.456 93.154 93.159
78.357 78.453 78.811 78.986 79.054 79.634 80.549 80.756 80.801 82.467 82.131 81.295 81.684 81.467 85.464 83.961 82.186 81.789 82.112 82.288 82.547 84.106 88.392 90.674 88.05 86.596 85.503 84.088 83.783 83.185 83.312 83.783 83.801 85.267 85.431 86.118 89.128 90.644 90.174 88.807 85.961 85.508 85.579 85.927 86.467 89.484 90.22 88.601 86.848 86.008 86.277 87.002 88.778 92.394 92.928 92.308 89.416 87.439 86.214 86.15 -9999 -9999 -9999 86.936 -9999 -9999 -9999 -9999 -9999 87.522 87.458 87.106 86.855 87.022 87.291 86.979 86.867 86.726 87.804 88.312 87.443 87.883 88.042 87.903 88.085 88.541 89.314 89.576 90.175 92.849 93.662 94.97 95.785 96.554 96.721 97.229 96.863 96.654 96.452 95.916 94.378 95.626 95.696 93.69 92.591 91.797 91.513 91.971 91.444 91.115 91.326 91.44 91.409 91.78 91.87 91.897 91.831 91.848 91.886 -9999 92.473 92.549 92.671 92.78 94.209 94.572 94.33 93.627 93.406 93.702 93.866 -9999 -9999 95.304 95.263 95.219 95.028 94.954 95.15 95.189 95.201 95.248 95.274 95.328 95.422 95.418 95.399 -9999 -9999 -9999 99.573 102.545 101.417 96.902 95.969 97.033 98.634 103.794 103.086 113.635 111.583 106.888 99.222 96.462 96.385 96.988 100.093 104.518 105.223 106.062 105.782 106.136 106.332 106.895 107.898 106.377 103.468 98.922 97.784 96.404 96.183 95.824 95.412 95.083 94.758 95.966 97.685 97.915 98.111 97.352 95.821 94.768 97.22 101.596 105.007 102.814 -9999 94.339 93.508 93.466 92.996 92.384 92.203 92.423 93.198 92.779 92.199 92.172 92.116 92.06 92.137 92.167 92.116 92.107 92.089 92.079 92.091 92.112 92.126 92.1 92.161 92.628 92.751 92.212 93.04 95.386 95.603 95.378 96.756 98.74 98.255 96.519 95.017 95.517 93.98 93.631 93.287 93.044 92.992 92.946 92.903 92.863 92.869 92.864 92.863 92.821 92.768 92.735 92.733 92.699 92.649 92.569 92.537 92.408 92.297 92.181 92.098 92.043 92.055 91.988 91.919 91.922 91.747 91.682 91.729 91.72 91.696 91.68 91.774 92.035 92.171 92.801 92.046 93.941 93.004 91.881 91.874 91.774 92.666 93.084 92.724 92.669 92.591 92.609 92.689 92.574 92.579 92.604 93.566 94.104 94.579 93.681 92.061 92.019 91.999 92.034 92.094 92.334 98.439 94.979 93.899 92.201 91.324 91.664 91.191 90.866 90.864 90.849 91.064 91.209 91.046 97.451 100.626 101.416 102.239 101.009 100.419 96.239 90.919 90.759 90.631 91.009 91.009 91.866 91.874 90.679 90.979 94.536 92.049 92.011 92.084 92.236 93.509 93.524 94.871 99.189 103.519 102.456 103.574 103.966 104.466 98.404 98.501 96.201 91.841 91.894 91.979 91.996 91.984 93.391 92.241 92.541 92.794 93.174 93.134 93.579 94.216 93.454 93.436 93.484 93.529 101.511 97.634 95.689 94.119 95.134 95.006 95.549 94.611 96.329 94.429 94.094 94.059 94.676 94.789 94.856 94.856 94.736 94.664 94.594 94.516 94.431 94.341 94.289 94.254 94.436 93.699 92.846 92.884 92.961 92.954 92.929 92.981 93.544 93.474 92.876 92.246 92.281 93.336 92.309 92.804 94.409 93.159 93.039 96.564 95.459 91.896 91.819 91.789 91.804 91.806 91.781 91.799 91.771 91.799 91.794 91.939 92.059 92.184 93.146 93.019 93.026 93.216
78.711 78.911 78.954 79.609 79.736 79.739 80.527 82.47 82.721 82.541 82.938 82.547 82.235 81.003 81.635 81.578 81.485 81.733 82.181 82.401 82.69 84.443 86.692 86.925 84.919 88.214 88.104 84.857 83.438 82.96 83.127 83.77 83.736 84.502 85.257 87.109 89.613 90.925 90.908 89.389 86.155 85.396 85.28 85.548 86.456 88.268 90.304 88.584 86.056 86.263 86.328 86.973 91.046 92.899 92.726 91.684 89.025 86.851 86.303 86.125 86.21 86.414 86.472 86.659 86.893 -9999 -9999 -9999 -9999 -9999 86.753 86.278 86.254 86.585 86.724 86.888 86.751 87.297 87.425 86.892 87.017 87.481 87.51 87.83 87.709 87.822 88.25 88.65 88.589 88.937 89.436 91.892 92.054 94.081 95.749 94.989 95.929 96.038 96.544 96.861 97.189 97.684 97.181 97.112 96.601 95.313 94.089 94.811 92.66 92.747 91.603 91.063 91.51 91.407 91.724 91.897 91.812 91.822 91.916 92.313 92.411 92.425 92.812 92.58 92.928 92.65 93.017 93.143 93.369 93.477 93.345 93.759 94.614 95.279 95.57 95.394 94.96 94.629 95.175 95.338 95.223 95.328 95.32 95.409 95.355 95.311 95.278 -9999 -9999 -9999 98.425 98.559 97.344 96.223 95.406 97.966 103.27 113.359 108.896 111.562 111.452 108.673 101.108 96.689 96.338 96.854 98.633 101.565 104.769 105.861 105.69 106.189 106.194 105.929 106.12 106.008 104.225 99.27 96.398 96.769 96.434 95.726 95.429 95.585 95.507 96.816 97.845 98.065 98.081 97.208 95.789 94.737 96.233 102.766 107.071 103.62 -9999 -9999 93.311 93.568 93.477 92.282 92.019 92.143 93.152 92.804 92.102 92.001 92.022 92.054 91.962 91.998 92.033 92.111 91.979 91.995 92.032 92.042 92 91.948 92.019 92.084 92.133 92.112 92.42 93.949 95.756 95.132 97.256 99.482 98.267 96.22 94.984 96.355 93.994 93.713 93.393 93.048 93.06 93.005 92.968 92.89 92.815 92.764 92.779 92.745 92.719 92.727 92.696 92.687 92.619 92.565 92.486 92.387 92.288 92.175 92.125 92.079 92.037 91.921 91.783 91.783 91.76 91.759 91.941 91.853 91.685 91.634 91.598 91.689 91.672 91.612 91.641 91.65 91.874 91.734 91.716 91.661 92.724 95.916 92.654 93.446 92.579 92.556 92.521 92.504 92.479 92.599 93.246 91.906 92.184 92.851 91.861 91.859 91.824 91.801 91.769 91.744 91.781 92.376 93.701 92.074 91.049 91.719 90.881 92.664 90.986 90.991 90.936 91.269 90.664 98.304 100.546 101.666 102.079 100.396 99.821 92.136 90.871 90.706 90.634 90.634 90.541 92.391 90.496 90.491 92.209 90.864 90.946 91.681 91.966 93.876 93.519 93.519 92.784 91.239 91.184 91.479 93.921 97.506 99.326 96.646 97.636 92.549 91.594 91.714 91.776 91.779 91.784 91.894 91.764 91.594 91.761 92.156 93.264 93.419 94.261 93.401 93.329 93.181 93.241 93.306 94.141 97.719 93.564 93.786 93.281 95.754 95.176 94.676 94.266 94.011 93.914 93.864 97.204 95.439 94.581 95.346 94.456 94.416 94.319 94.259 94.186 94.094 94.081 94.259 93.059 93.469 92.764 92.789 92.771 95.579 92.836 96.526 93.079 92.444 92.249 92.584 92.421 92.369 92.711 92.709 92.819 92.851 94.446 91.986 91.829 91.794 91.794 91.736 91.666 91.551 91.566 91.579 91.569 91.741 91.934 92.071 92.219 92.556 92.959 92.799 93.124
