ncols 424
nrows 32
xllcorner    428052
yllcorner    436536
cellsize     2
NODATA_value -9999
68.679 67.579 67.559 67.659 67.944 67.464 67.461 67.474 67.471 67.481 67.449 67.439 67.496 67.591 69.991 70.019 68.931 67.671 67.774 68.259 68.244 66.481 65.731 65.694 65.639 67.796 68.034 67.684 66.539 66.806 66.589 66.624 66.706 68.219 68.999 66.316 66.074 65.819 67.066 66.879 66.434 66.334 66.419 66.339 66.511 66.829 66.741 66.319 66.404 66.736 66.706 66.686 66.971 66.899 67.319 67.226 67.006 66.706 66.654 71.934 75.139 76.386 76.706 75.494 74.284 67.246 67.386 65.876 65.851 65.821 65.824 65.816 65.751 71.421 73.094 68.716 66.604 68.774 69.094 75.399 75.639 75.899 76.176 76.386 76.631 72.566 66.226 69.779 71.311 70.451 66.574 65.441 65.419 65.636 65.994 67.451 69.996 70.041 70.421 65.126 65.041 65.069 65.101 65.156 71.471 71.681 71.841 72.059 72.449 71.866 71.664 71.414 71.131 70.729 68.781 66.346 64.601 64.634 64.466 64.394 65.049 64.241 65.294 64.241 64.139 63.204 63.074 63.306 62.879 63.056 63.544 62.709 62.566 64.441 64.736 63.894 64.256 62.959 63.714 62.936 61.109 61.309 61.271 61.366 60.711 63.669 60.954 60.896 63.476 65.369 67.161 67.691 67.826 68.151 68.444 68.674 68.424 64.454 58.764 58.386 59.294 58.256 58.131 58.019 58.436 58.031 58.046 58.249 58.226 64.309 66.491 67.696 67.454 67.301 65.554 56.129 56.401 56.509 55.966 55.219 55.199 54.981 54.954 54.886 54.819 54.821 54.771 54.696 54.606 54.536 54.509 55.691 55.631 55.541 56.329 54.209 53.894 53.691 53.764 53.734 53.604 55.579 53.601 53.739 53.814 53.674 53.436 53.126 52.954 52.874 52.519 51.281 50.671 50.681 51.464 52.539 52.921 52.929 52.934 54.776 62.199 63.351 63.501 62.351 58.866 53.266 53.941 54.199 54.214 54.264 54.349 54.309 54.306 54.601 54.984 55.129 55.136 55.446 56.044 60.394 60.429 59.041 58.036 58.036 58.709 58.036 58.136 58.254 58.271 58.171 58.239 58.274 58.281 58.634 58.401 58.979 59.124 58.881 59.596 62.221 62.771 60.494 59.049 58.711 59.036 58.616 58.649 58.999 59.314 60.441 60.701 60.944 62.359 62.826 61.246 60.919 60.731 60.711 61.929 61.874 67.431 69.159 70.009 68.914 65.654 61.599 61.364 61.309 61.329 61.696 61.854 69.789 70.979 71.679 71.376 69.226 62.451 62.479 62.041 62.054 62.086 62.116 62.126 62.149 62.196 62.196 62.089 62.014 62.181 62.401 62.351 62.189 62.079 62.071 62.051 62.009 61.936 61.886 61.851 61.884 61.854 61.821 61.774 61.949 64.079 66.481 67.206 67.589 67.566 66.874 65.819 61.201 61.151 61.116 61.064 61.034 61.031 61.044 61.519 61.316 61.311 61.281 61.651 61.331 61.431 61.489 63.814 67.286 68.079 68.959 67.544 66.789 61.566 61.154 61.121 61.116 61.066 62.059 61.006 60.931 60.954 60.914 60.899 60.879 60.831 60.789 60.736 60.836 61.051 61.084 63.059 69.329 68.504 64.159 61.304 60.939 60.826 60.904 60.561 60.344 60.326 60.321 60.284 60.216 60.119 60.021 59.936 59.991 60.031 59.971 59.851 59.739 59.641 59.534 59.454 59.391 59.336 59.299 59.261 59.254 59.264 59.261 59.206 59.174 59.174 58.979 58.976 58.964 58.994 59.029 59.879 59.079 59.086 59.089 59.091 59.094 59.136 59.046 58.884 58.889 58.991 59.034 59.106 59.116
67.556 67.561 67.534 67.564 67.761 68.674 68.174 67.321 67.331 67.334 67.319 67.371 67.464 67.579 68.731 68.479 67.914 67.301 67.471 68.244 68.221 66.239 65.729 65.701 65.649 68.041 68.024 67.531 66.119 66.421 66.326 66.509 66.354 66.139 66.104 66.096 66.479 65.886 66.384 66.226 66.176 68.356 66.406 66.321 66.291 66.621 66.161 66.199 66.749 66.676 66.684 66.679 68.014 66.329 67.039 66.541 66.556 66.901 67.039 74.221 75.514 76.674 76.401 75.184 73.646 67.024 66.546 65.784 65.789 65.769 65.726 65.684 65.629 65.726 65.899 68.156 68.406 69.079 71.009 73.681 74.439 74.671 74.934 75.161 75.399 67.714 65.674 70.254 71.319 70.204 65.636 65.441 65.381 65.349 66.601 65.839 65.286 65.756 65.436 64.936 64.964 64.976 64.954 65.669 64.964 65.139 66.014 69.104 71.061 71.264 71.469 71.679 72.534 71.604 71.474 71.249 71.011 70.509 69.594 67.229 64.761 64.364 64.199 64.194 64.156 67.966 64.254 64.754 63.294 62.781 65.724 62.731 62.729 62.581 62.671 61.966 61.549 61.694 62.036 62.129 60.981 61.596 61.116 60.789 61.809 63.774 60.234 60.429 60.524 60.184 60.256 61.419 64.074 66.409 67.274 67.406 67.759 60.256 58.499 58.786 58.514 58.266 58.139 58.096 58.411 57.996 58.901 64.321 63.126 65.676 66.879 68.031 67.141 66.031 62.981 56.006 56.671 56.484 55.874 55.071 55.021 54.976 54.946 54.906 54.824 54.826 54.786 54.719 54.626 54.561 54.509 54.649 55.954 54.796 54.576 54.254 53.809 53.739 53.796 55.834 55.201 54.484 53.726 54.044 54.229 54.069 53.669 53.256 53.004 52.921 52.581 51.314 50.656 50.656 51.474 52.536 52.926 52.936 53.924 61.546 62.176 63.279 63.561 62.409 60.246 53.246 53.914 54.144 54.239 54.259 54.259 54.269 54.279 54.354 54.879 55.046 55.211 56.119 56.124 59.346 60.146 58.139 58.024 59.844 61.611 60.529 58.076 58.186 58.311 58.129 58.184 58.239 58.264 58.241 58.201 61.819 58.784 58.834 59.214 58.851 58.871 58.889 58.459 61.601 61.659 59.054 58.706 58.934 59.704 59.911 60.361 59.174 60.904 61.919 60.394 60.086 60.724 60.689 61.936 61.876 64.431 66.629 68.619 68.626 62.166 61.431 61.269 61.221 61.291 61.719 63.396 70.081 71.189 71.399 70.276 65.799 62.349 62.236 62.171 62.004 62.044 62.041 61.999 62.004 62.084 62.136 62.091 61.974 61.989 62.351 62.431 63.206 62.019 61.974 61.979 61.919 61.874 61.841 61.839 61.816 61.791 61.789 61.736 61.751 62.011 65.969 66.526 67.414 66.736 65.979 61.174 61.149 61.126 61.096 61.084 61.076 61.156 61.474 61.309 61.279 61.269 61.289 61.591 61.336 61.496 65.126 67.589 68.371 68.081 67.281 65.191 61.151 61.101 61.099 61.074 61.056 61.046 62.586 61.159 60.879 60.901 60.884 60.836 60.819 60.719 60.714 60.804 60.874 61.061 66.801 69.931 69.914 69.101 68.319 63.016 60.881 61.514 62.071 61.574 60.416 60.241 60.234 60.224 60.186 60.106 59.994 59.914 59.839 59.886 59.911 59.841 59.709 59.601 59.491 59.404 59.331 59.309 59.259 59.239 59.224 59.246 59.186 59.161 59.059 58.981 58.979 58.951 58.986 59.016 60.384 59.236 59.074 59.066 59.054 59.056 59.111 58.916 58.839 58.906 58.991 59.051 59.134 59.164 59.156
71.224 68.921 68.154 68.176 67.231 67.189 67.189 67.189 67.194 67.194 67.189 67.176 67.371 67.324 67.294 67.234 67.166 67.196 68.394 68.231 68.224 66.314 65.759 65.691 65.629 68.046 68.026 67.349 65.596 65.629 65.604 65.894 65.886 66.119 72.006 67.491 68.256 68.071 68.729 67.926 66.121 66.411 66.656 66.244 66.171 66.126 66.116 66.824 66.819 66.609 66.626 66.634 68.459 66.269 67.201 66.489 68.324 67.381 66.549 74.611 76.111 76.936 76.116 76.779 70.151 67.016 66.156 65.714 65.721 65.631 65.599 65.614 66.471 65.919 70.029 71.179 68.699 68.449 66.096 68.064 67.236 66.379 70.054 72.509 73.801 65.639 65.546 70.524 71.254 69.049 65.526 65.469 65.524 65.534 65.359 65.276 65.189 65.054 64.894 64.829 64.874 65.184 65.419 65.636 64.881 64.994 65.119 65.216 64.566 64.674 64.864 68.586 70.679 70.881 71.091 71.299 72.264 71.286 71.211 71.009 70.784 70.324 69.576 68.181 65.784 64.404 64.029 63.976 63.931 63.884 65.714 65.049 63.931 64.694 64.399 62.146 61.511 61.364 61.156 61.069 60.821 60.726 60.601 60.489 62.376 61.976 60.166 62.869 62.816 60.076 59.639 59.644 59.764 59.374 63.221 65.841 66.439 58.654 58.471 58.319 58.334 58.261 58.099 58.101 59.324 57.954 64.856 66.839 66.916 66.544 67.221 67.926 66.606 65.556 59.944 56.661 56.619 56.279 55.541 55.041 54.991 54.974 54.911 54.886 54.814 54.809 54.784 54.721 54.634 54.524 54.476 54.444 54.331 54.336 58.274 54.899 53.944 53.761 53.819 53.954 55.221 54.174 53.791 54.224 54.504 54.284 53.816 53.374 53.049 52.912 52.622 51.498 50.795 50.903 51.665 52.516 52.927 52.958 52.985 53.705 62.044 63.196 63.629 62.484 60.679 53.229 53.826 54.119 54.196 54.226 54.244 54.241 54.271 54.351 54.831 55.101 55.306 55.609 56.011 56.276 56.704 57.954 60.291 61.806 62.576 61.781 60.694 58.139 58.224 58.181 58.151 58.171 58.229 58.251 58.216 58.584 61.991 58.856 58.836 58.641 58.804 58.979 61.811 62.619 62.459 61.076 59.141 59.121 58.881 59.279 59.271 59.189 59.156 59.499 59.446 59.839 60.156 60.591 60.631 62.099 61.854 61.846 61.876 62.381 61.956 61.261 61.191 61.174 61.189 61.436 61.656 65.974 70.409 71.109 69.994 64.509 62.451 61.971 63.224 61.951 61.986 61.971 62.034 61.929 61.931 62.026 62.061 61.996 61.869 61.931 62.561 62.316 62.159 61.934 61.881 61.834 61.804 61.791 61.766 61.749 61.726 61.711 61.686 61.629 61.971 62.519 65.849 66.786 67.369 62.314 61.194 61.141 61.116 61.109 61.096 61.446 61.339 61.289 61.244 61.541 61.381 61.254 61.329 62.841 67.121 67.899 68.474 67.784 67.011 63.476 62.656 61.159 61.064 61.051 61.079 61.154 61.059 60.916 60.834 60.854 60.811 60.816 60.781 60.751 60.664 60.659 60.726 60.829 61.036 68.406 69.299 70.159 69.699 68.899 67.424 62.469 61.829 64.111 60.604 61.239 60.254 60.149 60.144 60.116 60.069 59.981 59.876 59.804 59.734 59.799 59.806 59.684 59.584 59.451 59.404 59.311 59.274 59.239 59.224 59.226 59.174 59.129 59.016 58.981 58.951 58.954 58.989 59.016 59.031 59.049 59.041 59.039 59.034 59.016 59.054 58.884 58.831 58.926 58.984 59.076 59.151 59.171 59.206 59.194
71.214 68.839 67.481 67.574 67.504 67.061 67.049 67.061 67.046 67.064 67.046 67.044 67.029 67.046 66.971 66.919 66.994 67.206 67.424 68.244 68.226 66.704 65.736 65.671 65.626 68.029 68.024 67.096 65.704 65.761 65.566 65.704 66.009 74.036 78.351 75.029 66.579 66.606 66.756 66.799 67.299 66.914 65.751 65.981 67.846 68.704 67.071 67.951 66.909 68.296 67.166 66.821 67.486 66.204 66.984 67.511 73.026 72.604 72.611 75.229 76.244 76.964 75.789 74.584 68.056 66.979 65.739 65.639 65.624 65.509 65.516 65.756 67.669 65.986 71.884 71.864 65.519 67.299 68.341 66.051 66.056 66.056 66.449 66.579 67.589 65.651 66.329 70.761 70.994 68.356 66.521 66.034 70.514 72.256 71.876 69.584 68.309 65.306 65.091 64.761 64.804 65.359 65.001 64.879 64.744 64.664 64.661 64.876 64.526 64.526 64.794 64.689 64.319 64.349 64.606 67.549 69.284 70.481 70.681 70.871 71.379 70.979 71.004 70.836 70.639 69.751 64.126 64.036 63.949 63.921 63.859 65.011 65.231 64.699 62.836 61.809 61.646 61.414 61.589 61.011 60.814 60.676 60.526 60.384 60.201 60.129 59.911 60.319 59.769 60.101 59.594 60.029 61.596 59.386 62.556 59.609 58.796 59.141 58.466 58.339 58.351 58.264 58.081 57.981 57.979 57.881 58.076 60.349 63.974 66.406 67.626 67.606 67.166 66.664 56.451 56.581 56.589 56.599 55.694 55.054 54.954 54.944 54.906 54.854 54.786 54.819 54.791 54.699 54.619 54.554 54.449 54.396 54.339 54.249 55.086 54.581 54.011 53.889 53.836 53.831 53.744 53.579 53.884 54.331 54.501 54.329 53.907 53.444 53.063 52.93 52.708 51.527 50.772 51.308 52.299 52.622 52.921 52.957 53.048 52.968 61.941 63.129 63.741 62.559 60.914 53.214 53.791 54.091 54.154 54.911 54.649 54.194 54.241 54.324 54.506 55.201 55.384 55.579 55.729 56.156 56.549 57.939 61.526 62.574 63.414 62.629 61.629 60.414 58.124 58.389 58.176 58.144 58.179 58.209 58.219 58.209 60.884 60.381 58.479 58.551 58.566 61.634 62.636 63.531 63.294 62.274 60.569 58.746 58.656 58.666 59.266 59.531 59.056 58.741 58.999 59.459 59.879 60.691 60.629 61.614 62.356 61.491 61.486 61.526 61.939 61.141 61.101 61.121 61.094 61.059 61.124 61.389 61.609 61.689 61.631 61.861 62.656 61.886 61.909 61.906 61.914 61.954 62.696 61.999 61.836 61.899 61.991 62.006 61.891 61.771 62.376 64.181 61.871 61.839 61.809 61.774 61.764 61.731 61.706 61.694 61.666 61.649 61.629 61.599 61.559 62.106 62.899 65.161 61.281 61.229 61.201 61.159 61.146 61.144 61.689 61.306 61.279 61.216 61.314 61.281 61.601 61.449 65.289 67.369 68.164 68.254 67.484 66.431 61.209 61.176 61.154 62.824 61.041 61.064 61.899 61.326 60.889 60.831 60.836 60.816 60.751 60.721 60.719 60.709 60.649 60.521 60.601 60.729 60.704 61.744 68.661 69.506 70.224 69.481 68.701 65.821 60.724 61.741 61.369 60.644 60.284 60.074 60.044 60.031 60.006 59.956 59.856 59.769 59.689 59.636 59.704 59.699 59.576 59.471 59.416 59.336 59.261 59.219 59.221 59.186 59.089 58.991 58.991 58.956 58.979 59.001 59.011 59.029 59.026 59.021 59.001 59.001 59.006 58.979 58.834 58.829 58.859 58.956 59.116 59.189 59.191 59.171 59.201 59.189
70.191 67.414 67.946 67.386 67.154 66.941 66.924 66.936 66.911 66.906 66.909 66.889 66.879 66.849 66.799 66.801 66.854 68.141 67.516 68.254 68.249 66.861 65.691 65.636 65.621 68.019 68.026 68.421 68.646 68.661 67.379 67.569 67.479 70.396 74.521 69.766 67.494 67.481 67.489 67.506 67.494 67.489 67.719 67.504 67.509 67.479 67.506 67.491 66.079 66.636 68.004 69.474 66.139 66.094 67.314 66.716 72.616 72.844 73.739 75.901 76.384 76.714 75.506 74.296 67.834 66.791 65.596 65.539 65.524 65.464 65.471 67.836 70.706 68.304 75.061 71.351 66.116 65.364 65.374 66.479 65.611 65.521 66.826 66.266 68.521 68.469 68.176 70.541 70.714 67.149 65.584 65.454 74.094 73.296 73.384 73.146 72.901 72.674 64.731 64.691 64.729 65.161 67.114 68.919 69.096 65.849 64.509 64.661 64.419 64.436 64.526 64.571 64.189 64.316 64.449 64.756 64.319 64.291 64.239 64.976 68.344 70.129 70.349 70.529 70.909 70.724 70.256 67.329 65.336 66.746 69.484 67.231 64.396 63.604 62.269 61.594 61.546 61.454 61.409 61.389 67.231 66.669 64.651 60.771 61.591 60.056 59.896 59.769 59.569 59.474 59.319 59.204 59.284 60.516 60.524 58.821 59.091 59.346 58.431 58.356 58.341 58.251 58.086 58.031 57.924 57.796 57.661 57.526 57.424 57.344 57.224 58.439 62.729 60.474 56.659 56.581 56.591 56.531 56.489 55.886 55.179 55.836 56.124 54.884 54.804 54.859 54.796 54.741 54.666 54.589 54.559 54.599 54.764 54.431 54.669 58.696 54.031 53.896 53.859 53.814 53.821 53.534 53.854 54.309 54.414 54.295 53.965 53.521 53.058 52.964 52.821 51.816 50.79 54.682 53.116 53.638 53.351 52.971 53.054 53.008 61.865 63.026 63.771 62.674 61.521 53.179 53.711 54.039 54.114 54.166 54.124 54.141 54.186 54.231 54.359 56.491 56.754 55.839 57.746 56.839 56.404 56.469 59.511 61.686 62.706 63.411 62.434 61.684 58.464 58.104 58.214 58.284 58.304 58.176 58.214 58.234 58.196 58.456 58.416 58.409 58.431 58.701 61.869 62.844 63.776 63.054 62.036 61.261 60.601 58.659 58.764 58.714 58.646 58.656 58.826 59.194 59.316 61.279 60.609 60.579 61.381 61.064 61.066 61.059 61.039 61.034 61.029 61.039 60.979 60.989 61.036 61.134 61.251 61.351 61.469 61.721 61.636 61.716 61.804 61.849 61.859 61.934 63.616 63.184 61.891 61.754 61.869 61.934 61.931 61.791 61.696 61.821 61.796 61.774 61.754 61.731 61.719 61.686 61.671 61.634 61.589 61.586 61.551 61.511 61.441 61.419 61.349 61.279 61.246 61.241 61.389 61.949 61.389 61.371 61.276 61.249 61.239 61.376 61.286 61.284 61.841 66.531 67.666 68.399 67.949 67.179 65.719 61.254 61.131 61.091 61.124 61.021 64.459 62.991 61.169 60.806 60.839 60.846 60.841 60.746 60.684 60.631 60.619 60.634 60.601 60.534 60.441 60.691 60.819 60.804 65.454 68.856 69.734 70.086 69.094 68.471 62.949 61.094 60.449 60.451 61.304 60.154 59.954 59.946 59.921 59.891 59.839 59.749 59.659 59.559 59.559 59.596 59.574 59.471 59.401 59.356 59.294 59.241 59.199 59.124 58.994 58.984 58.959 58.966 58.991 59.011 59.024 59.006 58.991 58.986 58.976 59.006 58.894 58.811 58.774 58.834 58.901 59.069 59.216 59.201 59.131 59.059 59.064 59.176
70.374 68.469 67.716 67.186 66.951 66.866 66.869 66.869 66.884 66.864 66.839 66.826 66.826 66.831 66.791 66.769 66.801 68.024 69.859 68.256 68.234 66.509 65.686 65.624 65.599 68.029 68.031 68.479 68.639 67.846 67.341 67.481 67.484 67.504 67.509 67.509 67.499 67.489 67.479 67.499 67.491 67.486 67.489 67.481 67.484 67.484 67.454 67.231 65.671 65.624 66.311 68.734 66.034 66.004 67.726 66.654 68.059 71.354 74.049 76.436 76.684 76.454 76.294 73.486 67.631 66.461 65.456 65.436 65.369 65.296 65.339 69.076 65.649 69.451 75.034 70.526 65.506 65.761 65.361 65.499 65.416 65.531 65.496 65.421 65.394 66.534 67.179 65.404 66.086 66.484 65.541 65.381 74.526 74.576 74.536 74.296 74.044 74.009 64.674 64.629 64.639 69.419 69.744 73.229 71.859 67.994 64.746 64.851 64.294 64.299 64.859 64.241 64.026 64.064 64.071 64.971 63.861 63.859 64.204 64.701 65.869 63.809 64.314 64.614 70.694 71.559 71.524 71.251 70.989 70.716 70.461 70.224 69.949 69.764 61.899 61.671 61.399 61.456 61.889 62.271 67.876 68.056 68.004 67.691 67.414 60.179 60.099 59.846 59.671 59.496 59.301 59.181 59.031 58.896 58.736 58.624 58.476 58.391 58.346 58.369 58.331 58.219 58.081 58.064 57.969 57.864 57.739 57.614 57.734 57.526 57.176 57.021 56.891 56.804 56.661 56.524 56.586 56.546 56.611 57.376 55.741 55.846 55.406 55.231 55.079 54.966 56.526 57.144 54.729 54.619 54.639 54.631 54.761 54.629 54.611 55.004 54.059 53.894 53.916 53.866 53.789 53.569 53.876 54.27 54.399 54.338 54.059 53.622 53.107 52.952 52.869 51.981 51.037 55.292 53.844 54.077 53.502 52.943 53.019 52.996 61.734 62.955 63.826 62.742 61.586 53.064 53.551 53.899 54.056 54.041 54.064 54.096 54.144 54.204 54.296 54.539 54.541 54.714 55.066 55.679 56.371 56.449 56.544 59.871 61.834 62.851 62.849 61.959 61.024 58.029 58.186 58.274 58.356 58.281 58.214 58.246 59.169 58.204 58.564 58.414 58.436 58.451 60.819 62.041 62.974 63.551 62.696 61.764 58.994 59.069 60.121 58.589 58.586 58.704 58.664 59.039 60.239 60.774 60.649 60.556 60.626 60.971 60.991 60.969 60.949 60.951 60.939 60.946 60.926 60.966 61.031 61.126 61.204 61.316 61.391 61.489 61.556 61.669 61.744 61.774 61.776 61.901 64.041 62.019 62.831 61.786 61.731 61.854 61.891 61.824 61.684 61.654 61.974 61.756 61.716 61.696 61.669 61.636 61.601 61.569 61.524 61.524 61.479 61.441 61.396 61.346 61.309 61.291 61.259 61.266 61.849 61.674 61.284 61.229 61.191 61.401 62.336 61.301 61.276 63.051 67.164 67.931 68.604 67.671 66.889 61.876 61.121 61.629 61.229 60.994 60.994 62.159 61.756 60.891 60.789 60.826 60.834 60.821 60.749 60.729 60.811 61.961 60.571 60.539 60.541 60.479 60.386 60.389 60.544 60.676 60.216 68.221 69.056 69.966 69.849 68.856 69.116 61.479 60.516 61.066 60.171 61.434 60.014 59.851 59.846 59.836 59.789 59.801 59.646 59.539 59.436 59.466 59.494 59.431 59.381 59.361 59.309 59.224 59.136 59.019 58.986 58.976 58.979 58.986 59.004 58.999 58.984 58.974 58.961 58.964 58.994 58.826 58.786 58.756 58.786 58.904 58.976 59.069 62.279 62.226 62.244 62.246 62.229 62.239
71.734 70.066 67.464 67.186 66.999 66.929 67.306 67.264 67.114 66.984 67.496 67.064 68.361 69.586 68.614 66.926 66.949 66.941 67.206 68.236 68.249 66.316 65.679 65.624 65.669 66.569 67.301 68.169 68.314 67.639 66.274 66.256 66.079 66.234 65.981 66.089 65.881 65.906 65.804 65.336 65.479 65.484 65.241 65.104 65.069 64.974 64.981 65.291 66.644 69.536 69.371 67.184 65.931 66.179 67.529 67.289 66.641 66.639 74.451 76.491 77.021 76.116 74.904 70.726 67.294 66.129 65.464 65.329 65.296 65.236 67.761 68.069 65.781 69.104 69.634 66.416 65.161 65.229 65.196 65.239 65.206 65.396 65.864 65.539 65.464 65.456 65.426 67.544 66.959 65.901 65.479 67.734 73.371 73.646 73.851 74.074 74.304 71.674 64.561 64.569 64.561 65.091 70.104 71.249 71.051 68.941 65.031 65.761 64.891 64.249 64.419 64.126 63.941 63.999 64.064 64.161 63.754 63.699 63.701 64.579 63.539 63.621 64.086 64.271 69.394 70.399 70.766 71.021 71.621 71.519 71.521 71.264 70.989 66.304 63.724 62.784 61.471 61.434 61.466 61.191 62.121 65.889 66.636 67.386 67.171 60.171 60.084 59.761 59.704 59.616 59.401 59.241 59.174 58.964 58.784 58.601 58.446 58.369 58.371 58.406 58.331 58.174 58.071 58.026 57.951 57.859 57.746 57.636 57.501 57.379 57.244 57.104 56.954 56.819 57.814 57.561 56.404 56.276 56.191 56.104 55.991 55.971 55.994 59.644 55.434 59.926 66.754 68.996 58.729 55.866 54.604 54.721 54.701 54.699 54.649 54.611 54.064 53.921 53.839 53.744 53.819 53.601 53.869 54.215 54.452 54.417 54.085 53.638 53.162 52.964 52.885 53.121 50.987 52.732 53.979 54.309 53.117 52.952 52.975 52.947 61.15 62.821 63.831 62.83 61.647 52.898 53.311 53.664 53.979 53.976 54.006 54.039 54.109 54.151 54.201 54.251 54.319 54.491 55.021 55.796 56.441 56.426 56.624 57.909 60.861 61.994 61.819 60.701 57.944 58.086 58.169 58.254 58.289 58.389 58.264 58.236 58.254 58.419 58.839 59.024 58.409 58.571 58.881 61.236 62.286 62.554 61.749 59.299 58.966 58.246 59.851 58.814 58.619 58.706 58.729 59.359 59.846 60.224 60.416 60.601 60.586 60.804 60.916 60.896 60.864 60.846 60.836 61.006 61.061 61.651 61.071 61.206 62.104 61.611 61.391 61.454 61.539 61.626 61.706 61.716 61.709 61.831 61.836 61.851 61.906 62.179 61.681 61.704 61.796 61.819 61.721 61.601 61.644 61.739 61.704 61.661 61.601 61.564 61.524 61.489 61.486 61.471 61.431 61.384 61.359 61.324 61.301 61.309 61.301 61.306 61.539 61.254 61.194 61.151 61.181 61.184 61.176 61.434 62.491 67.471 68.224 68.164 67.359 66.136 61.139 61.311 61.071 61.021 61.066 61.889 61.074 60.911 60.836 60.791 60.829 60.831 60.796 60.734 60.806 60.801 61.351 61.271 60.954 60.446 60.469 60.421 60.374 60.271 60.324 60.699 63.249 61.376 67.821 69.319 69.684 69.261 69.301 66.389 60.416 60.221 60.856 61.139 60.166 59.841 59.774 59.751 59.729 59.796 59.694 59.511 59.411 59.319 59.349 59.376 59.329 59.279 59.209 59.146 59.064 58.951 58.976 59.004 59.001 59.001 58.979 58.961 58.956 58.941 58.951 58.926 58.769 58.776 58.784 58.839 58.869 58.939 59.004 59.021 63.479 63.491 63.499 63.474 63.474 63.484
70.874 67.556 67.736 67.514 67.306 67.036 67.279 67.049 67.059 67.099 67.229 67.041 67.666 67.489 67.981 67.056 67.084 66.991 67.679 68.264 68.239 66.736 65.654 65.584 65.561 65.514 65.469 65.431 65.399 65.359 65.316 65.299 65.266 65.244 65.221 65.164 65.094 65.036 65.009 65.001 64.989 64.971 64.974 64.989 64.986 64.996 64.976 65.051 68.731 69.871 70.519 68.789 65.821 66.924 66.649 68.351 67.764 68.686 75.314 76.011 76.999 75.849 74.629 69.761 66.764 65.729 65.294 65.249 65.211 65.201 65.561 65.426 68.811 69.786 66.309 65.094 65.096 65.121 65.126 65.116 65.124 65.161 66.159 66.054 65.326 65.541 65.381 67.094 67.411 65.746 65.624 70.501 72.274 72.521 72.751 72.949 73.209 67.586 64.481 64.516 64.484 64.531 66.466 64.689 64.861 69.216 69.601 67.306 64.899 64.676 63.901 64.141 64.141 65.914 65.019 63.791 63.626 63.551 63.546 65.814 63.906 63.394 63.396 63.809 63.706 63.706 63.929 64.696 68.559 70.086 70.719 70.989 71.271 62.486 63.789 62.609 61.381 61.341 61.514 61.054 60.794 60.769 60.521 60.231 60.224 60.309 59.986 59.644 60.506 59.554 59.431 59.271 59.106 58.966 58.821 58.596 58.426 58.391 58.416 58.416 58.331 58.156 58.154 58.039 57.894 57.764 57.666 57.561 57.466 57.356 57.239 57.121 56.994 56.874 56.749 56.636 56.496 56.361 56.226 56.071 55.936 55.804 55.711 57.364 55.541 59.129 63.691 68.669 62.091 57.131 55.196 54.786 54.804 54.891 54.771 58.614 54.084 53.944 53.876 53.794 53.834 54.139 54.36 54.081 54.309 54.356 54.103 53.6 53.173 52.951 52.86 52.176 50.78 51.824 53.59 54.402 53.269 52.932 53.098 55.877 61.646 62.766 63.814 62.883 61.438 56.769 58.591 59.594 53.941 53.921 53.949 53.984 54.046 54.099 54.144 54.186 54.239 54.359 54.744 55.651 56.784 56.599 57.414 57.564 57.626 61.111 59.964 57.866 58.061 60.726 60.901 58.241 58.324 58.341 59.726 58.281 58.246 58.271 58.236 58.299 58.894 59.101 58.554 58.526 61.411 61.499 59.879 58.244 58.676 61.259 58.331 58.504 58.571 58.669 59.051 58.854 62.029 61.296 60.369 63.279 60.606 60.596 60.716 60.851 60.781 60.711 60.759 61.044 61.449 63.161 62.689 61.214 61.719 61.296 61.381 61.449 61.516 61.589 61.654 61.651 61.644 62.049 61.811 61.836 61.836 62.799 61.754 61.589 61.659 61.741 61.739 61.646 61.539 61.619 61.696 61.666 61.581 61.514 61.484 61.464 61.439 61.414 61.381 61.351 61.329 61.326 61.324 61.336 61.574 61.314 61.231 61.154 61.479 62.124 61.166 61.181 61.629 62.009 61.349 64.269 67.871 67.094 64.479 61.141 62.006 61.059 61.011 60.956 60.959 61.926 60.851 60.776 60.799 60.821 60.799 60.741 60.744 60.854 61.269 61.446 62.054 60.759 62.354 60.781 62.386 60.494 60.339 60.271 60.169 60.419 60.389 60.749 63.534 68.016 68.656 69.546 68.951 67.921 64.654 60.876 60.419 60.171 60.496 59.886 59.704 59.689 59.661 59.621 59.614 59.501 59.376 59.291 59.224 59.296 59.246 59.176 59.261 58.989 58.944 58.984 59.006 59.014 58.986 58.949 58.926 58.924 58.911 58.946 58.826 58.774 58.734 58.774 58.911 58.986 58.989 58.976 58.956 58.979 63.301 63.314 63.321 63.316 63.304 63.316
70.636 68.916 67.521 67.169 67.061 68.106 68.866 67.076 67.214 68.806 68.984 69.154 69.444 68.759 67.681 67.214 69.531 67.041 67.009 68.231 68.211 66.426 65.594 65.539 65.486 65.461 65.409 65.394 65.389 65.386 65.346 65.299 65.266 65.246 65.221 65.126 65.056 65.021 65.004 64.989 64.976 64.969 64.956 64.961 64.974 64.976 64.984 65.066 66.094 69.086 69.871 66.086 65.734 68.229 67.156 72.109 71.374 72.529 75.016 75.836 76.779 75.659 74.301 67.971 66.736 65.531 65.224 65.199 65.326 65.171 65.136 65.939 70.281 69.039 65.061 65.029 64.986 65.056 65.019 65.049 65.054 65.146 65.499 66.509 65.346 65.289 65.344 67.596 67.554 65.514 65.479 65.181 66.246 70.034 69.539 71.446 72.116 65.244 64.411 64.444 64.404 64.561 64.509 64.609 65.229 64.531 67.806 64.904 63.996 64.001 65.721 64.486 63.859 63.944 63.549 64.009 64.116 63.816 63.539 64.539 63.286 63.286 63.306 64.791 63.844 63.531 63.629 63.721 63.674 63.706 63.919 64.561 66.599 63.556 63.724 61.529 61.454 61.326 61.516 60.949 60.799 60.756 60.474 60.486 60.251 60.174 59.766 59.621 59.459 59.434 59.344 59.239 59.114 58.951 58.811 59.129 58.549 58.599 58.454 58.434 59.084 58.494 59.079 58.689 58.166 58.014 57.711 57.591 57.454 57.294 57.174 57.071 56.954 56.836 56.751 56.631 56.524 56.411 56.294 56.169 56.046 55.911 55.774 55.639 57.259 58.064 58.716 56.351 56.944 59.999 58.661 55.146 54.831 55.021 55.111 54.819 54.076 53.944 53.846 53.854 55.881 54.05 54.306 53.995 54.115 54.18 54 53.592 53.148 52.963 52.91 52.23 50.986 56.491 54.972 55.092 53.462 52.92 53.012 53.738 61.517 62.658 63.805 63.095 61.47 60.881 60.983 61.059 53.969 54.204 54.124 53.929 53.989 54.036 54.084 54.131 54.191 54.304 54.584 55.541 57.139 56.639 56.691 57.419 57.704 57.501 57.694 57.879 61.204 62.044 62.041 60.991 58.701 60.079 58.414 59.184 58.286 58.286 58.289 58.374 58.446 58.609 58.711 58.646 58.389 58.841 58.319 59.631 61.671 62.139 60.996 58.411 58.749 58.586 58.599 61.299 62.204 60.469 60.521 61.759 61.089 62.694 60.559 60.591 60.589 60.661 60.661 63.899 62.194 68.904 70.036 70.986 70.216 64.619 61.461 61.606 61.474 61.536 61.581 61.591 61.676 64.294 61.871 61.839 63.791 61.876 63.174 61.649 61.524 61.629 61.686 61.661 61.529 61.511 61.796 61.656 61.594 61.499 61.454 61.431 61.419 61.394 61.371 61.324 61.321 61.339 61.361 61.811 61.261 61.221 61.129 61.181 61.229 62.851 61.464 64.649 67.046 67.841 61.201 61.289 66.069 61.171 61.126 61.081 61.559 61.251 60.964 60.854 61.366 60.801 60.716 60.784 60.779 60.784 60.864 60.756 60.829 61.026 62.019 61.136 62.174 60.676 60.699 60.889 60.386 61.839 60.294 60.234 60.161 60.091 60.781 61.531 60.366 65.084 68.271 69.156 69.334 68.476 67.729 62.504 60.169 60.191 60.489 60.111 59.784 59.609 59.574 59.544 59.554 59.531 59.396 59.266 59.184 59.134 59.151 59.114 58.981 58.961 58.984 58.991 58.996 58.991 58.934 58.901 58.899 58.876 58.944 58.806 58.799 58.761 58.694 58.791 58.996 59.101 62.351 63.599 63.174 61.884 61.821 62.069 62.071 62.079 62.084 62.089
67.996 67.356 67.076 68.016 69.596 70.846 71.241 68.876 69.526 71.124 71.331 71.349 71.721 71.346 70.656 70.301 71.046 67.589 66.996 65.656 65.606 65.561 65.511 65.486 65.449 65.426 65.399 65.384 65.394 65.486 66.314 65.856 67.039 66.791 68.896 67.221 65.054 65.016 64.994 64.956 64.946 64.921 64.926 64.941 64.949 64.954 64.981 65.026 65.731 67.441 66.256 65.729 65.699 66.349 68.654 72.929 72.801 74.076 75.314 76.549 76.459 75.204 73.569 66.819 66.516 65.211 65.124 65.114 65.094 65.074 65.091 65.696 69.961 68.566 66.336 64.924 64.974 65.001 64.994 64.994 64.999 65.079 66.039 66.194 65.226 64.979 65.249 67.179 67.321 65.649 65.159 65.099 65.049 65.161 65.076 65.244 66.666 64.406 64.359 64.366 64.316 68.146 66.936 65.101 64.419 64.469 68.619 64.911 63.981 63.929 65.851 63.689 63.719 63.649 63.726 63.471 64.944 64.279 64.649 68.476 63.631 63.199 63.221 65.499 63.666 63.361 63.411 63.364 63.139 63.531 63.656 64.569 62.874 61.366 61.956 61.339 61.309 61.391 63.564 62.074 61.271 61.669 60.871 63.261 60.421 60.634 59.844 59.621 59.424 59.271 59.184 59.044 58.964 58.954 58.901 58.866 58.596 60.101 58.456 58.434 58.994 58.351 65.621 65.319 63.229 62.401 61.824 58.801 57.586 57.456 57.341 57.139 57.006 56.864 56.856 56.596 56.459 56.356 56.256 56.154 56.046 55.934 55.809 55.684 55.554 55.429 55.291 55.146 55.009 54.836 55.869 55.536 54.509 54.434 54.364 54.226 54.081 53.991 53.816 53.869 54.153 54.523 54.86 53.789 53.864 53.916 53.79 53.485 53.151 52.935 52.99 52.257 51.032 53.697 55.403 55.633 54.391 53.086 52.961 52.911 60.576 62.519 63.774 63.75 63.114 61.901 61.936 61.904 53.886 53.809 53.846 53.891 53.939 53.979 54.011 54.079 54.196 54.326 54.466 55.221 57.109 56.511 57.251 59.639 58.919 57.494 57.666 61.346 62.186 63.046 62.649 61.886 60.866 58.426 58.309 58.306 58.351 58.246 58.281 58.281 60.049 58.751 58.561 58.466 58.484 58.366 60.489 61.849 62.674 62.961 61.946 60.901 59.216 58.536 58.526 60.006 60.524 60.109 60.184 63.406 60.754 60.544 60.651 60.591 60.534 60.564 60.836 64.284 65.221 68.914 70.321 70.734 69.324 66.354 62.969 62.406 61.436 61.476 61.521 61.514 62.651 63.439 61.821 68.141 68.121 65.854 61.786 62.159 61.536 61.506 61.589 61.629 61.554 61.434 61.474 61.884 61.586 61.499 61.439 61.416 61.394 61.376 61.344 61.326 61.344 61.411 61.466 61.249 61.179 61.164 61.184 61.186 61.211 61.346 65.639 67.314 68.069 67.866 66.569 61.159 61.161 61.161 61.066 60.999 60.981 62.456 60.926 61.806 60.744 60.734 60.786 60.769 60.721 61.639 60.816 60.869 60.891 60.954 61.584 62.004 60.854 60.756 60.781 60.606 60.411 60.229 60.219 60.189 60.126 60.429 60.024 60.439 60.264 60.701 66.846 68.456 69.374 69.124 68.934 69.326 60.414 61.641 59.916 60.106 60.586 59.554 59.494 59.481 59.441 59.501 59.449 59.251 59.161 59.106 59.044 59.006 58.979 59.001 58.984 58.994 58.974 58.926 58.881 58.864 58.876 58.849 58.786 58.794 58.736 58.691 58.651 58.801 59.059 59.161 62.351 63.606 63.159 61.764 58.976 59.026 59.061 59.179 59.024 59.086
67.686 67.074 69.989 72.631 72.654 72.674 72.689 72.694 72.694 72.729 72.734 72.741 72.739 72.761 72.749 72.766 72.784 69.489 68.744 65.624 65.556 65.494 65.479 65.464 65.441 65.459 65.449 65.451 65.401 73.684 73.676 73.681 73.694 73.681 73.669 73.679 65.049 64.996 65.144 64.984 64.989 64.974 64.939 64.979 64.991 65.014 65.049 65.046 65.131 66.169 67.304 66.811 65.936 66.174 68.441 72.256 72.536 74.369 75.616 76.861 76.121 74.906 72.066 67.599 67.959 65.006 65.016 64.996 64.939 64.996 65.501 65.041 66.829 67.679 65.081 64.901 64.914 64.941 64.939 64.951 64.984 65.004 65.111 65.834 65.144 65.076 64.919 65.229 67.456 65.301 65.119 65.159 65.061 65.009 65.024 65.094 65.241 64.301 64.299 64.301 64.236 64.409 64.209 65.399 67.359 66.799 67.269 63.936 63.924 63.916 66.206 64.916 65.176 63.661 64.729 63.451 63.419 63.486 63.371 70.389 65.826 63.186 64.539 63.986 63.214 63.301 63.334 63.201 62.871 62.944 62.939 64.684 62.089 61.326 61.296 61.316 61.241 61.306 66.214 63.944 62.146 63.371 68.096 69.506 63.186 61.426 59.839 59.609 59.384 59.221 59.034 59.016 59.046 59.016 58.916 58.824 58.664 58.979 58.509 58.449 59.169 59.754 66.806 66.554 66.259 65.284 66.421 66.481 64.101 64.874 61.851 59.041 58.171 57.264 56.931 56.774 56.549 56.419 56.266 56.091 55.956 55.854 55.771 55.659 55.541 55.434 55.331 55.199 55.064 54.936 54.804 54.671 54.541 57.091 57.181 56.826 54.069 54.016 53.861 53.871 54.279 54.402 54.029 53.729 53.659 53.641 53.586 53.355 53.096 52.951 53.01 53.966 52.769 52.052 53.486 54.875 54.272 52.95 52.955 52.903 60.719 63.362 62.769 62.682 61.889 60.92 60.851 60.758 54.019 54.184 54.616 53.869 53.894 53.926 53.966 54.014 54.169 54.311 54.574 55.131 57.124 56.444 59.399 59.461 58.021 59.106 57.594 58.621 61.741 62.749 63.571 62.689 61.676 60.166 58.336 58.246 58.509 58.344 58.271 58.311 58.321 58.541 58.331 58.586 58.339 58.484 58.986 61.801 62.749 63.601 62.824 61.759 60.751 58.566 58.529 60.474 59.931 60.459 60.121 60.334 60.384 60.811 60.756 60.694 60.461 60.486 61.071 64.011 68.181 69.804 70.626 70.424 69.129 61.841 61.609 61.474 61.374 61.421 61.436 61.439 63.854 61.931 62.859 67.716 68.644 67.821 64.164 61.884 62.744 61.421 61.469 61.546 61.554 61.464 61.356 61.451 62.016 61.526 61.454 61.416 61.394 61.369 61.359 61.364 61.394 61.276 61.224 61.161 61.204 61.704 61.241 61.244 63.159 66.881 67.644 68.224 67.549 66.766 61.511 61.079 61.299 61.071 60.984 60.914 60.924 60.899 60.816 60.724 60.736 60.746 60.789 61.741 60.711 60.951 60.986 61.811 61.574 66.799 66.619 66.396 65.426 63.444 63.059 60.746 60.954 61.564 60.116 60.126 60.064 60.009 61.159 59.959 61.756 60.321 59.806 67.846 68.766 69.549 69.349 69.279 65.541 60.064 60.286 61.664 59.924 59.791 59.474 59.419 59.379 59.331 59.289 59.224 59.149 59.089 59.041 59.024 59.009 58.979 58.974 58.941 58.896 58.864 58.821 58.889 58.789 58.746 58.716 58.666 58.649 58.601 58.634 58.804 59.131 59.239 62.364 63.596 63.179 61.929 59.001 58.869 58.944 58.966 58.934 58.906
67.466 72.361 72.349 73.141 73.149 73.146 73.184 73.134 73.111 73.114 73.089 73.079 73.066 73.089 73.054 73.046 73.039 67.471 67.179 65.591 65.516 65.441 65.584 66.999 66.469 67.514 66.351 68.579 65.669 73.716 73.841 73.721 73.716 73.716 73.864 73.706 65.034 67.496 67.519 67.521 67.546 67.566 67.574 67.586 67.609 67.611 64.984 64.996 65.184 65.529 65.836 67.394 66.954 66.226 67.831 70.681 71.174 74.671 75.909 76.919 75.834 74.594 68.411 67.306 66.616 64.894 64.909 64.881 64.889 64.909 65.771 67.594 67.366 67.691 66.009 65.001 64.894 64.886 64.879 64.889 64.921 64.974 66.244 65.249 65.044 64.991 65.034 65.351 66.916 64.684 64.649 64.579 64.544 64.579 64.611 64.919 65.861 64.211 64.239 64.241 64.179 64.189 64.146 64.074 63.974 65.279 67.764 63.831 68.186 66.096 68.026 64.366 65.316 66.481 70.576 65.576 63.386 69.639 63.994 63.181 63.166 63.171 63.296 63.809 62.871 63.061 63.051 62.809 62.854 62.801 63.149 62.609 62.761 61.281 61.171 61.256 61.141 61.556 63.621 63.289 64.186 61.276 60.921 62.306 60.436 60.114 59.781 59.556 59.326 59.156 59.124 59.154 59.101 59.016 58.909 58.789 58.734 58.914 58.536 58.526 58.514 64.779 67.876 67.771 67.491 67.249 66.724 66.504 66.186 66.464 66.129 64.841 64.591 63.591 63.846 60.821 58.986 56.564 56.936 56.879 56.209 55.944 55.796 55.654 55.754 56.281 56.194 55.169 55.054 54.944 54.826 54.709 54.576 54.441 54.316 54.169 54.079 54.974 54.084 56.683 56.591 54.147 53.871 53.687 53.596 53.475 53.404 53.209 53.071 52.979 52.993 54.55 52.313 51.169 54.456 54.701 53.208 52.933 52.982 53.023 62.273 62.601 61.65 61.486 60.042 59.656 58.878 58.526 53.691 53.954 54.186 53.859 53.859 53.889 53.924 53.969 54.076 54.191 54.516 56.424 56.914 58.041 57.096 57.906 57.556 57.574 57.571 57.654 59.871 61.909 62.899 63.466 62.494 61.484 58.874 58.256 58.284 58.334 58.341 58.291 58.339 58.311 58.281 58.374 58.341 58.314 58.406 60.984 61.954 62.926 63.534 62.594 61.564 60.654 59.166 60.834 59.524 59.706 60.189 61.541 60.276 60.376 62.146 60.764 60.371 60.406 61.176 60.771 69.924 70.329 70.904 70.359 70.289 61.579 62.079 61.381 61.336 61.371 61.376 61.421 64.414 61.809 61.896 64.161 67.991 68.546 67.539 62.044 62.054 61.509 61.331 61.444 61.504 61.466 61.381 61.339 61.471 61.549 61.489 61.431 61.391 61.379 61.389 61.561 61.224 61.171 61.134 61.259 61.284 62.756 63.981 65.279 67.156 67.906 68.079 67.296 66.511 61.411 61.034 61.021 61.054 61.164 60.876 60.836 60.816 60.769 60.714 60.744 60.761 60.701 60.686 60.761 60.824 60.929 60.914 61.376 62.646 67.151 67.909 67.704 67.484 67.249 65.539 60.844 60.816 61.716 60.604 60.006 60.014 59.961 59.899 59.799 60.234 60.151 60.244 64.681 69.356 69.364 69.476 68.039 67.226 63.464 61.096 60.214 60.561 60.434 59.559 59.339 59.311 59.286 59.244 59.181 59.126 59.196 60.031 59.011 58.984 58.949 58.896 58.869 58.834 58.794 58.904 58.791 58.739 58.694 58.609 58.601 58.586 58.519 58.586 58.684 59.011 59.221 62.361 63.606 63.159 61.789 58.881 58.814 58.771 58.766 58.766 58.764
67.004 72.124 72.291 72.351 72.214 72.291 72.221 72.414 72.199 72.256 72.349 72.134 72.251 72.119 72.369 72.114 72.226 67.109 66.939 65.556 65.486 65.946 73.686 73.659 73.669 73.681 73.664 73.666 73.681 73.754 73.744 73.749 73.744 73.741 73.736 73.731 65.046 67.516 67.526 67.536 67.546 67.569 67.566 67.586 67.621 67.624 64.996 65.069 65.334 65.799 65.424 69.924 68.019 66.256 66.614 67.334 69.809 74.976 76.189 76.699 75.504 74.276 67.074 66.389 65.149 64.766 64.789 64.819 64.829 64.839 66.809 66.601 67.466 66.559 65.911 65.641 64.841 64.809 64.791 64.944 64.886 64.876 65.791 64.961 64.946 64.934 64.924 67.521 65.464 64.601 64.546 64.501 64.471 64.409 64.331 64.569 64.954 64.159 64.176 65.171 64.354 64.294 64.526 64.064 63.884 63.819 63.779 63.694 65.991 66.184 67.021 64.171 65.746 69.771 73.004 69.774 64.869 68.814 67.681 63.726 63.621 63.376 63.651 63.411 62.824 62.824 62.814 62.641 62.671 62.671 64.361 62.241 61.284 61.169 61.074 61.019 61.004 61.004 63.451 61.076 61.746 60.796 60.581 60.294 60.119 59.864 59.704 59.499 59.419 59.296 59.224 59.164 59.119 58.981 58.936 58.824 59.504 58.584 58.569 58.464 58.439 66.611 66.709 67.021 67.196 67.479 67.359 67.444 67.329 67.056 66.821 66.066 65.819 65.601 65.236 66.606 64.209 63.899 63.401 62.489 59.741 58.561 56.329 56.694 56.224 55.504 55.359 55.219 55.051 54.904 54.761 54.641 54.519 54.416 54.319 54.199 54.076 54.029 53.984 54.286 55.008 54.532 54.106 53.666 53.546 53.406 53.302 53.162 53.085 52.959 52.973 52.75 51.893 51.459 53.694 55.291 53.113 52.943 52.959 52.972 53.743 55.333 52.969 53.497 53.16 53.3 53.582 54.957 54.213 55.091 54.141 53.749 53.801 53.846 53.881 53.921 53.971 54.029 54.149 55.094 56.831 56.729 56.966 56.676 57.036 57.081 57.579 57.966 57.809 60.999 62.061 62.706 61.844 60.996 58.199 58.141 58.206 58.294 58.324 58.334 58.311 58.354 58.301 58.329 58.479 58.321 58.319 58.331 61.121 62.114 62.949 62.169 61.339 58.799 60.044 59.354 58.954 59.684 59.959 60.121 60.151 60.201 60.514 61.296 60.314 60.336 60.659 60.754 68.876 70.046 71.016 70.676 68.929 61.874 61.661 61.421 61.534 61.329 62.266 61.419 63.901 61.786 61.874 61.891 66.104 68.251 68.281 66.526 61.726 61.874 61.364 61.279 61.416 61.484 61.411 61.296 61.331 61.621 61.494 61.741 62.259 61.529 61.469 61.181 61.154 61.176 61.344 61.261 61.246 61.259 66.654 67.444 68.114 67.759 66.994 63.941 61.659 61.166 61.004 60.906 60.844 61.226 60.816 60.774 61.689 60.734 60.751 60.729 60.689 60.694 60.799 60.794 60.866 60.809 60.759 60.979 64.609 67.376 68.314 69.596 68.591 67.446 64.304 60.794 60.581 60.419 62.411 60.079 59.929 59.926 59.884 59.786 59.731 60.446 60.046 59.734 67.249 68.181 68.584 68.636 67.804 67.039 61.171 59.901 59.676 59.879 61.161 59.404 59.236 59.199 59.179 59.141 59.094 60.169 58.994 58.966 58.924 58.866 58.829 58.801 58.779 58.949 58.841 58.789 58.724 58.649 58.564 58.531 58.501 58.444 58.846 58.601 58.664 58.616 61.846 63.079 62.636 61.409 58.691 58.716 58.636 58.696 58.696 58.689
66.931 68.829 69.119 69.044 68.919 69.279 69.239 68.851 68.721 68.831 68.434 68.549 68.636 68.826 68.749 68.369 68.214 67.084 66.956 65.536 65.479 66.071 73.704 73.826 73.704 73.774 73.706 73.811 73.709 73.186 73.694 72.944 72.909 72.794 73.281 72.614 65.059 67.291 66.981 66.294 71.799 71.181 70.494 71.416 65.844 65.829 65.126 65.079 67.096 67.729 65.336 65.319 67.859 65.274 65.411 65.501 73.441 75.239 76.539 76.486 75.781 73.506 66.586 65.984 66.221 64.689 64.691 64.784 64.704 64.709 67.721 65.986 65.349 65.041 64.976 66.069 64.816 64.809 64.779 64.891 64.856 64.846 65.131 64.879 64.859 65.219 66.414 67.619 64.971 64.554 64.466 64.421 64.371 64.349 64.234 65.536 64.171 64.086 64.119 65.556 64.081 64.151 66.044 67.739 67.359 64.221 64.399 63.606 63.539 63.429 63.396 63.354 63.344 68.064 66.966 65.759 72.144 72.409 71.296 66.759 65.034 65.019 65.054 64.071 62.721 62.726 62.679 62.561 62.586 62.599 63.599 61.456 61.176 61.056 61.476 60.866 60.799 60.874 61.199 60.679 60.554 60.441 60.271 60.116 59.946 59.811 59.691 59.584 59.464 59.306 59.209 59.136 59.074 59.046 58.971 59.026 58.596 58.619 58.556 58.449 58.489 63.031 65.446 65.579 65.741 66.234 66.214 66.519 66.574 66.821 67.019 66.866 66.949 66.781 66.519 65.906 65.511 65.226 64.541 64.931 64.434 64.156 63.471 63.314 61.964 55.986 55.384 55.466 55.424 55.109 54.874 54.751 54.604 54.384 54.266 54.174 54.096 54.021 54.004 54.277 54.107 53.921 55.448 54.384 53.567 53.415 53.293 53.173 53.097 52.945 52.959 52.88 54.001 52.846 52.305 55.19 53.619 52.893 52.953 53.31 53.216 53.294 53.309 53.322 52.911 52.885 52.876 53.097 54.153 54.956 53.631 53.654 53.754 53.789 53.829 53.879 53.929 53.974 54.071 54.999 56.361 56.456 56.494 56.644 56.814 56.939 56.996 58.236 57.551 57.694 61.191 61.721 60.624 58.069 58.091 59.306 58.139 58.229 58.311 58.349 58.316 58.329 58.376 58.321 58.361 58.331 58.506 58.456 58.709 61.291 61.976 61.164 58.274 58.676 58.746 58.959 59.106 59.521 59.384 59.714 59.879 59.991 60.306 62.121 60.254 60.391 63.891 64.039 69.169 70.314 70.746 69.421 66.586 63.611 61.934 62.006 61.226 61.271 62.521 62.066 63.556 61.726 61.736 61.876 63.339 67.531 68.536 67.996 64.934 61.644 61.521 61.269 61.474 61.389 61.401 61.321 61.194 61.279 61.551 62.166 61.376 61.199 61.154 61.109 61.169 61.311 61.259 61.269 62.376 66.921 67.706 68.724 67.506 66.741 61.409 61.326 62.944 61.004 60.896 60.879 60.781 61.161 60.764 61.466 60.741 60.756 60.829 60.661 60.731 60.794 60.794 61.654 66.346 63.654 60.894 61.391 64.971 66.841 67.036 67.286 67.506 67.246 63.504 60.766 60.556 60.636 62.416 61.151 59.834 59.876 59.839 59.761 59.649 59.696 60.184 60.001 59.979 67.039 67.546 68.829 68.396 67.581 66.594 61.639 59.696 59.741 61.044 59.309 59.141 59.136 59.101 59.076 59.034 58.986 58.949 58.881 58.846 58.804 58.769 58.741 58.826 58.841 58.824 58.766 58.689 58.569 58.561 58.486 58.431 58.396 58.494 58.561 58.644 58.659 61.851 63.099 62.664 61.364 58.704 58.534 58.501 58.561 58.541 58.534
66.901 66.914 66.914 66.911 66.879 66.836 67.174 66.854 66.871 66.904 66.996 66.864 66.944 66.969 67.131 67.031 66.929 66.981 66.959 65.519 65.479 65.504 73.726 73.719 73.706 73.716 73.706 73.704 73.706 65.486 65.621 65.971 65.349 65.346 65.251 65.196 65.094 65.131 65.094 65.046 73.346 73.314 73.296 73.259 65.029 65.141 65.199 65.146 69.169 68.329 65.274 65.491 67.489 65.529 65.199 64.951 74.274 75.526 76.744 76.124 74.896 71.739 67.571 68.211 66.689 64.649 64.614 64.756 64.604 64.636 65.534 64.996 64.956 65.081 67.056 65.111 64.634 64.734 64.739 64.834 64.899 64.916 65.606 64.766 64.776 67.836 65.341 71.119 70.639 64.901 64.336 64.289 64.219 64.224 66.006 66.489 64.054 64.034 64.034 64.026 70.581 70.501 68.914 68.496 67.216 64.176 64.189 64.114 66.919 66.284 65.336 63.374 63.449 63.106 63.044 63.326 68.304 74.646 73.086 67.756 67.181 67.424 66.089 63.204 62.659 63.436 62.666 62.539 62.564 63.026 62.476 61.264 61.174 61.786 63.679 61.244 62.189 62.791 61.119 60.524 60.449 60.346 60.214 60.059 59.921 59.794 59.674 59.534 59.404 59.299 59.204 59.124 59.066 59.204 60.346 59.926 59.029 58.629 58.549 58.421 58.616 58.306 60.471 61.459 61.926 62.089 64.234 66.086 65.761 66.501 65.919 65.594 65.859 66.114 66.351 65.756 65.986 66.181 66.204 66.016 65.744 65.474 65.151 64.851 64.474 63.359 63.371 62.664 60.606 56.549 56.786 54.999 55.056 54.591 54.609 54.214 54.146 54.266 53.966 54.724 55.471 56.677 56.697 55.369 53.669 53.491 53.375 53.237 53.087 55.749 56.292 54.584 52.048 51.056 52.425 53.91 55.381 52.85 52.901 53.337 53.268 53.141 54.07 53.994 52.686 52.613 52.613 52.656 52.826 53.126 53.379 53.601 53.669 53.716 53.774 53.826 53.874 53.921 54.019 54.924 56.026 56.484 56.486 56.609 56.721 56.816 57.639 57.054 57.164 57.569 57.816 60.061 58.124 57.984 61.121 61.629 59.526 58.169 58.216 58.349 58.399 58.316 58.364 58.396 58.324 58.511 58.911 58.241 58.251 58.554 60.661 58.296 58.471 58.791 62.276 61.486 60.566 59.371 59.096 59.111 59.116 59.936 60.341 60.474 60.196 61.211 63.891 67.089 69.481 70.586 70.381 69.114 64.711 63.269 61.184 61.209 61.181 61.194 61.181 62.931 62.401 61.671 61.656 61.706 61.794 63.386 67.801 68.639 67.751 64.959 61.871 61.751 61.421 61.619 61.336 61.334 61.221 61.131 61.201 61.534 61.139 61.129 61.099 61.621 61.174 61.204 61.216 66.124 67.186 67.956 67.956 67.231 66.294 61.319 61.061 61.054 61.334 62.506 60.804 60.871 60.759 61.079 60.959 60.731 60.739 60.891 62.156 60.826 60.996 60.766 63.001 66.621 67.376 67.391 62.406 61.029 61.029 61.059 62.104 64.071 64.046 66.401 60.941 60.764 60.566 60.671 60.666 60.041 59.916 59.754 59.994 59.744 59.679 60.639 59.644 59.896 59.516 60.041 67.319 68.179 68.946 68.186 66.651 59.766 60.276 59.681 59.189 59.129 59.044 59.056 59.031 59.009 58.974 58.934 58.879 58.809 58.769 58.721 58.704 58.716 58.789 58.784 58.709 58.661 58.601 58.526 58.484 58.459 58.389 58.406 58.396 58.501 58.846 58.696 61.821 63.079 62.661 61.189 58.506 58.411 58.379 58.426 58.386 58.304
66.879 66.869 66.861 66.816 66.746 66.731 67.206 66.724 66.764 66.786 67.354 66.756 66.809 66.869 66.859 66.819 66.914 67.781 71.644 65.506 65.469 65.489 73.746 73.696 73.576 72.421 73.276 73.059 72.781 65.931 65.416 65.361 65.349 65.284 65.249 65.211 65.129 65.141 65.111 65.051 73.341 73.311 73.281 73.249 64.984 65.129 65.189 65.199 68.509 67.144 65.196 65.736 68.606 67.209 65.946 65.066 74.596 75.839 76.884 75.836 74.614 67.174 66.436 65.961 64.639 64.604 64.586 64.586 64.581 64.616 64.776 66.799 65.111 73.114 78.799 70.159 64.454 64.669 64.679 65.519 64.746 64.731 64.669 64.744 64.701 64.579 64.744 66.174 66.489 64.404 64.229 64.179 64.136 64.556 64.311 66.071 63.944 63.974 63.984 64.024 72.706 72.361 72.036 71.684 71.284 70.169 66.729 66.026 67.074 67.081 65.451 63.636 63.374 64.434 65.389 64.094 64.411 63.039 65.041 62.726 62.656 62.981 65.964 62.466 62.401 62.526 63.029 64.086 63.599 65.069 61.544 61.269 61.666 61.126 61.146 61.039 61.016 62.419 62.416 60.569 60.741 60.314 60.791 60.689 60.001 59.769 59.674 59.524 59.406 59.306 59.201 59.099 58.986 58.946 58.779 58.951 58.651 58.639 58.551 58.341 58.474 58.224 60.809 61.001 57.944 58.136 57.931 60.564 60.546 60.599 60.414 64.204 64.516 64.729 65.071 64.429 64.496 65.009 65.241 65.524 65.751 66.014 66.164 66.201 64.959 64.511 64.269 64.079 63.784 63.586 63.316 63.039 56.894 55.786 54.479 54.829 54.179 54.119 53.934 54.77 57.294 56.875 57.322 57.829 55.431 53.629 53.425 53.239 54.235 62.749 65.665 58.68 52.532 51.058 52.27 55.329 52.672 52.735 52.802 52.716 52.748 54.07 54.671 55.213 52.836 52.57 52.603 52.6 52.796 53.171 53.971 53.896 53.594 53.646 53.696 53.771 53.821 53.874 53.969 54.779 55.774 56.926 56.486 56.526 56.584 57.504 57.446 56.994 57.061 57.326 58.401 58.469 58.321 61.289 62.129 62.419 61.456 59.976 58.299 58.106 58.181 58.459 58.329 58.396 58.399 58.336 58.519 58.309 58.236 58.526 58.314 58.331 60.761 59.734 63.044 63.259 62.921 62.629 62.329 61.344 59.814 59.839 60.999 60.131 60.121 60.619 60.839 68.064 68.321 70.881 70.071 68.781 61.359 61.309 61.121 61.059 61.124 61.124 61.121 61.401 63.871 61.941 61.746 61.811 61.756 62.016 65.379 68.051 68.446 67.439 62.041 61.749 61.204 61.104 61.216 61.254 61.234 61.141 61.101 61.071 61.061 61.116 62.329 61.649 62.779 61.194 66.716 67.494 68.389 67.656 66.919 63.859 61.189 62.991 61.041 60.939 60.961 61.024 61.669 60.764 60.839 60.994 60.746 60.739 60.686 60.706 60.809 60.791 60.989 66.171 66.876 67.616 67.166 66.419 62.534 61.029 62.589 61.024 61.144 61.544 61.001 60.981 60.884 61.009 60.566 62.269 62.411 60.041 60.294 59.801 60.966 59.659 59.614 60.601 59.694 60.171 59.786 59.799 63.791 67.526 68.411 60.659 59.806 61.416 59.296 59.069 58.899 58.909 58.981 58.991 59.539 58.951 58.916 58.869 58.814 58.746 58.701 58.656 58.631 58.676 58.751 58.719 58.674 58.599 58.529 58.494 58.426 58.386 58.324 58.479 58.279 58.394 58.419 58.344 61.616 62.896 62.389 61.054 58.271 58.266 58.279 58.329 58.234 58.154
66.791 66.896 66.871 66.751 66.716 66.689 66.706 66.659 66.686 66.684 66.644 66.626 66.671 66.716 66.769 66.779 66.814 67.389 78.814 67.459 65.474 66.349 67.981 67.991 67.814 66.221 65.526 65.431 65.411 65.396 65.366 65.314 65.299 65.236 65.224 65.189 65.159 65.131 65.099 65.064 73.341 73.311 73.274 73.254 64.984 65.129 65.151 65.259 66.091 65.221 65.156 66.979 65.816 66.309 66.816 70.214 74.926 76.184 76.841 75.531 74.341 67.766 66.251 65.059 64.586 64.554 64.521 64.526 64.541 64.574 64.751 66.476 65.456 74.701 79.836 77.484 64.419 64.209 64.451 65.729 66.579 66.846 64.616 64.921 65.186 64.549 64.944 64.044 64.011 63.966 63.531 63.694 64.939 63.869 64.049 65.051 63.871 63.904 64.806 63.994 72.949 73.241 73.386 73.186 72.586 72.939 71.691 71.119 70.969 72.366 69.749 65.619 61.931 66.024 66.611 66.301 63.281 63.249 63.021 63.649 62.809 62.721 62.449 62.356 62.361 62.361 62.429 62.509 62.529 64.824 61.429 61.299 61.369 61.094 61.111 61.064 61.014 61.129 60.701 60.611 61.129 60.341 61.291 65.311 62.744 60.826 59.694 59.769 59.399 59.434 59.246 59.129 59.066 58.906 58.816 58.721 58.691 58.644 58.564 58.389 58.244 58.094 57.951 57.901 57.841 57.929 58.519 60.769 59.924 57.556 57.324 59.636 60.166 59.634 59.916 59.986 63.484 63.739 64.024 64.251 64.161 64.746 64.861 65.234 63.631 63.851 64.079 64.321 64.601 64.594 64.504 63.709 62.861 62.664 62.371 54.376 54.216 54.026 53.924 55.056 56.776 59.918 56.385 56.789 55.137 53.717 53.551 53.335 54.793 63.686 59.729 57.033 52.793 51.084 51.313 53.201 53.129 52.86 52.753 52.588 52.596 53.332 54.212 53.798 52.621 52.581 52.614 52.615 52.927 54.784 54.864 54.181 53.529 53.584 53.634 53.696 53.776 53.834 53.929 54.511 55.401 58.006 56.481 56.864 56.709 56.696 56.844 56.929 57.376 57.894 57.706 57.839 60.539 61.904 62.881 63.251 62.241 61.271 59.129 58.086 59.281 58.456 58.506 58.344 58.429 58.404 58.356 59.049 58.724 58.376 58.361 59.449 58.641 61.666 63.324 64.426 64.194 63.849 63.576 62.546 59.341 62.026 60.739 59.984 60.011 60.696 60.561 68.814 70.301 70.959 69.764 68.174 61.576 62.191 61.004 61.001 61.061 61.054 61.079 61.234 61.446 62.799 61.749 61.789 61.734 61.691 62.226 67.334 69.086 68.199 66.369 61.494 62.504 61.124 61.064 61.171 61.199 61.154 61.091 61.029 61.366 61.864 61.261 61.166 63.449 67.004 67.781 68.099 67.366 66.134 61.146 61.136 61.036 62.156 61.066 60.974 60.904 62.304 60.719 60.636 60.676 60.704 60.821 62.129 60.866 61.391 61.549 62.611 66.434 67.134 68.046 66.889 65.986 60.861 60.901 61.029 62.521 62.951 60.981 61.271 60.814 60.816 60.739 60.951 62.281 62.304 60.354 60.046 59.994 60.896 59.644 59.616 59.539 59.504 59.406 59.391 59.494 59.564 60.001 65.529 59.824 59.669 60.094 59.086 58.996 58.841 58.834 58.884 58.926 60.231 59.566 59.664 58.846 58.819 58.771 58.709 58.649 58.614 58.564 58.581 58.681 58.649 58.601 58.521 58.459 58.371 58.374 58.354 58.266 58.306 58.199 58.274 58.306 58.184 61.304 62.566 62.129 60.906 58.091 58.169 58.189 58.221 58.429 58.311
66.406 66.386 66.374 66.399 66.419 66.424 66.459 66.464 66.474 66.441 66.411 66.386 66.584 71.611 68.984 66.776 66.724 68.876 67.721 65.511 65.514 65.459 65.494 65.451 65.426 66.374 65.516 65.481 65.444 65.414 65.391 65.354 65.321 65.271 65.209 65.169 65.139 65.149 65.096 65.046 73.344 73.314 73.286 73.261 64.996 65.086 65.119 65.279 65.756 65.156 65.101 65.771 65.064 65.054 65.076 72.004 75.216 76.506 76.471 75.259 73.749 67.009 65.999 64.821 64.539 64.514 64.586 64.444 64.511 64.581 68.551 65.959 64.726 66.399 72.716 71.199 63.826 63.801 63.806 63.831 64.199 64.074 64.409 64.636 64.589 64.401 66.271 64.254 63.959 63.869 63.596 63.581 63.584 63.784 64.581 67.139 63.796 63.816 65.384 64.826 71.641 71.921 72.229 72.299 72.821 73.236 72.904 72.761 72.556 72.466 72.454 71.949 70.446 70.074 70.171 68.089 62.384 62.331 62.801 65.784 66.111 65.639 62.484 62.674 62.306 62.374 62.336 62.409 62.409 62.699 61.409 61.801 61.574 61.086 61.354 62.596 61.066 60.864 61.956 60.671 60.641 60.366 60.359 60.729 59.994 59.784 59.796 59.584 59.499 59.729 63.714 61.104 60.579 60.906 58.814 58.704 58.634 58.561 58.476 58.381 58.299 58.184 58.051 57.941 57.799 57.654 57.524 57.429 57.331 57.341 57.396 59.611 60.014 57.161 57.411 57.229 59.804 59.421 56.851 58.234 61.694 63.516 63.656 64.004 60.386 61.669 62.941 63.184 63.441 63.671 63.889 63.696 63.729 63.766 63.814 54.384 54.234 55.146 54.144 54.933 56.97 54.75 57.662 58.459 53.936 53.715 53.646 53.472 54.202 59.223 54.929 53.908 53.379 51.385 53.131 53.266 53.249 53.087 52.656 52.478 52.469 52.473 52.714 52.502 52.562 52.6 52.65 52.636 53.02 54.834 53.691 54.431 53.706 56.519 56.046 55.579 53.726 53.921 54.291 54.691 55.596 57.904 56.546 58.684 56.606 56.701 56.781 56.906 57.849 57.326 57.351 57.709 58.166 61.059 62.049 63.086 63.099 62.079 61.039 58.446 58.199 58.309 58.411 58.384 58.374 58.429 58.391 58.384 58.434 58.444 58.541 58.624 58.706 62.374 63.144 63.451 63.774 64.056 63.499 62.241 59.306 62.129 59.949 59.911 59.974 62.731 62.206 68.749 69.819 70.239 70.574 65.759 61.596 61.326 60.889 60.951 60.991 60.999 61.049 61.214 62.476 61.394 61.891 61.589 61.879 61.629 62.234 64.614 67.624 68.561 67.909 63.714 61.466 62.404 60.981 60.999 61.129 61.141 61.076 61.021 61.049 62.291 61.699 61.181 61.921 68.074 67.869 67.086 64.759 61.436 61.099 61.099 61.001 60.971 63.024 61.871 60.946 60.634 60.629 60.676 60.676 60.666 60.676 60.869 60.941 61.629 64.346 66.691 67.434 67.324 66.611 63.009 60.894 60.756 60.744 60.751 60.771 60.964 60.819 60.861 60.811 60.754 60.649 60.141 60.736 59.951 60.471 60.031 59.964 59.944 60.526 59.524 60.704 59.446 59.386 60.609 59.326 60.979 60.011 59.671 60.786 59.696 59.031 58.914 58.776 58.806 58.844 58.871 58.866 58.839 59.484 58.941 58.771 58.759 58.731 58.684 58.614 58.566 58.509 58.466 58.596 58.584 59.934 58.456 58.369 58.269 58.289 58.321 58.921 59.949 60.186 58.161 58.211 58.246 61.316 62.564 62.124 60.896 58.179 58.121 58.074 58.279 58.179 58.079
66.219 66.339 66.399 66.454 66.494 66.481 66.504 66.514 66.516 66.496 66.466 66.411 66.569 69.891 69.796 66.749 66.734 68.549 67.669 65.551 65.521 65.506 66.361 66.524 65.439 65.489 65.524 65.526 65.484 65.439 65.394 65.374 65.366 65.321 65.246 65.174 65.126 65.121 65.064 65.051 73.351 73.309 73.289 73.266 64.949 65.051 65.094 65.279 65.764 65.094 65.066 66.224 66.196 65.064 65.254 74.279 75.361 76.754 76.179 74.949 71.401 66.499 65.786 64.626 64.519 64.479 64.469 64.419 64.501 64.606 69.836 72.946 73.524 63.844 63.836 63.826 63.836 63.821 63.819 63.806 63.944 64.146 64.324 64.466 64.506 64.371 66.001 64.139 64.126 63.844 63.611 63.499 63.501 63.584 67.431 64.831 63.739 63.756 63.764 64.039 65.846 67.101 68.116 71.216 71.506 71.931 71.494 71.964 72.299 72.581 72.871 72.271 71.906 71.566 71.219 70.841 70.311 69.716 69.159 67.509 66.934 64.716 62.184 62.556 62.294 62.351 62.346 62.496 63.624 62.644 61.391 61.894 61.239 61.699 63.449 64.924 64.521 61.024 61.199 61.156 61.309 60.454 60.414 61.416 60.184 59.894 60.229 59.634 59.591 59.586 61.166 62.191 59.241 60.874 61.926 60.424 59.156 58.616 58.564 58.344 58.184 58.529 58.709 57.931 57.851 57.751 57.629 57.504 57.354 57.206 57.071 56.939 56.816 56.946 56.914 57.289 59.606 58.851 56.569 56.341 59.184 59.341 57.731 56.911 55.481 55.424 55.419 56.016 56.481 58.461 61.271 62.384 62.584 62.831 62.236 54.401 57.256 61.094 53.976 54.892 56.702 56.507 57.484 56.738 54.418 53.648 53.533 53.426 53.322 53.194 53.015 53.108 53.356 52.889 52.969 52.887 53.131 53.435 52.759 52.472 52.345 52.375 52.453 52.534 52.597 52.649 52.68 52.661 52.934 54.639 54.661 62.601 63.739 64.044 62.901 60.099 53.669 54.059 54.496 55.036 56.646 58.016 56.859 59.829 56.636 56.711 57.256 56.914 57.056 57.131 57.229 57.306 58.184 58.174 61.246 62.239 63.174 62.506 61.576 59.951 58.099 58.231 58.321 58.411 58.369 58.411 58.441 58.384 58.424 58.599 58.589 58.654 58.781 59.664 61.939 62.179 62.496 62.819 63.051 61.391 60.176 62.031 59.874 59.851 61.291 63.594 67.279 68.954 70.086 69.926 69.354 64.094 60.931 60.909 60.836 60.899 60.924 60.926 61.059 61.161 61.264 61.881 61.364 63.129 61.624 62.329 63.254 61.524 64.234 67.854 68.591 67.634 61.644 61.534 61.026 60.896 60.974 61.071 61.066 61.016 60.924 61.081 62.929 61.156 61.156 64.549 66.806 62.974 61.354 61.164 61.124 61.031 60.959 60.854 62.964 60.824 60.614 60.631 60.651 60.659 60.609 60.684 60.806 60.881 61.051 66.279 66.986 67.624 67.051 66.321 61.291 61.061 62.861 62.486 60.736 60.711 60.824 61.609 60.764 60.901 60.754 61.091 60.036 59.979 62.076 63.286 62.706 63.034 61.604 59.886 60.019 59.714 59.439 59.361 59.326 59.464 59.221 60.226 59.219 61.219 59.034 58.944 58.786 58.751 58.789 58.864 58.831 58.806 58.781 58.736 58.706 58.694 58.694 58.689 58.671 58.639 58.596 58.529 58.466 58.396 58.514 58.524 58.479 58.386 58.269 58.209 58.219 58.226 61.049 61.574 60.494 58.059 58.164 58.244 61.314 62.569 62.136 60.819 58.006 58.016 57.996 57.954 57.904 57.854
66.126 66.249 66.336 66.411 66.421 66.451 66.464 66.484 66.481 66.461 66.441 66.401 66.419 67.761 66.784 66.766 66.784 67.046 67.539 65.591 65.549 65.526 65.501 65.454 65.424 65.489 65.526 65.524 65.479 65.406 65.379 65.364 65.349 65.329 65.241 65.149 65.116 65.116 65.089 65.034 72.904 73.324 73.296 73.266 64.944 65.071 65.126 65.244 65.444 65.039 65.394 64.996 65.639 66.444 66.161 74.606 75.849 76.924 75.879 74.646 70.266 66.469 65.709 64.679 64.479 64.451 64.429 64.421 64.521 65.594 68.671 74.631 72.999 63.834 63.809 63.799 63.821 63.834 63.811 63.789 63.826 64.299 64.299 64.404 64.349 65.234 64.401 63.904 63.716 63.871 63.464 63.446 63.451 63.449 65.316 63.696 63.706 63.679 63.666 63.741 63.999 63.964 63.876 64.691 65.729 64.271 68.949 70.684 70.976 70.919 71.614 71.246 71.531 71.859 72.176 72.234 71.999 71.144 70.804 70.494 70.184 69.844 69.584 62.391 62.306 62.326 62.384 62.621 64.614 61.861 61.406 62.424 61.159 61.726 66.156 65.626 64.069 60.789 60.736 60.679 60.901 60.484 60.494 61.134 60.364 60.149 60.636 59.659 59.646 59.694 59.436 59.331 59.304 63.551 63.181 62.209 61.261 58.749 61.094 59.519 58.286 58.594 58.149 57.969 57.799 57.656 57.529 57.434 57.351 57.281 57.154 57.026 56.909 56.771 56.641 56.524 56.396 56.311 56.354 56.184 57.451 58.689 56.674 56.374 55.586 55.466 55.611 56.196 55.249 55.874 55.379 54.519 55.071 58.984 57.284 54.446 54.269 54.424 53.976 54.84 55.857 56.077 56.764 55.6 53.746 53.689 53.582 53.425 53.282 53.133 53.072 53.67 53.476 51.988 52.029 52.083 54.25 54.557 53.261 53.132 52.478 52.525 52.513 52.568 52.628 52.699 52.724 52.688 52.912 54.531 53.801 62.509 63.704 64.129 62.979 60.811 53.556 53.999 54.576 55.409 55.661 60.924 60.216 57.186 57.241 58.591 57.394 56.806 56.944 57.056 57.179 57.281 57.501 58.251 58.546 61.396 62.256 61.476 60.084 58.036 58.081 58.161 58.289 58.404 58.444 58.359 58.414 58.429 58.391 58.494 60.161 58.656 58.619 58.936 58.926 59.011 59.994 60.979 61.281 59.966 59.804 59.781 59.674 59.779 61.449 62.934 67.956 69.191 70.359 69.641 68.414 60.901 61.594 60.829 60.791 60.839 60.851 60.854 61.001 60.974 61.884 60.996 61.224 61.424 63.934 61.746 61.476 61.479 61.459 65.419 68.159 66.514 61.041 61.069 61.744 60.954 61.141 61.011 61.044 61.009 60.934 60.899 61.906 61.749 61.181 61.186 61.276 61.451 61.029 61.081 61.079 61.091 60.931 60.876 61.364 60.636 60.646 60.644 60.739 60.549 60.714 61.664 60.869 63.694 66.559 67.261 67.499 66.779 65.464 60.836 61.131 62.961 62.806 62.869 60.664 60.971 62.466 62.351 60.991 62.606 62.236 60.454 60.014 59.934 62.209 66.164 66.189 65.924 65.386 59.829 59.819 59.754 59.396 59.276 59.266 59.224 59.129 58.994 59.571 58.961 58.851 58.689 58.716 58.759 59.586 60.326 58.924 58.734 58.694 58.639 58.656 58.681 58.601 58.599 58.611 58.594 58.574 58.509 58.436 58.364 58.389 58.449 58.421 58.306 58.199 58.171 58.169 58.166 58.099 58.096 58.121 58.016 58.109 58.051 58.484 58.151 58.829 58.111 57.894 57.979 57.966 57.861 57.834 57.814
66.244 66.239 66.259 66.304 66.344 66.384 66.389 66.416 66.381 66.366 66.346 66.331 66.341 67.269 66.651 66.784 66.826 67.246 67.364 66.004 65.556 65.534 66.109 66.571 65.441 65.496 65.501 65.501 65.454 65.361 65.386 65.349 65.354 65.309 65.159 65.184 65.109 65.131 68.376 67.816 73.351 73.334 72.486 72.206 64.989 65.079 65.106 65.211 65.044 64.966 65.726 65.179 65.001 64.971 69.816 74.874 75.576 76.989 75.606 74.376 66.869 66.336 65.134 64.374 64.381 64.541 64.506 64.364 64.449 65.186 65.171 72.161 73.669 69.596 63.834 63.809 63.821 63.841 63.821 63.806 63.811 64.121 65.216 65.549 64.711 65.774 63.899 63.434 63.496 63.539 63.399 63.406 63.406 63.409 64.064 63.646 63.671 63.631 63.614 63.671 63.651 63.616 63.579 63.539 63.784 63.924 63.584 63.534 63.886 66.941 67.239 69.326 70.231 70.541 70.846 70.606 72.331 71.281 71.559 71.731 71.539 71.291 69.499 62.354 62.341 62.289 62.394 63.151 67.254 64.801 61.771 61.489 61.189 61.359 67.551 68.654 68.454 67.916 67.476 60.951 60.541 61.051 61.169 60.544 60.454 60.261 61.091 59.724 59.711 60.564 59.594 59.451 59.749 63.264 62.456 62.059 60.149 59.821 59.866 58.346 58.321 60.101 61.691 58.104 57.981 57.794 57.659 57.524 57.334 57.199 57.394 56.971 56.874 59.604 61.886 56.614 56.484 56.391 56.249 56.101 55.941 55.841 55.741 55.686 55.599 55.896 55.894 55.549 55.281 55.631 55.194 54.706 54.594 54.544 59.119 60.714 54.394 54.704 54.116 54.476 55.166 56.463 56.933 55.995 55.707 54.457 53.581 53.419 53.255 52.984 52.952 53.188 53.442 53.196 51.092 50.72 53.575 54.282 53.514 52.7 52.728 52.829 52.622 52.593 52.676 52.731 52.748 52.723 52.886 53.468 56.524 62.466 63.604 64.229 63.059 61.894 53.441 53.899 54.361 54.721 55.106 55.749 57.301 59.851 61.094 58.076 56.704 56.766 56.854 56.984 57.111 57.519 57.866 57.596 58.221 59.156 61.291 59.371 58.069 58.431 60.996 58.601 58.256 59.171 58.399 58.479 58.379 58.439 58.444 58.436 58.651 58.566 58.626 58.649 58.671 59.189 59.041 59.439 59.171 59.441 59.726 59.729 59.634 59.701 60.241 60.086 68.309 69.471 70.434 69.331 67.756 60.886 60.859 60.706 60.739 60.786 61.311 60.929 60.946 60.981 63.336 63.291 62.829 61.684 61.856 61.409 61.469 61.454 61.451 61.804 61.814 61.049 61.079 64.836 60.949 61.511 60.861 60.999 60.941 61.004 60.959 60.831 60.884 61.434 61.361 61.131 61.109 61.011 60.984 60.934 60.974 61.579 60.711 61.321 61.116 60.646 60.634 61.379 60.969 61.161 60.741 60.854 65.976 66.814 67.526 67.226 66.496 63.996 62.029 60.704 60.834 62.761 62.861 60.631 60.594 60.544 61.541 60.574 60.579 61.559 60.691 60.594 60.706 60.264 63.344 66.436 67.416 66.384 64.924 59.821 59.714 59.619 60.306 59.224 59.151 59.116 59.034 58.931 58.851 58.774 58.671 58.726 58.751 58.779 58.819 58.731 58.694 58.671 58.724 58.734 58.736 58.706 58.669 58.581 58.519 58.531 58.519 58.476 58.409 58.321 58.241 58.304 58.381 58.264 58.191 58.141 58.109 58.106 58.071 58.094 58.024 57.959 58.044 57.969 57.934 57.916 57.859 57.824 57.856 57.949 57.931 58.271 58.419 57.784
66.391 66.544 66.131 66.434 66.101 66.251 66.299 66.309 66.306 66.276 66.261 66.251 66.286 67.556 66.656 66.769 66.814 66.806 66.904 67.636 65.569 65.539 65.541 65.461 65.449 65.514 65.511 65.506 65.446 65.371 65.371 65.351 65.329 65.256 65.151 65.199 65.104 65.091 71.689 73.304 73.281 73.256 65.514 65.056 65.069 65.091 65.891 65.264 64.979 64.956 67.289 64.984 65.344 65.381 73.699 75.081 76.416 76.519 75.324 73.741 66.649 67.171 64.766 64.291 64.294 64.451 64.426 64.301 64.524 66.374 65.151 69.926 71.069 70.076 63.806 63.794 63.836 63.849 63.834 63.826 65.541 64.469 67.714 68.359 64.616 64.914 64.399 63.539 63.531 63.541 63.376 63.371 63.574 64.866 63.711 63.626 63.629 63.589 63.619 63.629 64.096 64.011 63.524 63.469 63.404 63.361 63.289 63.226 66.131 66.249 66.309 63.159 63.971 63.229 66.504 69.276 69.379 70.914 71.044 70.529 70.759 71.091 68.534 62.299 62.346 62.269 62.446 62.591 64.489 67.794 62.414 61.549 61.799 61.286 68.191 69.164 69.636 68.751 66.274 60.821 60.971 68.309 68.226 67.879 65.506 60.454 60.876 59.781 59.781 60.899 59.579 59.521 60.126 61.191 62.529 61.924 59.006 59.434 58.646 58.374 58.349 61.246 61.456 58.006 58.359 60.821 61.361 60.514 57.401 58.709 59.026 57.124 57.306 61.119 56.966 56.544 56.416 56.329 56.244 56.136 56.024 55.929 55.789 55.616 55.564 55.349 55.231 55.209 55.134 55.056 55.071 54.844 54.871 56.306 66.611 63.424 60.819 54.531 54.104 54.403 55.439 55.219 56.566 55.804 55.103 53.801 53.584 53.419 53.227 52.911 52.814 52.813 53.106 52.462 51.04 50.522 51.526 54.333 53.588 52.993 55.037 54.571 53.259 52.829 52.772 52.741 52.766 52.961 52.869 53.43 57.959 62.386 63.531 64.281 63.154 61.996 53.394 53.731 54.176 54.414 54.696 55.161 55.756 56.096 57.711 57.536 56.749 56.726 56.776 56.866 57.174 57.199 57.309 57.356 57.889 58.131 58.169 58.106 58.839 61.421 62.114 61.231 58.941 58.289 58.346 58.334 58.501 58.401 58.466 58.469 58.469 58.591 58.586 58.599 58.639 59.139 59.061 59.199 59.186 60.524 60.686 59.801 59.611 59.769 59.944 60.146 68.609 70.234 70.249 69.621 66.419 61.059 61.184 60.514 60.689 60.726 61.626 60.819 60.896 62.024 67.181 67.481 63.591 60.854 61.224 61.614 61.429 61.439 63.004 62.136 61.024 61.024 67.626 66.899 63.151 60.929 60.894 60.749 60.794 60.899 60.959 60.881 60.744 60.831 61.529 61.184 60.909 60.889 60.919 60.849 60.879 60.674 60.594 60.629 60.619 60.621 60.574 60.629 61.256 60.766 61.954 66.354 67.084 67.834 66.954 66.159 61.439 60.664 62.984 60.661 60.556 60.679 61.119 60.594 60.496 60.529 60.529 60.479 60.346 60.099 60.699 59.954 60.026 60.604 65.381 66.774 67.851 66.114 63.761 59.731 59.656 59.601 59.534 59.726 59.021 58.989 58.911 58.841 58.746 58.721 58.731 58.766 58.771 58.741 58.709 58.659 58.641 58.734 58.749 58.781 58.759 58.744 60.659 58.624 58.446 58.446 58.451 58.429 58.364 58.296 58.211 58.141 58.244 58.209 58.211 58.121 58.074 58.059 58.029 58.011 58.024 57.971 57.831 57.861 57.846 57.821 57.789 57.774 57.829 57.866 57.884 57.804 57.774 57.736
72.174 71.834 71.504 71.186 66.046 66.056 66.049 66.079 66.091 66.109 66.116 66.114 66.249 67.846 66.676 66.796 66.841 66.831 67.269 73.604 65.591 65.559 65.526 65.491 65.469 65.529 65.564 65.514 65.439 65.384 65.351 65.341 65.314 65.259 65.219 65.169 65.084 65.071 70.224 73.301 73.281 73.256 66.941 65.066 65.084 65.111 66.994 65.521 64.921 65.576 67.944 66.359 65.984 65.929 74.296 75.454 76.724 76.231 75.024 72.239 66.469 65.906 64.619 64.246 64.274 64.246 64.239 64.266 64.481 67.146 64.456 64.161 64.314 63.789 63.801 63.796 63.816 63.841 63.844 63.814 63.829 65.056 67.081 64.181 64.019 64.361 63.886 63.499 63.521 63.509 63.324 63.319 63.429 64.811 63.636 63.589 63.589 63.556 63.594 63.609 63.556 63.536 63.441 63.371 63.309 64.066 63.361 63.156 63.126 63.079 63.289 63.029 63.066 63.101 63.264 63.851 63.756 64.821 63.919 65.969 69.486 69.794 64.914 62.276 62.334 62.259 62.419 62.609 63.779 70.399 61.489 61.231 68.829 68.636 68.571 69.389 69.536 68.506 61.899 60.969 63.186 68.554 70.051 69.041 68.226 60.854 62.399 66.126 65.016 59.761 59.834 59.556 59.579 59.564 60.154 59.271 60.639 62.134 59.251 58.601 58.406 61.489 61.256 58.116 59.174 61.004 61.171 60.331 57.551 57.864 57.826 57.216 59.611 58.586 61.499 59.421 57.144 56.556 56.194 56.026 55.921 55.844 55.741 55.661 55.531 55.459 55.306 55.261 55.124 54.974 54.816 54.744 54.646 57.764 66.426 69.396 61.416 54.864 54.174 54.153 55.734 58.145 56.635 57.528 56.576 54.708 53.61 53.411 53.195 52.975 52.788 52.793 52.915 52.749 51.893 50.852 50.918 54.715 54.511 55.989 55.81 55.34 54.377 53.812 52.908 52.755 52.783 53.046 52.908 53.119 53.239 62.274 63.436 64.336 63.216 62.091 53.311 53.579 53.951 54.296 54.544 54.784 55.076 55.314 55.711 56.294 57.161 57.279 57.281 56.959 57.114 57.184 57.259 57.359 59.916 58.401 58.109 60.004 61.609 62.429 63.044 62.096 61.154 58.511 58.184 58.361 58.501 58.514 58.456 58.486 58.474 58.486 58.526 58.601 58.701 59.699 59.046 59.259 59.196 59.674 61.671 60.246 59.536 60.549 63.284 65.266 68.919 70.076 69.926 68.696 63.596 61.769 60.634 60.541 60.626 60.656 61.449 60.759 60.789 66.099 67.521 67.274 63.114 60.891 60.939 63.146 61.349 63.286 61.374 61.184 61.341 63.724 66.996 67.549 66.649 61.771 60.999 60.819 61.594 61.079 60.874 60.891 60.786 60.689 60.781 61.524 60.809 60.804 60.856 60.916 60.619 60.604 60.616 60.591 60.594 60.529 60.621 61.911 61.011 64.666 66.604 67.336 67.401 66.656 65.274 60.689 60.631 60.601 60.636 63.226 60.886 61.896 60.536 60.511 60.536 62.244 60.469 60.506 59.756 59.686 60.466 60.001 59.986 60.331 65.764 67.001 67.069 65.826 59.669 60.471 60.836 60.721 60.479 60.246 58.991 58.841 58.791 58.749 59.084 58.764 59.936 58.856 58.706 58.674 58.636 58.694 58.819 61.539 60.551 58.734 59.371 59.064 59.286 59.091 58.549 58.349 58.374 58.354 58.339 58.271 58.189 58.109 58.139 58.221 58.191 58.119 58.059 58.009 57.996 57.964 57.944 57.919 57.734 60.834 57.816 57.704 57.684 57.684 57.729 57.811 57.846 57.761 57.719 57.659
72.169 71.841 71.511 71.194 66.021 66.011 65.996 66.031 66.076 66.104 66.106 66.106 66.231 67.676 66.589 66.799 66.859 66.859 67.076 66.291 65.601 65.564 65.559 65.539 65.504 65.529 65.509 65.466 65.424 65.369 65.336 65.286 65.244 65.191 65.146 65.091 65.064 65.036 70.396 73.306 73.274 73.259 67.246 65.054 65.054 65.119 65.196 66.249 64.904 66.381 67.004 64.914 64.929 64.631 74.571 75.809 77.731 75.939 74.734 69.214 67.016 65.401 64.301 64.211 64.216 64.204 64.191 64.159 64.419 66.591 64.254 64.469 69.679 68.361 63.786 63.776 63.791 63.819 63.814 64.234 64.501 65.846 65.696 64.046 63.976 64.209 63.559 63.351 63.386 63.379 63.296 63.331 64.469 63.804 63.561 63.569 63.531 63.504 63.556 63.549 63.494 63.474 63.439 63.379 63.314 63.246 63.601 63.114 63.061 64.426 63.634 62.964 62.934 62.884 62.804 62.759 62.719 62.954 62.681 62.709 62.674 65.096 63.496 62.286 62.314 62.329 62.469 62.539 62.534 61.429 61.439 64.241 69.779 70.041 69.981 69.706 69.436 69.051 66.759 64.806 66.386 68.759 69.751 68.979 68.041 60.784 60.474 66.301 65.864 59.829 59.629 59.601 59.666 59.641 59.754 59.266 65.141 66.466 59.141 59.126 58.991 58.959 59.474 59.154 59.411 60.879 61.001 59.521 57.709 57.864 57.346 57.244 57.326 57.316 58.834 57.346 59.221 59.279 56.336 56.251 58.234 56.846 55.819 55.669 55.526 55.419 55.231 55.206 55.109 55.036 54.949 54.819 54.694 54.881 61.191 60.741 55.964 54.886 54.194 54.019 54.717 55.461 55.495 56.353 55.604 53.731 53.626 53.444 53.192 52.978 52.779 52.731 52.775 52.922 52.166 51.005 51.152 52.552 55.792 56.507 56.051 55.492 55.014 54.097 52.977 52.785 52.798 53.041 52.918 53.084 53.219 62.204 63.341 64.336 63.314 62.154 53.564 53.431 53.741 54.161 54.521 54.696 55.416 55.476 55.139 55.334 55.831 56.604 56.724 57.294 57.171 57.186 57.234 57.421 59.964 57.801 57.914 57.991 61.341 62.309 63.309 62.969 61.909 61.019 58.269 58.284 58.644 58.571 58.514 58.469 58.499 58.466 58.514 58.601 58.811 58.959 59.129 59.126 62.664 62.799 59.604 59.449 59.451 61.926 63.186 68.089 69.199 70.414 69.621 68.366 62.109 60.719 60.544 60.491 60.559 60.621 61.146 60.786 60.786 66.519 67.826 66.956 62.431 60.854 60.861 61.546 61.139 61.121 61.166 61.021 60.941 61.019 65.779 67.254 67.321 66.389 62.426 61.541 60.716 60.739 60.754 60.824 60.784 60.671 60.654 61.804 60.806 61.009 60.684 60.554 60.576 60.601 60.574 60.529 60.596 60.686 60.734 60.729 61.414 65.101 67.606 67.164 66.371 62.189 62.684 60.849 60.631 60.576 60.566 61.896 62.479 61.884 60.469 60.534 62.169 62.001 60.414 59.651 59.499 59.531 59.481 60.304 59.976 63.559 65.894 66.281 66.569 65.566 59.619 59.584 59.509 59.424 60.371 61.291 58.886 58.719 58.709 58.879 58.759 58.776 58.721 58.689 58.651 58.621 58.704 63.516 62.339 59.866 58.739 58.934 58.776 58.636 58.624 59.071 58.779 58.429 58.276 58.301 58.276 58.236 58.164 58.081 57.986 58.086 58.149 58.109 58.041 57.961 57.969 57.944 57.839 57.809 61.039 62.841 62.616 57.591 57.571 57.569 57.706 57.799 57.846 57.776 57.711 57.661
72.179 71.846 71.521 71.196 66.034 66.021 66.026 66.026 66.054 66.081 66.094 66.119 66.611 69.796 66.586 66.776 66.829 66.846 66.936 66.259 65.629 65.589 65.586 65.554 65.506 65.494 65.456 65.411 65.364 65.329 65.294 65.261 65.214 65.179 65.131 65.039 65.004 65.014 71.076 73.306 73.329 73.254 66.599 65.049 65.061 65.094 65.211 65.044 64.896 64.914 64.884 64.854 64.911 66.736 74.839 76.056 76.811 75.619 74.436 67.456 66.964 65.134 64.206 64.204 64.169 64.136 64.104 64.109 64.404 65.876 67.344 72.889 76.201 70.894 66.651 63.754 63.771 63.784 63.791 63.799 63.921 66.446 64.074 64.081 64.346 63.741 63.469 63.734 63.474 63.321 63.329 63.361 63.424 63.819 63.536 63.549 63.491 63.481 63.519 64.131 64.534 63.861 63.351 63.311 63.261 63.214 63.164 63.136 63.084 63.034 62.989 62.904 63.386 64.274 62.974 62.754 62.749 62.694 62.594 62.536 62.511 64.389 62.529 62.294 62.264 62.389 64.111 62.611 61.854 61.574 61.539 62.284 69.121 69.689 70.909 70.891 70.314 69.999 70.116 69.799 69.489 69.226 69.774 68.856 66.944 61.036 62.286 66.236 64.354 59.881 63.631 59.846 59.899 59.664 63.166 61.706 61.386 63.869 59.459 59.394 59.394 59.149 59.301 58.496 58.601 58.604 58.146 58.104 57.966 57.894 57.316 57.274 57.324 57.231 58.319 56.799 59.441 58.484 56.446 56.391 59.129 59.879 58.916 57.946 57.059 56.226 55.419 55.246 55.281 54.904 54.809 54.739 55.874 56.026 54.461 54.386 54.316 54.264 54.286 54.264 54.685 55.064 56.117 56.521 55.771 53.803 53.635 53.392 53.199 53.019 52.829 52.715 52.841 53.016 52.873 51.039 50.736 52.013 54.825 55.742 55.258 54.83 54.382 53.976 53.143 52.822 52.81 52.953 52.976 53.08 53.211 55.974 59.486 62.896 64.044 63.756 62.579 56.751 53.621 54.061 54.431 54.704 55.076 55.039 54.969 55.299 55.769 56.129 55.944 56.514 56.879 57.481 57.456 57.436 59.796 58.116 57.864 57.976 58.276 61.501 62.501 63.439 62.764 61.954 59.576 58.281 58.329 58.441 58.606 58.494 58.476 58.471 58.469 58.659 59.106 58.939 59.116 59.281 59.394 59.524 60.451 59.314 59.354 59.741 59.844 68.244 69.341 70.481 69.301 67.184 60.646 60.691 60.439 60.444 60.506 60.519 60.606 60.741 60.724 66.839 67.869 66.629 60.931 60.781 60.831 61.064 61.109 61.069 60.921 61.541 60.846 60.976 62.521 66.526 67.709 67.089 65.369 60.806 61.974 60.601 60.599 60.719 60.756 60.689 60.581 60.614 60.859 60.609 60.506 60.541 60.551 60.541 60.511 60.606 60.689 60.711 60.714 60.651 61.129 60.384 65.879 66.121 60.636 60.864 60.584 62.564 60.634 60.526 60.556 60.511 60.556 60.456 60.466 60.421 60.494 60.076 60.344 59.806 59.411 59.391 59.339 59.386 59.811 59.794 60.779 62.964 64.654 65.006 59.429 59.459 59.444 61.386 59.364 58.866 58.719 58.639 58.691 58.729 58.736 58.711 58.659 58.614 58.599 58.711 58.769 60.194 61.764 59.576 58.631 58.599 65.336 68.086 67.764 58.609 58.496 58.436 58.221 58.206 58.214 58.189 58.156 58.074 57.976 57.896 58.031 58.059 58.011 57.921 57.909 57.846 57.756 57.716 57.719 62.619 63.129 60.511 57.456 57.599 57.719 57.774 57.829 58.166 59.061 57.801
72.194 71.864 71.531 71.216 66.016 65.996 65.996 66.004 66.006 66.046 66.076 66.099 70.251 75.416 69.021 66.794 66.846 66.834 66.899 65.716 65.646 65.621 65.609 65.566 65.516 65.524 65.461 65.389 65.344 65.281 65.249 65.224 65.196 65.136 65.104 64.991 64.974 64.946 69.809 73.291 73.271 73.241 67.206 64.999 64.996 65.099 65.329 64.911 64.886 65.199 65.891 66.179 65.634 71.394 75.124 76.379 76.551 75.321 73.946 66.459 66.026 65.009 64.184 64.189 64.504 64.086 64.009 64.001 64.376 64.131 70.906 77.584 81.359 80.284 73.184 63.961 63.759 63.771 63.764 64.454 64.051 66.791 64.029 64.141 64.126 63.671 63.624 63.431 63.394 63.309 63.281 63.379 64.199 63.619 63.516 63.534 63.451 63.559 64.364 63.794 63.481 63.476 63.399 63.389 63.289 63.196 64.344 63.376 63.044 63.006 62.979 62.944 62.904 62.846 62.884 63.994 63.529 62.611 62.549 62.526 62.446 62.391 62.311 62.326 62.224 62.406 63.086 63.736 62.951 61.619 61.641 61.161 68.826 71.006 71.239 71.796 71.836 71.636 71.364 71.081 70.894 70.424 70.306 69.981 70.189 68.884 68.351 68.101 65.281 62.664 65.666 65.446 60.906 59.861 63.834 63.626 59.589 59.684 59.521 59.474 59.486 59.441 58.904 63.594 60.231 59.586 58.329 58.231 58.154 58.111 57.406 57.324 57.304 57.291 57.219 56.569 59.026 57.334 56.559 56.401 59.366 59.689 58.281 57.964 57.591 56.146 55.526 56.899 55.254 55.036 54.909 54.979 55.246 55.021 54.394 54.316 54.251 54.281 54.474 54.109 54.22 54.764 55.359 55.446 55.669 54.349 53.693 53.452 53.196 59.185 54.564 52.75 52.732 52.79 53.248 51.878 51.51 51.824 53.978 55.779 55.687 55.07 53.585 52.979 52.935 52.802 52.822 52.84 52.91 53.055 53.171 53.266 55.844 62.801 63.939 63.814 62.664 56.236 53.591 53.991 54.379 54.479 54.556 54.659 54.791 55.186 55.691 55.834 55.726 55.896 56.306 56.479 56.751 57.294 57.879 57.734 57.799 57.996 58.171 59.529 61.691 62.631 62.314 61.431 58.974 58.136 58.206 58.269 58.564 58.731 58.454 58.459 58.476 58.516 59.836 58.964 59.149 59.056 59.404 59.474 60.331 59.229 59.276 59.664 60.751 68.434 69.969 70.221 69.004 66.001 60.641 60.669 60.314 60.381 60.434 60.454 60.561 60.524 62.291 66.816 67.316 65.849 61.319 62.374 61.994 61.576 61.131 60.786 60.859 60.706 60.769 60.764 60.779 61.714 66.764 67.611 66.834 63.604 60.754 60.764 60.481 60.574 60.656 60.664 60.599 60.501 60.501 60.486 60.516 60.534 60.514 60.494 60.611 60.679 60.646 60.734 60.691 60.659 60.601 61.841 61.464 60.649 60.666 60.459 60.451 60.801 61.781 60.541 60.599 60.391 60.419 60.356 60.261 60.876 59.666 59.529 59.544 59.531 59.349 59.291 59.131 62.816 59.254 59.664 59.599 59.544 59.496 59.481 59.444 59.226 61.196 59.134 58.831 58.634 59.259 59.076 58.676 58.684 58.811 59.871 58.576 58.631 58.696 58.751 58.794 58.789 58.866 58.649 58.634 66.169 67.659 68.396 67.754 62.309 58.524 58.441 58.274 58.146 58.141 58.134 58.124 58.056 57.994 59.021 57.841 57.966 57.979 57.859 57.799 57.751 57.689 57.664 57.624 60.094 63.091 62.746 57.634 57.634 58.614 57.806 58.104 58.686 59.126 57.726
72.206 71.871 71.549 71.231 69.289 68.794 65.966 65.981 65.979 66.021 66.056 66.101 66.371 69.391 66.764 66.819 66.849 71.939 75.274 70.769 65.669 65.649 65.651 66.061 65.566 65.489 65.406 65.301 65.184 65.151 65.029 65.086 65.079 65.024 64.984 64.911 64.929 64.914 68.834 73.284 73.286 73.234 68.159 64.996 64.994 65.149 66.511 64.901 64.894 64.929 64.924 65.189 65.519 74.239 75.474 77.176 76.669 74.994 72.801 66.451 65.756 64.504 64.151 64.149 64.089 64.044 64.076 65.339 66.706 64.196 70.426 75.546 80.154 78.279 73.716 65.749 63.764 63.761 63.739 63.936 63.881 65.714 63.906 63.894 63.804 63.684 63.721 63.361 63.321 63.456 63.689 63.704 64.771 63.544 63.496 66.324 63.486 63.874 64.259 64.364 64.146 63.844 63.979 63.676 63.324 63.266 63.219 63.171 63.089 62.996 62.986 63.974 63.016 62.819 62.784 62.739 62.706 62.644 62.579 62.494 62.431 62.389 62.339 62.304 62.244 62.474 62.659 64.554 63.994 61.479 61.619 61.256 69.059 69.916 70.231 70.534 70.764 71.029 71.376 71.641 71.811 71.814 71.579 71.261 71.001 70.231 69.629 69.411 69.164 69.279 68.611 68.321 66.841 65.904 64.951 63.374 59.909 59.811 59.781 59.771 59.751 59.661 58.989 64.854 66.816 66.584 66.361 61.106 58.371 58.461 57.496 57.404 57.694 57.569 57.431 56.649 56.744 57.006 56.666 57.146 59.516 59.491 57.974 57.884 56.776 55.849 55.611 57.314 56.474 54.964 54.949 55.426 54.946 56.566 54.669 55.076 55.051 54.306 57.061 54.151 54.249 54.389 55.044 56.019 56.275 55.647 54.03 53.493 53.291 56.171 57.285 52.845 52.752 52.826 53.115 52.693 51.859 52.216 53.298 54.999 56.541 54.861 53.343 53.091 52.918 52.826 52.837 52.833 52.915 53.088 53.199 53.249 55.381 62.736 63.871 63.891 62.734 58.856 53.626 53.984 54.364 54.454 54.519 54.624 54.734 54.881 55.044 55.219 55.304 55.461 55.636 55.776 55.991 56.429 56.801 57.251 57.849 59.196 57.844 57.851 60.134 61.791 61.276 59.276 58.389 58.046 58.429 58.179 58.404 58.939 59.356 58.444 58.496 58.541 58.559 59.881 60.889 58.989 59.404 59.481 60.011 59.189 59.679 62.761 63.374 69.036 69.576 69.386 68.366 61.966 60.664 60.369 60.254 60.324 60.366 60.371 60.654 60.521 65.126 67.139 66.921 64.474 60.616 61.544 61.386 61.491 61.141 60.776 60.719 60.684 60.681 61.461 61.389 60.896 64.229 67.021 67.494 66.566 61.591 61.899 60.554 60.409 60.534 60.606 60.596 60.531 60.486 60.476 60.439 60.449 60.509 60.619 61.294 60.666 60.569 60.486 60.646 61.139 60.721 60.504 61.729 60.986 60.436 60.464 60.449 60.634 61.059 60.411 60.791 62.491 61.094 60.721 60.726 62.009 59.961 59.494 59.346 59.454 59.501 61.516 64.921 65.614 65.441 59.441 59.411 59.389 59.466 59.364 60.144 59.924 58.779 58.776 58.559 58.631 58.654 58.651 58.651 58.784 60.294 59.396 58.804 58.686 58.719 58.746 58.786 58.851 67.041 67.544 67.254 67.914 68.599 69.206 68.421 67.469 58.814 58.524 58.649 58.254 58.059 58.079 58.071 58.036 58.091 58.626 57.934 57.864 57.879 57.841 57.761 60.436 57.636 57.604 57.621 57.606 57.586 58.674 61.781 57.771 57.594 57.641 57.641 57.656 57.621 57.601
67.836 67.374 67.346 66.994 68.784 68.339 65.936 65.959 65.979 66.021 66.064 66.101 66.151 67.536 66.679 66.816 66.849 70.081 73.481 70.279 65.684 65.661 65.651 65.824 65.646 65.424 65.164 65.036 65.019 64.989 64.929 64.939 64.876 64.909 64.889 65.401 65.001 66.199 68.364 73.306 73.274 73.239 66.524 65.021 65.091 65.219 65.384 64.871 65.501 66.381 64.926 64.896 64.689 74.811 76.579 76.881 75.931 74.724 69.311 67.994 65.461 64.299 64.124 64.094 64.064 63.961 63.921 64.539 66.651 63.834 64.836 74.926 75.149 73.494 67.966 63.731 63.741 63.736 63.719 63.944 64.509 68.726 66.921 63.806 63.976 63.849 63.426 63.404 63.614 63.606 65.009 63.504 64.671 63.491 63.511 64.069 63.521 65.894 67.026 64.244 64.406 64.066 63.649 63.656 65.251 63.991 63.396 63.259 63.101 63.026 62.989 62.909 62.929 63.466 63.581 62.681 63.114 62.631 62.546 62.496 62.444 62.386 62.336 62.264 62.334 62.514 63.049 63.224 61.541 64.081 64.376 61.099 68.126 70.559 68.956 69.224 69.481 69.776 70.889 70.306 70.514 70.831 71.011 71.329 71.634 71.001 70.946 70.731 70.524 70.176 69.919 70.036 69.374 70.086 68.831 68.559 68.314 68.426 64.966 61.246 59.784 59.814 59.556 66.324 67.331 67.751 66.616 59.689 59.014 57.681 57.581 57.496 58.541 57.799 58.561 57.471 57.196 57.066 56.849 56.774 56.971 56.821 58.279 56.661 56.034 55.789 55.701 57.269 56.016 54.999 54.974 55.321 55.014 56.084 56.409 55.029 54.669 54.379 55.829 54.231 54.066 54.101 55.09 55.853 56.334 55.261 53.806 53.567 53.357 53.171 53.021 52.931 52.785 52.865 52.872 52.724 52.36 53.203 52.156 53.324 54.193 53.95 53.658 53.965 52.94 52.858 52.834 53.591 52.918 53.075 53.289 53.996 61.826 62.639 63.809 63.984 62.971 60.531 60.674 60.749 59.061 54.414 54.484 54.586 54.706 54.846 54.994 55.116 55.209 55.336 55.469 55.631 55.881 56.591 56.794 57.084 57.084 60.364 59.494 57.891 57.896 60.441 58.764 58.001 58.611 59.484 57.999 58.204 58.311 58.334 58.481 58.549 61.146 58.834 58.571 58.601 60.051 60.451 60.189 60.914 59.056 59.129 61.331 62.931 67.244 68.811 69.789 69.424 67.974 61.911 60.436 60.266 60.196 60.254 60.301 60.579 60.471 60.486 66.166 67.469 66.604 62.834 60.571 60.551 60.556 60.694 60.959 60.744 60.654 60.624 60.736 61.334 60.706 60.786 60.861 66.309 67.294 67.239 66.326 60.754 60.819 60.464 61.756 60.496 60.544 60.506 60.461 60.434 60.391 60.516 62.161 60.934 60.646 60.451 65.339 61.031 60.481 62.811 62.791 61.019 60.399 61.454 61.804 60.431 60.564 61.291 60.251 60.226 60.771 64.031 63.426 59.691 59.829 59.576 59.416 59.371 59.404 59.949 64.211 65.311 65.989 65.986 65.286 59.866 59.304 59.061 59.724 60.986 58.711 58.744 58.691 58.499 58.559 58.611 59.029 58.629 58.576 58.524 58.599 58.671 58.684 58.711 58.721 58.724 59.086 66.869 68.091 68.506 68.569 68.876 69.414 69.119 69.084 68.159 67.239 58.621 58.494 58.371 58.136 57.991 58.006 57.991 59.094 57.879 57.796 57.696 57.799 57.784 57.729 57.669 57.619 57.624 57.589 57.564 57.591 60.499 63.219 57.486 57.536 57.576 57.554 57.544 57.531 57.476
66.016 65.984 65.946 65.924 66.099 66.056 65.919 65.959 65.991 66.019 66.051 66.074 66.134 66.481 66.686 66.879 66.911 68.301 72.201 70.366 65.694 65.674 66.139 66.334 65.581 65.554 73.264 73.264 73.264 73.274 73.269 73.251 73.259 73.256 73.249 73.261 73.264 73.271 73.271 73.249 66.611 64.796 64.934 65.066 65.171 65.274 64.904 64.814 66.521 65.464 65.576 65.019 65.889 75.891 76.454 76.829 75.641 74.426 67.144 66.321 65.074 64.136 64.139 64.096 63.986 63.976 63.934 64.161 66.341 63.744 65.066 72.229 64.946 63.734 63.704 63.719 63.731 63.719 73.964 70.086 72.359 77.379 76.741 71.121 63.499 63.414 63.526 63.604 64.874 63.569 63.534 63.514 63.599 63.479 63.491 63.824 63.521 72.009 72.404 71.006 70.481 68.506 65.359 65.946 65.371 63.449 63.421 63.384 63.446 63.196 63.226 63.084 62.936 62.839 62.774 62.726 62.626 62.816 62.476 62.671 62.374 62.334 62.316 62.241 62.389 62.631 62.651 65.601 62.586 61.654 62.026 61.074 61.289 61.061 61.044 61.864 62.094 65.319 67.986 69.009 69.259 69.511 69.764 70.051 71.141 69.706 69.984 70.284 70.621 70.874 71.029 70.959 70.694 70.456 70.101 69.911 70.146 70.276 69.044 68.634 69.934 68.259 65.149 66.754 67.556 67.424 66.411 58.966 58.846 57.734 57.649 57.601 57.839 59.726 64.979 59.374 57.606 57.209 57.046 57.011 57.099 57.071 57.641 56.411 56.306 55.904 55.841 57.089 58.029 55.009 55.001 55.849 55.519 54.969 55.974 54.939 54.811 55.159 54.426 54.239 54.076 54.06 55.198 56.017 55.865 56.159 54.12 53.628 53.428 53.235 53.066 52.972 52.811 52.837 52.978 52.876 52.219 52.25 52.335 51.751 53.897 54.205 53.182 53.308 53.031 52.891 52.853 53.369 53.126 53.093 53.239 53.304 53.436 62.594 63.714 64.134 64.091 61.694 61.809 61.919 60.654 54.374 54.451 54.554 54.664 54.814 54.951 55.061 55.176 55.281 55.406 55.564 55.904 56.339 56.394 56.899 57.021 57.114 57.054 56.954 58.241 58.091 59.426 59.464 60.134 59.014 58.071 58.134 58.239 58.286 58.304 58.521 58.871 61.034 58.579 58.596 58.649 58.739 58.819 58.891 58.994 59.066 59.724 61.794 67.719 68.871 69.874 68.726 66.491 60.214 60.356 60.149 60.136 60.199 60.641 60.336 60.479 62.211 66.489 67.546 66.259 60.694 60.541 60.489 60.496 60.491 60.681 62.061 60.681 61.121 60.591 60.566 60.621 60.701 60.791 60.884 66.606 67.731 67.001 64.781 61.099 60.696 60.339 61.034 60.444 60.474 60.421 60.376 60.416 62.529 60.359 60.396 61.356 67.139 66.896 65.786 60.279 60.389 62.736 61.376 60.291 60.866 62.144 60.406 60.254 60.166 60.209 60.074 59.951 63.566 63.564 59.659 59.869 59.949 59.879 59.269 63.691 65.059 65.734 66.241 65.526 64.856 61.786 58.979 59.191 58.786 58.744 59.949 60.506 60.936 58.534 58.539 58.576 58.616 58.574 58.534 58.486 58.589 58.656 58.709 58.729 58.719 59.076 60.749 67.454 68.121 68.789 69.454 69.839 69.319 68.671 68.404 69.326 68.861 67.929 67.266 58.604 58.406 58.181 57.989 57.926 57.936 57.916 57.871 57.794 57.696 57.626 57.714 57.731 57.659 57.589 57.589 57.566 57.531 57.511 58.319 58.691 57.421 57.421 60.244 57.431 57.414 57.396 57.344
65.999 65.966 65.946 65.901 65.906 65.909 65.901 65.939 65.966 66.001 66.029 66.059 66.141 66.934 67.114 66.976 66.984 70.916 73.839 72.881 65.686 65.679 65.656 66.709 65.861 65.564 73.294 73.286 73.289 73.301 73.316 73.331 73.291 73.289 73.301 73.289 73.296 73.299 73.306 73.274 65.576 64.884 65.009 65.129 65.249 65.384 64.834 64.769 66.811 66.971 64.966 65.021 71.876 75.209 76.564 76.619 75.359 74.024 67.586 66.099 64.806 64.079 64.096 64.004 63.964 63.906 63.971 65.214 64.234 63.726 68.036 69.631 70.176 63.746 63.706 63.716 63.744 68.021 74.849 70.754 73.236 80.089 79.271 74.349 63.511 63.449 63.359 63.664 67.879 63.539 63.564 63.674 63.566 63.474 63.474 64.216 65.264 72.779 72.536 72.639 71.926 71.646 71.366 71.074 70.569 69.286 66.439 64.994 64.174 63.194 63.149 63.129 63.189 64.054 63.329 62.801 62.664 62.564 62.471 62.721 63.759 62.241 62.276 62.189 62.386 62.544 62.771 65.281 64.541 61.439 61.056 61.364 61.011 61.171 61.356 61.019 60.996 61.664 62.536 61.266 61.431 64.149 67.051 71.154 68.876 68.459 68.669 69.011 70.279 69.654 69.749 70.069 70.321 70.789 70.944 71.021 70.916 70.619 70.356 70.066 69.899 71.444 68.789 68.036 67.901 67.516 67.204 65.224 62.676 58.861 58.434 57.694 57.666 62.784 64.831 57.541 57.579 57.326 57.261 57.194 57.156 57.176 56.956 56.716 56.599 56.081 55.964 57.589 56.341 55.059 55.031 57.296 55.444 55.151 54.971 54.934 55.799 56.681 54.489 54.484 54.576 54.071 54.997 56.714 56.794 55.299 54.268 56.955 55.826 53.32 53.067 53.004 52.948 52.775 52.908 52.778 52.196 53.448 53.216 52.364 52.667 53.984 53.314 53.299 52.973 52.909 52.866 52.894 52.914 53.099 53.224 53.354 53.329 62.511 64.029 63.774 63.714 61.954 61.839 61.766 61.021 54.354 54.411 54.501 54.609 54.766 54.894 55.006 55.121 55.244 55.356 55.506 55.911 56.199 56.141 57.181 56.986 56.969 57.489 56.946 56.796 57.831 57.999 58.351 58.581 58.996 58.206 58.074 58.114 58.214 58.266 58.304 58.601 58.976 58.564 58.616 58.639 58.714 58.786 58.866 58.951 59.001 59.661 59.986 67.991 69.179 69.631 69.349 64.731 60.221 60.124 60.026 60.091 60.139 60.159 60.304 60.454 63.879 66.806 67.256 65.946 60.741 60.446 60.446 60.436 60.406 61.139 65.226 64.404 60.546 60.479 60.506 60.566 60.619 60.756 62.139 63.279 66.869 67.621 66.764 61.424 60.806 60.379 60.176 60.309 60.391 60.401 60.319 60.246 61.601 61.541 60.549 61.251 66.044 67.159 66.576 64.464 60.276 60.656 60.266 60.434 60.209 60.179 60.171 60.164 60.446 60.326 59.884 59.361 60.681 59.696 59.666 59.886 59.596 61.646 64.801 65.466 66.089 65.804 65.134 63.664 59.204 58.876 59.009 58.986 58.609 58.579 60.899 59.611 59.071 58.959 58.571 58.576 58.551 58.514 58.476 58.664 58.654 58.684 58.726 58.796 59.204 67.596 67.731 68.386 69.044 69.729 69.741 69.056 68.401 67.744 67.726 68.679 69.451 68.879 68.046 68.116 58.526 58.559 58.074 57.851 58.651 57.854 57.841 57.774 57.686 57.591 57.619 57.636 57.624 57.644 57.654 57.574 57.539 57.509 57.441 57.506 57.409 57.319 57.339 57.306 57.291 57.296 57.266
65.981 65.949 65.924 65.904 65.889 65.886 65.871 65.906 65.916 65.969 65.994 66.034 66.109 66.581 69.454 67.774 67.079 68.236 73.146 73.621 66.816 65.694 65.656 65.586 65.531 65.446 73.316 73.306 73.306 73.314 73.321 73.299 73.304 73.309 73.299 73.304 73.314 73.319 73.314 73.301 66.149 64.979 65.021 65.144 65.346 65.531 64.821 64.809 66.961 66.701 64.884 64.821 73.619 75.424 76.946 76.944 75.156 72.471 69.541 67.309 64.536 64.011 64.034 63.984 63.999 63.826 64.481 66.319 64.561 63.731 64.266 67.119 67.091 64.196 64.734 63.711 63.754 64.161 70.216 63.881 69.064 78.221 77.871 72.059 63.524 64.084 63.374 63.381 63.294 63.289 63.351 63.786 63.501 63.469 63.444 64.419 69.901 72.401 72.661 72.941 73.021 72.856 72.579 72.926 72.004 71.799 71.501 70.959 70.496 69.426 65.909 64.279 63.831 63.996 62.939 63.036 62.871 63.144 62.824 62.726 62.306 62.179 62.209 62.154 62.381 62.569 65.829 62.554 61.584 61.626 61.671 61.029 61.084 60.946 61.959 61.559 60.946 61.826 61.814 61.076 60.929 62.064 60.824 61.701 62.796 60.379 63.074 66.664 70.609 68.194 68.489 68.719 69.034 69.269 69.761 69.296 70.189 70.351 70.674 70.909 70.966 70.424 69.531 69.286 69.084 68.329 69.244 69.096 66.861 66.569 66.344 65.169 63.984 63.799 63.874 57.234 64.789 64.529 60.844 59.169 57.369 57.424 57.131 56.969 56.746 56.191 63.454 62.104 58.751 57.244 55.201 57.701 55.489 55.754 55.826 55.046 54.786 54.974 54.934 54.511 54.264 57.934 54.333 55.269 55.538 56.28 55.106 55.145 55.374 54.258 55.337 56.143 56.061 52.842 52.863 52.876 52.621 53.631 54.537 53.347 52.184 53.419 53.41 53.579 53.429 53.013 52.878 52.939 52.89 53.046 53.209 53.346 55.199 63.776 63.096 62.644 62.539 60.819 60.684 60.591 60.189 54.321 54.941 54.421 54.526 54.674 54.814 54.946 55.061 55.171 55.304 55.441 55.599 55.786 56.499 57.021 56.851 57.271 56.741 57.361 56.729 56.874 56.984 57.689 57.994 58.164 58.129 58.064 58.044 58.139 58.211 58.291 58.454 58.721 58.591 58.631 58.686 58.724 58.754 58.834 58.879 59.291 59.174 62.156 68.279 69.486 69.641 68.919 63.689 60.191 60.061 59.949 60.026 60.084 60.089 60.266 60.396 65.189 67.139 66.921 64.961 60.409 60.371 60.324 60.816 61.086 62.014 64.841 64.459 60.774 60.446 60.479 60.516 60.624 62.799 61.184 60.724 66.214 67.134 67.449 66.319 61.191 60.376 60.224 60.129 60.264 60.339 60.289 61.021 60.381 61.981 60.279 60.196 62.166 66.356 67.274 66.279 61.966 60.254 60.194 60.219 60.206 60.214 60.236 60.851 61.269 59.616 59.256 59.236 59.589 61.424 59.821 59.824 63.336 65.211 66.214 66.034 65.381 64.699 60.766 59.086 58.929 58.851 58.634 58.576 58.599 58.499 58.446 58.446 58.491 58.506 58.536 58.524 58.521 58.534 58.621 58.659 58.704 58.709 58.786 59.499 67.284 68.101 68.636 69.336 69.939 69.476 68.809 68.126 67.459 63.181 63.469 68.511 69.581 69.571 68.634 67.709 60.721 58.454 58.159 57.979 58.354 58.299 57.776 58.076 57.694 57.606 57.494 57.599 57.651 57.631 57.634 57.589 57.536 57.484 57.391 57.389 57.439 57.294 57.244 57.206 57.191 57.196 57.206
65.949 65.921 65.886 65.876 65.846 65.841 65.831 65.864 65.894 65.939 65.979 66.021 66.064 66.231 74.831 73.576 74.116 73.874 73.026 72.921 66.909 65.701 65.731 66.266 65.596 65.626 73.336 73.326 73.326 73.336 73.344 73.326 73.326 73.339 73.324 73.339 73.354 73.324 72.951 73.289 66.579 64.989 65.021 65.154 65.344 65.261 64.814 64.849 65.324 65.671 64.879 64.711 74.481 75.694 76.901 76.044 74.771 69.994 66.249 65.586 64.306 63.956 63.964 63.876 63.831 64.121 67.639 66.466 63.731 63.696 63.679 63.701 74.676 65.299 65.656 63.751 63.724 76.446 76.749 64.051 65.471 63.891 63.696 64.131 63.531 63.741 63.396 63.359 63.344 63.499 63.409 64.214 63.454 63.454 63.469 63.519 70.936 71.069 71.551 71.806 72.041 72.299 72.546 72.766 72.766 72.696 72.481 72.261 72.424 71.916 71.021 70.701 70.376 69.531 68.444 63.989 64.594 63.316 62.786 62.619 62.304 62.146 62.164 62.204 62.369 62.586 62.429 62.839 61.661 64.734 61.454 61.039 61.046 61.026 62.286 60.944 60.904 61.686 61.394 60.769 60.886 61.319 60.881 60.736 60.646 60.156 59.986 60.064 62.029 61.029 60.246 61.471 65.301 68.096 68.419 68.644 69.964 69.029 69.324 69.576 69.839 69.256 69.374 69.641 69.969 69.994 69.779 69.119 68.159 67.871 67.639 67.384 67.279 66.351 66.619 66.366 66.199 65.996 65.804 65.299 57.629 58.709 57.419 57.236 56.624 59.764 64.051 65.054 64.144 63.366 55.406 55.954 62.494 57.521 56.614 54.841 54.676 54.809 54.699 54.559 54.584 54.241 54.216 54.638 55.251 56.199 57.453 58.241 58.552 60.427 59.681 61.727 58.551 58.296 52.842 52.969 52.963 52.893 53.497 57.4 51.519 52.156 52.94 53.818 54.173 53.072 52.889 52.943 52.934 53.019 53.206 53.331 53.356 62.054 58.569 57.731 56.009 55.176 54.184 54.246 53.981 55.071 54.931 54.474 54.444 54.591 54.726 54.851 54.941 55.074 55.184 55.319 55.501 55.874 56.284 56.594 56.879 57.204 58.016 57.459 56.744 56.914 56.929 57.839 56.884 57.389 58.004 58.134 58.164 58.106 58.211 58.319 58.371 58.451 58.671 59.504 58.679 58.724 58.751 58.769 58.806 59.259 59.249 66.906 68.556 69.734 69.066 67.809 62.334 62.054 59.931 59.884 59.971 60.009 60.041 60.269 60.409 66.146 67.356 66.596 62.891 60.381 60.231 60.209 60.161 60.169 61.474 64.391 64.144 61.524 60.941 60.454 61.471 62.321 62.089 60.714 62.466 63.579 66.451 67.814 61.709 60.436 60.591 62.044 60.149 60.086 60.209 60.229 60.156 61.041 60.044 62.199 60.104 60.134 65.576 67.456 67.036 65.936 60.566 60.286 60.164 60.481 60.229 60.226 60.536 61.314 59.734 59.194 59.149 60.014 60.696 62.726 64.916 65.624 66.149 65.604 64.936 63.331 58.966 59.886 58.931 59.324 58.584 58.629 58.629 58.591 58.454 58.456 58.481 58.486 58.484 58.494 58.474 58.511 58.644 58.694 58.699 58.746 58.814 61.941 67.266 67.949 68.894 69.581 69.899 69.216 68.549 67.854 67.069 58.976 58.794 64.704 67.946 68.914 69.826 69.299 68.354 67.444 58.631 58.319 58.044 57.839 57.696 57.704 57.731 58.931 57.604 57.494 57.431 57.549 57.579 57.576 57.526 57.486 57.434 57.349 57.334 57.361 57.289 57.201 57.139 57.121 57.111 57.126
