ncols 438
nrows 32
xllcorner    428040
yllcorner    430296
cellsize     2
NODATA_value -9999
42.468 42.453 42.457 42.553 42.604 42.642 42.712 42.715 42.745 42.744 43.291 43.257 43.076 42.893 42.983 42.991 42.998 43.023 43.051 43.057 43.1 43.144 43.209 43.258 43.246 43.325 43.377 43.428 43.467 43.54 43.557 43.652 43.777 43.809 43.905 44.038 47.325 50.953 51.485 47.093 44.586 44.542 44.665 44.717 44.829 44.948 45.067 45.135 45.316 45.41 45.634 45.667 45.849 45.935 46.102 46.229 46.357 46.49 47.045 47.551 47.219 47.119 47.119 47.159 47.405 47.543 47.733 47.785 47.91 47.983 48.032 48.581 48.488 48.622 48.862 49.032 49.288 49.53 49.83 50.207 50.412 50.833 51.177 51.58 52.015 52.405 53.056 53.754 53.825 54.554 55.065 57.319 58.455 57.034 58.367 60.217 60.877 59.665 58.579 58.629 59.35 59.059 59.038 58.729 58.509 58.196 58.142 58.14 57.97 58.268 58.286 58.514 58.599 58.638 58.413 59.542 59.851 61.422 62.224 63.283 64.045 64.467 64.943 65.502 66.02 67.682 67.599 67.919 68.088 68.323 68.356 68.407 68.322 68.576 68.684 68.895 69.455 70.072 70.39 70.783 71.082 71.305 71.379 71.527 71.663 71.955 72.357 72.123 73.096 72.618 73.305 73.086 73.437 73.427 73.541 73.631 73.667 73.687 74.58 73.811 74.497 78.981 79.104 80.267 80.473 80.677 80.919 81.132 81.26 75.448 75.319 82.134 82.458 82.479 82.719 82.945 82.857 82.631 82.047 75.597 78.072 77.738 77.461 75.802 75.822 75.895 76.821 75.969 76.154 76.025 76.076 76.102 76.025 75.972 76.013 76.062 76.068 76.132 76.099 76.09 76.004 77.106 76.26 77.097 76.371 75.935 76.805 81.527 82.708 82.52 80.797 76.779 75.582 79.36 86.463 88.79 89.196 89.298 87.309 82.706 88.119 87.367 88.159 85.942 83.374 78.769 85.564 79.852 78.375 76.756 76.714 76.702 76.713 76.7 76.655 76.621 76.595 76.579 76.539 76.54 76.508 76.434 76.414 76.401 76.376 76.34 76.298 76.271 76.229 76.138 76.057 76.106 76.074 76.033 76.001 75.961 75.936 75.875 75.874 75.866 75.805 75.778 75.762 75.724 75.719 75.724 75.674 75.652 75.628 75.624 75.589 75.562 75.541 75.498 75.439 75.379 75.261 75.206 75.118 75.094 75.086 74.9 76.467 83.795 82.463 80.468 85.196 78.098 80.073 80.444 76.846 75.322 75.271 75.274 75.286 75.228 75.194 75.159 75.093 75.062 75.099 75.131 75.201 75.233 75.31 75.359 75.336 75.356 77.726 80.508 80.827 80.986 81.037 80.854 80.634 79.727 75.577 75.45 75.313 75.317 75.293 75.232 75.207 75.124 75.077 75.007 75.186 75.782 76.398 75.138 74.925 74.92 74.934 74.962 74.948 74.976 74.966 74.971 74.985 74.985 75.009 77.615 78.475 76.749 75.42 75.309 75.3 75.296 75.332 75.347 75.346 75.358 76.758 80.381 80.611 80.28 80.368 80.761 -9999 -9999 -9999 -9999 -9999 -9999 -9999 -9999 -9999 -9999 -9999 -9999 -9999 -9999 -9999 -9999 -9999 -9999 -9999 -9999 -9999 -9999 -9999 -9999 -9999 -9999 -9999 -9999 -9999 -9999 -9999 -9999 -9999 -9999 -9999 -9999 -9999 -9999 -9999 -9999 -9999 -9999 -9999 -9999 -9999 -9999 -9999 -9999 -9999 -9999 -9999 -9999 -9999 -9999 -9999 -9999 -9999 -9999 -9999 -9999 -9999 -9999 -9999 -9999 -9999 -9999 -9999 -9999 -9999 -9999 -9999 -9999 -9999 -9999 -9999 -9999 -9999 -9999 -9999 -9999
42.527 42.534 42.558 42.608 42.619 42.664 42.719 42.784 42.805 42.838 42.848 42.797 42.893 42.931 43.007 43.041 43.083 43.102 43.083 43.144 43.162 43.234 43.264 43.314 43.375 43.381 43.434 43.482 43.549 43.541 43.646 43.685 43.815 43.881 43.968 44.156 48.525 49.792 50.059 47.17 44.746 44.545 44.651 44.752 44.805 44.905 45.083 45.172 45.311 45.441 45.473 45.62 45.682 45.86 45.99 46.106 46.28 46.402 46.686 47.555 47.342 47.452 47.244 47.472 47.445 47.537 47.561 47.921 47.881 48.152 47.971 48.185 48.459 48.604 48.786 49.058 49.293 49.516 49.843 50.145 50.403 50.764 51.007 51.645 51.935 52.648 53.359 53.734 54.714 55.197 54.535 55.676 56.764 56.829 57.117 57.621 60.668 59.356 58.782 58.684 59.166 59.42 59.701 59.2 59.405 58.564 58.123 58.106 58.021 57.961 58.32 58.378 58.626 58.758 58.556 59.177 59.968 61.216 63.986 63.993 64.238 64.622 65.038 65.417 66.362 67.619 67.665 68.159 68.154 68.186 68.293 68.369 68.258 68.577 68.658 68.866 69.527 70.094 70.546 70.814 71.109 71.274 71.44 71.575 71.757 71.933 72.009 72.137 72.423 72.474 72.673 72.864 73.072 73.237 73.391 73.54 73.661 73.706 73.706 73.902 74.327 74.419 74.49 74.556 74.653 75.603 76.244 76.319 76.512 75.031 75.212 81.076 81.254 81.409 81.382 81.382 81.51 81.53 77.988 75.541 77.906 77.257 76.241 75.815 75.786 75.821 76.753 76.01 75.984 75.918 75.895 75.793 75.903 75.913 76.023 76.036 76.1 76.103 76.088 75.971 75.944 76.14 76.146 76.287 76.706 75.979 76.465 80.126 81.936 82.877 82.35 78.575 75.564 76.691 78.733 85.76 87.138 81.666 78.371 89.102 88.43 89.896 88.998 86.845 78.585 86.648 87.483 86.768 83.116 76.793 76.689 76.667 76.65 76.684 76.682 76.662 76.617 76.567 76.539 76.52 76.484 76.451 76.426 76.413 76.364 76.312 76.285 76.253 76.202 76.143 76.12 76.109 76.077 76.036 76.034 75.991 75.931 75.873 75.866 75.849 75.801 75.797 75.759 75.701 75.7 75.692 75.674 75.659 75.634 75.591 75.533 75.514 75.473 75.407 75.35 75.311 75.149 75.095 75.24 76.804 76.184 74.869 75.024 76.919 79.193 83.427 82.605 81.158 80.732 80.536 80.176 75.608 75.357 75.314 75.281 75.262 75.191 75.15 75.083 75.014 75.049 75.145 75.161 75.234 75.327 75.359 75.35 75.352 76.439 80.465 80.771 80.97 81.069 80.922 80.714 80.279 76.019 75.466 75.331 75.344 75.326 75.286 75.208 75.182 75.199 78.644 76.76 74.969 79.576 76.624 74.981 74.992 74.996 74.982 75 75.037 75.043 75.028 75.055 75.023 75.036 75.592 77.256 76.224 75.344 75.288 75.281 75.312 75.335 75.348 75.338 75.343 76.226 80.101 80.738 79.942 -9999 -9999 -9999 -9999 -9999 -9999 -9999 -9999 -9999 -9999 -9999 -9999 -9999 -9999 -9999 -9999 -9999 -9999 -9999 -9999 -9999 -9999 -9999 -9999 -9999 -9999 -9999 -9999 -9999 -9999 -9999 -9999 -9999 -9999 -9999 -9999 -9999 -9999 -9999 -9999 -9999 -9999 -9999 -9999 -9999 -9999 -9999 -9999 -9999 -9999 -9999 -9999 -9999 -9999 -9999 -9999 -9999 -9999 -9999 -9999 -9999 -9999 -9999 -9999 -9999 -9999 -9999 -9999 -9999 -9999 -9999 -9999 -9999 -9999 -9999 -9999 -9999 -9999 -9999 -9999 -9999 -9999
42.592 42.607 42.655 42.659 42.734 42.719 42.796 42.833 42.857 42.892 42.91 42.92 42.91 43.001 43.004 43.063 43.111 43.098 43.161 43.168 43.253 43.279 43.293 43.359 43.4 43.427 43.527 43.546 43.61 43.698 43.707 43.772 43.917 43.948 44.016 44.986 45.011 44.519 47.098 45.022 44.404 44.525 44.617 44.768 44.845 44.955 45.041 45.128 45.204 45.338 45.458 45.576 45.633 45.75 45.853 46.085 46.258 46.413 46.647 47.459 47.39 47.277 47.402 47.71 47.24 49.398 48.13 47.625 48.077 48.152 48.441 48.125 48.337 48.631 48.908 49.04 49.357 49.455 49.79 50.185 50.457 50.836 51.11 51.829 52.428 52.791 53.209 53.731 55.388 56.316 54.904 55.212 55.645 56.205 56.572 56.751 60.131 59.229 58.964 58.785 59.035 59.573 60.133 60.35 60.173 59.068 58.321 58.12 58.093 58.059 58.284 58.29 58.648 58.678 58.789 59.063 60.317 61.574 63.1 67.496 67.438 64.769 65.184 65.512 66.484 67.168 67.452 67.746 68.571 68.181 68.275 68.237 68.35 68.52 68.581 68.668 69.379 70.137 70.568 70.834 71.024 71.217 71.419 71.544 71.74 71.89 72.047 72.168 72.386 72.505 72.56 72.702 72.799 72.922 73.154 73.249 73.377 73.572 73.663 73.828 74.02 74.17 74.282 74.38 74.527 74.599 74.67 74.739 74.784 74.895 75.085 75.77 76.794 76.848 76.833 76.783 76.918 76.851 76.931 75.884 75.859 77.417 75.861 75.775 76.163 75.928 75.84 75.892 75.814 76.334 76.377 75.849 75.85 75.887 76.029 76.11 76.14 76.227 76.153 76.074 75.975 75.906 76.473 76.326 77.175 76.683 76.067 75.79 80.375 82.519 82.918 81.833 76.871 75.432 75.382 75.58 84.201 86.296 86.192 83.748 82.577 89.069 88.978 78.924 78.563 85.254 87.06 86.438 85.734 78.637 76.685 76.678 76.689 76.716 76.722 76.695 76.662 76.581 76.534 76.479 76.497 76.46 76.412 76.4 76.372 76.321 76.262 76.263 76.203 76.182 76.129 76.1 76.066 76.024 75.999 75.988 75.95 75.87 75.853 75.819 75.811 75.802 75.784 75.728 75.716 75.664 75.674 75.674 75.617 75.618 75.551 75.502 75.443 75.338 75.231 74.998 74.968 75.059 75.488 76.052 75.237 74.895 75.782 77.984 80.606 81.08 80.984 81.009 80.8 80.602 80.437 77.862 75.465 75.325 75.289 75.271 75.218 75.174 75.093 75.013 75.084 75.128 75.206 75.249 75.303 75.359 75.382 75.448 75.607 79.602 80.753 80.973 81.133 80.982 80.764 80.551 76.428 75.472 75.318 75.376 75.319 75.301 75.224 75.277 76.01 79.837 80.191 81.204 81.936 78.475 75.062 75.04 75.06 75.041 75.036 75.053 75.066 75.079 75.091 75.065 75.072 75.07 76.379 76.666 75.325 75.295 75.289 75.308 75.332 75.329 75.344 75.329 78.202 81.018 81.489 -9999 -9999 -9999 -9999 -9999 -9999 -9999 -9999 -9999 -9999 -9999 -9999 -9999 -9999 -9999 -9999 -9999 -9999 -9999 -9999 -9999 -9999 -9999 -9999 -9999 -9999 -9999 -9999 -9999 -9999 -9999 -9999 -9999 -9999 -9999 -9999 -9999 -9999 -9999 -9999 -9999 -9999 -9999 -9999 -9999 -9999 -9999 -9999 -9999 -9999 -9999 -9999 -9999 -9999 -9999 -9999 -9999 -9999 -9999 -9999 -9999 -9999 -9999 -9999 -9999 -9999 -9999 -9999 -9999 -9999 -9999 -9999 -9999 -9999 -9999 -9999 -9999 -9999 -9999 -9999 -9999 -9999 -9999
42.739 42.67 42.712 42.746 42.705 42.803 42.864 42.874 42.938 42.966 42.939 43.011 43.01 43.022 43.056 43.114 43.142 43.195 43.231 43.242 43.306 43.345 43.359 43.428 43.469 43.517 43.564 43.601 43.674 43.721 43.813 43.815 43.873 44.036 47.167 46.307 47.514 45.66 44.335 44.779 44.358 44.492 44.556 44.731 44.728 44.875 44.97 45.115 45.193 45.228 45.325 45.474 45.573 45.738 45.939 46.123 46.231 46.573 46.497 46.72 46.955 47.496 47.055 47.079 47.272 50.737 50.841 48.453 47.985 49.313 50.089 48.062 48.261 48.569 48.857 48.995 49.293 49.398 49.798 50.101 50.467 50.76 51.054 51.458 52.327 52.848 53.244 53.769 54.152 54.645 54.713 56.687 58.105 56.282 56.535 56.945 58.136 59.875 59.554 58.897 58.866 59.623 60.821 61.12 60.875 60.229 59.074 58.686 58.165 58.132 58.501 58.327 58.544 58.723 58.879 58.634 59.512 60.911 62.077 65.334 65.408 64.809 65.284 65.69 66.148 66.854 67.2 67.582 68.25 68.099 68.151 68.19 68.36 68.391 68.461 68.595 69.193 69.969 70.532 70.766 70.97 71.159 71.365 71.456 71.637 71.839 71.964 72.335 72.281 72.3 72.463 72.723 72.89 73.027 73.191 73.26 73.354 73.412 73.565 73.639 73.762 73.859 74.046 74.16 74.283 74.402 74.554 74.661 74.719 74.889 75.079 75.169 75.244 75.292 75.338 75.321 75.379 75.402 75.428 75.466 75.554 77.462 76.706 76.193 75.832 75.631 75.77 75.636 75.615 75.772 75.745 75.785 75.92 76.318 76.237 76.864 80.696 82.626 79.323 77.7 76.073 75.888 75.81 76.775 76.01 76.265 76.095 75.82 76.802 81.743 82.857 78.763 76.077 75.432 75.379 75.502 76.242 81.461 86.613 88.907 88.081 88.358 88.294 88.139 81.925 81.725 85.039 85.636 82.828 83.462 76.752 76.648 76.676 76.707 76.734 76.67 76.625 76.6 76.57 76.5 76.465 76.439 76.425 76.389 76.371 76.29 76.262 76.233 76.19 76.167 76.12 76.088 76.049 76.013 75.975 75.955 75.929 75.877 75.861 75.848 75.837 75.832 75.763 75.748 75.665 75.699 75.652 75.644 75.625 75.572 75.54 75.368 75.235 75.037 74.9 75.049 75.098 75.215 75.201 75.492 75.133 74.991 75.861 79.707 80.452 80.691 80.907 81.062 80.902 80.691 80.493 77.035 75.484 75.359 75.293 75.242 75.234 75.155 75.124 75.088 75.054 75.139 75.199 75.244 75.31 75.371 75.431 75.499 75.858 80.284 80.657 80.908 81.092 80.973 80.795 80.474 77.151 75.512 75.368 75.372 75.332 75.298 75.253 75.317 76.108 77.043 76.48 79.531 78.09 75.1 75.078 75.074 75.075 75.063 75.099 75.086 75.1 75.099 75.125 75.109 75.092 75.096 75.166 76.473 75.484 75.276 75.318 75.327 75.336 75.338 75.362 75.401 75.714 -9999 -9999 -9999 -9999 -9999 -9999 -9999 -9999 -9999 -9999 -9999 -9999 -9999 -9999 -9999 -9999 -9999 -9999 -9999 -9999 -9999 -9999 -9999 -9999 -9999 -9999 -9999 -9999 -9999 -9999 -9999 -9999 -9999 -9999 -9999 -9999 -9999 -9999 -9999 -9999 -9999 -9999 -9999 -9999 -9999 -9999 -9999 -9999 -9999 -9999 -9999 -9999 -9999 -9999 -9999 -9999 -9999 -9999 -9999 -9999 -9999 -9999 -9999 -9999 -9999 -9999 -9999 -9999 -9999 -9999 -9999 -9999 -9999 -9999 -9999 -9999 -9999 -9999 -9999 -9999 -9999 -9999 -9999 -9999 -9999
43.502 42.812 42.773 42.78 42.873 42.852 42.869 42.928 42.921 43.003 43.014 43.042 43.086 43.144 43.139 43.197 43.215 43.258 43.304 43.313 43.387 43.4 43.442 43.502 43.518 43.588 43.628 43.662 43.764 43.802 43.846 43.912 44.004 44.549 50.799 51.053 49.772 45.709 45.353 44.373 44.421 44.451 44.534 44.631 44.717 44.803 44.862 44.99 45.046 45.227 45.358 45.517 45.638 45.859 47.804 48.558 46.301 45.878 46.277 46.618 46.888 46.959 46.811 46.936 47.13 48.062 48.179 47.555 47.882 49.362 50.582 51.128 48.749 48.544 48.719 48.932 49.138 49.511 49.765 50.235 50.436 50.672 51.079 51.315 51.898 53.064 53.296 53.945 54.3 54.695 54.883 57.392 58.285 56.769 56.7 57.217 57.577 58.016 58.795 59.122 58.989 59.585 60.925 61.383 61.193 60.542 59.581 60.095 59.129 58.27 58.025 58.379 58.4 58.636 58.822 58.761 59.081 59.84 61.396 64.727 65.683 65.084 65.376 65.835 66.259 66.844 67.14 68.361 67.998 68.056 68.109 68.126 68.339 68.34 68.55 69.86 69.2 69.959 70.446 70.623 70.875 71.089 71.233 71.399 71.519 71.747 71.928 72.236 72.752 72.297 72.925 73.655 73.182 72.81 73.123 73.342 73.321 73.368 73.423 73.605 73.791 73.93 73.995 74.046 74.135 74.271 74.369 74.448 74.519 74.75 74.795 74.97 75.037 75.179 75.213 75.305 75.288 75.34 75.396 75.418 75.514 77.759 75.998 75.549 75.694 75.619 75.45 75.524 75.605 75.6 75.7 75.888 76.961 75.912 75.875 76.038 81.917 84.196 85.062 83.715 77.33 76.036 75.833 75.841 75.8 75.776 76.119 75.79 75.856 80.733 77.518 75.49 75.48 78.176 75.499 75.527 75.22 80.435 86.916 86.231 77.459 78.492 84.811 87.509 81.343 81.231 77.866 80.55 80.498 83.095 76.968 76.676 76.645 76.648 76.701 76.681 76.645 76.58 76.55 76.501 76.463 76.442 76.423 76.373 76.357 76.321 76.268 76.21 76.137 76.108 76.095 76.072 76.032 75.996 75.937 75.948 75.928 75.883 75.833 75.825 75.786 75.798 75.75 75.723 75.684 75.659 75.666 75.616 75.574 75.515 75.348 75.158 74.976 74.828 75.017 75.03 75.332 75.665 75.895 75.154 75.095 75.11 75.061 77.85 80.417 80.614 80.808 80.995 80.99 80.784 80.541 79.811 75.651 75.435 75.321 75.239 75.239 75.181 75.126 75.077 75.085 75.144 75.167 75.264 75.271 75.325 75.415 75.482 75.625 78.885 80.603 80.804 81.075 81.03 80.799 80.586 77.03 75.514 75.374 75.378 75.38 75.334 75.274 75.213 76.493 75.746 75.331 75.101 76.951 75.865 75.135 75.129 75.153 75.158 75.144 75.159 75.163 75.224 75.27 75.183 75.113 75.315 75.356 76.949 75.893 75.316 75.316 75.299 75.321 75.335 75.341 75.371 -9999 -9999 -9999 -9999 -9999 -9999 -9999 -9999 -9999 -9999 -9999 -9999 -9999 -9999 -9999 -9999 -9999 -9999 -9999 -9999 -9999 -9999 -9999 -9999 -9999 -9999 -9999 -9999 -9999 -9999 -9999 -9999 -9999 -9999 -9999 -9999 -9999 -9999 -9999 -9999 -9999 -9999 -9999 -9999 -9999 -9999 -9999 -9999 -9999 -9999 -9999 -9999 -9999 -9999 -9999 -9999 -9999 -9999 -9999 -9999 -9999 -9999 -9999 -9999 -9999 -9999 -9999 -9999 -9999 -9999 -9999 -9999 -9999 -9999 -9999 -9999 -9999 -9999 -9999 -9999 -9999 -9999 -9999 -9999 -9999 -9999
42.838 42.82 42.843 42.854 42.867 42.891 42.918 43.005 43.02 43.069 43.086 43.111 43.14 43.159 43.129 43.263 43.284 43.33 43.363 43.408 43.45 43.489 43.463 43.516 43.568 43.654 43.684 43.724 43.788 43.823 43.912 43.946 44.686 47.846 51.112 50.786 50.247 45.113 44.172 44.297 44.382 44.449 44.508 44.568 44.674 44.759 44.798 44.954 45.113 45.293 45.396 45.47 46.826 49.59 49.645 49.319 47.541 45.201 45.597 46.276 46.628 46.921 47.094 47.078 46.926 46.957 47.628 47.525 47.747 50.467 51.712 51.317 50.536 51.477 50.337 48.96 49.18 49.396 49.672 50.143 50.509 50.792 51.035 51.579 53.438 55.184 53.272 53.688 54.303 54.702 55.959 55.884 57.049 56.45 56.468 57.015 57.395 57.55 58.069 59.201 59.145 59.529 60.749 61.564 61.371 60.911 60.061 59.43 59.408 58.326 58.112 58.19 58.438 58.596 58.804 58.926 59.154 59.301 61.154 62.876 65.945 65.788 65.594 66.01 66.376 66.809 67.202 68.175 67.908 68.006 67.933 68.177 68.381 68.449 68.801 69.67 72.876 72.837 71.575 70.848 71.561 71.594 71.131 71.328 71.593 71.804 71.942 72.814 73.098 72.315 72.367 72.514 72.65 72.768 72.913 73.423 73.687 73.242 73.311 73.398 73.571 73.814 73.822 73.994 74.166 74.287 74.402 74.457 74.484 74.614 74.682 74.761 74.869 74.959 75.052 75.153 75.225 75.277 75.323 75.339 75.461 75.458 75.551 75.577 75.446 75.395 75.427 75.51 75.586 75.658 76.662 76.316 75.615 75.718 75.781 75.799 82.107 85.007 86.047 85.915 80.666 76.101 75.856 75.737 76.313 76.68 75.916 75.882 75.773 75.561 75.679 76.885 80.371 81.276 76.518 75.268 75.297 75.158 77.363 82.59 80.808 82.505 80.026 86.302 80.259 81.622 83.078 77.951 85.597 85.825 79.325 76.644 76.641 76.643 76.69 76.73 76.65 76.62 76.549 76.495 76.452 76.428 76.411 76.344 76.351 76.298 76.269 76.184 76.148 76.118 76.077 76.053 76.015 75.965 75.945 75.947 75.911 75.889 75.847 75.8 75.765 75.744 75.712 75.72 75.672 75.678 75.627 75.573 75.393 78.034 76.431 74.989 75.03 74.956 75.081 75.235 75.08 75.113 74.958 74.963 74.997 74.995 75.115 75.57 79.193 80.498 80.737 80.942 81.052 80.872 80.662 80.493 79.408 75.436 75.234 75.22 75.256 75.215 75.17 75.082 75.11 75.148 75.208 75.236 75.267 75.317 75.399 75.454 75.588 78.744 80.59 80.823 81.06 81 80.842 80.589 76.961 75.496 75.459 75.367 75.385 75.366 75.304 75.264 75.16 75.122 75.184 75.107 75.285 75.283 75.156 75.267 75.266 75.315 75.725 75.37 75.447 76.41 76.683 78.755 79.271 79.21 80.112 76.8 75.454 75.286 75.31 75.355 75.393 75.359 75.35 -9999 -9999 -9999 -9999 -9999 -9999 -9999 -9999 -9999 -9999 -9999 -9999 -9999 -9999 -9999 -9999 -9999 -9999 -9999 -9999 -9999 -9999 -9999 -9999 -9999 -9999 -9999 -9999 -9999 -9999 -9999 -9999 -9999 -9999 -9999 -9999 -9999 -9999 -9999 -9999 -9999 -9999 -9999 -9999 -9999 -9999 -9999 -9999 -9999 -9999 -9999 -9999 -9999 -9999 -9999 -9999 -9999 -9999 -9999 -9999 -9999 -9999 -9999 -9999 -9999 -9999 -9999 -9999 -9999 -9999 -9999 -9999 -9999 -9999 -9999 -9999 -9999 -9999 -9999 -9999 -9999 -9999 -9999 -9999 -9999 -9999 -9999
43.626 43.631 42.906 42.905 42.905 42.978 43.03 43.067 43.123 43.164 43.16 43.116 43.197 43.237 43.271 43.281 43.335 43.408 43.441 43.472 43.472 43.567 43.6 43.591 43.675 43.678 43.693 43.765 43.81 43.844 44.086 45.024 45.461 44.792 45.724 45.689 45.53 44.477 44.175 44.241 44.329 44.394 44.46 44.494 44.648 44.773 44.916 45.016 45.164 45.204 47.027 48.234 48.237 49.742 49.681 47.25 48.84 45.159 45.154 46.063 46.784 47.101 47.383 47.828 47.637 48.009 47.486 48.334 48.181 47.6 48.446 48.671 48.347 51.313 51.824 49.763 50.569 49.833 50.566 50.357 50.468 50.528 51.012 51.39 53.362 54.262 52.981 53.429 54.254 56.748 57.261 55.901 56.052 58.046 59.911 56.908 57.067 58.619 59.417 59.367 59.297 59.655 62.235 62.16 61.549 61.236 60.539 59.875 59.263 58.537 58.363 57.981 58.381 58.499 58.766 58.853 58.836 59.148 60.283 62.015 63.751 66.089 65.912 66.136 66.606 66.906 67.188 68.256 67.825 67.902 67.886 68.151 68.529 68.702 72.351 72.556 77.156 71.476 70.705 70.708 70.811 71.17 71.15 71.438 72.553 72.808 71.942 72.079 72.346 72.244 72.464 72.562 72.658 72.72 73.008 73.019 73.13 73.27 73.351 73.512 73.566 73.713 73.721 73.764 73.863 74.109 74.166 74.22 74.46 74.573 74.582 74.775 74.907 74.997 75.008 75.062 75.185 75.186 75.192 75.292 75.426 75.364 75.365 75.226 75.331 75.323 75.416 75.523 76.415 76.982 75.575 75.409 75.357 75.589 75.676 75.652 81.242 84.822 85.706 85.526 79.354 76.013 75.937 75.695 75.675 76.163 75.621 75.919 75.612 75.511 76.453 81.503 82.712 81.905 79.959 75.44 75.249 78.52 81.042 85.702 79.94 81.414 82.89 84.707 84.671 84.273 86.582 87.035 85.477 81.605 85.018 81.446 76.73 76.613 76.619 76.689 76.647 76.559 76.545 76.486 76.474 76.416 76.411 76.376 76.316 76.319 76.251 76.176 76.152 76.123 76.058 76.051 75.995 75.968 75.97 75.954 75.87 75.873 75.832 75.802 75.827 75.769 75.704 75.681 75.663 75.596 75.577 78.356 81.34 83.514 84.707 79.376 77.984 77.377 75.349 75.07 74.836 74.905 74.918 74.923 74.901 75.071 75.172 75.26 76.483 80.309 80.657 80.821 81.05 80.951 80.724 80.608 80.169 75.595 75.271 75.251 75.236 75.241 75.191 75.096 75.133 75.149 75.19 75.251 75.289 75.314 75.375 75.435 75.551 78.907 80.564 80.729 80.949 81.077 80.858 80.633 80.284 75.526 75.461 75.394 75.402 75.369 75.294 75.262 75.253 75.151 75.147 75.071 75.221 75.253 75.423 77.829 75.506 79.305 79.27 79.728 80.211 80.271 80.222 80.331 80.364 80.366 80.412 76.908 75.3 75.303 75.444 76.573 75.458 75.368 -9999 -9999 -9999 -9999 -9999 -9999 -9999 -9999 -9999 -9999 -9999 -9999 -9999 -9999 -9999 -9999 -9999 -9999 -9999 -9999 -9999 -9999 -9999 -9999 -9999 -9999 -9999 -9999 -9999 -9999 -9999 -9999 -9999 -9999 -9999 -9999 -9999 -9999 -9999 -9999 -9999 -9999 -9999 -9999 -9999 -9999 -9999 -9999 -9999 -9999 -9999 -9999 -9999 -9999 -9999 -9999 -9999 -9999 -9999 -9999 -9999 -9999 -9999 -9999 -9999 -9999 -9999 -9999 -9999 -9999 -9999 -9999 -9999 -9999 -9999 -9999 -9999 -9999 -9999 -9999 -9999 -9999 -9999 -9999 -9999 -9999 -9999 -9999
43.312 43.129 42.948 42.971 42.99 43.012 43.056 43.128 43.116 43.114 43.198 43.244 43.232 43.258 43.283 43.371 43.367 43.442 43.493 43.555 43.592 43.61 43.653 43.63 43.713 43.773 43.787 43.845 43.908 44.784 45.154 44.111 43.928 43.955 43.946 43.948 44 44.059 44.189 44.2 44.259 44.308 44.423 44.559 44.673 44.834 47.042 47.122 47.66 45.098 45.122 45.605 49.073 46.685 48.703 50.823 51.39 47.899 45.393 45.737 46.332 47.065 47.245 47.461 47.645 48.33 47.964 48.19 48.357 48.074 48.689 48.876 48.373 49.77 49.12 50.948 51.11 51.497 51.725 52.106 50.809 50.671 51.036 51.398 51.757 53.122 54.511 53.813 54.6 54.826 55.553 55.965 55.755 58.099 57.426 56.646 58.272 60.278 60.527 59.587 59.457 59.413 62.079 61.152 61.604 61.154 60.95 60.122 59.524 58.599 58.512 58.214 58.159 58.562 58.716 58.783 58.949 59.251 59.709 61.597 62.901 64.895 66.054 66.595 66.753 67.011 67.882 67.774 67.82 67.772 67.826 68.375 68.832 68.835 70.486 78.512 76.656 71.78 74.336 71.653 71.186 71.178 71.076 71.297 71.326 71.45 72.016 72.434 72.328 72.388 72.376 72.472 72.643 72.831 72.902 73.021 73.103 73.317 73.395 73.763 74.198 73.934 73.765 73.898 73.982 74.104 74.11 74.132 74.297 74.271 74.454 74.569 74.698 74.738 74.8 74.993 75.144 75.183 75.084 75.083 75.089 75.161 75.211 75.255 75.283 75.358 75.508 76.935 76.183 75.343 75.221 75.569 79.374 75.547 75.584 75.614 76.514 77.461 82.163 83.577 76.679 76.864 75.936 75.761 75.609 75.567 75.483 75.586 75.67 75.501 75.815 79.71 81.798 82.576 81.637 77.388 75.308 76.161 76.964 78.794 77.957 76.945 77.279 79.624 84.429 84.157 80.145 82.186 85.879 80.448 84.516 81.034 78.339 76.604 76.6 76.611 76.563 76.494 76.501 76.499 76.474 76.45 76.406 76.34 76.326 76.305 76.264 76.188 76.131 76.131 76.044 76.015 76.007 75.977 75.984 75.932 75.924 75.879 75.839 75.838 75.801 75.775 75.705 75.639 75.653 75.481 76.253 77.676 82.571 86.013 87.533 83.183 81.588 80.868 75.778 76.475 75.279 74.73 74.825 74.902 74.996 75.259 75.155 75.257 76.369 80.244 80.518 80.729 80.872 80.998 80.895 80.63 80.506 79.397 75.323 75.257 75.265 75.274 75.215 75.103 75.091 75.156 75.193 75.233 75.271 75.325 75.365 75.384 75.451 76.877 80.456 80.767 80.986 81.107 80.961 80.641 80.29 75.549 75.423 75.381 75.381 75.352 75.337 75.296 75.264 75.193 75.214 78.611 79.237 80.182 80.187 80.275 80.284 80.32 80.352 80.37 80.398 80.466 80.524 80.561 80.566 80.578 80.678 80.348 75.374 75.288 75.272 75.698 -9999 -9999 -9999 -9999 -9999 -9999 -9999 -9999 -9999 -9999 -9999 -9999 -9999 -9999 -9999 -9999 -9999 -9999 -9999 -9999 -9999 -9999 -9999 -9999 -9999 -9999 -9999 -9999 -9999 -9999 -9999 -9999 -9999 -9999 -9999 -9999 -9999 -9999 -9999 -9999 -9999 -9999 -9999 -9999 -9999 -9999 -9999 -9999 -9999 -9999 -9999 -9999 -9999 -9999 -9999 -9999 -9999 -9999 -9999 -9999 -9999 -9999 -9999 -9999 -9999 -9999 -9999 -9999 -9999 -9999 -9999 -9999 -9999 -9999 -9999 -9999 -9999 -9999 -9999 -9999 -9999 -9999 -9999 -9999 -9999 -9999 -9999 -9999 -9999 -9999
43.018 43.001 43.119 43.05 43.09 43.035 43.068 43.178 43.205 43.226 43.266 43.259 43.358 43.362 43.399 43.396 43.439 43.494 43.565 43.573 43.609 43.631 43.679 43.738 43.737 43.779 44.247 44.457 44.466 44.341 43.872 43.811 43.84 43.851 43.862 43.942 44.018 44.049 44.066 44.115 44.24 44.32 44.451 44.594 46.571 48.288 48.043 49.019 47.423 45.138 44.673 48.189 50.621 50.729 51.517 51.585 51.684 51.224 45.578 45.416 47.064 46.687 46.92 49.505 48.526 48.659 49.144 48.88 48.854 51.238 51.71 51.843 49.657 51.845 51.328 50.776 50.18 49.873 49.248 50.825 50.771 50.775 51.07 51.386 51.746 52.049 53.816 54.907 54.57 54.782 54.941 55.456 55.814 56.431 56.669 56.76 59.741 60.877 61.664 59.633 59.634 59.589 59.758 60.12 61.593 61.685 61.044 60.431 60.132 58.831 58.573 58.39 58.191 58.445 58.592 58.834 58.878 58.874 59.56 60.533 62.223 64.307 66.838 67.218 66.899 67.09 68.088 67.621 67.741 67.723 67.89 68.717 68.862 69.034 70.9 76.727 76.013 75.012 77.357 77.288 76.26 76.769 76.299 75.328 72.604 71.631 71.848 72.789 72.727 72.449 72.437 72.52 72.661 72.773 72.804 72.961 73.141 73.272 73.438 74.513 74.132 74.337 73.888 73.957 74.024 74.053 74.097 74.149 74.4 74.369 74.487 74.516 74.53 74.646 74.724 74.8 74.83 74.892 74.948 75.015 75.05 75.196 76.278 75.344 75.366 75.884 75.494 75.557 75.687 78.757 79.138 81.508 81.036 75.488 75.5 75.608 75.554 75.512 75.83 75.632 75.61 76.051 75.796 75.811 75.577 75.536 75.469 75.546 76.052 75.558 75.436 75.987 80.824 82.303 82.183 81.033 75.368 75.249 75.27 75.276 75.213 75.218 75.138 76.122 76.546 78.808 85.238 85.442 86.532 85.639 85.707 85.298 79.089 76.609 76.596 76.564 76.573 76.51 76.467 76.464 76.484 76.438 76.386 76.34 76.303 76.292 76.21 76.181 76.144 76.113 76.054 76.021 76.025 75.988 75.987 75.933 75.903 75.877 75.837 75.827 75.771 75.74 75.699 75.59 75.535 76.856 82.499 80.629 86.937 87.111 85.804 83.541 77.106 76.212 75.898 74.937 76.703 74.877 74.904 74.941 75.406 75.291 75.361 75.228 75.324 76.142 80.382 80.657 80.816 81.046 80.933 80.724 80.549 80.347 75.949 75.316 75.241 75.25 75.221 75.141 75.086 75.147 75.169 75.235 75.274 75.329 75.354 75.389 75.457 75.613 80.421 80.652 80.924 81.129 80.951 80.741 80.453 76.319 75.391 75.378 75.395 75.378 75.355 75.319 75.245 75.179 75.142 79.156 80.384 80.413 80.379 80.446 80.45 80.544 80.558 80.647 80.626 80.637 80.713 80.762 80.772 80.811 80.8 80.775 75.383 75.359 75.296 75.284 -9999 -9999 -9999 -9999 -9999 -9999 -9999 -9999 -9999 -9999 -9999 -9999 -9999 -9999 -9999 -9999 -9999 -9999 -9999 -9999 -9999 -9999 -9999 -9999 -9999 -9999 -9999 -9999 -9999 -9999 -9999 -9999 -9999 -9999 -9999 -9999 -9999 -9999 -9999 -9999 -9999 -9999 -9999 -9999 -9999 -9999 -9999 -9999 -9999 -9999 -9999 -9999 -9999 -9999 -9999 -9999 -9999 -9999 -9999 -9999 -9999 -9999 -9999 -9999 -9999 -9999 -9999 -9999 -9999 -9999 -9999 -9999 -9999 -9999 -9999 -9999 -9999 -9999 -9999 -9999 -9999 -9999 -9999 -9999 -9999 -9999 -9999 -9999 -9999 -9999
43.028 43.036 43.113 43.133 43.101 43.097 43.172 43.223 43.294 43.273 43.315 43.396 43.379 43.42 43.446 43.449 43.515 43.54 43.621 43.598 43.671 43.687 43.703 43.758 43.904 44.566 45.278 43.929 43.791 43.797 43.733 43.753 43.824 43.841 43.895 43.894 43.977 43.952 44.076 44.209 44.281 44.415 44.503 44.61 46.514 47.575 48.137 47.174 48.245 48.162 50.722 51.412 51.564 51.741 51.753 51.932 51.812 51.471 46.327 48.361 50.624 51.283 52.022 52.615 50.397 49.344 49.212 47.843 50.354 48.433 50.177 52.194 52.025 53.019 51.997 51.977 51.973 51.049 49.941 49.664 50.179 50.637 51.018 51.38 51.92 52.213 54.325 55.469 54.289 54.601 56.967 57.242 56.08 56.843 57.84 58.964 59.943 61.34 61.662 61.82 61.891 59.831 59.686 61 62.034 64.26 61.774 60.749 59.898 59.822 59.937 58.999 58.343 58.335 58.463 58.773 58.879 58.945 59.207 60.27 62.014 63.282 65.87 67.94 67.366 68.928 67.47 67.503 67.532 67.594 68.099 68.961 69.018 69.338 70.036 72.665 70.846 75.238 78.149 78.244 78.212 78.13 78.129 77.845 71.187 71.433 71.782 71.966 73.411 72.814 72.532 72.572 72.616 72.69 72.821 73.076 73.128 75.184 74.966 73.772 74.119 74.042 74.874 74.736 74.889 74.762 74.843 74.431 74.498 75.437 75.008 74.46 74.598 74.618 74.694 74.756 75.09 75.56 74.914 74.949 75.011 75.234 75.462 75.328 75.408 75.35 75.254 77.927 79.066 81.109 81.916 82.482 82.337 78.45 75.395 75.605 75.422 75.375 78.413 76.1 75.471 75.697 75.734 75.749 75.745 75.461 75.504 75.419 75.542 75.737 75.52 75.777 79.114 81.677 82.609 80.84 77.908 76.366 75.156 76.001 78.745 81.975 79.079 75.536 76.165 77.496 83.347 86.836 87.937 85.349 85.413 85.296 77.551 76.599 76.561 76.528 76.515 76.521 76.491 76.453 76.419 76.39 76.394 76.37 76.308 76.264 76.2 76.22 76.162 76.156 76.079 76.025 75.999 75.979 75.97 75.905 75.931 75.832 75.82 75.755 75.693 75.545 75.356 75.356 83.047 87.404 87.352 86.901 86.857 83.352 88.79 81.651 83.316 77.692 75.67 78.148 79.086 75.466 74.916 75.005 75.2 75.389 75.353 75.296 75.316 76.459 79.408 80.537 80.766 80.937 81.014 80.815 80.646 80.417 79.098 75.418 75.321 75.274 75.289 75.184 75.097 75.166 75.222 75.257 75.286 75.305 75.349 75.38 75.435 75.551 79.481 80.441 79.77 79.912 77.146 77.047 75.557 75.485 75.441 75.385 75.41 75.421 75.367 75.365 75.273 75.182 75.09 78.915 80.547 80.601 80.668 80.682 80.761 80.729 80.805 80.842 80.885 80.933 80.928 80.878 80.969 80.996 81.072 81.085 77.621 75.349 75.28 75.324 75.315 -9999 -9999 -9999 -9999 -9999 -9999 -9999 -9999 -9999 -9999 -9999 -9999 -9999 -9999 -9999 -9999 -9999 -9999 -9999 -9999 -9999 -9999 -9999 -9999 -9999 -9999 -9999 -9999 -9999 -9999 -9999 -9999 -9999 -9999 -9999 -9999 -9999 -9999 -9999 -9999 -9999 -9999 -9999 -9999 -9999 -9999 -9999 -9999 -9999 -9999 -9999 -9999 -9999 -9999 -9999 -9999 -9999 -9999 -9999 -9999 -9999 -9999 -9999 -9999 -9999 -9999 -9999 -9999 -9999 -9999 -9999 -9999 -9999 -9999 -9999 -9999 -9999 -9999 -9999 -9999 -9999 -9999 -9999 -9999 -9999 -9999 -9999 -9999 -9999
43.12 43.189 43.147 43.19 43.231 43.18 43.259 43.302 43.303 43.343 43.382 43.379 43.451 43.451 43.459 43.514 43.53 43.619 43.622 43.667 43.679 43.712 43.8 44.587 44.705 43.9 43.745 43.739 43.632 43.654 43.705 43.765 43.847 43.836 43.875 43.88 43.996 44.081 44.192 44.528 44.393 44.507 44.768 44.681 44.533 45.022 48.099 49.474 51.348 51.5 51.68 51.788 51.855 51.984 52.084 52.076 51.913 51.574 50.027 50.05 52.493 49.251 53.384 52.634 52.492 51.602 50.293 51.494 50.187 47.333 48.001 50.116 50.949 52.866 52.038 51.726 52.24 51.489 50.62 50.136 49.954 50.352 50.931 51.43 51.868 52.219 54.357 55.794 55.449 53.894 56.665 56.991 57.061 58.564 59.136 59.657 59.793 60.906 62.157 62.757 62.223 62.209 60.241 60.758 62.615 63.796 62.291 61.5 61.225 61.696 60.465 59.435 58.76 58.249 58.452 58.608 58.824 58.997 59.162 59.552 61.437 62.992 67.047 68.532 70 69.596 67.419 67.452 67.553 67.548 68.092 69.315 69.135 69.549 70.089 70.671 70.247 74.702 77.078 77.066 77.465 77.456 77.749 77.815 71.217 71.436 71.721 72.382 72.498 72.567 72.554 72.49 72.607 72.692 72.804 72.994 73.936 75.627 76.032 73.72 73.766 73.821 73.875 73.915 74.057 74.334 73.98 74.192 74.286 74.413 74.784 74.602 74.956 74.781 74.775 74.793 75.034 75.124 74.982 75.004 75.165 75.603 75.547 75.144 74.983 75.039 75.222 80.076 81.7 82.273 82.367 81.721 81.098 77.79 75.367 75.503 75.544 81.903 82.042 80.203 75.484 75.538 75.623 75.744 75.736 75.64 75.469 75.427 75.43 76.282 75.995 75.733 75.375 79.771 82.202 82.459 81.279 77.112 75.181 75.534 80.636 84.313 81.987 79.202 81.128 76.014 82.715 86.442 87.134 87.745 86.903 82.844 77.065 76.64 76.565 76.485 76.482 76.469 76.445 76.435 76.412 76.388 76.368 76.315 76.292 76.228 76.211 76.218 76.187 76.144 76.106 76.09 76.017 76.008 75.947 75.914 75.843 75.798 75.747 75.655 75.479 75.255 74.978 75.097 86.686 88.471 88.717 88.796 83.311 88.185 87.743 82.239 82.03 78.345 80.438 80.997 79.76 76.951 75.007 75.057 75.163 75.26 75.315 75.278 75.383 75.412 78.748 80.463 80.708 80.819 81.053 80.91 80.723 80.566 79.78 75.568 75.4 75.298 75.29 75.205 75.119 75.131 75.249 75.267 75.264 75.32 75.341 75.392 75.388 75.486 75.517 75.56 75.494 75.523 75.516 75.491 75.494 75.45 75.419 75.397 75.418 75.428 75.361 75.356 75.298 75.249 75.181 79.111 80.795 80.837 80.899 80.903 80.912 80.963 80.973 81.072 81.047 81.095 81.073 81.035 81.026 81.046 80.932 81.004 76.343 75.432 75.613 75.425 75.282 75.289 75.33 -9999 -9999 -9999 -9999 -9999 -9999 -9999 -9999 -9999 -9999 -9999 -9999 -9999 -9999 -9999 -9999 -9999 -9999 -9999 -9999 -9999 -9999 -9999 -9999 -9999 -9999 -9999 -9999 -9999 -9999 -9999 -9999 -9999 -9999 -9999 -9999 -9999 -9999 -9999 -9999 -9999 -9999 -9999 -9999 -9999 -9999 -9999 -9999 -9999 -9999 -9999 -9999 -9999 -9999 -9999 -9999 -9999 -9999 -9999 -9999 -9999 -9999 -9999 -9999 -9999 -9999 -9999 -9999 -9999 -9999 -9999 -9999 -9999 -9999 -9999 -9999 -9999 -9999 -9999 -9999 -9999 -9999 -9999 -9999 -9999 -9999 -9999
43.175 43.198 43.199 43.282 43.26 43.236 43.31 43.305 43.405 43.425 43.504 43.442 43.503 43.522 43.567 43.55 43.586 43.61 43.65 43.698 44.317 44.021 44.141 44.392 43.718 43.635 43.681 43.642 43.64 43.689 43.74 43.803 43.784 43.8 43.926 43.977 44.051 44.157 44.289 44.434 44.515 44.486 44.535 44.687 49.211 49.874 50.821 51.416 51.671 51.849 51.928 52.061 52.2 52.332 52.393 52.33 52.053 51.671 51.359 52.088 53.112 47.642 53.497 49.58 50.947 48.881 49.83 50.252 51.223 52.211 48.831 48.872 50.419 50.496 50.307 50.711 50.678 51.237 50.703 50.254 50.023 51.091 51.131 51.327 51.909 52.25 52.972 56.363 56.729 54.479 55.569 57.916 57.864 59.3 59.03 58.303 57.647 60.606 62.449 62.517 61.974 62.18 60.257 60.07 63.973 64.486 64.5 62.146 61.516 62.95 62.134 60.113 59.413 58.626 58.416 58.51 58.824 58.915 59.054 59.517 60.252 66.125 68.593 68.828 69.433 68.459 67.314 67.335 67.353 67.602 68.764 69.626 69.198 70.381 70.148 69.876 70.39 71.775 71.421 72.067 71.391 72.665 76.364 76.358 71.434 72.061 72.259 72.239 72.441 73.079 72.559 72.493 72.624 72.678 72.835 73.797 73.817 73.706 73.515 75.101 75.631 73.818 73.803 73.91 76.063 74.515 74.028 74.05 74.317 74.154 74.275 74.401 74.437 74.655 74.574 75.243 74.745 75.087 75.072 75.141 75.113 74.997 74.876 74.816 77.637 76.789 75.648 79.943 82.261 82.034 81.337 80.505 75.781 75.147 75.308 75.271 79.815 82.08 82.665 81.375 76.58 76.138 76.595 76.655 75.86 75.573 75.41 75.369 75.318 75.424 75.403 76.918 75.438 76.533 81.297 82.475 78.454 75.205 75.187 75.315 79.405 82.835 80.49 79.749 83.348 79.612 81.875 79.624 85.447 86.58 86.46 84.907 79.648 76.779 76.586 76.53 76.464 76.479 76.443 76.425 76.417 76.391 76.364 76.315 76.283 76.266 76.249 76.237 76.181 76.126 76.089 76.091 76.06 76.003 75.903 75.821 75.762 75.731 75.709 75.447 79.579 78.426 82.212 81.456 86.202 88.349 84.366 88.592 89.029 87.03 83.561 82.09 83.153 83.644 83.591 80.671 79.177 76.053 76.422 75.001 75.127 75.205 75.289 75.286 75.267 75.503 75.578 80.178 80.547 80.724 80.938 81.057 80.831 80.593 80.454 76.557 75.491 75.366 75.304 75.292 75.201 75.183 75.221 75.256 75.281 75.308 75.363 75.391 75.395 75.45 75.445 75.47 75.488 75.493 75.54 75.539 75.484 75.462 75.432 75.401 75.416 75.412 75.385 75.365 75.269 75.291 75.197 77.689 81.042 81.049 81.05 81.077 81.091 81.059 81.013 80.999 81.006 80.926 80.901 80.82 80.825 80.868 80.736 80.807 79.911 76.523 75.954 75.595 75.357 75.308 75.362 75.351 -9999 -9999 -9999 -9999 -9999 -9999 -9999 -9999 -9999 -9999 -9999 -9999 -9999 -9999 -9999 -9999 -9999 -9999 -9999 -9999 -9999 -9999 -9999 -9999 -9999 -9999 -9999 -9999 -9999 -9999 -9999 -9999 -9999 -9999 -9999 -9999 -9999 -9999 -9999 -9999 -9999 -9999 -9999 -9999 -9999 -9999 -9999 -9999 -9999 -9999 -9999 -9999 -9999 -9999 -9999 -9999 -9999 -9999 -9999 -9999 -9999 -9999 -9999 -9999 -9999 -9999 -9999 -9999 -9999 -9999 -9999 -9999 -9999 -9999 -9999 -9999 -9999 -9999 -9999 -9999 -9999 -9999 -9999 -9999 -9999 -9999
43.312 43.263 43.253 43.3 43.316 43.366 43.383 43.415 43.398 43.519 43.503 43.546 43.513 43.55 43.623 43.636 43.667 43.633 43.99 45.162 45.712 44.321 43.689 43.677 43.584 43.612 43.616 43.663 43.68 43.683 43.721 43.734 43.857 43.91 43.973 44.065 44.149 44.574 44.667 44.566 47.287 49.201 48.39 49.927 50.084 50.177 50.047 51.287 51.692 51.908 52.269 52.359 52.448 52.633 52.674 52.459 52.125 51.806 51.532 51.195 48.687 51.51 52.906 51.114 48.901 47.724 46.057 48.559 50.231 50.915 46.697 47.749 48.109 48.877 49.48 50.343 50.375 50.686 50.358 51.5 51.964 53.911 52.693 51.247 51.791 52.249 52.646 55.957 56.395 54.306 56.171 57.959 57.702 56.466 56.862 59.235 60.407 61.384 61.777 62.558 62.467 62.738 62.091 59.965 61.258 64.409 63.825 62.416 61.681 62.159 61.353 60.599 60.431 59.669 58.39 58.485 58.715 58.925 59.181 59.253 59.966 64.07 68.474 69.163 67.495 67.187 67.191 67.217 67.275 69.337 71.063 70.126 69.268 70.563 69.894 69.959 70.138 70.323 70.503 70.677 71.01 70.964 71.145 71.67 71.737 72.013 73.125 72.31 72.358 72.66 72.617 72.514 72.524 72.778 73.592 73.561 73.096 73.268 73.403 75.619 74.755 73.752 73.769 78.141 80.111 79.62 79.197 78.238 79.114 77.251 74.082 74.197 74.281 74.398 74.452 74.702 74.501 74.601 74.742 74.857 74.875 75.011 75.032 79.018 80.846 81.524 75.108 75.095 81.294 80.847 77.534 75.411 75.048 75.003 75.554 75.16 75.25 80.91 82.199 82.34 80.137 75.77 75.474 75.482 75.814 75.562 75.548 75.293 75.302 75.312 75.55 75.964 75.36 75.331 79.566 75.999 75.248 75.185 78.423 76.297 75.146 75.829 76.331 75.513 80.533 81.316 78.378 76.174 78.385 85.098 86.403 84.94 78.989 76.986 76.642 76.526 76.505 76.47 76.468 76.45 76.432 76.412 76.364 76.32 76.262 76.275 76.258 76.213 76.192 76.148 76.138 76.067 75.982 75.945 75.862 75.799 75.781 75.551 75.427 83.072 84.657 88.031 90.131 88.011 86.721 87.267 87.77 86.646 87.856 85.904 80.403 78.753 83.563 84.891 85.262 82.756 79.051 76.807 75.569 75.619 75.494 75.355 75.22 75.252 75.259 75.519 75.512 78.861 80.486 80.682 80.845 81.096 80.93 80.705 80.552 79.336 75.667 75.378 75.311 75.281 75.25 75.264 75.271 75.317 75.355 75.358 75.4 75.434 75.431 75.476 75.463 75.471 75.476 75.501 75.481 75.507 75.484 75.443 75.42 75.383 75.418 75.426 75.428 75.36 75.29 75.233 75.183 75.312 80.975 80.991 80.921 80.896 80.884 80.873 80.857 80.804 80.814 80.753 80.686 80.646 80.671 80.581 80.588 80.545 80.081 76.261 75.819 75.389 75.281 75.319 75.327 75.34 -9999 -9999 -9999 -9999 -9999 -9999 -9999 -9999 -9999 -9999 -9999 -9999 -9999 -9999 -9999 -9999 -9999 -9999 -9999 -9999 -9999 -9999 -9999 -9999 -9999 -9999 -9999 -9999 -9999 -9999 -9999 -9999 -9999 -9999 -9999 -9999 -9999 -9999 -9999 -9999 -9999 -9999 -9999 -9999 -9999 -9999 -9999 -9999 -9999 -9999 -9999 -9999 -9999 -9999 -9999 -9999 -9999 -9999 -9999 -9999 -9999 -9999 -9999 -9999 -9999 -9999 -9999 -9999 -9999 -9999 -9999 -9999 -9999 -9999 -9999 -9999 -9999 -9999 -9999 -9999 -9999 -9999 -9999 -9999 -9999 -9999
43.354 43.344 43.368 43.317 43.359 43.427 43.376 43.457 43.439 43.52 43.558 43.58 45.682 43.782 44.984 43.807 44.539 44.655 44.515 43.938 43.74 43.688 43.592 43.544 43.611 43.661 43.676 43.66 43.701 43.696 43.794 43.888 43.932 44.014 44.16 44.406 44.633 44.82 45.65 48.338 49.871 50.072 50.061 50.228 50.37 50.415 50.124 51.019 51.567 51.806 52.102 52.482 52.733 52.929 52.87 52.578 52.275 51.924 51.621 51.277 50.118 50.347 50.259 49.694 47.015 45.257 45.348 46.478 47.316 47.332 47.24 45.226 45.404 47.234 48.468 49.989 51.739 51.172 52.906 54.269 55.395 56.201 54.668 51.819 51.636 52.166 52.584 52.947 53.624 54.021 54.33 56.424 56.249 55.615 56.007 59.033 60.313 59.677 60.957 62.808 62.444 60.54 61.125 60.045 61.312 62.819 62.326 61.775 62.168 61.972 62.207 60.369 60.614 59.992 58.834 58.523 58.592 58.9 59.023 58.895 59.366 65.914 67.685 66.261 67.672 66.977 67.096 67.115 67.212 68.75 69.664 69.97 69.459 70.749 70.146 70.089 70.249 70.386 70.589 70.98 70.989 71.212 71.695 71.705 73.272 72.978 72.088 72.227 72.386 72.751 72.511 72.469 72.55 72.793 73.722 73.397 73.128 73.292 73.383 73.798 73.657 73.742 73.702 78.933 81.104 81.082 81.046 80.789 80.662 79.226 74.534 74.373 79.527 78.893 76.158 78.436 77.243 74.96 75.613 74.974 78.691 80.63 81.114 81.657 82.253 81.84 76.77 74.908 75.975 75.473 74.962 74.931 75.175 74.95 75.016 75.113 75.135 76.252 81.51 82.548 81.79 79.322 76.046 76.777 75.631 75.642 75.57 75.305 75.281 75.251 75.27 75.595 75.28 75.328 75.344 75.295 75.32 81.691 81.74 78.104 76.085 75.051 75.312 76.483 77.277 78.93 75.733 75.787 78.403 80.234 82.778 83.277 80.076 77.234 76.857 76.602 76.506 76.464 76.456 76.429 76.412 76.407 76.36 76.317 76.278 76.281 76.253 76.24 76.189 76.172 76.113 76.047 75.98 75.887 75.839 75.724 75.432 75.352 85.422 88.751 89.711 87.802 90.636 90.444 88.735 85.852 84.742 78.954 85.74 82.741 83.797 80.586 84.114 84.887 84.679 77.396 76.345 76.133 74.997 75.441 75.244 75.305 75.239 75.165 75.304 75.331 75.607 75.565 80.259 80.577 80.771 80.93 81.001 80.816 80.625 80.423 77 75.306 75.27 75.298 75.287 75.28 75.303 75.338 75.387 75.396 75.439 75.427 75.436 75.452 75.465 75.427 75.43 75.466 75.486 75.859 76.811 76.615 75.793 75.441 75.446 75.448 75.406 75.325 75.313 75.248 75.211 75.395 80.788 80.776 80.716 80.656 80.645 80.576 80.601 80.564 80.537 80.465 80.483 80.435 80.445 80.361 80.365 80.308 79.352 76.092 75.455 75.349 75.303 75.339 75.601 75.432 77.419 -9999 -9999 -9999 -9999 -9999 -9999 -9999 -9999 -9999 -9999 -9999 -9999 -9999 -9999 -9999 -9999 -9999 -9999 -9999 -9999 -9999 -9999 -9999 -9999 -9999 -9999 -9999 -9999 -9999 -9999 -9999 -9999 -9999 -9999 -9999 -9999 -9999 -9999 -9999 -9999 -9999 -9999 -9999 -9999 -9999 -9999 -9999 -9999 -9999 -9999 -9999 -9999 -9999 -9999 -9999 -9999 -9999 -9999 -9999 -9999 -9999 -9999 -9999 -9999 -9999 -9999 -9999 -9999 -9999 -9999 -9999 -9999 -9999 -9999 -9999 -9999 -9999 -9999 -9999 -9999 -9999 -9999 -9999 -9999 -9999
43.408 43.428 43.424 43.468 43.414 43.493 43.617 43.498 43.538 43.552 43.653 45.005 46.309 46.721 51.253 45.694 44.181 43.861 43.769 43.635 43.624 43.626 43.605 43.639 43.671 43.671 43.72 43.726 43.815 43.854 43.952 44.027 44.112 44.254 44.355 44.43 47.422 49.83 50.153 50.102 50.19 50.344 50.382 50.571 50.619 50.57 50.286 50.197 51.439 51.674 52.042 52.387 52.718 53.131 53.037 52.723 52.381 52.079 51.762 51.411 48.314 47.515 47.737 46.259 47.704 47.815 47.174 45.464 45.397 44.801 45.066 46.114 47.087 47.149 46.77 50.913 51.287 51.593 50.881 54.717 51.422 54.637 54.613 52.258 51.736 52.62 52.642 53.137 53.65 54.147 54.388 54.941 55.258 55.712 56.004 56.889 59.511 58.362 60.221 61.876 62.08 61.369 60.63 60.288 60.1 60.342 60.909 61.748 62.314 63.018 62.98 62.607 61.013 60.603 58.63 58.455 58.539 58.781 59.017 59.082 59.199 63.441 64.732 67.446 67.092 66.839 66.957 66.925 67.273 68.3 69.148 69.918 69.643 70.884 70.435 70.154 70.309 70.52 70.853 70.974 71.198 71.268 71.456 75.604 78.706 79.099 77.111 73.741 72.382 73.357 72.505 72.538 72.572 72.76 73.866 73.089 73.158 73.357 73.674 73.378 73.558 73.711 73.91 78.97 80.011 80.07 80.303 80.653 80.808 77.223 74.208 78.136 81.367 81.152 80.97 80.866 80.417 79.785 75.841 74.813 80.961 81.691 81.933 81.962 81.142 80.877 77.361 74.868 74.884 74.862 74.905 74.842 75.048 76.117 75.45 75.051 75.074 76.251 79.87 81.885 82.496 80.614 75.803 75.915 76.027 75.715 75.534 75.364 75.209 75.168 75.194 75.25 75.247 75.301 75.36 75.198 78.862 81.604 82.816 81.266 78.522 75.578 75.381 76.758 75.79 75.293 77.294 76.622 76.026 76.548 76.986 81.03 78.091 77.323 77.048 76.724 76.569 76.51 76.46 76.421 76.379 76.334 76.369 76.323 76.297 76.281 76.254 76.215 76.206 76.136 76.073 76.006 75.976 75.958 75.801 79.115 78.757 87.09 88.679 88.786 91.677 90.718 83.044 90.722 89.347 85.996 77.281 77.285 78.661 77.816 74.68 77.631 81.857 82.444 80.568 74.907 74.843 74.983 78.295 75.963 75.26 75.531 75.51 75.156 75.26 75.286 75.605 76.229 79.631 80.526 80.681 80.857 81.028 80.887 80.71 80.513 80.154 75.434 75.292 75.315 75.332 75.333 75.352 75.355 75.423 75.415 75.463 75.487 75.466 75.493 75.453 75.495 75.488 75.496 75.56 75.962 77.295 76.107 75.909 75.498 75.429 75.432 75.417 75.377 75.314 75.274 75.174 75.181 78.852 80.554 80.492 80.482 80.436 80.434 80.344 80.305 80.289 80.038 80.27 79.831 79.826 79.276 76.906 78.672 75.631 77.339 75.519 78.536 77.691 79.544 79.748 79.666 80.125 80.335 -9999 -9999 -9999 -9999 -9999 -9999 -9999 -9999 -9999 -9999 -9999 -9999 -9999 -9999 -9999 -9999 -9999 -9999 -9999 -9999 -9999 -9999 -9999 -9999 -9999 -9999 -9999 -9999 -9999 -9999 -9999 -9999 -9999 -9999 -9999 -9999 -9999 -9999 -9999 -9999 -9999 -9999 -9999 -9999 -9999 -9999 -9999 -9999 -9999 -9999 -9999 -9999 -9999 -9999 -9999 -9999 -9999 -9999 -9999 -9999 -9999 -9999 -9999 -9999 -9999 -9999 -9999 -9999 -9999 -9999 -9999 -9999 -9999 -9999 -9999 -9999 -9999 -9999 -9999 -9999 -9999 -9999 -9999 -9999
43.654 44.395 43.868 43.521 43.666 46.544 44.715 46.866 43.688 43.826 45.141 47.294 46.295 45.646 51.682 45.931 43.772 43.753 43.656 43.657 43.683 43.678 43.681 43.726 43.689 43.71 43.797 43.882 43.89 43.984 44.068 44.191 44.25 44.442 46.946 44.668 49.642 50.186 50.243 50.375 50.541 50.641 50.701 50.873 51.009 50.67 50.361 50.064 51.233 51.575 51.931 52.214 52.602 52.905 53.172 52.86 52.503 52.171 51.932 51.501 49.958 45.761 44.546 44.578 46.942 46.073 44.906 44.89 44.457 44.45 44.784 46.484 47.358 47.363 48.569 50.589 48.7 52.604 51.714 51.293 49.299 53.921 54.872 52.298 51.61 52.242 52.552 53.204 53.651 54.71 54.544 56.316 55.706 55.903 55.978 56.359 57.425 59.44 60.801 61.354 61.555 62.867 61.982 60.553 60.265 60.296 60.699 61.825 63.128 63.667 63.499 62.376 61.076 61.02 59.143 58.308 58.498 58.696 58.908 59.011 58.877 59.666 66.033 67.89 66.736 66.717 66.876 66.86 69.156 69.123 69.704 70.157 69.627 71.02 71.515 71.461 71.963 71.524 71.326 71.716 71.241 71.31 71.514 75.895 78.731 78.877 77.414 72.71 72.461 72.541 72.46 72.555 72.604 72.753 73.867 72.958 73.153 73.492 74.483 73.465 73.459 73.408 73.656 75.121 75.283 75.841 76.418 79.089 79.392 75.164 74.516 78.824 80.686 80.864 81.352 81.505 81.504 81.377 75.478 74.466 76.284 81.455 81.076 80.509 77.399 75.206 74.701 74.745 75.788 76.097 75.271 74.787 74.721 74.846 76.52 74.993 75.032 75.132 76.279 81.278 82.413 82.208 78.202 75.677 75.449 76.248 75.394 75.455 75.145 75.149 75.132 75.2 75.243 75.522 75.238 75.225 75.215 80.564 82.194 82.27 80.334 76.367 75.194 75.222 75.298 75.302 75.617 77.187 76.087 76.092 76.68 77.102 77.271 77.341 77.23 76.9 76.645 76.538 76.5 76.421 76.381 76.342 76.346 76.329 76.307 76.285 76.246 76.213 76.161 76.088 76.033 76.026 75.754 75.742 79.703 85.461 88.184 89.823 90.764 91.976 91.573 90.249 89.866 88.727 86.764 76.183 75.389 74.671 74.939 75.996 75.915 75.438 75.456 75.213 75.96 78.441 81.292 82.098 82.138 80.233 75.245 75.237 75.233 75.229 75.167 75.256 75.412 75.657 76.434 80.321 80.604 80.789 80.989 80.995 80.774 80.578 80.312 76.608 75.826 75.56 75.386 75.379 75.378 75.421 75.489 75.502 75.515 75.492 75.517 75.506 75.52 75.538 75.553 75.558 75.591 75.861 76.104 75.803 75.9 75.797 75.458 75.474 75.432 75.403 75.358 75.294 75.338 75.346 78.862 80.379 80.328 80.248 80.243 80.227 80.15 79.99 78.573 76.029 78.504 75.522 78.717 77.842 78.947 78.241 79.632 80.068 80.054 80.31 80.27 80.609 80.624 80.791 80.808 81.265 81.787 -9999 -9999 -9999 -9999 -9999 -9999 -9999 -9999 -9999 -9999 -9999 -9999 -9999 -9999 -9999 -9999 -9999 -9999 -9999 -9999 -9999 -9999 -9999 -9999 -9999 -9999 -9999 -9999 -9999 -9999 -9999 -9999 -9999 -9999 -9999 -9999 -9999 -9999 -9999 -9999 -9999 -9999 -9999 -9999 -9999 -9999 -9999 -9999 -9999 -9999 -9999 -9999 -9999 -9999 -9999 -9999 -9999 -9999 -9999 -9999 -9999 -9999 -9999 -9999 -9999 -9999 -9999 -9999 -9999 -9999 -9999 -9999 -9999 -9999 -9999 -9999 -9999 -9999 -9999 -9999 -9999 -9999 -9999
48.034 46.307 47.964 47.439 45.152 45.09 46.149 48.247 48.854 47.342 45.827 45.805 47.662 48.001 46.194 44.335 43.712 43.703 43.7 43.704 43.732 43.712 43.742 43.687 43.756 43.839 43.885 43.951 43.979 44.078 44.196 46.72 46.19 49.416 49.617 45.342 45.535 49.957 50.286 50.674 50.771 50.946 51.064 51.149 51.084 50.778 50.497 50.176 50.815 51.49 51.876 52.117 52.401 52.745 53.161 53.024 52.692 52.378 52.031 51.659 51.124 44.768 44.541 44.547 45.326 45.722 46.1 44.439 44.431 44.437 44.492 44.865 45.424 47.75 49.077 51.283 50.721 51.763 52.082 51.506 52.293 53.399 54.654 54.019 54.718 52.772 52.693 53.159 53.854 54.266 56.654 58.374 58.422 58.079 59.12 58.008 56.846 57.723 58.988 59.423 62.052 63.077 63.211 61.157 60.441 60.412 60.661 61.494 64.382 63.94 63.49 63.827 67.11 66.173 62.946 58.652 58.449 58.622 58.8 59.053 59.118 59.339 60.899 66.57 66.607 66.657 66.66 66.782 68.87 72.04 69.787 70.394 69.888 70.068 70.839 70.376 70.897 71.662 71.394 71.761 72.435 72.271 72.847 76.773 78.91 78.683 76.674 72.267 72.89 72.627 72.751 72.447 72.553 72.628 72.705 72.831 73.07 77.268 80.006 80.172 77.886 73.399 73.528 73.708 73.71 73.682 74.272 74.206 74.86 74.213 74.46 75.379 77.237 79.576 79.948 80.078 80.304 79.296 76.271 75.861 74.7 80.344 79.87 75.322 74.552 74.664 74.658 74.632 75.016 76.877 76.859 75.044 74.726 75.325 74.965 74.896 74.968 75.052 75.108 79.629 81.443 77.419 75.601 75.61 75.418 75.818 75.543 75.377 75.08 75.113 75.071 75.164 75.152 75.9 75.274 75.246 75.253 76.16 81.056 82.132 81.713 80.195 75.165 75.614 75.353 76.528 75.902 77.245 76.225 75.848 76.213 76.781 77.127 77.278 77.297 77.147 76.764 76.591 76.463 76.435 76.387 76.329 76.334 76.329 76.333 76.298 76.248 76.177 76.127 76.023 75.962 75.538 75.338 77.423 84.625 87.925 89.541 90.086 86.537 91.517 90.715 89.216 88.651 87.085 84.051 74.765 74.632 75.897 74.692 74.843 74.85 75.263 76.188 75.165 74.735 76.022 81.994 83.16 82.459 80.436 75.651 79.733 78.695 78.698 78.045 75.461 75.412 75.629 75.676 79.387 80.542 80.682 80.863 81.032 81.744 81.066 80.458 76.485 77.942 78.506 78.372 75.452 75.43 75.495 75.509 75.555 75.576 75.582 75.57 75.587 75.619 75.626 75.617 75.636 75.61 75.621 75.69 80.912 82.358 77.658 75.468 75.48 75.468 75.433 75.4 75.324 75.274 75.308 78.652 80.04 77.539 76.125 75.825 77.832 76.805 78.831 77.742 79.091 79.756 80.077 80.021 80.299 80.635 80.574 80.945 80.752 80.974 81.076 81.449 81.334 81.614 81.611 81.822 82.155 82.112 81.914 -9999 -9999 -9999 -9999 -9999 -9999 -9999 -9999 -9999 -9999 -9999 -9999 -9999 -9999 -9999 -9999 -9999 -9999 -9999 -9999 -9999 -9999 -9999 -9999 -9999 -9999 -9999 -9999 -9999 -9999 -9999 -9999 -9999 -9999 -9999 -9999 -9999 -9999 -9999 -9999 -9999 -9999 -9999 -9999 -9999 -9999 -9999 -9999 -9999 -9999 -9999 -9999 -9999 -9999 -9999 -9999 -9999 -9999 -9999 -9999 -9999 -9999 -9999 -9999 -9999 -9999 -9999 -9999 -9999 -9999 -9999 -9999 -9999 -9999 -9999 -9999 -9999 -9999 -9999 -9999 -9999 -9999
45.333 49.028 49.495 49.419 46.788 47.862 48.343 48.103 44.446 43.993 44.64 43.83 44.414 43.765 43.753 43.745 43.773 43.716 43.773 43.753 43.799 43.787 43.758 43.761 43.787 43.937 44.03 44.059 44.033 44.18 46.578 49.866 49.443 50.044 46.319 46.68 44.64 49.609 50.202 50.548 50.874 51.145 51.399 51.483 51.232 50.954 50.606 50.262 50.235 51.279 51.713 51.988 52.34 52.616 53.18 53.103 52.716 52.446 52.219 51.79 51.499 47.121 44.673 45.829 44.417 44.525 44.534 44.425 44.386 44.436 44.432 44.683 46.247 48.471 51.299 51.601 52.337 50.781 52.461 52.217 52.174 52.736 54.008 53.807 54.258 53.729 54.313 53.185 53.946 54.161 55.28 58.529 58.981 59.22 59.103 57.375 56.62 57.08 57.567 59.913 60.747 62.639 62.84 62.164 60.799 60.582 60.586 61.258 63.781 64.589 63.53 63.509 67.586 67.072 63.094 58.947 58.352 58.547 58.744 59.011 59.139 59.303 64.778 66.359 66.397 66.506 66.484 66.828 68.218 70.583 70.081 70.42 70.016 70.192 70.534 70.437 70.425 70.629 70.896 71.171 71.463 71.617 71.718 76.849 79.084 78.3 75.511 72.198 72.554 72.57 72.737 72.409 72.589 72.679 73.562 72.89 73.367 78.615 80.109 80.01 77.738 73.333 73.386 73.706 73.648 73.653 73.77 73.781 73.926 73.936 74.067 73.934 74.009 74.043 76.481 77.533 76.228 75.809 74.987 76.024 74.562 74.531 74.569 74.521 75.179 74.884 74.655 74.579 75.071 76.357 76.823 75.435 74.68 75.779 75.497 74.828 74.864 74.942 74.995 75.112 75.611 75.391 77.283 76.154 75.417 75.647 75.49 75.33 75.064 75.038 75.109 75.253 75.209 75.146 76.091 75.331 75.541 75.379 79.622 81.615 82.375 81.162 76.168 75.497 76.376 75.366 75.267 75.686 75.82 75.642 75.917 76.56 76.87 77.145 77.248 77.186 76.913 76.594 76.456 76.381 76.376 76.318 76.354 76.332 76.298 76.317 76.212 76.11 76.007 75.812 75.822 83.217 82.505 80.946 86.512 88.213 89.956 85.456 89.798 90.239 89.518 88.777 87.085 77.828 76.986 74.952 74.672 74.853 76.199 74.618 74.61 74.613 75.382 75.596 74.747 79.989 82.605 83.386 83.628 83.048 82.057 82.718 82.368 82.512 82.602 77.292 75.386 75.528 75.712 77.765 80.398 80.568 81.201 83.865 86.885 86.231 81.569 78.386 78.488 77.832 76.876 75.491 75.515 75.546 75.569 75.572 75.625 75.64 75.67 75.662 75.711 75.685 75.662 75.714 75.692 75.691 75.949 81.739 83.239 82.743 80.618 75.799 75.459 75.458 75.437 75.406 75.326 75.365 76.624 75.584 75.916 75.941 75.775 77.734 80.171 80.19 80.398 80.774 80.818 81.005 81.025 81.311 81.276 81.625 81.511 81.801 82.206 82.065 82.41 82.255 82.309 82.335 82.052 82.114 81.873 81.528 81.278 -9999 -9999 -9999 -9999 -9999 -9999 -9999 -9999 -9999 -9999 -9999 -9999 -9999 -9999 -9999 -9999 -9999 -9999 -9999 -9999 -9999 -9999 -9999 -9999 -9999 -9999 -9999 -9999 -9999 -9999 -9999 -9999 -9999 -9999 -9999 -9999 -9999 -9999 -9999 -9999 -9999 -9999 -9999 -9999 -9999 -9999 -9999 -9999 -9999 -9999 -9999 -9999 -9999 -9999 -9999 -9999 -9999 -9999 -9999 -9999 -9999 -9999 -9999 -9999 -9999 -9999 -9999 -9999 -9999 -9999 -9999 -9999 -9999 -9999 -9999 -9999 -9999 -9999 -9999 -9999 -9999
48.124 47.287 46.947 47.901 45.07 44.404 44.813 44.555 43.896 43.818 43.879 43.869 43.795 43.822 43.765 43.811 43.819 43.796 43.85 43.848 43.819 43.847 43.801 43.696 43.948 43.993 44.027 44.076 45.553 44.687 44.316 45.102 44.981 44.97 47.92 48.334 48.336 49.486 50.048 50.4 50.78 51.026 51.386 51.622 51.332 51.049 50.647 50.431 50.127 51.033 51.558 51.885 52.131 52.541 52.825 53.095 52.929 52.566 52.203 51.977 51.612 47.736 44.77 44.401 44.33 44.358 44.366 44.411 44.398 44.433 44.448 44.465 45.348 46.656 51.387 52.019 51.39 51.918 51.827 52.993 54.716 54.575 53.799 54.238 53.95 54.365 54.083 53.489 53.822 54.321 54.681 55.887 58.375 58.813 56.783 57.179 57.211 57.044 59.156 60.509 58.762 60.915 62.734 62.189 61.032 60.818 60.667 60.974 61.99 63.23 63.636 63.632 66.577 68.095 65.674 59.65 58.414 58.471 58.678 58.956 59.073 59.17 66.546 66.163 66.289 66.297 66.365 66.822 67.244 69.451 69.788 70.155 70.106 70.194 70.586 70.357 70.405 70.681 71.015 71.339 71.51 71.676 74.625 77.853 79.147 78.386 73.582 72.275 73.012 72.518 72.396 72.433 72.566 72.64 73.909 73.242 73.086 78.932 80.301 79.872 76.026 73.552 73.374 73.484 73.892 74.145 73.851 73.77 73.839 73.887 73.986 73.947 73.96 74.041 75.614 76.241 74.59 76.271 76.26 74.895 74.651 74.497 75.262 74.58 74.54 74.683 74.611 74.621 75.221 76.147 76.607 75.42 74.776 74.605 74.817 74.701 74.758 74.782 74.795 74.797 75.037 75.211 77.024 78.94 75.953 75.446 75.541 75.264 75.002 75.077 75.542 75.176 75.175 75.062 75.955 75.428 75.627 75.801 76.417 80.829 81.982 77.072 75.531 76.165 76.588 75.468 75.212 75.276 76.226 75.694 75.879 76.106 76.612 76.862 77.145 77.191 77.105 76.75 76.477 76.37 76.362 76.339 76.353 76.349 76.257 76.206 76.078 75.999 75.89 77.505 83.996 83.005 86.166 87.617 87.276 88.872 85.399 88.632 86.849 79.183 85.4 85.993 77.701 76.811 76.826 75.36 74.713 74.633 76.063 74.595 74.592 74.603 74.779 74.999 74.774 81.447 83.88 83.813 83.913 84.091 83.985 83.921 83.658 83.792 83.414 75.904 75.389 75.527 75.702 75.653 79.71 80.516 84.676 86.933 88.229 87.989 85.835 77.27 76.036 76.249 76.141 76.041 75.587 75.607 75.669 75.649 75.695 75.679 75.728 75.752 75.754 75.742 75.767 75.766 75.757 75.755 75.753 81.498 85.865 85.242 77.785 82.708 76.874 75.495 75.482 75.432 75.467 75.517 75.751 75.563 75.712 75.507 75.656 77.491 80.97 81.154 81.616 81.59 81.831 82.043 81.987 81.982 82.205 82.342 82.336 82.149 82.226 81.877 81.753 81.787 81.411 81.333 81.178 81.098 80.687 80.845 80.52 79.964 79.946 -9999 -9999 -9999 -9999 -9999 -9999 -9999 -9999 -9999 -9999 -9999 -9999 -9999 -9999 -9999 -9999 -9999 -9999 -9999 -9999 -9999 -9999 -9999 -9999 -9999 -9999 -9999 -9999 -9999 -9999 -9999 -9999 -9999 -9999 -9999 -9999 -9999 -9999 -9999 -9999 -9999 -9999 -9999 -9999 -9999 -9999 -9999 -9999 -9999 -9999 -9999 -9999 -9999 -9999 -9999 -9999 -9999 -9999 -9999 -9999 -9999 -9999 -9999 -9999 -9999 -9999 -9999 -9999 -9999 -9999 -9999 -9999 -9999 -9999 -9999 -9999 -9999 -9999 -9999
45.714 44.134 44.059 44.042 44.027 43.973 43.917 43.931 43.965 43.975 43.908 43.874 43.862 43.867 43.872 43.875 43.893 43.875 43.894 43.888 43.9 43.877 43.808 43.882 44.004 44.017 44.035 44.167 48.573 48.285 46.381 47.184 47.614 48.249 48.326 48.332 48.347 48.634 49.942 50.285 50.643 50.986 51.222 51.615 51.688 51.141 50.851 50.541 50.225 50.203 51.426 51.754 52.082 52.462 52.738 53.047 53.049 52.675 52.354 52.047 51.654 51.236 45.348 44.423 44.378 44.361 44.389 44.44 44.408 44.433 44.456 44.469 45.193 48.705 51.54 50.021 49.646 50.44 52.064 52.423 52.024 54.72 53.302 53.483 53.767 54.583 53.441 53.179 53.728 54.176 54.779 55.312 55.891 56.147 56.059 56.601 56.981 57.125 57.408 58.348 58.266 58.892 61.784 62.18 61 61.013 60.773 60.773 61.371 62.811 63.64 63.92 63.676 66.62 62.405 60.738 58.678 58.464 58.629 58.823 59.01 59.319 66.51 66.035 66.096 66.125 66.411 66.608 67.269 68.468 69.78 70.294 70.133 70.125 70.61 70.471 70.926 72.008 71.039 71.355 71.547 71.697 72.441 78.108 78.868 78.079 73.036 72.142 72.621 72.883 72.694 72.364 72.616 73.32 73.056 72.99 73.165 79.014 80.339 79.571 75.014 73.22 73.436 73.653 75.133 75.255 74.155 73.754 73.794 73.836 73.866 73.855 73.871 73.994 74.281 74.05 74.556 74.361 75.832 76.56 74.422 74.499 74.576 74.464 74.504 75.267 76.299 74.754 75.812 75.247 75.925 75.09 74.569 74.771 74.632 74.635 74.686 74.747 78.074 78.552 74.8 75.06 76.13 80.524 78.392 75.579 75.324 75.178 74.859 74.939 76.191 75.206 75.169 75.23 75.032 75.066 75.447 75.551 75.415 75.113 75.049 75.219 75.1 76.618 74.964 75.173 75.59 76.607 76.99 75.803 76.209 76.068 76.209 76.593 76.814 77.038 77.027 76.829 76.494 76.337 76.317 76.281 76.329 76.245 76.181 76.03 75.916 75.863 75.834 80.486 85.245 85.834 87.501 86.892 88.688 88.083 86.868 76.582 77.083 74.674 76.697 77.396 75.508 76.068 75.292 74.802 74.822 75.593 75.146 74.603 74.614 74.612 74.953 75.912 74.83 79.653 84.344 84.413 84.351 84.42 84.559 84.312 84.376 84.525 84.369 78.181 75.354 75.47 75.637 75.796 76.489 76.623 81.005 86.465 86.394 87.649 86.62 78.161 75.847 78.01 78.125 78.302 75.821 75.702 75.695 75.763 75.771 75.783 75.812 75.793 75.786 75.797 75.816 75.809 75.849 75.759 76.503 83.42 85.613 83.097 84.4 82.56 77.067 75.52 75.492 75.494 75.549 75.566 75.565 75.566 75.786 75.624 77.471 78.75 81.896 82.142 82.346 82.345 82.14 82.339 82.027 82.137 81.744 81.778 81.445 81.117 81.188 80.934 80.94 80.669 80.643 80.386 80.394 80.188 80.078 79.964 79.822 79.855 79.975 80.411 -9999 -9999 -9999 -9999 -9999 -9999 -9999 -9999 -9999 -9999 -9999 -9999 -9999 -9999 -9999 -9999 -9999 -9999 -9999 -9999 -9999 -9999 -9999 -9999 -9999 -9999 -9999 -9999 -9999 -9999 -9999 -9999 -9999 -9999 -9999 -9999 -9999 -9999 -9999 -9999 -9999 -9999 -9999 -9999 -9999 -9999 -9999 -9999 -9999 -9999 -9999 -9999 -9999 -9999 -9999 -9999 -9999 -9999 -9999 -9999 -9999 -9999 -9999 -9999 -9999 -9999 -9999 -9999 -9999 -9999 -9999 -9999 -9999 -9999 -9999 -9999 -9999 -9999
44.111 44.104 44.064 44.035 43.988 44.032 44.066 44.032 44 44.01 43.98 43.929 43.914 43.955 44.042 43.988 44.045 44.002 43.988 44.489 43.882 43.885 43.841 43.94 44.006 44.075 44.106 44.7 45.705 48.528 46.427 44.981 48.112 48.262 48.269 48.338 48.341 48.645 49.837 50.179 50.472 50.828 51.122 51.503 51.722 51.252 51.024 50.705 50.375 50.277 51.3 51.633 51.954 52.243 52.555 52.922 53.039 52.764 52.471 52.182 51.87 51.563 46.524 45.044 44.523 44.366 44.395 44.389 44.396 44.388 44.438 44.465 44.462 45.578 48.849 49.5 49.99 49.792 49.515 51.229 51.999 52.137 53.597 52.827 54.266 54.931 53.405 53.362 53.372 53.873 54.64 55.094 55.652 56.307 56.206 56.222 56.741 57.179 57.608 57.699 58.061 58.445 59.596 60.1 60.293 60.453 60.729 60.961 61.22 62.364 63.352 63.927 63.962 63.09 62.794 61.092 59.451 58.538 58.626 58.893 59.031 63.498 65.869 65.87 65.912 65.972 66.292 67.458 67.944 69.137 69.845 70.255 70.259 70.17 70.547 70.675 71.397 72.568 71.544 71.647 71.536 71.96 71.711 71.839 73.196 73.05 72.039 72.295 72.546 72.69 72.74 72.326 72.571 72.568 72.811 72.882 73.179 79.54 80.609 79.279 73.274 73.22 73.427 74.653 75.257 74.49 74.758 73.985 73.908 74.058 73.904 73.731 73.756 73.882 74.498 74.571 74.061 74.47 74.134 76.325 74.655 74.483 74.686 74.439 74.481 74.885 75.49 75.146 75.454 75.304 75.195 74.49 74.544 74.584 74.749 74.825 74.67 78.242 80.544 81.106 79.94 74.874 74.949 76.893 76.157 77.819 75.536 75.14 74.869 74.945 76.665 75.262 75.133 75.12 75.118 74.988 74.981 75.042 75.013 74.978 74.919 78.47 82.094 80.564 78.055 75.384 76.348 76.311 77.252 75.755 75.158 76 76.074 76.257 76.637 76.799 76.85 76.726 76.469 76.177 76.073 76.154 76.161 76.073 75.998 75.916 75.862 75.831 75.792 78.773 86.168 86.861 81.087 88.494 88.748 81.223 75.424 75.427 75.125 75.03 85.241 81.364 80.608 81.459 77.544 75.452 76.126 74.641 74.59 74.65 74.8 74.932 74.759 74.946 75.146 80.159 83.98 84.015 83.131 83.394 84.349 83.424 83.316 83.902 83.478 76.307 75.33 75.431 75.697 75.792 75.855 76.247 78.537 83.401 87.085 87.832 85.798 83.873 81.65 78.526 76.541 76.45 75.797 75.722 75.761 75.802 75.853 75.788 75.823 75.828 75.838 75.901 75.945 75.965 75.972 75.893 76.553 77.113 84.138 83.756 83.09 82.297 77.258 75.54 75.537 75.524 75.758 75.9 75.53 75.565 75.551 75.631 77.086 78.316 82.104 81.633 81.908 81.587 81.376 81.257 80.974 81.024 80.689 80.749 80.44 80.421 80.235 80.046 80.058 79.745 79.896 79.895 79.853 80.117 80.141 80.236 80.599 80.532 80.923 81.089 -9999 -9999 -9999 -9999 -9999 -9999 -9999 -9999 -9999 -9999 -9999 -9999 -9999 -9999 -9999 -9999 -9999 -9999 -9999 -9999 -9999 -9999 -9999 -9999 -9999 -9999 -9999 -9999 -9999 -9999 -9999 -9999 -9999 -9999 -9999 -9999 -9999 -9999 -9999 -9999 -9999 -9999 -9999 -9999 -9999 -9999 -9999 -9999 -9999 -9999 -9999 -9999 -9999 -9999 -9999 -9999 -9999 -9999 -9999 -9999 -9999 -9999 -9999 -9999 -9999 -9999 -9999 -9999 -9999 -9999 -9999 -9999 -9999 -9999 -9999 -9999 -9999 -9999
44.144 44.125 44.139 44.125 44.14 44.096 44.131 44.088 44.067 44.099 44.128 44.177 44.151 44.062 44.183 47.034 48.003 48.172 47.748 44.068 43.964 43.974 43.878 43.904 44.032 44.116 44.221 44.164 44.793 46.837 45.154 44.567 47.78 48.268 48.301 48.341 48.351 48.368 49.523 50.042 50.371 50.678 51.097 51.293 51.536 51.355 51.141 50.753 50.442 50.138 51 51.473 51.856 52.182 52.467 52.786 53.091 52.892 52.605 52.283 51.934 51.647 47.848 46.496 44.389 44.364 44.386 44.366 44.43 44.418 44.455 44.441 44.443 44.513 47.239 46.721 49.131 47.651 48.071 50.471 51.782 52.025 52.906 53.799 54.369 54.659 55.007 54.427 53.739 53.943 54.93 55.026 55.702 56.211 56.365 56.566 56.848 57.471 57.783 57.754 58.183 58.486 58.87 59.248 59.861 60.201 60.757 61.054 61.34 61.859 63.061 63.622 63.54 63.824 63.084 62.267 59.719 58.73 58.471 58.709 58.897 63.894 65.674 65.758 65.739 65.854 66.567 67.419 68.38 69.089 69.652 70.132 70.386 70.064 70.615 71.883 71.206 72.52 71.645 72.225 71.931 72.17 71.951 71.831 72.03 71.931 72.117 72.341 72.684 72.439 72.351 72.297 72.526 72.504 72.773 72.997 76.797 79.521 80.381 79.159 74.212 73.196 73.298 73.711 73.881 74.139 73.889 75.456 74.411 74.951 73.975 73.893 73.915 75.819 75.789 74.197 75.311 74.147 74.143 74.291 75.443 75.134 75.351 74.607 74.923 75.033 74.449 75.596 74.368 74.39 74.417 74.781 74.417 74.59 74.62 74.745 79.464 80.829 81.304 81.716 79.252 75.663 77.624 76.915 77.285 77.831 75.779 75.088 74.815 74.85 75.341 75.052 75.04 75.087 75.067 74.895 75.124 74.965 75.574 75.1 78.466 80.882 81.963 81.567 79.568 77.263 77.961 75.508 75.1 75.374 75.205 75.389 75.925 76.06 76.368 76.469 76.58 76.451 76.185 75.958 75.978 76.028 75.965 75.915 75.891 75.902 75.843 75.764 75.773 80.01 86.149 87.925 86.589 89.491 82.197 76.541 77.462 79.727 77.827 77.461 81.252 88.831 86.425 86.199 78.161 80.233 74.784 74.885 76.514 76.359 74.859 76.542 76.805 76.386 74.835 76.287 81.749 81.946 81.933 83.385 84.045 82.712 81.984 82.102 81.842 76.22 75.292 75.378 75.49 75.793 75.901 76.052 75.95 80.592 78.49 78.237 81.597 85.611 80.631 76.996 75.796 75.782 75.79 75.778 75.838 75.836 75.923 75.851 75.962 75.94 76.063 76.267 76.934 79.127 79.483 79.987 79.766 80.808 81.289 81.571 80.823 76.855 76.127 75.564 75.542 75.548 75.804 75.779 75.533 75.579 75.601 75.566 77.291 77.394 80.149 80.818 80.755 80.499 80.608 80.228 80.273 80.095 79.739 79.884 79.915 79.815 80.095 79.912 80.292 80.265 80.435 80.684 80.695 81.189 81.044 81.393 81.322 81.662 81.633 81.783 82.207 82.005 -9999 -9999 -9999 -9999 -9999 -9999 -9999 -9999 -9999 -9999 -9999 -9999 -9999 -9999 -9999 -9999 -9999 -9999 -9999 -9999 -9999 -9999 -9999 -9999 -9999 -9999 -9999 -9999 -9999 -9999 -9999 -9999 -9999 -9999 -9999 -9999 -9999 -9999 -9999 -9999 -9999 -9999 -9999 -9999 -9999 -9999 -9999 -9999 -9999 -9999 -9999 -9999 -9999 -9999 -9999 -9999 -9999 -9999 -9999 -9999 -9999 -9999 -9999 -9999 -9999 -9999 -9999 -9999 -9999 -9999 -9999 -9999 -9999 -9999 -9999 -9999
44.289 44.236 44.221 44.181 44.193 44.181 44.259 44.251 44.296 44.246 44.348 44.869 45.946 48.648 48.845 48.762 50.126 50.432 50.018 46.473 43.979 43.962 43.948 43.896 43.933 44.124 44.233 44.242 44.256 45.597 48.75 46.405 47.584 48.259 48.302 48.346 48.357 48.338 49.137 49.869 50.276 50.578 50.943 51.205 51.531 51.534 51.211 50.857 50.673 50.214 50.026 51.348 51.669 51.987 52.315 52.669 53.023 52.993 52.724 52.419 52.155 51.734 51.299 45.051 44.397 44.387 44.347 44.384 44.385 44.426 44.427 44.458 44.454 44.469 45.35 46.158 47.174 47.772 47.096 49.893 51.049 51.965 53.407 52.081 55.18 55.137 55.126 55.815 53.726 55.746 55.095 55.065 55.79 56.135 56.469 56.643 56.872 57.142 57.409 57.926 58.228 58.57 58.964 59.425 59.921 60.281 60.914 61.573 61.365 61.669 62.684 63.06 63.743 63.855 63.59 62.381 60.975 59.367 58.537 58.669 63.196 65.782 65.45 65.559 65.603 65.89 68.825 66.736 68.023 68.942 69.362 69.727 70.449 70.219 70.539 70.569 70.673 70.932 71.126 71.627 73.898 72.23 72.065 73.383 78.095 73.048 72.132 72.349 72.478 72.997 72.535 72.265 72.483 72.756 73.829 73.153 78.069 79.897 80.318 76.697 73.122 73.204 73.292 73.397 73.512 73.678 73.791 74.104 74.072 74.318 75.354 74.409 74.128 74.919 74.864 74.358 75.376 74.737 74.048 74.081 74.368 74.172 75.418 75.126 74.693 74.158 74.115 74.64 74.195 74.179 74.28 75.565 74.638 74.43 77.6 80.308 81.179 81.684 81.848 81.059 80.263 76.516 76.021 77.051 77.207 76.211 74.991 74.989 74.785 74.783 74.842 74.814 74.894 74.93 75.059 74.976 74.864 75.983 75.45 74.82 74.932 79.634 81.28 81.941 81.028 76.285 75.145 75.085 74.981 75.049 75.198 75.337 75.601 76.198 76.169 76.293 76.269 76.087 75.908 75.835 75.869 75.867 75.854 75.857 75.858 75.87 75.767 75.766 75.78 75.687 83.089 87.392 89.201 89.594 81.683 82.947 83.915 80.007 83.344 87.697 89.631 83.618 85.335 89.225 87.122 84.39 79.695 78.479 85.085 81.69 77.839 76.808 76.637 76.581 75.123 76.144 75.589 76.018 75.198 77.439 78.42 77.586 76.666 75.649 76.098 75.839 75.208 75.348 75.495 76.081 76.072 75.939 75.916 75.878 75.867 75.762 82.877 85.796 83.587 77.199 75.844 75.856 75.76 75.934 76.023 78.445 76.261 79.388 79.761 79.801 80.734 80.848 80.971 81.004 81.021 81.028 81.054 81.12 80.164 75.848 75.707 75.64 75.658 75.556 75.555 75.564 75.697 75.764 75.547 75.557 75.577 75.529 75.543 76.39 79.74 79.912 79.842 79.913 79.812 80.008 79.91 80.164 80.091 80.481 80.62 80.682 81.014 81.021 81.289 81.241 81.537 81.542 81.785 82.045 82.046 82.372 82.224 82.234 82.276 82.055 82.217 81.736 81.223 -9999 -9999 -9999 -9999 -9999 -9999 -9999 -9999 -9999 -9999 -9999 -9999 -9999 -9999 -9999 -9999 -9999 -9999 -9999 -9999 -9999 -9999 -9999 -9999 -9999 -9999 -9999 -9999 -9999 -9999 -9999 -9999 -9999 -9999 -9999 -9999 -9999 -9999 -9999 -9999 -9999 -9999 -9999 -9999 -9999 -9999 -9999 -9999 -9999 -9999 -9999 -9999 -9999 -9999 -9999 -9999 -9999 -9999 -9999 -9999 -9999 -9999 -9999 -9999 -9999 -9999 -9999 -9999 -9999 -9999 -9999 -9999 -9999 -9999 -9999
44.439 44.462 44.381 44.339 44.344 44.356 44.316 44.315 44.37 44.351 44.42 46.912 48.252 48.982 48.747 46.164 49.498 48.471 48.658 47.3 43.969 43.965 43.963 43.981 44.034 44.151 44.201 44.189 45.558 48.404 47.876 47.466 47.199 48.241 48.297 48.29 48.34 48.35 48.42 49.816 50.113 50.428 50.751 51.075 51.349 51.581 51.356 51.045 50.701 50.351 50.068 50.896 51.596 51.916 52.234 52.563 52.859 53.109 52.875 52.552 52.24 51.885 51.617 47.953 44.45 44.413 44.346 44.371 44.388 44.407 44.413 44.428 44.486 44.452 44.522 45.08 49.121 49.146 50.713 52.287 51.454 51.527 51.51 54.471 55.141 55.58 54.706 55.795 55.323 54.227 55.306 55.186 55.665 56.142 56.484 56.668 57.942 57.358 57.597 57.995 58.196 58.646 59.222 59.562 59.947 61.19 62.472 63.385 62.367 61.558 62.176 63.231 63.876 63.955 64.005 63.286 61.45 59.742 58.746 58.663 63.703 65.258 65.371 65.39 65.526 67.123 65.834 65.728 66.999 68.851 69.323 69.775 70.461 70.433 70.724 70.619 70.708 70.916 71.152 71.405 72.327 72.188 77.417 78.695 79.09 77.402 73.028 72.225 72.459 73.564 73.802 72.267 72.419 72.494 73.891 73.056 73.062 74.303 74.218 74.618 73.027 73.907 73.504 73.383 73.432 73.514 73.627 73.649 73.685 73.67 73.796 73.674 74.603 74.288 73.645 73.691 74.26 74.729 73.977 73.988 74.2 74.114 74.101 74.693 74.324 74.109 74.054 74.102 74.11 74.803 74.089 73.857 74.645 78.368 80.941 81.483 81.579 81.313 80.362 77.29 75.143 74.818 74.836 75.083 75.479 75.156 74.978 74.751 74.699 74.699 74.7 74.745 74.726 74.69 74.745 74.796 74.794 74.839 74.86 74.893 74.903 75.984 80.538 81.779 81.617 79.926 75.904 75.019 74.969 74.907 75.113 75.419 75.433 76.403 76.266 76.066 75.937 75.818 75.751 75.763 75.843 75.773 75.769 75.792 75.775 75.721 75.785 75.796 75.79 75.832 83.218 86.702 88.774 82.629 87.038 88.418 87.288 83.381 86.446 89.654 83.02 88.073 89.565 88.855 87.874 85.358 79.063 81.12 85.739 85.152 79.277 77.144 75.59 80.195 79.86 78.282 76.945 75.313 75.138 76.036 75.551 75.523 75.286 76.419 75.228 75.27 75.264 75.322 75.979 76.054 76.186 75.843 75.968 76.038 75.864 75.868 82.215 82.247 82.122 76.436 75.923 75.993 77.684 80.465 80.284 80.897 80.973 80.991 80.973 81.093 81.065 81.135 81.145 81.202 81.191 81.267 81.255 81.327 81.303 75.872 75.689 75.666 75.595 75.563 75.583 75.575 75.64 75.641 75.536 75.524 75.505 75.516 75.503 75.436 78.936 80.112 80.356 80.34 80.619 80.739 80.796 81.213 81.166 81.5 81.46 81.802 81.801 82.025 82.013 82.215 82.411 82.238 82.188 82.272 81.977 82.031 81.748 81.726 81.467 81.055 81.194 80.791 80.619 80.033 -9999 -9999 -9999 -9999 -9999 -9999 -9999 -9999 -9999 -9999 -9999 -9999 -9999 -9999 -9999 -9999 -9999 -9999 -9999 -9999 -9999 -9999 -9999 -9999 -9999 -9999 -9999 -9999 -9999 -9999 -9999 -9999 -9999 -9999 -9999 -9999 -9999 -9999 -9999 -9999 -9999 -9999 -9999 -9999 -9999 -9999 -9999 -9999 -9999 -9999 -9999 -9999 -9999 -9999 -9999 -9999 -9999 -9999 -9999 -9999 -9999 -9999 -9999 -9999 -9999 -9999 -9999 -9999 -9999 -9999 -9999 -9999 -9999 -9999
44.529 44.488 44.499 46.076 44.505 44.411 44.33 44.309 44.252 44.231 44.285 48.025 48.31 45.842 44.367 48.255 45.315 46.265 51.982 45.878 49.443 44.038 44.026 43.975 43.955 44.119 44.169 44.27 47.881 47.82 48.965 48.716 45.925 48.074 48.257 48.292 48.336 48.353 48.365 49.351 49.96 50.286 50.611 50.984 51.307 51.632 51.438 51.16 50.83 50.517 50.223 50.883 51.495 51.806 52.124 52.411 52.799 53.071 52.953 52.599 52.376 51.957 51.682 46.695 46.436 44.558 44.394 44.352 44.382 44.437 44.415 44.452 44.466 44.47 44.503 46.049 49.136 50.838 50.929 51.433 51.84 51.263 51.707 53.381 55.098 54.64 55.439 55.172 55.473 55.814 56.148 56.262 55.575 56.194 56.49 56.824 58.199 57.824 57.691 57.947 58.339 58.684 59.068 59.571 60.004 61.499 62.978 62.062 62.516 61.782 61.913 63.172 63.924 63.919 63.657 63.5 62.341 60.851 59.147 63.175 65.254 65.104 65.204 65.261 65.02 66.116 64.274 64.978 66.798 68.542 69.087 69.66 70.28 70.661 70.68 70.729 70.783 70.882 71.072 71.319 71.582 71.809 75.665 78.611 79.363 78.284 73.307 72.202 72.379 72.292 72.647 72.254 72.384 72.485 74.07 72.907 72.946 73.014 73.168 73.693 73.017 73.239 73.048 73.354 73.38 73.47 73.922 73.536 73.565 73.678 73.573 73.571 74.439 74.52 73.641 73.696 74.863 74.351 73.841 73.881 74.878 74.116 73.986 74 74.014 74.138 74.316 73.92 75.63 76.519 75.153 77.847 74.925 74.501 81.433 81.455 80.847 80.04 76.763 74.649 74.671 74.635 74.725 74.999 75.413 74.84 74.79 74.653 74.662 74.69 74.899 74.89 74.795 74.756 74.667 74.621 74.635 74.742 75.041 74.894 75.823 74.959 79.095 80.792 81.92 81.332 77.952 74.944 75.061 75.179 74.876 75.48 75.073 75.409 75.599 75.519 75.638 75.726 75.745 75.749 75.832 76.698 75.848 75.768 75.758 75.712 75.777 75.818 75.843 75.881 79.199 85.772 87.064 86.63 87.24 88.006 88.159 85.966 85.93 88.95 89.111 87.001 82.258 87.396 87.965 80.548 77.811 78.752 83.041 84.463 77.567 75.824 77.344 81.842 82.48 81.491 80.192 75.879 75.212 75.789 75.526 75.478 75.3 75.583 75.289 75.279 75.294 75.341 75.811 76.01 76.054 76.048 75.898 76.014 76.008 75.972 77.143 78.196 84.611 86.239 82.474 78.672 79.442 80.997 81.058 81.115 81.17 81.203 81.236 81.286 81.286 81.346 81.378 81.378 81.402 81.443 81.526 81.534 81.193 75.861 75.708 75.631 75.532 75.527 75.582 75.612 75.629 75.744 75.47 75.492 75.557 75.503 75.484 75.454 76.949 80.903 81.436 81.351 81.529 81.57 82.051 81.898 82.217 82.131 82.266 82.188 82.272 81.897 82.046 81.822 81.802 81.502 81.544 81.222 80.895 80.943 80.593 80.718 80.335 80.419 80.108 80.155 79.847 79.765 79.773 -9999 -9999 -9999 -9999 -9999 -9999 -9999 -9999 -9999 -9999 -9999 -9999 -9999 -9999 -9999 -9999 -9999 -9999 -9999 -9999 -9999 -9999 -9999 -9999 -9999 -9999 -9999 -9999 -9999 -9999 -9999 -9999 -9999 -9999 -9999 -9999 -9999 -9999 -9999 -9999 -9999 -9999 -9999 -9999 -9999 -9999 -9999 -9999 -9999 -9999 -9999 -9999 -9999 -9999 -9999 -9999 -9999 -9999 -9999 -9999 -9999 -9999 -9999 -9999 -9999 -9999 -9999 -9999 -9999 -9999 -9999 -9999 -9999
44.729 44.509 44.396 44.144 44.016 43.966 44.003 43.961 43.978 43.971 45.177 49.206 47.92 44.898 45.641 46.634 51.04 46.851 50.251 49.895 48.179 44.17 44.02 44.058 44.013 44.124 44.202 44.828 47.717 48.525 46.266 45.528 44.626 47.304 48.264 48.291 48.315 48.381 48.552 48.393 49.88 50.178 50.529 50.86 51.169 51.421 51.743 51.351 50.93 50.595 50.35 50.057 51.23 51.698 51.902 52.343 52.63 52.958 53.079 52.783 52.442 52.152 51.789 51.358 45.541 46.882 46.349 44.47 44.363 44.414 44.412 44.427 44.45 44.44 44.456 44.647 48.705 47.047 46.384 50.608 52.026 50.009 52.929 54.111 55.001 54.962 52.334 54.81 55.379 55.601 54.276 56.094 55.721 56.034 56.525 56.703 57.05 57.247 57.565 57.86 58.231 58.644 59.125 59.398 59.811 60.468 60.666 62.728 64.127 62.722 61.959 62.92 63.74 63.866 63.684 63.978 63.277 61.611 60.827 65.599 64.872 64.946 65.039 64.991 60.502 61.643 64.464 64.462 65.753 68.085 68.974 69.46 70.015 70.765 70.505 71.037 70.788 70.876 71.041 71.265 71.542 71.735 72.946 77.972 79.467 78.411 73.305 72.166 72.288 72.295 72.194 72.261 72.283 72.444 73.609 73.066 72.83 73.07 74.333 73.128 76.211 75.642 73.096 73.078 73.292 73.279 73.37 73.382 73.466 73.517 73.46 73.473 74.277 74.07 75.51 74.192 74.656 73.8 73.821 73.802 74.113 74.223 73.885 73.853 74.438 76.077 77.141 74.053 78.846 79.757 80.006 79.484 75.487 74.319 78.016 80.211 78.847 74.991 74.547 74.733 74.66 74.62 75.221 75.585 74.72 74.794 74.61 74.609 74.681 74.874 74.971 74.95 74.921 74.835 74.661 74.59 74.606 74.627 74.978 75.827 75.01 74.834 75.846 79.326 81.579 81.72 75.741 75.187 74.851 74.827 74.919 75.203 75.122 75.136 75.443 75.458 75.635 75.773 75.736 77.42 75.839 77.006 76.168 75.83 75.812 75.832 75.883 75.902 75.997 76.032 75.901 77.902 79.515 82.506 84.271 86.892 86.939 85.694 85.311 86.044 86.197 87.026 89.124 88.608 87.358 87.623 86.214 77.752 77.665 75.804 75.347 75.768 76.883 80.061 81.031 78.71 77.419 75.171 75.289 75.839 75.765 75.511 75.344 75.316 75.331 75.36 76.479 76.259 75.923 76.009 76.003 76.593 75.722 76.04 76.014 76.063 80.501 82.34 87.223 88.311 86.749 83.986 76.986 81.193 81.303 81.36 81.363 81.405 81.462 81.524 81.52 81.567 81.636 81.643 81.652 81.706 81.712 81.755 81.786 77.032 75.736 75.643 75.603 75.569 75.577 75.61 75.611 75.937 75.488 75.476 75.508 75.524 75.492 75.475 76.957 82.023 82.195 82.251 82.125 82.318 82.105 82.089 81.755 81.912 81.634 81.44 81.318 81.033 80.98 80.733 80.718 80.359 80.466 80.1 80.23 79.968 79.908 79.819 79.964 79.726 80.07 79.974 80.32 80.154 80.544 81.103 -9999 -9999 -9999 -9999 -9999 -9999 -9999 -9999 -9999 -9999 -9999 -9999 -9999 -9999 -9999 -9999 -9999 -9999 -9999 -9999 -9999 -9999 -9999 -9999 -9999 -9999 -9999 -9999 -9999 -9999 -9999 -9999 -9999 -9999 -9999 -9999 -9999 -9999 -9999 -9999 -9999 -9999 -9999 -9999 -9999 -9999 -9999 -9999 -9999 -9999 -9999 -9999 -9999 -9999 -9999 -9999 -9999 -9999 -9999 -9999 -9999 -9999 -9999 -9999 -9999 -9999 -9999 -9999 -9999 -9999 -9999 -9999
48.457 44.009 43.943 43.902 43.915 43.895 44.083 43.89 43.888 43.901 43.942 44.422 45.082 44.208 44.331 49.183 50.856 49.666 47.745 49.369 47.135 46.071 43.971 44.045 44.051 44.037 44.309 45.213 45.641 46.061 44.461 45.19 47.184 45.394 48.235 48.277 48.281 48.366 48.352 48.383 49.458 50.107 50.392 50.757 50.999 51.421 51.666 51.392 51.106 50.79 50.397 50.113 50.496 51.524 51.845 52.187 52.517 52.841 53.162 52.85 52.626 52.26 51.913 51.599 49.959 46.171 46.539 45.045 44.422 44.395 44.401 44.429 44.437 44.474 44.472 44.524 45.975 49.173 49.671 50.826 52.694 52.913 53.93 54.74 52.204 54.563 52.781 54.125 55.629 56.447 54.913 55.608 55.723 56.102 56.364 56.673 56.959 57.266 57.6 57.823 58.279 58.65 59.026 59.314 59.763 60.423 62.907 64.179 63.918 63.241 62.084 62.197 63.339 63.592 63.939 64.095 64.229 63.805 65.41 64.89 64.686 64.815 64.861 65.723 59.469 60.478 62.336 63.725 64.95 67.354 68.786 69.698 70.094 70.8 70.638 70.774 70.819 70.9 71.096 71.289 71.524 71.71 71.854 77.662 79.635 79.37 76.605 72.221 72.25 72.35 72.181 72.196 72.127 72.407 72.358 72.984 72.716 72.862 73.238 73.046 79.316 79.28 77.436 75.882 74.092 73.276 73.291 73.333 73.341 73.411 73.394 73.388 73.567 73.899 75.304 74.219 73.458 73.875 73.747 73.758 73.807 74.056 73.788 73.937 76.655 78.997 79.596 79.404 80.58 80.893 80.897 80.873 75.17 74.089 74.625 75.063 74.437 74.396 74.461 75.026 74.568 74.606 74.775 74.712 74.732 74.549 74.563 74.569 74.725 74.929 74.972 74.927 74.876 74.74 75.251 74.853 74.583 74.631 75.031 74.836 74.796 74.792 74.807 74.924 76.52 74.765 74.721 74.744 74.829 74.872 74.902 75.331 75.026 75.113 75.224 75.406 75.561 75.685 75.709 80.081 75.841 75.843 75.874 75.918 75.973 75.983 76.134 75.982 75.997 75.807 75.64 75.576 75.504 75.676 75.828 76.138 79.763 77.849 83.422 75.522 84.414 86.73 88.318 88.559 88.157 86.139 87.463 78.134 75.316 75.223 75.238 75.267 75.317 75.435 75.969 75.336 75.603 76.084 75.822 78.13 75.99 75.771 75.427 75.386 75.377 75.416 75.775 76.027 75.988 76.251 76.021 75.813 75.759 75.831 76.073 76.07 79.922 84.905 87.372 88.276 85.742 83.072 76.513 81.458 81.533 81.532 81.583 81.615 81.692 81.698 81.719 81.771 81.834 81.761 81.855 81.764 81.704 81.659 81.522 75.917 75.773 75.673 75.641 75.662 75.618 75.615 75.603 75.876 75.499 75.479 75.543 75.491 75.525 75.459 76.508 81.976 82.006 81.705 81.746 81.376 81.239 81.182 80.888 80.829 80.611 80.535 80.285 80.446 80.002 80.143 79.848 79.833 79.574 80.013 79.974 80.304 80.153 80.546 80.437 80.708 80.999 80.905 81.361 81.187 81.529 81.647 82.037 -9999 -9999 -9999 -9999 -9999 -9999 -9999 -9999 -9999 -9999 -9999 -9999 -9999 -9999 -9999 -9999 -9999 -9999 -9999 -9999 -9999 -9999 -9999 -9999 -9999 -9999 -9999 -9999 -9999 -9999 -9999 -9999 -9999 -9999 -9999 -9999 -9999 -9999 -9999 -9999 -9999 -9999 -9999 -9999 -9999 -9999 -9999 -9999 -9999 -9999 -9999 -9999 -9999 -9999 -9999 -9999 -9999 -9999 -9999 -9999 -9999 -9999 -9999 -9999 -9999 -9999 -9999 -9999 -9999 -9999 -9999
45.416 43.876 43.905 43.92 43.925 43.977 46.915 47.413 44.402 43.886 43.882 43.967 43.964 44.036 44.239 50.15 49.139 48.538 46.525 47.656 47.859 48.051 44.037 44.002 44.1 44.055 44.333 44.487 44.264 44.226 44.265 47.004 47.449 45.272 47.459 48.277 48.311 48.319 48.387 48.391 49.271 50 50.286 50.604 50.866 51.309 51.536 51.497 51.243 50.865 50.539 50.263 50.829 51.128 51.806 52.057 52.339 52.713 53.077 53.021 52.692 52.399 52.035 51.757 51.406 45.792 44.917 45.369 44.375 44.403 44.421 44.394 44.435 44.425 44.488 44.478 44.755 48.909 52.002 51.132 50.247 51.146 53.073 55.312 54.294 51.773 53.353 52.506 55.612 56.811 56.222 55.411 55.409 55.982 56.593 56.711 56.935 57.198 57.442 57.857 58.257 58.786 59.109 59.302 59.596 60.38 62.659 63.795 62.821 63.855 62.901 62.304 62.667 63.613 63.84 64.18 64.204 64.659 65.009 64.457 64.481 64.613 65.58 60.128 59.36 59.898 61.938 63.183 64.499 66.359 68.554 69.802 70.083 70.959 70.987 71.114 70.911 70.947 71.075 71.276 71.523 71.701 71.83 77.59 79.042 78.959 76.887 72.191 72.228 72.321 72.269 72.076 72.113 72.279 72.375 73.142 72.593 72.623 72.887 75.991 79.785 80.264 79.688 78.737 74.453 73.259 73.169 73.26 73.382 73.237 73.307 73.252 73.596 73.635 73.253 73.245 73.304 74.316 73.674 73.701 74.019 77.048 77.853 78.608 79.427 80.688 80.658 80.945 80.606 80.188 79.837 79.264 74.36 73.814 74.41 74.431 74.359 74.383 74.417 74.471 75.076 74.672 74.567 74.533 74.845 74.652 74.561 74.599 74.854 74.907 74.913 74.836 74.654 74.639 75.226 75.049 74.89 74.571 74.561 74.887 75.225 74.84 74.823 75.792 74.757 74.664 74.702 74.764 74.82 74.839 74.901 74.969 75.039 75.125 75.243 75.448 75.601 75.75 75.78 75.747 75.841 75.918 75.988 76.031 76.101 76.027 75.859 75.776 75.716 75.747 77.127 76.397 75.564 75.654 76.734 75.808 75.421 74.964 76.226 75.024 74.998 74.848 78.061 79.488 86.71 87.259 84.611 76.066 75.178 76.298 75.21 75.635 75.277 75.415 76.692 82.138 75.473 77.185 80.225 76.891 76.424 75.639 75.477 75.429 75.479 75.854 76.073 76.149 76.24 75.964 75.867 76.09 75.956 75.813 75.98 76.164 80.515 83.966 86.539 86.95 86.105 76.452 76.094 81.602 81.696 81.78 81.794 81.75 81.699 81.73 81.637 81.661 81.644 81.618 81.629 81.448 81.447 81.442 81.414 79.943 75.824 75.677 75.639 75.749 75.674 75.622 75.62 75.949 75.514 75.492 75.562 75.513 75.477 75.478 75.792 80.942 80.934 80.595 80.701 80.368 80.409 80.042 80.141 79.799 79.9 79.804 79.937 79.91 80.176 80.089 80.461 80.33 80.606 80.946 80.858 81.321 81.265 81.513 81.417 81.755 81.762 82.084 81.897 82.27 82.018 82.367 81.998 80.202 -9999 -9999 -9999 -9999 -9999 -9999 -9999 -9999 -9999 -9999 -9999 -9999 -9999 -9999 -9999 -9999 -9999 -9999 -9999 -9999 -9999 -9999 -9999 -9999 -9999 -9999 -9999 -9999 -9999 -9999 -9999 -9999 -9999 -9999 -9999 -9999 -9999 -9999 -9999 -9999 -9999 -9999 -9999 -9999 -9999 -9999 -9999 -9999 -9999 -9999 -9999 -9999 -9999 -9999 -9999 -9999 -9999 -9999 -9999 -9999 -9999 -9999 -9999 -9999 -9999 -9999 -9999 -9999 -9999 -9999
43.947 43.958 43.934 44.255 49.073 50.384 46.501 48.833 46.453 44.495 43.885 43.898 43.948 44.012 44.029 44.19 47.111 49.033 49.217 47.823 48.47 48.737 46.07 44.152 44.125 44.092 44.221 44.276 44.144 44.21 44.268 46.639 45.02 44.378 45.269 48.223 48.269 48.339 48.359 48.346 48.376 49.731 50.174 50.424 50.776 51.054 51.426 51.571 51.32 51.022 50.647 50.369 50.577 51.044 51.642 51.999 52.289 52.599 52.913 53.133 52.899 52.507 52.121 51.812 51.569 46.526 44.444 44.404 44.383 44.361 44.394 44.432 44.437 44.435 44.475 44.486 44.57 45.817 48.62 49.676 52.438 52.758 52.627 55.417 56.057 55.089 55.055 52.282 53.408 54.874 56.425 55.974 55.774 55.904 56.438 56.774 56.981 57.234 57.583 58.086 58.423 58.827 59.174 59.359 59.711 60.294 60.515 60.935 61.643 63.049 63.616 62.607 62.562 63.076 63.543 64.391 64 64.473 64.312 64.328 64.366 64.396 65.392 59.28 59.386 59.448 60.836 62.312 63.726 66.227 67.698 69.428 69.956 70.504 70.996 70.893 70.983 70.976 71.081 71.256 71.403 71.68 71.873 76.277 78.798 79.293 77.432 72.231 72.193 72.355 72.216 72.119 72.117 72.201 72.328 72.578 72.465 72.654 72.823 73.956 77.514 78.885 79.921 79.925 78.432 75.112 73.213 73.11 73.151 73.473 73.111 73.114 73.481 73.667 73.114 73.193 73.286 74.456 76.414 78.747 78.806 79.908 80.476 80.891 80.796 80.697 80.25 79.839 79.347 77.596 76.323 74.295 73.856 73.947 74.768 74.387 74.417 74.363 74.558 74.785 74.47 74.457 74.568 74.465 75.042 74.401 74.449 74.747 74.871 74.867 74.702 75.255 75.225 74.785 74.718 74.788 74.793 74.605 74.504 74.524 75.661 76.173 76.136 75.29 74.665 74.664 74.745 74.779 74.797 74.836 74.95 74.91 75.064 75.097 75.216 75.327 75.625 75.548 75.816 75.792 75.848 75.894 75.836 75.815 75.894 75.88 76.045 76.027 75.757 78.508 79.038 76.866 75.496 76.009 75.842 77.125 75.195 74.921 76.184 74.989 74.904 74.896 75.077 81.991 84.237 85.357 80.989 76.448 75.148 75.196 76.586 75.22 75.831 83.07 85.849 84.698 79.603 77.207 83.966 84.128 77.233 75.635 75.471 75.543 75.605 75.888 75.852 75.965 75.914 76.231 76.294 77.728 78.574 76.417 75.961 76.145 76.094 81.995 85.947 86.191 85.434 83.461 76.137 81.426 81.661 81.675 81.579 81.538 81.525 81.509 81.462 81.44 81.405 81.345 81.347 81.325 81.294 81.26 81.217 80.612 75.948 75.726 75.698 75.738 75.679 75.612 75.625 75.711 75.499 75.526 75.512 75.496 75.458 75.469 75.682 78.771 79.867 80.081 79.617 79.886 79.639 80.088 80.057 80.402 80.292 80.635 80.505 80.865 81.155 81.079 81.405 81.347 81.743 81.651 81.982 81.855 82.299 82.006 82.425 82.085 82.261 81.932 82.038 81.678 81.729 81.378 81.182 79.452 79.146 -9999 -9999 -9999 -9999 -9999 -9999 -9999 -9999 -9999 -9999 -9999 -9999 -9999 -9999 -9999 -9999 -9999 -9999 -9999 -9999 -9999 -9999 -9999 -9999 -9999 -9999 -9999 -9999 -9999 -9999 -9999 -9999 -9999 -9999 -9999 -9999 -9999 -9999 -9999 -9999 -9999 -9999 -9999 -9999 -9999 -9999 -9999 -9999 -9999 -9999 -9999 -9999 -9999 -9999 -9999 -9999 -9999 -9999 -9999 -9999 -9999 -9999 -9999 -9999 -9999 -9999 -9999 -9999 -9999
43.929 44.131 49.149 51.239 51.644 51.564 51.1 47.959 44.325 43.825 43.864 43.867 43.924 43.949 44.013 44.165 44.3 45.026 49.587 48.686 49.295 50.314 45.759 44.077 44.166 44.178 44.111 44.257 44.246 44.201 44.265 44.349 44.298 44.311 44.674 48.212 48.266 48.311 48.309 48.364 48.351 49.314 50.086 50.333 50.659 50.933 51.33 51.628 51.423 51.103 50.801 50.482 50.125 50.41 51.51 51.803 52.15 52.49 52.794 53.14 52.918 52.66 52.369 51.959 51.634 50.153 45.738 44.386 44.317 44.381 44.365 44.362 44.422 44.46 44.459 44.449 44.548 46.116 48.697 51.406 50.835 51.987 52.062 54.064 56.707 55.643 55.988 52.361 52.468 54.995 56.781 57.977 58.603 59.061 56.821 56.729 57.173 57.613 58.017 58.088 58.37 58.701 59.055 59.409 59.689 60.203 60.417 60.899 61.515 62.095 63.068 63.158 62.624 62.797 63.316 64.068 64.163 64.457 64.057 64.129 64.232 64.278 60.484 59.21 59.312 59.423 60.288 61.677 63.306 65.916 66.906 69.407 70.159 70.604 71.207 71.051 71.483 71.078 71.162 71.273 71.476 71.658 71.725 74.797 78.593 79.443 78.124 72.774 72.152 72.212 72.282 72.133 72.134 72.097 72.264 72.349 72.46 72.566 72.606 72.767 74.077 77.452 79.146 79.704 80.189 79.589 77.719 74.099 73.75 74.272 77.023 77.085 78.062 76.544 77.258 77.397 75.773 74.115 75.062 80.46 80.85 80.865 80.695 80.347 79.784 79.155 76.351 76.107 74.526 73.946 73.784 73.849 73.898 73.989 74.666 75.118 74.417 74.207 74.24 74.38 74.384 74.413 75.104 74.512 74.389 74.38 74.703 74.8 74.77 74.641 75.387 74.797 74.775 74.797 74.693 74.74 74.793 74.695 74.5 74.541 74.557 74.544 74.638 74.58 74.679 74.687 74.735 74.777 74.81 76.588 78.639 76.203 75.515 77.987 76.068 77.326 75.399 75.4 75.492 75.547 75.617 75.728 75.898 75.891 76.029 76.023 76.221 76.094 75.519 77.257 77.114 76.595 75.352 75.854 75.358 75.035 75.185 74.889 75.837 74.845 74.675 74.712 76.64 78.103 79.583 76.426 75.275 75.117 75.155 74.927 75.117 74.818 83.028 86.628 89.246 89.164 88.596 85.27 82.329 79.752 83.668 75.881 75.36 75.442 75.44 75.617 75.561 75.656 76.923 78.361 77.531 79.476 79.571 77.855 75.943 76.084 76.13 76.279 78.034 83.39 83.259 78.364 76.125 78.784 81.467 81.444 81.425 81.316 81.311 81.323 81.249 81.218 81.191 81.193 81.092 81.088 81.061 81.061 80.983 80.64 76.123 75.824 75.91 75.823 75.655 75.587 75.642 75.744 75.837 75.541 75.5 75.488 75.44 75.494 79.37 79.836 80.219 80.213 80.42 80.401 80.855 80.773 81.014 81.231 81.193 81.616 81.534 81.877 81.846 82.227 82.076 82.511 82.15 82.416 81.944 82.116 81.806 81.839 81.464 81.593 81.267 81.285 80.995 80.603 80.673 80.393 80.449 79.442 78.76 78.522 77.07 -9999 -9999 -9999 -9999 -9999 -9999 -9999 -9999 -9999 -9999 -9999 -9999 -9999 -9999 -9999 -9999 -9999 -9999 -9999 -9999 -9999 -9999 -9999 -9999 -9999 -9999 -9999 -9999 -9999 -9999 -9999 -9999 -9999 -9999 -9999 -9999 -9999 -9999 -9999 -9999 -9999 -9999 -9999 -9999 -9999 -9999 -9999 -9999 -9999 -9999 -9999 -9999 -9999 -9999 -9999 -9999 -9999 -9999 -9999 -9999 -9999 -9999 -9999 -9999 -9999 -9999 -9999
46.734 50.529 51.595 51.965 52.04 51.642 51.367 45.587 43.885 43.864 43.868 43.903 43.896 43.947 44.027 44.023 44.243 45.02 48.435 48.367 48.42 48.534 46.888 44.155 44.081 44.166 44.136 44.263 44.259 44.236 44.282 44.285 44.31 44.311 44.769 47.326 48.254 48.267 48.325 48.323 48.348 48.62 49.852 50.198 50.537 50.908 51.195 51.554 51.614 51.29 50.94 50.602 50.242 50.279 51.156 51.74 52.064 52.326 52.736 52.96 53.059 52.746 52.422 52.109 51.787 51.453 46.951 44.487 44.537 44.378 44.37 44.395 44.415 44.394 44.47 44.763 45.219 44.899 47.417 50.408 52.116 51.746 51.554 54.808 56.124 55.745 52.314 51.541 52.224 53.335 56.393 58.552 60.213 59.989 57.568 56.946 58.221 57.847 58.384 58.407 58.408 58.691 58.973 59.289 59.684 60.14 60.35 60.746 61.706 62.024 62.963 63.504 62.945 62.785 62.936 63.611 63.795 63.823 63.837 63.938 64.032 65.087 59.1 59.074 59.328 59.46 59.812 61.382 62.387 64.065 65.576 68.195 69.944 70.187 71.14 71.385 72.485 73.267 71.242 71.259 71.436 71.76 71.848 73.23 73.516 71.833 71.963 71.998 72.081 72.202 72.324 72.193 72.093 72.093 72.129 72.299 72.335 72.535 72.481 72.56 72.865 72.753 74.358 78.725 79.451 80.074 74.957 72.939 73.958 79.348 79.781 79.863 79.79 79.938 80.064 79.915 75.276 74.806 73.698 79.075 80.396 79.811 79.137 79.01 76.126 73.983 73.783 73.704 74.419 73.817 73.784 74.34 74.599 74.05 74.081 74.188 74.242 74.277 74.273 74.222 74.21 74.751 74.56 74.29 74.407 74.462 74.649 74.623 75.279 75.134 74.774 74.725 74.746 74.884 74.745 77.99 80.562 78.839 74.588 74.446 74.548 74.584 74.644 74.669 74.656 74.714 74.743 74.802 77.351 78.65 79.713 79.826 78.587 79.869 80.168 78.088 75.447 75.47 75.527 75.679 75.837 76.026 76.385 76.919 76.199 76.472 77.451 75.476 75.568 76.034 75.465 75.246 75.3 76.673 76.004 76.186 74.647 76.13 76.657 74.668 77.458 77.431 75.404 77.524 75.218 74.534 74.883 74.642 74.605 75.369 74.647 74.643 83.102 88.333 90.035 87.238 79.881 88.549 88.539 83.989 88.826 83.516 77.254 75.437 75.603 76.147 75.638 75.761 76.386 77.434 77.347 78.812 78.333 78.238 76.169 75.939 76.199 76.254 77.182 77.406 76.768 76.825 76.221 79.831 81.225 81.268 81.176 81.162 81.106 81.091 81.05 81.019 80.993 80.928 80.886 80.835 80.676 77.87 78.931 77.02 75.859 75.803 75.814 75.858 75.74 75.667 75.659 75.669 75.894 75.523 75.828 81.683 80.683 82.922 83.547 82.726 81.268 81.067 81.451 81.572 81.788 81.692 82.202 82.006 82.446 82.181 82.464 82.063 82.169 81.85 81.918 81.634 81.55 81.237 81.278 81.032 81.086 80.845 80.384 80.423 80.198 79.688 79.838 78.775 78.761 76.773 76.603 78.609 75.798 80.733 77.627 -9999 -9999 -9999 -9999 -9999 -9999 -9999 -9999 -9999 -9999 -9999 -9999 -9999 -9999 -9999 -9999 -9999 -9999 -9999 -9999 -9999 -9999 -9999 -9999 -9999 -9999 -9999 -9999 -9999 -9999 -9999 -9999 -9999 -9999 -9999 -9999 -9999 -9999 -9999 -9999 -9999 -9999 -9999 -9999 -9999 -9999 -9999 -9999 -9999 -9999 -9999 -9999 -9999 -9999 -9999 -9999 -9999 -9999 -9999 -9999 -9999 -9999 -9999 -9999 -9999 -9999 -9999
51.633 51.946 52.213 52.37 52.131 51.881 51.514 48.197 44.113 43.894 43.833 43.84 43.906 43.977 43.987 43.979 44.123 44.395 47.619 48.087 49 47.708 45.122 44.188 44.165 44.188 44.107 44.263 44.342 44.258 44.29 44.215 44.334 44.321 44.339 45.632 48.279 48.263 48.319 48.332 48.349 48.383 49.527 50.114 50.408 50.742 51.118 51.412 51.684 51.333 51.05 50.743 50.39 50.09 50.97 51.611 51.984 52.228 52.573 52.882 53.072 52.864 52.573 52.189 51.888 51.554 50.032 45.408 44.697 44.407 44.339 44.388 44.418 44.437 44.445 44.785 46.884 45.942 45.334 46.866 47.917 47.198 50.174 51.455 53.23 53.4 51.175 51.372 52.217 53.101 57.513 59.092 60.082 59.737 57.264 56.487 56.942 57.254 58.126 58.262 58.345 58.923 59.059 59.274 59.628 59.765 60.253 60.573 61.207 61.923 62.608 63.018 63.258 62.848 63.002 63.186 63.595 63.557 63.716 63.851 63.859 64.392 59.77 59.017 59.29 59.386 59.603 60.758 62.002 63.841 66.073 67.452 69.191 70.319 70.788 71.206 71.254 73.973 72.346 71.287 71.401 72.979 74.166 72.735 71.865 71.893 75.788 73.67 73.038 72.267 72.29 72.217 72.635 73.106 72.052 72.166 72.356 72.374 72.365 72.451 72.575 72.7 72.715 72.964 78.432 76.015 73.634 73.167 73.765 79.98 80.002 80.11 79.859 79.898 79.817 79.88 78.223 73.594 73.977 74.952 77.871 75.167 73.584 73.57 73.626 73.719 73.876 73.754 73.907 73.824 74.001 74.171 73.907 73.99 74.14 74.122 74.047 74.847 74.72 74.105 74.155 74.146 74.256 74.345 74.441 74.512 74.614 74.842 74.778 74.722 74.705 75.124 75.038 75.682 78.937 81.818 81.908 80.626 75.895 74.539 74.574 74.625 74.646 74.683 74.699 74.733 74.804 75.184 78.019 80.385 80.349 78.822 78.67 79.217 78.828 75.745 75.485 75.67 75.767 78.264 78.767 76.408 75.959 77.993 75.291 76.432 77.876 75.541 75.343 75.01 76.942 74.989 74.988 75.043 75.728 78.448 77.002 77.199 76.278 74.777 79.297 80.878 80.532 78.315 75.516 75.143 74.673 74.51 74.569 74.575 74.647 74.808 78.388 88.987 89.078 84.824 88.655 78.657 90.746 89.945 88.621 83.933 75.803 75.713 76.938 76.521 75.846 75.781 76.085 77.689 78.723 77.074 76.716 77.456 76.474 75.996 76.219 76.213 76.298 76.26 78.605 84.144 84.19 81.926 81.047 81.028 80.991 80.922 80.918 80.76 80.611 79.883 77.407 80.461 79.981 80.491 81.144 76.759 76.042 75.909 75.868 75.803 75.657 75.821 75.663 75.638 75.668 75.654 76.047 75.868 77.907 82.874 83.259 83.273 83.26 83.344 81.86 82.219 82.081 82.454 82.074 82.301 81.915 82.108 81.639 81.697 81.442 81.477 81.019 81.101 80.88 80.608 80.493 80.255 80.264 79.899 79.634 79.385 78.456 76.56 78.82 76.79 81.734 78.256 81.594 81.246 82.24 82.444 82.454 82.518 82.529 82.207 -9999 -9999 -9999 -9999 -9999 -9999 -9999 -9999 -9999 -9999 -9999 -9999 -9999 -9999 -9999 -9999 -9999 -9999 -9999 -9999 -9999 -9999 -9999 -9999 -9999 -9999 -9999 -9999 -9999 -9999 -9999 -9999 -9999 -9999 -9999 -9999 -9999 -9999 -9999 -9999 -9999 -9999 -9999 -9999 -9999 -9999 -9999 -9999 -9999 -9999 -9999 -9999 -9999 -9999 -9999 -9999 -9999 -9999 -9999 -9999 -9999 -9999 -9999 -9999 -9999 -9999
