ncols 433
nrows 32
xllcorner    429134
yllcorner    432650
cellsize     2
NODATA_value -9999
29.584 29.567 29.538 29.533 29.482 29.376 29.368 29.356 29.306 29.335 29.39 29.495 29.445 29.31 29.268 29.239 29.281 29.333 29.319 29.339 29.366 29.369 29.369 29.367 29.415 29.435 29.401 29.958 29.49 29.647 29.563 29.519 29.55 29.468 29.451 29.401 29.386 29.401 29.398 29.379 29.413 29.386 29.423 29.417 29.396 29.76 33.98 34.589 35.21 34.52 34.625 35.191 34.732 34.08 35.009 34.976 34.381 31.578 29.479 29.513 29.55 30.082 32.848 32.973 33.54 33.519 33.623 33.473 33.43 33.354 35.16 33.18 33.179 33.161 33.151 33.211 33.728 33.881 33.425 31.408 28.606 28.25 28.296 28.314 28.29 29.015 28.396 30.159 29.473 28.658 28.362 28.367 28.28 28.291 28.359 28.432 28.412 28.45 28.481 28.444 28.457 28.471 28.454 28.588 29.286 31.326 36.764 37.987 37.643 37.569 37.821 33.213 31.863 34.754 34.878 34.713 34.669 33.869 32.901 32.113 29.138 28.298 28.194 28.189 28.26 28.227 28.179 28.419 28.53 28.435 28.468 28.629 28.619 28.732 28.553 28.589 28.658 28.639 28.53 28.329 28.245 28.321 28.393 28.882 28.687 28.183 28.145 28.022 28.04 27.976 28.702 28.003 29.976 30.083 29.142 29.044 29.16 29.152 29.146 29.137 29.077 29.111 29.002 28.988 28.987 28.956 28.999 28.952 28.993 29.008 29.023 29.041 30.171 29.667 29.678 29.661 29.617 29.661 29.666 32.765 33.476 33.91 32.969 33.267 33.373 33.685 37.684 37.22 36.962 37.028 36.825 36.721 36.675 36.684 36.604 36.482 37.291 36.713 36.66 36.668 36.937 36.179 36.671 36.661 36.697 36.664 36.691 36.712 36.71 36.728 36.712 36.743 37.185 37.381 36.712 36.666 36.674 37.07 37.147 36.91 36.704 35.341 29.659 28.122 28.005 28.07 28.055 28.029 28.116 32.566 34.56 34.832 35.036 35.218 35.426 35.485 35.322 35.214 35.145 35.053 34.956 34.898 34.805 29.754 28.279 28.189 28.133 28.197 28.183 28.212 28.158 28.216 32.317 34.183 34.148 34.17 34.099 34.006 34.014 33.979 33.98 33.885 33.804 33.818 33.671 33.741 30.744 29.153 29.696 28.255 28.149 28.059 28.182 28.162 28.157 28.191 28.16 28.18 28.147 28.125 28.096 28.152 28.156 28.157 28.158 28.101 28.107 28.091 28.116 28.142 28.127 28.177 28.115 28.211 28.153 28.155 28.182 28.16 28.15 28.18 28.216 28.198 28.238 28.246 28.189 28.217 28.237 28.195 28.156 28.165 28.158 28.118 28.173 28.142 28.157 28.26 28.274 28.239 28.293 28.391 28.466 28.348 31.185 28.646 29.6 32.103 29.957 32.406 32.766 33.83 33.995 34.198 33.639 32.828 33.582 33.477 33.578 33.791 33.993 34.232 34.408 34.326 34.116 33.971 33.71 33.524 33.459 33.667 33.849 34.063 34.249 34.436 34.308 34.045 33.864 33.718 33.391 28.41 29.315 42.949 42.859 42.864 42.862 42.838 42.85 42.839 42.806 43.001 45.961 49.808 51.637 51.637 51.634 52.515 52.434 51.751 51.675 51.713 51.79 51.438 43.484 30.127 30.135 30.47 29.46 29.19 28.723 28.096 28.025 28.115 28.182 28.228 28.224 28.637 28.143 27.99 27.978 27.954 27.849 27.774 27.719 27.653 27.599 27.573 27.673 27.755 32.981 34.581 34.714 33.467 28.301 28.703 30.202 34.812 35.474 35.93 36.298 36.831 37.243 37.342 36.826 36.491 36.756 37.277 37.63 37.134 36.649 36.143 35.375 30.727 29.711 33.179 28.209
29.599 30.172 31.096 30.269 29.604 29.424 29.755 29.443 29.385 29.332 29.348 29.404 29.437 29.367 29.237 29.228 29.267 29.273 29.344 29.376 29.339 29.316 29.268 29.314 29.5 30.24 29.387 29.252 29.6 29.539 29.811 29.802 29.551 29.536 29.471 29.428 29.406 29.348 29.35 29.371 29.405 29.389 29.348 29.385 29.369 29.378 30.073 33.638 34.298 33.81 34.681 34.743 34.23 34.658 34.894 34.094 31.888 29.929 29.443 29.54 29.543 29.561 34.022 34.806 34.079 33.361 33.458 33.394 33.385 33.257 33.194 33.137 33.138 33.275 33.214 33.206 33.696 33.803 33.939 29.672 28.419 29.089 28.333 28.323 28.312 28.343 28.325 28.843 28.351 28.39 28.349 28.905 29.814 30.576 30.688 28.552 28.514 28.448 28.469 28.504 28.473 28.489 28.525 28.499 28.497 28.662 37.05 37.676 37.671 37.702 37.982 30.016 28.61 30.296 29.895 30.046 28.616 28.775 29.251 28.424 28.331 28.272 28.18 28.165 28.23 28.243 28.198 28.484 28.74 28.491 28.528 28.676 28.651 28.65 28.546 28.486 28.655 28.568 28.655 28.438 28.317 28.329 28.232 28.176 28.267 28.13 28.298 27.952 28.101 28.01 28.768 28.917 29.162 28.565 28.725 29.003 29.114 29.077 29.039 29.043 28.976 28.953 28.906 28.901 28.897 28.904 28.889 28.863 28.889 31.392 29.089 32.413 31.463 29.819 29.644 29.668 29.636 29.649 29.687 29.8 33.409 34.153 33.48 34.054 35.852 36.336 36.944 36.672 36.668 36.717 37.099 36.772 36.665 36.703 37.056 37.692 36.336 36.706 36.69 36.726 36.704 36.7 36.683 36.648 36.689 36.689 36.72 36.73 36.729 36.693 36.71 36.753 37.789 37.54 36.791 36.681 36.716 36.776 36.728 36.733 36.736 35.855 30.035 28.221 28.06 28.122 28.07 27.992 28.132 28.416 33.496 34.746 34.929 35.127 35.282 35.225 35.12 35.058 34.887 34.815 34.774 34.68 34.599 33.576 29.093 28.19 28.211 28.164 28.172 28.169 28.181 28.173 29.222 33.898 33.998 33.862 33.936 33.807 33.801 33.828 33.738 33.625 33.403 29.771 29.16 29.223 28.542 28.394 28.284 28.144 28.097 28.083 28.128 28.087 28.171 28.166 28.222 28.185 28.141 28.177 28.163 28.174 28.149 28.146 28.172 28.191 28.15 28.128 28.113 28.132 28.163 28.11 28.22 28.137 28.138 28.184 28.131 28.153 28.119 28.097 28.162 28.138 28.144 28.144 28.159 28.173 28.204 28.276 28.305 28.291 28.312 28.37 30.625 28.214 28.417 33.102 32.237 33.122 33.745 33.36 34.311 33.559 32.928 33.62 33.478 33.605 33.758 33.961 34.164 34.308 34.369 34.265 33.998 33.797 33.592 33.461 33.59 33.784 34.012 34.172 34.43 34.453 34.153 33.922 33.707 33.592 33.44 33.663 33.87 34.001 34.238 34.421 34.414 34.053 33.859 33.757 33.539 29.724 28.281 40.199 42.844 42.851 42.847 42.85 42.853 42.856 42.838 42.879 42.903 47.075 52.43 51.856 52.324 52.757 53.164 51.798 51.613 51.685 51.741 51.799 51.871 45.699 30.593 32.369 29.231 28.623 28.341 27.948 27.982 28.079 28.194 28.263 35.851 37.129 28.3 28.116 27.989 27.938 27.864 27.831 27.76 27.71 27.655 27.602 27.555 27.573 31.116 34.055 34.388 33.608 29.665 28.328 29.018 33.694 35.026 35.327 35.845 36.249 36.798 37.273 37.357 37.051 37.249 37.839 37.396 36.891 36.197 35.663 33.404 31.736 30.598 35.134 34.704
32.197 32.385 32.293 31.446 30.481 29.905 29.163 29.335 29.343 29.334 29.398 29.422 29.403 29.343 29.177 29.232 29.256 29.293 29.345 29.309 29.284 29.265 29.202 29.303 30.465 29.944 29.207 29.294 29.29 29.291 29.323 29.772 29.647 29.72 29.55 29.466 29.444 29.38 29.369 29.355 29.369 29.399 29.377 29.403 29.331 29.365 29.356 30.427 33.413 29.904 30.392 33.08 34.692 34.991 34.104 33.519 30.202 29.397 29.411 29.478 29.741 34.597 35.499 35.106 33.693 33.417 33.426 33.421 33.427 33.283 33.121 33.169 33.205 33.206 33.132 33.107 33.857 33.861 33.989 28.725 29.031 28.686 28.341 28.375 28.358 28.345 28.353 28.379 28.343 28.408 28.415 28.474 31.271 31.513 31.505 31.505 30.934 31.114 28.612 28.471 28.547 28.528 28.549 28.545 28.731 36.773 37.91 37.691 37.687 37.536 28.76 28.637 28.633 28.627 28.609 28.604 28.582 28.534 28.472 28.435 28.331 28.271 28.183 28.227 28.272 28.196 28.276 28.439 28.471 28.548 28.737 28.677 28.657 28.588 28.585 28.549 28.571 28.457 28.357 28.252 28.283 28.357 28.261 28.1 28.517 28.103 27.918 27.904 27.951 28.064 28.415 28.21 28.371 28.506 28.698 28.99 29.025 29.022 28.959 28.918 28.898 28.858 28.806 28.796 28.797 28.824 28.828 29.002 32.398 33.819 33.296 33.892 31.648 29.753 29.676 29.698 29.716 29.846 29.811 34.35 35.785 36.469 36.722 36.661 36.7 36.702 36.689 36.74 36.679 33.145 36.434 37.059 36.723 36.72 36.712 36.769 36.783 36.696 36.718 36.69 36.764 36.714 36.667 36.666 36.637 36.672 36.728 37.823 37.732 36.746 36.706 36.703 36.94 36.444 36.739 36.702 36.722 36.739 36.742 36.779 36.744 36.738 36.061 28.464 28.036 28.098 28.07 28 28.062 28.161 32.57 34.657 34.855 35.047 35.118 35.03 34.926 34.866 34.77 34.664 34.592 34.534 34.53 34.491 31.147 28.157 28.17 28.172 28.231 28.178 28.173 28.323 28.364 33.71 33.713 33.147 30.675 30.717 29.647 29.621 28.699 28.234 28.134 28.224 28.138 28.217 28.083 28.108 28.019 28.073 28.09 28.101 28.146 28.181 28.237 28.183 28.2 28.172 28.194 28.144 28.216 28.192 28.208 28.17 28.183 28.153 28.093 28.088 28.042 28.066 28.088 28.077 28.088 28.083 28.137 28.105 28.091 28.129 28.156 28.15 28.223 28.269 28.18 28.172 29.405 28.344 31.361 31.173 32.519 29.2 30.106 29.567 30.033 28.291 32.887 33.616 33.828 34.057 34.264 34.405 34.275 34.042 33.847 33.695 33.452 33.456 33.7 33.982 34.116 34.336 34.412 34.324 33.999 33.811 33.611 33.436 33.621 33.778 33.94 34.125 34.386 34.518 34.184 33.977 33.792 33.551 33.44 33.658 33.777 33.993 34.327 34.404 34.404 34.101 33.926 33.769 33.501 30.369 28.55 35.294 42.753 42.92 42.938 42.946 42.903 42.933 42.967 42.927 42.949 49.821 52.115 51.95 52.713 52.78 52.525 51.619 51.614 51.61 51.697 51.711 51.784 51.847 39.764 33.628 28.739 28.296 27.985 27.927 28.034 28.078 28.154 42.189 36.22 51.18 37.125 36.324 28.081 27.933 27.899 27.848 27.779 27.737 27.636 27.618 27.555 27.502 27.538 30.108 30.306 31.421 31.855 32.285 36.111 37.643 34.257 32.447 35.442 35.702 36.16 36.653 37.168 37.473 37.505 37.404 36.864 36.403 35.836 33.33 31.697 31.729 31.781 35.563 36.189
32.196 32.015 32.061 32.43 30.714 29.101 29.089 29.308 29.325 29.314 29.392 29.402 29.34 29.248 29.168 29.256 29.273 29.309 29.332 29.308 29.229 29.21 29.224 30.707 29.99 29.626 29.249 29.314 29.267 29.29 29.272 29.554 31.081 30.074 29.614 29.595 30.014 29.473 29.438 29.425 29.403 29.393 29.385 29.332 29.355 29.318 29.351 29.37 30.2 29.403 29.376 30.324 34.631 33.998 31.673 29.727 29.35 29.263 29.372 32.134 34.734 35.102 35.388 34.878 33.657 33.591 33.418 33.493 33.359 33.34 33.158 33.17 33.117 33.153 33.148 33.073 34.083 33.712 33.551 28.713 28.781 28.92 28.559 28.365 28.383 28.374 28.37 28.379 28.404 28.459 28.445 28.495 31.113 31.497 31.528 31.502 31.514 31.503 31.524 30.87 30.722 29.502 29.016 28.776 37.045 37.783 37.819 37.713 37.69 32.958 28.632 28.599 28.616 28.615 28.578 28.64 28.621 28.659 28.654 28.554 28.481 28.369 28.974 28.311 28.313 28.259 28.235 28.432 29.219 28.533 28.586 28.66 28.572 28.599 28.44 28.532 28.479 28.395 28.327 28.224 28.089 28.096 28.239 28.166 27.93 27.922 27.914 27.933 27.982 28.271 28.209 28.191 28.474 28.952 29.039 28.918 28.926 28.849 28.893 28.832 28.741 28.771 31.348 29.687 31.468 33.299 32.951 33.835 33.869 33.959 31.335 32.951 34.024 30.989 31.479 30.065 34.764 34.94 36.397 36.691 36.607 36.645 36.619 36.704 37.04 37.456 36.667 36.922 36.742 36.771 33.738 36.775 36.724 36.729 36.745 36.762 36.743 36.73 36.709 36.747 36.694 36.703 37.129 36.788 36.694 36.696 36.756 37.798 36.201 36.722 36.748 36.713 36.733 36.739 36.753 36.745 36.745 36.738 36.75 36.715 36.763 36.754 35.352 28.702 28.123 28.04 28.11 28.059 28.022 28.126 28.267 34.514 34.777 34.975 34.96 34.811 34.768 34.657 34.616 34.554 34.513 34.527 34.492 34.47 31.135 28.181 28.168 28.215 28.18 28.219 29.235 33.773 31.374 29.716 29.695 28.197 28.142 28.149 28.175 28.125 28.087 28.064 28.071 28.124 28.045 28.115 28.086 28.134 28.141 28.123 28.117 28.167 28.19 28.202 28.194 28.222 28.204 28.167 28.16 28.117 28.08 28.106 28.131 28.112 28.067 28.096 28.101 28.147 28.086 28.188 28.201 28.294 28.279 31.645 28.535 28.506 28.086 28.113 28.131 28.252 28.3 28.555 29.65 28.779 28.625 28.243 28.037 28.016 28.373 29.5 29.919 29.4 30.412 28.424 33.385 33.606 33.777 34.039 34.274 34.378 34.271 34.06 33.814 33.679 33.525 33.433 33.721 33.862 34.128 34.405 34.392 34.249 33.968 33.803 33.632 33.464 33.59 33.738 33.922 34.147 34.364 34.58 34.273 34.012 33.808 33.64 33.429 33.599 33.74 33.959 34.185 34.426 34.304 34.068 33.965 33.876 33.522 32.341 28.357 38.542 43.141 42.921 42.983 43.011 42.994 43.03 43.025 42.995 43.012 49.767 51.83 51.849 52.044 52.148 51.748 51.711 51.638 51.589 51.606 51.666 51.732 51.759 51.867 49.075 29.507 28.114 27.93 27.982 28.107 41.675 28.841 51.455 54.445 54.446 53.396 46.836 28.451 28.003 27.904 27.865 27.823 27.761 27.721 27.618 27.553 27.525 27.502 27.597 28.367 28.358 31.189 35.373 35.165 37.573 35.971 30.476 30.247 35.24 35.842 36.376 37.031 37.462 37.583 37.028 36.557 35.899 33.379 31.79 31.694 31.708 34.249 36.013 36.634
31.828 31.876 33.863 34.216 31.687 29.08 29.077 29.194 29.258 29.313 29.333 29.314 29.281 29.184 29.181 29.207 29.275 29.236 29.268 29.189 29.17 29.215 29.768 29.741 29.248 29.836 29.45 29.238 29.258 29.299 29.306 29.349 29.467 29.539 30.695 31.734 32.109 30.339 29.989 29.453 29.507 29.471 29.421 29.366 29.315 29.338 29.295 29.363 29.331 29.351 29.358 29.396 29.433 30.618 30.269 29.497 29.289 29.242 31.743 34.261 34.61 34.913 35.348 34.977 33.693 33.543 33.433 33.377 33.336 33.294 33.272 33.151 33.11 33.119 33.177 33.081 33.972 34.024 33.883 29.626 28.644 28.463 28.497 28.4 28.375 28.38 28.341 28.436 28.442 28.489 28.477 28.469 29.018 29.387 31.342 31.482 31.524 31.504 31.525 31.488 31.439 29.407 29.972 34.423 37.905 37.813 37.718 37.726 32.981 28.649 28.63 28.648 28.604 28.679 28.701 28.717 28.72 28.775 28.736 28.804 29.461 29.421 28.871 28.291 28.319 28.258 28.248 28.316 28.513 28.574 28.599 28.61 28.583 28.577 28.439 28.36 28.336 28.336 28.352 28.308 28.044 28.007 27.971 27.97 27.982 27.974 27.961 28.016 30.048 30.656 32.183 29.403 28.958 28.932 28.875 28.837 28.783 28.81 28.707 28.916 28.887 31.155 33.396 33.265 33.903 33.91 33.989 31.329 33.041 34.066 33.216 34.096 35.612 34.995 35.4 36.643 36.655 36.619 36.637 36.68 36.707 36.671 36.647 36.683 37.311 30.923 36.031 36.96 36.65 36.737 36.711 36.735 36.754 36.774 36.748 36.734 36.737 36.733 36.719 36.675 36.679 36.88 37.343 37.316 36.702 36.697 36.718 36.776 36.808 36.723 36.7 36.767 36.704 36.739 36.765 36.676 36.714 36.691 36.725 37.618 33.493 36.656 35.477 29.737 28.349 28.085 28.13 28.103 28.017 28.152 28.171 29.741 34.642 34.809 34.77 34.608 34.323 30.056 34.33 34.492 34.46 34.487 34.347 30.973 28.116 28.682 33.486 31.135 28.247 28.244 31.097 33.881 30.011 28.085 28.151 28.074 28.098 27.959 28.046 28.023 28.064 28.034 28.083 28.066 28.137 28.079 28.113 28.054 28.162 28.075 28.169 28.104 28.104 28.145 28.115 28.175 28.102 28.144 28.142 28.138 28.091 28.265 28.18 32.123 29.434 33.318 29.503 32.403 30.744 33.852 32.803 34.389 33.879 33.068 28.765 28.581 28.198 28.24 28.402 28.537 28.965 29.121 29.314 28.353 28.078 28.116 28.095 28.039 28.028 28.721 29.28 29.277 28.565 28.262 33.321 33.617 33.762 33.975 34.212 34.373 34.236 34.113 33.936 33.694 33.479 33.439 33.662 33.837 34.101 34.299 34.509 34.296 34.066 33.826 33.677 33.467 33.548 33.758 33.91 34.108 34.306 34.378 34.176 33.998 33.826 33.642 33.509 33.564 33.778 34.033 34.158 34.369 34.367 34.147 33.947 33.813 33.565 30.757 28.285 30.755 38.385 42.796 43.074 43.059 43.099 43.085 42.847 43.247 43.141 43.285 39.316 40.287 47.614 51.427 51.806 51.776 51.708 51.637 51.582 51.615 51.656 51.687 51.768 32.161 28.512 28.025 27.988 28.027 28.082 42.522 51.921 54.345 54.382 54.404 54.445 47.936 29.501 28.544 28.118 27.918 27.844 27.752 27.742 27.629 27.588 27.588 27.966 27.493 27.619 28.187 31.84 35.801 36.173 36.261 35.011 28.484 31.894 35.636 36.277 36.825 37.533 37.765 37.196 36.584 36.019 35.172 34.874 34.34 33.686 34.222 35.425 36.033 36.792
32.884 33.891 34.453 34.099 30.753 28.984 29.039 29.149 29.227 29.315 29.266 29.286 29.142 29.14 29.218 29.17 29.174 29.226 29.176 29.238 29.601 29.834 29.274 29.221 29.348 29.988 29.446 29.277 29.27 29.274 29.385 29.344 29.324 29.372 29.381 29.9 30.084 31.39 30.289 29.615 29.523 29.452 29.431 29.402 29.366 29.307 29.326 29.368 29.37 29.362 29.398 29.41 29.395 29.408 29.408 29.344 29.305 29.395 30.906 34.124 34.505 34.855 35.228 35.509 33.205 33.323 33.506 33.396 33.424 33.234 33.226 33.146 33.163 33.14 33.041 33.105 33.967 34.303 34.248 29.907 28.615 28.819 28.517 28.386 28.399 28.4 28.416 28.414 28.457 28.642 33.883 33.746 32.252 29.202 28.502 28.553 29.39 29.94 31.196 31.523 31.43 29.123 29.333 36.944 37.845 37.831 37.715 38.078 33.294 28.688 28.707 28.72 28.754 28.72 28.764 28.769 28.798 31.474 32.275 31.023 28.843 28.864 30.255 28.582 28.243 28.263 28.24 28.716 28.588 28.767 28.501 28.842 28.468 28.693 28.549 28.284 28.308 28.269 28.2 28.042 27.976 28.04 28.058 28.062 28.124 28.106 28.078 28.082 28.164 32.817 33.156 29.674 28.799 28.815 28.754 28.758 28.926 28.657 28.667 28.863 28.924 31.193 33.185 33.414 33.985 33.847 34.055 34.131 34.231 35.535 35.663 36.051 36.67 36.664 36.636 36.64 36.621 36.66 36.731 37.801 33.665 36.593 36.638 36.653 36.736 36.818 36.71 36.708 36.759 36.72 36.709 36.744 36.719 36.738 36.704 36.749 36.769 36.108 36.951 36.668 36.683 36.683 37.307 36.9 36.732 36.716 36.722 36.754 36.742 36.749 36.745 36.753 36.747 36.738 37.11 36.741 36.742 36.712 33.115 32.299 33.62 36.674 36.658 31.555 28.237 28.145 28.054 28.112 28.076 28.088 28.202 29.145 33.682 34.647 34.431 31.091 28.152 28.232 29.392 34.374 33.138 29.838 28.083 28.11 28.15 28.826 33.137 32.526 28.171 28.342 28.031 29.403 28 27.999 28.033 27.998 28.031 28.032 28.52 28.067 28.139 28.13 28.137 28.089 28.077 28.149 28.069 28.05 28.055 28.2 29.501 28.184 28.11 28.021 28.133 28.059 28.459 33.693 33.744 35.216 32.967 33.586 32.616 34.994 36.156 35.179 33.986 33.58 32.829 34.401 34.325 34.363 34.403 29.836 29.523 29.516 29.107 29.407 29.388 29.586 29.684 29.793 29.218 28.811 28.114 28.067 28.083 28.03 28.014 28.1 28.108 28.213 30.379 28.293 32.329 33.62 33.785 33.961 34.204 34.444 34.303 34.101 33.93 33.721 33.503 33.482 33.662 33.887 34.071 34.266 34.455 34.524 34.047 33.867 33.71 33.427 33.512 33.785 33.943 34.141 34.317 34.401 34.21 34.043 33.761 33.627 33.441 33.582 33.793 33.962 34.172 34.348 34.348 34.175 33.97 33.797 33.608 31.668 28.234 28.126 36.596 40.562 40.656 32.26 29.461 32.274 28.83 29.462 27.922 27.924 28.036 31.039 31.35 34.128 51.133 51.859 51.76 51.719 51.652 51.617 51.617 51.677 36.48 28.894 28.265 28.032 28.038 28.125 41.948 49.671 54.297 54.316 54.354 54.36 54.441 54.478 45.251 30.945 41.658 29.268 27.923 27.863 27.768 27.725 27.621 27.589 27.598 27.568 27.502 27.537 29.867 34.372 35.719 35.645 31.008 28.671 35.474 36.16 36.701 37.319 37.624 37.248 36.76 36.057 35.803 34.893 34.882 35.453 34.898 34.9 35.488 36.261 37.051
32.667 33.766 33.328 32.201 29.436 29.108 29.146 29.202 29.241 29.21 29.142 29.09 29.109 29.107 29.12 29.153 29.153 29.175 29.25 29.225 30.338 29.488 29.184 29.492 29.933 29.732 29.322 29.301 29.302 29.329 29.331 29.458 29.752 29.571 29.414 29.42 29.815 29.44 29.648 31.352 29.582 29.466 29.461 29.443 29.396 29.392 29.328 29.379 29.362 29.393 29.39 29.391 29.375 29.379 29.374 29.359 29.337 29.377 30.334 33.987 34.394 34.73 35.116 35.429 35.703 34.988 33.428 33.394 33.332 33.232 33.255 33.102 33.131 33.082 33.108 32.979 33.981 34.018 33.327 33.169 29.983 30.76 30.548 28.36 28.393 28.391 28.429 28.4 28.462 28.647 36.218 35.972 35.64 35.332 33.263 29.718 28.557 29.912 31.103 30.376 29.238 35.225 38.719 39.093 37.896 37.857 37.814 33.133 30.347 28.737 28.779 28.765 28.753 28.881 28.875 31.376 33.131 33.754 33.874 31.298 29.768 29.009 30.945 30.715 28.28 28.228 28.27 28.418 28.541 28.509 28.618 28.577 28.56 28.446 28.462 28.311 28.066 28 28.051 28.053 28.128 28.132 28.082 28.08 28.103 28.152 28.156 28.282 29.397 31.587 31.632 29.13 28.725 28.661 28.641 28.586 28.666 28.762 29.811 29.043 29.482 29.894 33.032 33.232 34.133 34.226 34.641 35.882 36.773 36.769 36.667 36.64 36.631 36.81 36.701 35.477 36.622 36.591 36.64 37.431 30.953 36.604 36.679 36.687 36.683 36.708 36.689 36.683 36.721 36.722 36.72 36.757 36.781 36.74 36.712 36.779 37.666 37.265 36.887 36.742 36.72 36.659 36.706 36.743 36.739 36.724 36.705 36.734 36.753 36.732 36.814 36.754 36.703 36.887 36.708 37.697 36.739 36.759 36.714 36.917 36.072 36.78 36.782 35.317 28.526 28.114 28.117 28.155 28.094 28.034 28.083 28.437 33.137 28.876 28.282 30.764 30.078 32.773 31.609 29.886 28.12 28.133 28.125 28.059 28.05 28.022 28.933 28.406 27.974 27.96 27.93 27.997 28.011 28.051 28.011 28.07 28.065 28.129 31.954 29.409 28.243 28.108 28.045 28.168 28.129 28.102 28.028 28.186 30.301 33.238 32.902 31.963 28.84 28.06 28.089 28.076 32.8 35.875 36.722 35.91 34.639 33.467 33.932 35.151 35.995 35.019 33.889 32.904 33.11 34.347 34.383 34.426 34.413 30.156 28.515 29.053 29.741 29.474 29.8 29.666 29.771 30.004 29.651 28.668 28.105 28.059 28.02 28.011 28.075 28.001 27.987 28.047 29.696 28.275 31.835 33.535 33.807 33.991 34.101 34.42 34.32 34.105 33.958 33.737 33.519 33.445 33.655 33.832 34.061 34.275 34.421 34.28 34.079 33.91 33.7 33.545 33.511 33.655 33.915 34.077 34.269 34.421 34.244 34.037 33.827 33.655 33.388 33.549 33.738 33.887 34.158 34.265 34.348 34.202 33.912 33.773 33.607 29.883 28.154 29.414 28.862 27.994 27.882 27.872 27.88 28.617 28.645 28.091 27.917 27.978 28.495 30.497 30.886 30.383 29.31 51.113 51.851 51.787 51.757 51.701 51.619 50.72 28.994 28.35 28.12 28.077 28.143 37.628 54.038 54.219 54.264 54.278 54.304 54.343 54.359 54.414 54.432 51.452 39.844 31.613 28.511 27.893 27.791 27.739 27.672 27.639 27.544 27.53 27.453 27.429 27.514 28.673 28.861 29.044 28.534 34.833 36.047 36.592 37.109 37.553 37.445 37.535 37.196 36.693 36.242 35.556 35.24 35.573 35.07 34.88 35.564 36.429 37.115
31.004 31.063 29.881 29.039 29.089 29.124 29.21 29.245 29.178 29.15 29.062 29.148 29.074 29.105 29.052 29.123 29.109 29.163 29.348 30.279 29.886 29.867 29.697 29.959 29.352 29.243 29.291 29.276 29.356 29.434 29.38 29.386 29.396 29.402 29.542 29.513 29.417 29.412 29.391 29.757 29.569 29.49 29.518 29.46 29.435 29.399 29.407 29.377 29.392 29.363 29.399 29.396 29.371 29.35 29.368 29.369 29.381 29.378 29.428 33.066 34.26 34.675 34.984 35.391 36.115 36.203 35.219 33.258 33.371 33.285 33.194 33.142 33.081 33.124 33.17 33.09 33.344 34.044 33.61 33.372 29.725 30.194 28.974 28.351 28.422 28.418 28.413 28.435 28.469 33.788 36.294 36.547 36.526 36.268 35.735 29.311 28.66 28.678 29.761 28.975 29.175 40.472 40.69 39.051 37.838 37.839 37.823 28.975 28.776 28.767 28.941 29.719 31.36 33.579 33.75 33.89 34.157 34.353 34.426 34.697 32.362 29.269 30.194 29.266 28.251 28.236 28.243 28.34 28.476 28.368 28.321 28.34 28.255 28.185 28.08 28.083 28.024 28.079 28.044 28.118 28.116 28.149 28.126 28.237 28.241 28.33 28.306 28.336 28.305 31.091 29.935 28.643 28.554 28.534 28.432 28.435 28.601 28.657 29.663 29.04 30.263 29.15 32.49 33.516 35.369 36.809 36.785 36.79 36.729 36.726 36.671 36.711 36.636 36.771 37.386 35.738 36.652 36.643 36.619 35.431 36.688 36.714 36.724 36.711 36.755 36.718 36.723 36.664 36.689 36.728 36.793 37.591 37.712 36.872 36.775 36.747 36.823 37.224 36.813 36.715 36.737 36.701 36.755 36.724 36.742 36.647 36.679 36.711 37.055 37.613 36.889 36.753 36.768 36.806 37.405 36.166 36.782 36.735 36.765 36.758 36.784 36.744 36.758 34.004 29.512 28.123 28.077 28.095 28.087 28.024 28.031 28.117 28.219 28.164 28.205 30.315 31.218 34.541 33.246 28.167 28.048 28.029 27.987 27.988 27.926 27.983 27.946 27.924 27.982 28.027 28.26 28.04 28.102 28.054 28.085 28.052 28.109 30.826 35.086 35.852 31.153 33.068 28.266 28.102 28.106 28.346 28.269 28.454 30.931 35.146 34.342 34.438 28.696 28.105 28.075 28.041 32.799 35.671 36.802 36.448 35.164 34.141 34.038 35.304 36.023 35.101 33.785 33.498 34.092 35.378 34.479 34.505 34.426 30.621 28.144 28.232 28.394 28.42 28.732 28.572 29.156 29.642 29.418 28.329 28.065 28.061 28.029 28.022 27.991 28.026 28.002 27.984 30.048 28.311 31.815 33.544 33.789 33.929 34.086 34.343 34.309 34.17 33.947 33.799 33.593 33.483 33.674 34.483 34.056 34.236 34.454 34.358 34.129 33.889 33.708 33.53 33.479 33.663 33.862 34.02 34.281 34.508 34.264 34.03 33.923 33.681 33.374 33.589 33.717 33.905 34.15 34.566 34.692 34.33 34.034 33.818 33.626 33.339 28.289 28.046 27.909 27.88 27.847 27.828 27.829 28.137 29.115 28.706 29.399 28.081 28.274 29.197 30.497 30.988 31.446 28.503 44.489 51.385 51.805 51.726 39.363 29.165 28.659 28.305 28.099 28.644 41.349 49.54 54.108 54.166 54.203 54.254 54.271 54.27 54.303 54.343 54.392 54.424 49.624 32.938 34.13 27.992 27.813 27.797 27.739 27.648 27.624 27.61 27.505 27.44 27.435 27.479 27.498 28 31.793 35.302 36.027 36.485 36.86 37.169 36.952 37.017 37.502 37.242 36.762 36.268 35.875 35.595 35.264 34.915 35.83 36.681 37.331
29.069 29.083 29.049 29.058 29.109 29.155 29.197 29.188 29.102 29.066 29.127 29.088 29.124 29.092 29.041 29.064 29.224 29.207 31.535 29.676 29.263 29.493 29.451 29.423 29.233 29.29 29.329 29.297 29.289 29.382 29.408 29.411 29.411 29.406 29.389 29.394 29.48 29.431 29.406 29.401 29.681 31.116 29.562 29.493 29.479 29.443 29.438 29.429 29.43 29.395 29.403 29.374 29.34 29.369 29.33 29.373 29.376 29.371 29.435 32.56 34.197 34.57 34.877 35.279 35.616 36.248 35.435 33.823 33.267 33.318 33.174 33.147 33.103 32.991 33.087 33.079 33.032 33.915 33.913 35.071 30.076 28.708 28.458 29.654 28.725 28.41 28.403 28.459 29.283 35.085 35.417 35.792 35.765 36.347 32.808 29.269 28.73 28.637 28.688 28.694 30.436 38.719 39.602 38.073 37.827 38.142 31.932 29.042 28.777 31.307 33.429 33.776 33.799 34.083 34.247 34.486 34.625 34.764 34.905 34.881 32.532 30.797 29.763 28.791 28.282 28.221 28.215 28.265 28.615 28.468 28.23 28.122 28.073 28.1 28.105 28.126 28.126 28.069 28.092 28.082 28.246 28.277 28.258 28.345 29.171 28.691 29.093 28.546 29.535 31.996 31.959 28.931 28.66 34.338 29.098 34.673 30.902 36.204 36.559 35.639 37.368 36.811 36.603 36.792 36.787 36.74 36.749 36.694 37.505 37.804 36.868 36.661 36.618 36.708 35.677 36.016 36.622 36.638 36.642 36.606 36.674 36.644 36.674 36.689 36.671 36.791 37.156 37.033 36.736 36.708 36.704 37.268 33.581 36.688 36.769 36.774 36.758 36.778 36.756 36.762 36.697 36.713 36.689 36.786 36.716 36.737 36.694 36.737 37.024 38.166 37.088 36.785 36.751 36.748 36.757 36.784 36.769 36.762 36.805 36.747 36.805 36.777 36.74 36.831 34.45 28.571 28.113 28.094 28.1 28.073 27.997 28.044 28.065 28.04 28.104 28.105 28.966 29.159 28.491 27.943 27.948 27.894 27.951 28.003 27.954 27.971 28.012 28.043 28.012 28.03 28.014 27.984 28.008 27.96 28.01 27.986 28.02 35.506 38.917 39.034 39.005 36.377 30.559 28.163 28.128 28.116 28.217 28.134 28.17 31.908 35.001 30.764 28.527 28.122 28.128 28.121 33.107 35.874 36.226 36.449 36.626 34.232 34.22 35.482 35.997 34.742 33.852 33.513 34.788 35.789 35.642 34.506 33.582 29.165 28.135 28.192 28.248 28.173 28.18 28.16 28.212 28.468 28.308 28.085 28.031 27.958 27.993 27.975 28.018 28.019 27.997 27.982 29.95 28.323 31.763 33.543 33.733 33.871 34.115 34.327 34.383 34.172 34.007 33.778 33.589 33.415 33.595 33.824 33.989 34.214 34.35 34.346 34.101 33.923 33.737 33.551 33.457 33.728 33.851 34.109 34.456 34.597 34.332 34.098 33.921 33.634 33.481 33.532 33.763 33.876 34.094 34.283 34.453 34.182 34.022 33.803 33.656 32.556 29.22 28.286 27.929 27.868 27.894 27.83 27.832 27.879 28.111 28.382 28.824 27.995 27.903 27.906 27.864 28.365 30.843 30.884 28.514 44.617 51.423 46.958 28.669 28.649 28.437 28.162 28.162 40.29 51.451 54.094 54.103 54.157 54.156 54.175 54.256 49.609 54.307 54.283 54.342 54.391 54.448 49.585 34.669 42.737 28.29 27.834 27.793 27.739 27.659 27.665 27.593 27.512 27.418 27.43 27.409 27.542 28.136 28.867 33.754 35.95 36.277 36.691 36.445 36.492 36.958 37.35 37.333 36.819 36.548 36.238 35.981 35.877 36.049 36.852 37.471
29.119 29.136 29.115 29.127 29.11 29.191 29.106 29.052 29.065 29.088 29.089 29.068 29.067 29.049 29.053 29.19 29.185 29.166 29.252 29.141 29.196 29.519 29.23 29.259 29.266 29.302 29.274 29.302 29.254 29.396 29.408 29.384 29.369 29.389 29.38 29.419 29.415 29.415 29.407 29.45 29.434 29.46 29.936 29.675 30.983 29.513 29.439 29.842 29.436 29.442 29.382 29.345 29.418 29.318 29.36 29.375 29.385 29.417 29.444 30.304 34.031 34.459 34.784 35.179 35.523 37.198 36.652 34.752 33.257 33.269 33.174 33.129 33.052 33.031 33.066 33.046 32.921 33.759 34.127 35.63 32.411 30.675 30.128 30.184 29.745 28.409 28.429 28.456 28.557 31.907 33.363 34.399 34.91 35.134 30.208 28.837 28.693 28.66 28.673 28.917 37.108 37.893 37.943 37.812 37.828 32.376 28.994 28.788 32.196 33.838 33.953 34.189 34.315 34.602 34.846 34.964 34.909 34.81 34.513 34.389 33.935 29.874 29.737 28.503 28.279 28.241 28.164 28.233 28.102 28.1 28.068 28.141 28.149 28.143 28.118 28.136 28.086 28.104 28.184 28.231 28.395 28.46 28.336 28.245 28.657 28.497 28.76 28.719 31.07 31.923 32.346 32.253 32.412 33.71 37.734 37.932 38.039 38.237 38.382 38.566 38.629 38.255 37.104 36.797 37.174 37.005 36.741 36.703 37.122 37.879 37.038 36.717 36.655 36.677 36.652 36.689 36.657 36.621 36.627 36.625 36.697 36.71 36.658 36.677 36.706 36.806 38.059 37.823 36.792 36.982 36.724 36.764 36.05 36.785 36.762 36.758 36.784 36.739 36.79 36.756 36.746 36.73 36.776 37.51 37.153 36.881 36.713 36.742 36.761 37.016 36.888 36.77 36.786 36.772 36.776 36.795 36.765 36.792 36.79 36.752 36.654 32.08 36.658 36.712 35.255 28.063 28.12 28.152 28.154 28.096 28.048 28.039 27.975 28.022 27.993 28.001 27.962 27.992 27.988 28.019 28.047 28.064 28.018 28.04 27.978 27.995 27.959 27.999 27.974 27.953 27.935 27.986 28.057 28.056 28.11 28.131 33.535 41.385 43.038 42.566 40.506 38.263 31.642 28.065 28.116 28.125 28.133 28.144 28.132 28.818 30.607 28.537 28.154 28.157 28.142 28.218 34.825 36.027 36.265 36.599 36.436 34.284 34.353 35.784 36.059 34.669 33.703 33.813 34.613 35.93 35.419 34.191 33.727 29.307 28.133 28.147 28.124 28.163 28.084 28.103 28.151 28.141 28.098 28.027 28.024 27.948 27.972 27.995 27.97 28.035 28.004 28.832 30.447 28.952 29.237 33.45 33.699 33.845 34.164 34.333 34.388 34.224 34.014 33.82 33.554 33.364 33.625 33.801 33.991 34.203 34.425 34.32 34.176 33.94 33.744 33.571 33.391 33.642 33.802 34.031 34.203 34.479 34.292 34.094 33.976 33.705 33.499 33.502 33.727 33.83 34.066 34.274 34.444 34.284 34.052 33.808 33.618 33.407 28.327 29.878 28.986 29.128 27.886 27.84 27.847 27.935 28.555 28.305 28.177 27.936 27.912 27.871 27.836 27.839 28.259 30.841 30.71 28.608 42.583 30.924 28.609 28.485 28.198 28.125 28.721 37.988 53.828 54.122 54.082 54.106 54.101 54.171 54.19 54.241 54.678 54.337 54.296 56.395 54.841 54.442 53.669 44.881 31.447 28.722 27.799 27.756 27.713 27.648 27.672 27.733 27.51 27.416 27.333 27.494 27.645 27.575 29.278 33.982 35.649 36.172 35.851 35.989 36.341 36.954 37.306 37.512 37.221 37.116 36.926 36.591 36.48 36.797 37.764
29.108 29.1 29.096 29.144 29.134 29.095 29.036 29.027 29.056 29.071 29.047 29.044 29.033 29.079 29.137 29.221 30.349 29.253 29.136 29.172 29.205 29.429 29.259 29.251 29.299 29.323 29.455 29.275 29.267 29.261 29.408 29.398 29.374 29.411 29.39 29.425 29.403 29.392 29.368 29.437 29.433 29.469 29.485 29.501 29.733 30.013 30.132 29.582 29.87 29.471 29.447 29.397 29.328 29.316 29.338 29.368 29.37 29.4 29.441 29.591 33.931 34.362 34.68 35.026 35.686 36.779 37.055 35.731 33.327 33.247 33.18 33.126 33.079 33.175 33.061 33.073 33.039 33.965 34.398 35.809 34.106 28.827 29.01 28.392 28.388 28.419 28.432 28.535 30.767 31.173 31.936 32.985 32.886 31.653 29.279 28.89 28.688 28.669 28.683 33.754 38.1 37.98 37.878 37.902 36.471 29.943 28.85 28.85 28.84 33.157 34.548 34.746 34.909 34.863 34.757 34.535 34.424 34.221 34.011 33.801 33.465 31.059 30.138 29.069 28.31 28.274 28.166 28.144 28.11 28.125 28.154 28.173 28.102 28.151 28.092 28.038 28.28 28.321 28.338 28.291 28.521 28.681 28.592 28.867 28.922 28.796 29.131 29.188 31.418 32.118 33.094 32.28 32.512 35.701 37.89 38.856 39.03 38.921 38.843 38.949 38.849 38.344 37.204 36.993 38.342 37.684 36.797 36.708 36.763 36.874 36.741 36.699 36.668 36.649 36.681 36.69 36.661 36.666 36.631 36.617 36.836 37.601 36.927 36.671 36.671 36.766 37.007 37.784 36.737 36.874 36.756 36.772 36.773 36.789 36.79 36.756 36.753 36.774 37.068 37.037 36.762 36.672 36.728 37.264 37.728 36.807 36.766 36.766 36.795 36.796 36.776 36.754 36.763 36.776 36.768 36.805 36.799 36.807 36.734 36.747 32.792 34.323 31.241 36.665 32.603 29.085 28.076 28.151 28.115 28.145 28.137 28.005 28.035 28.033 28.056 28.051 28.056 28.022 28.025 28.037 28.041 28.02 28.048 27.964 27.911 27.905 27.934 27.908 28.026 28.051 28.12 28.148 28.179 28.208 28.28 28.35 38.641 40.623 42.938 43.455 41.275 39.74 32.015 28.209 28.12 28.116 28.117 28.146 28.146 28.175 28.172 28.107 28.173 28.158 28.208 28.223 34.892 36.35 36.505 36.739 36.28 33.778 34.423 35.596 35.886 34.574 33.697 33.875 34.697 35.866 35.345 34.101 33.602 29.642 28.199 28.149 28.136 28.129 28.131 28.138 28.188 28.184 28.095 28.112 28.078 27.999 27.941 27.966 27.952 28.021 28.032 29.61 31.29 28.929 29.224 33.482 33.729 33.863 34.11 34.343 34.4 34.261 34.046 33.815 33.612 33.382 33.588 33.793 33.937 34.153 34.337 34.418 34.171 33.974 33.78 33.569 33.46 33.622 33.822 34.037 34.177 34.421 34.263 34.153 33.889 33.719 33.526 33.437 33.708 33.899 34.115 34.254 34.445 34.285 34.066 33.867 33.632 33.478 29.284 28.93 28.783 29.059 27.867 27.828 27.844 28.685 29.536 27.951 28.92 28.127 27.889 27.857 27.829 27.878 28.833 28.688 30.211 30.435 28.471 28.077 28.255 28.19 28.1 28.635 50.01 54.182 54.216 54.15 54.128 54.082 54.103 54.138 55.355 56.536 55.116 54.779 56.414 58.17 56.264 55.176 54.456 51.629 40.872 31.755 33.299 27.796 27.765 27.704 27.691 27.682 27.565 27.506 27.416 27.353 27.47 27.47 27.655 27.658 32.177 35.574 35.64 35.368 35.857 36.312 36.663 37.05 37.272 37.539 37.454 37.254 37.241 37.172 37.83
29.097 29.097 29.124 29.131 29.057 28.973 29.04 29.004 29.036 29.062 29.031 28.961 29.05 29.148 29.176 29.265 29.421 29.163 29.164 29.165 29.19 29.224 29.244 29.273 29.292 29.283 29.264 29.305 29.25 29.237 29.359 29.404 29.422 29.41 29.411 29.353 29.357 29.359 29.364 29.431 29.504 29.444 29.486 29.47 29.71 30.222 29.935 30.466 30.711 29.748 30.573 29.429 29.414 29.358 29.345 29.328 29.368 29.433 29.443 29.49 33.004 34.233 34.61 34.878 35.287 33.854 35.176 34.217 33.269 33.218 33.175 33.161 33.108 33.104 33.069 33.099 32.945 33.001 33.23 34.887 33.504 28.533 28.531 28.515 28.361 28.421 28.464 28.475 29.689 30.806 32.475 33.111 32.663 29.445 29.819 29.119 28.843 28.998 35.515 38.061 38.48 37.974 37.893 37.994 30.487 29.051 28.894 29.241 29.005 30.049 34.704 34.83 34.528 34.418 34.234 34.022 33.874 33.629 32.815 31.112 29.791 28.301 28.291 28.252 28.316 28.271 28.198 28.155 28.168 28.12 28.146 28.127 28.152 28.231 28.336 28.366 28.45 28.571 28.794 28.778 29.071 28.962 29.382 29.166 28.998 28.774 28.946 28.843 30.949 30.391 33.71 32.569 32.57 35.733 37.681 38.248 38.054 38.018 37.834 37.659 37.531 37.249 37.205 36.774 36.905 37.171 36.779 36.806 36.747 36.742 36.758 36.722 36.731 36.688 36.715 36.931 36.797 36.652 36.648 36.629 36.796 37.905 36.886 36.713 36.707 36.685 36.713 36.749 36.745 36.768 36.765 36.801 36.81 36.781 36.802 36.76 36.757 36.787 37.533 32.87 36.76 36.717 36.717 36.739 36.737 36.751 36.743 36.755 36.734 36.751 36.782 36.756 36.745 36.752 36.764 33.344 35.14 33.246 36.482 36.738 36.566 34.34 36.066 36.744 36.811 31.123 28.236 28.166 28.132 28.153 28.127 28.126 28.124 28.073 28.038 28.069 28.025 27.995 28.013 28.025 27.986 28.111 28.019 27.982 27.954 27.976 27.973 28.068 28.133 28.223 28.221 28.247 28.201 28.193 28.225 28.698 34.765 38.008 41.999 41.777 41.193 39.958 32.405 28.937 30.487 28.336 28.365 29.37 28.395 29.028 30.665 28.294 28.122 28.187 28.21 28.207 34.439 36.161 36.264 36.775 36.327 33.978 34.642 35.733 35.778 34.574 33.498 34.001 34.976 36.125 35.077 34.003 32.801 28.212 28.229 28.164 28.131 28.153 28.112 28.121 28.197 28.146 28.131 28.056 28.034 28.028 27.954 27.973 27.978 28.009 27.994 28.486 30.244 28.607 28.253 32.924 33.679 33.85 34.11 34.326 34.44 34.208 34.014 33.851 33.652 33.425 33.577 33.711 33.965 34.171 34.365 34.365 34.231 33.994 33.807 33.579 33.466 33.587 33.823 33.98 34.211 34.373 34.331 34.159 33.946 33.709 33.567 33.458 33.661 33.882 34.098 34.195 34.446 34.313 34.081 33.872 33.648 33.34 28.914 28.324 28.392 28.777 27.877 27.824 27.831 28.594 28.633 28.142 27.91 27.868 27.877 27.863 27.894 27.898 27.945 27.997 28.781 29.041 28.659 28.178 28.149 28.141 28.688 33.341 53.67 54.259 54.24 54.211 54.173 54.117 54.084 54.094 54.57 56.124 56.476 56.611 57.977 42.771 52.487 56.949 49.86 54.428 54.296 37.469 46.316 28.21 28.296 27.725 27.674 27.669 27.604 27.525 27.485 27.41 27.382 27.39 27.494 27.581 27.886 32.642 32.161 29.763 35.245 35.669 36.075 36.368 36.534 36.812 37.053 37.205 37.25 37.58 37.705
29.06 29.047 29.054 28.952 29.012 28.982 29.049 29.012 29.008 28.943 28.96 28.951 29.082 29.377 29.725 29.631 29.162 29.163 29.152 29.233 29.197 29.239 29.247 29.28 29.383 29.272 29.286 29.26 29.244 29.238 29.291 29.386 29.356 29.339 29.319 29.357 29.369 29.365 29.368 29.404 29.506 29.493 29.517 29.47 29.54 29.491 29.469 30.057 31.798 31.27 29.898 29.481 29.428 29.369 29.388 29.359 29.382 29.415 29.438 29.489 30.376 34.082 34.477 34.792 35.182 35.537 34.567 33.218 33.191 33.173 33.285 33.149 33.109 33.09 33.075 33.065 33.02 32.887 33.049 34.77 34.884 29.793 28.944 28.729 28.426 28.42 28.439 28.55 30.537 31.642 32.86 32.985 31.918 29.816 30.929 28.7 28.685 34.063 38.038 37.992 38.022 37.915 38.225 30.081 28.9 28.933 28.851 28.816 29.039 30.271 34.388 34.263 34.198 33.897 33.697 33.634 33.266 30.098 28.877 31.151 28.536 28.47 28.351 28.311 28.365 28.311 28.231 28.155 28.165 28.228 28.25 28.28 28.415 28.701 28.787 29.022 30.602 29.433 29.494 29.239 29.111 29.082 29.048 29.109 29.097 28.901 29.123 29.118 29.329 30.306 31.982 32.29 32.033 32.769 37.077 35.806 32.799 35.411 34.91 34.899 34.89 34.408 35.527 36.818 36.768 36.767 36.818 36.767 36.801 36.761 36.781 36.76 36.745 36.709 36.71 37.319 38.142 36.824 36.622 36.672 36.648 36.815 36.671 36.676 36.712 36.745 36.759 36.734 36.731 36.784 36.8 36.712 36.791 37.575 37.262 36.743 36.742 36.77 37.232 37.022 36.747 36.752 36.717 36.741 36.743 36.764 36.746 36.766 36.724 36.756 36.772 37.059 36.773 36.798 36.737 37.148 32.479 35.977 36.675 36.707 36.72 36.699 36.752 36.745 36.601 34.359 28.069 28.226 28.153 28.167 28.118 28.099 28.071 28.01 28.013 27.993 27.992 28.017 28.067 28.087 28.134 28.128 28.156 28.172 28.132 28.041 28.068 28.099 28.126 28.136 28.156 28.219 28.215 28.173 28.191 28.635 29.323 37.681 38.045 39.672 39.466 32.401 29.026 32.163 32.971 32.238 32.977 32.648 32.896 32.482 31.541 32.455 28.215 28.206 28.18 28.427 35.27 36.385 36.119 36.928 36.285 33.793 34.74 35.791 35.685 34.432 33.362 33.983 35.005 35.973 34.991 33.954 32.906 28.309 28.161 28.126 28.146 28.109 28.066 28.196 28.258 28.127 28.069 28.023 28.077 28.029 27.969 27.897 28.007 27.991 27.983 28.025 28.286 28.615 28.369 32.549 33.678 33.845 34.023 34.266 34.439 34.25 34.049 33.825 33.672 33.442 33.49 33.74 33.962 34.112 34.327 34.449 34.203 34.018 33.794 33.585 33.487 33.561 33.78 33.918 34.204 34.421 34.339 34.114 33.932 33.733 33.584 33.482 33.549 33.813 34.004 34.246 34.447 34.287 34.134 33.861 33.653 33.437 29.754 28.301 28.149 28.267 27.889 27.805 27.818 28.375 28.583 28.932 28.051 27.859 27.808 27.889 28.018 28.883 28.108 28.674 28.831 28.651 28.323 28.145 28.16 28.185 28.142 28.081 28.592 49.594 41.089 53.918 54.187 54.159 54.101 54.086 54.092 54.158 57.462 58.095 58.036 58.055 42.84 57.787 52.853 55.189 54.414 54.25 46.798 30.186 44.52 28.079 27.729 27.697 27.582 27.58 27.497 27.48 27.417 27.39 27.378 27.44 27.488 31.74 33.607 34.013 32.869 30.001 35.939 35.527 36.009 36.069 36.274 36.431 36.811 37.58 37.545
29.022 28.951 28.915 28.924 28.955 28.959 28.998 29.035 28.911 28.895 28.906 29.039 29.084 29.184 29.797 29.098 29.161 29.195 29.217 29.235 29.196 29.23 29.243 29.275 29.291 29.293 29.297 29.258 29.261 29.243 29.277 29.282 29.287 29.309 29.315 29.37 29.37 29.373 29.385 29.344 29.488 29.477 29.465 29.517 29.539 29.537 29.533 29.537 29.624 31.266 29.923 29.505 29.484 29.464 29.412 29.393 29.398 29.432 29.457 29.472 29.571 33.946 34.359 34.665 35.05 35.367 34.879 33.566 33.246 33.228 33.22 33.115 33.191 33.1 33.084 33.018 33.073 32.879 33.105 33.431 35.174 32.226 30.815 29.438 28.4 28.405 28.457 28.583 31.172 32.246 33.021 32.992 30.762 29.509 28.723 28.654 33.592 38.05 37.977 38.316 37.932 37.774 31.636 29.026 28.862 28.867 28.862 28.847 28.857 29.719 33.786 33.759 33.67 33.335 33.178 30.618 28.828 28.526 28.904 29.105 29.297 28.852 28.378 28.286 28.27 28.325 28.263 28.288 28.29 28.357 28.781 28.89 30.025 29.655 30.392 29.795 30.237 30.202 29.953 29.448 29.142 28.973 28.96 29.046 29.113 29.032 29.015 29.185 28.891 29.728 29.089 29.454 28.769 29.187 31.13 29.159 29.704 34.177 34.198 34.232 34.242 34.304 34.86 36.807 36.805 36.799 36.794 36.78 36.756 36.731 37.396 37.451 36.721 36.682 36.711 37.183 37.36 36.764 36.69 36.675 36.676 36.702 36.701 36.687 36.737 36.785 36.711 36.786 36.842 36.792 36.816 36.774 36.835 38.09 37.423 36.769 36.812 36.763 36.8 36.848 36.817 36.772 36.777 36.749 36.739 36.765 36.756 36.704 36.698 36.766 35.353 38.116 36.759 36.707 36.712 36.728 36.745 36.748 36.723 36.721 36.735 36.728 36.736 36.697 36.742 35.456 30.043 28.21 28.206 28.165 28.128 28.112 28.063 28.021 27.98 28.063 28.086 28.194 28.215 28.174 28.208 28.23 28.175 28.161 28.109 28.09 28.086 28.093 28.121 28.128 28.167 28.179 28.185 28.173 28.141 28.164 28.332 30.8 32.905 33.611 30.484 28.311 28.223 33.051 33.221 33.203 33.196 33.205 33.277 33.262 33.251 32.96 28.405 29.286 28.448 29.066 34.277 36.4 36.326 36.884 36.134 34.028 34.65 35.92 35.459 34.339 33.362 34.007 35.028 36.045 34.901 33.732 31.719 28.429 28.176 28.094 28.132 28.117 28.075 28.275 28.198 28.053 28.088 28.024 28.082 28.104 27.895 27.928 27.978 27.973 27.946 27.967 27.968 28.272 28.315 33.386 33.597 33.874 33.985 34.239 34.446 34.282 34.068 33.88 33.696 33.423 33.442 33.708 33.892 34.099 34.298 34.384 34.211 34.031 33.864 33.644 33.414 33.56 33.756 33.925 34.158 34.307 34.378 34.234 33.983 33.775 33.603 33.45 33.588 33.784 33.958 34.244 34.358 34.325 34.067 33.881 33.702 33.468 29.766 28.271 29.617 27.951 27.874 27.842 27.851 29.462 31.17 28.103 27.901 27.867 27.884 27.923 28.856 28.389 28.544 28.74 28.833 28.747 28.319 28.175 28.226 28.12 28.117 28.133 28.084 31.184 53.727 53.723 40.706 53.874 54.134 54.082 54.08 54.14 58.005 57.958 58.004 58.05 58.078 52.173 52.839 57.602 49.883 54.402 54.449 41.442 30.624 32.626 27.763 27.705 27.651 27.618 27.598 27.54 27.464 27.431 27.397 27.335 27.452 31.374 33.818 34.393 34.351 28.77 27.988 33.239 35.118 35.384 35.644 36.164 36.952 37.257 37.311
28.884 28.876 28.859 28.896 28.945 28.966 28.99 28.945 28.915 28.905 29.024 29.075 29.082 29.223 30.134 29.098 29.103 29.29 29.299 29.315 29.235 29.312 29.232 29.261 29.283 29.251 29.234 29.273 29.281 29.273 29.266 29.302 29.27 29.314 29.323 29.377 29.398 29.373 29.398 29.339 29.433 29.587 29.504 29.488 29.493 29.52 29.53 29.461 29.566 29.471 31.424 30.748 29.58 29.508 29.475 29.45 29.445 29.489 29.459 29.459 29.459 33.057 34.239 34.645 34.951 35.422 33.89 32.451 33.171 33.188 33.199 33.224 33.081 33.183 33.046 33.038 33.04 32.971 33.372 35.07 35.623 33.051 32.169 28.536 28.399 28.452 28.454 30.184 30.957 32.407 33.053 32.655 31.298 28.96 28.564 28.79 37.762 38.684 37.984 38.006 38.008 34.381 29.017 29.393 28.937 28.952 28.889 30.283 30.712 29.115 32.826 32.823 29.472 28.739 28.43 28.772 28.899 29.092 29.38 29.533 29.733 29.181 28.412 28.284 28.37 28.303 28.236 28.429 28.757 29.317 29.385 30.148 29.74 29.912 30.122 30.084 30.574 30.535 30.009 29.377 29.147 29.058 29.025 29.076 28.991 28.873 28.785 28.688 28.59 28.483 28.513 28.825 28.849 28.571 28.655 28.289 28.767 34.29 34.382 34.39 34.429 34.473 34.512 36.806 36.809 36.947 36.785 36.817 36.807 36.775 37.801 38.073 36.829 36.726 36.721 36.74 36.751 36.741 36.676 36.697 36.688 36.712 36.687 36.719 36.682 36.696 36.742 37.292 38.241 37.299 36.76 36.765 36.755 36.91 36.857 36.776 36.8 36.824 36.787 36.814 36.81 36.791 36.749 36.754 36.785 37.597 37.272 36.728 36.681 36.747 35.45 35.806 36.72 36.717 36.694 36.696 36.771 36.736 36.73 36.726 36.721 36.669 36.777 37.136 36.729 36.75 31.317 28.519 28.19 28.18 28.138 28.154 28.034 27.98 27.942 28.1 28.174 28.253 28.252 28.187 28.178 28.168 28.139 28.161 28.099 28.157 28.105 28.093 28.092 28.117 28.175 28.2 28.212 28.19 28.137 28.681 28.53 28.561 28.317 28.345 28.351 28.554 28.37 32.852 33.41 33.408 33.428 33.388 33.483 33.438 33.419 33.385 29.044 35.428 29.409 32.795 32.512 32.244 36.265 36.932 35.988 33.686 34.697 35.97 35.564 34.16 33.251 34.048 35.066 35.789 34.864 33.72 31.267 28.235 28.108 28.111 28.148 28.11 28.133 28.176 28.227 28.129 28.062 28.008 28.087 28.164 28.089 27.967 27.971 27.936 27.977 27.987 28.012 28.835 28.234 32.333 33.638 33.838 34.05 34.244 34.394 34.307 34.141 33.91 33.686 33.47 33.48 33.686 33.868 34.047 34.325 34.427 34.266 34.064 33.87 33.649 33.395 33.547 33.805 33.978 34.188 34.291 34.39 34.212 34.013 33.757 33.519 33.126 33.917 33.812 33.933 34.214 34.394 34.291 34.122 33.896 33.726 33.539 29.805 28.304 28.87 27.884 27.884 27.841 27.834 27.896 28.153 27.856 27.886 27.876 27.863 27.943 27.989 28.261 28.648 28.86 28.794 28.565 28.218 28.165 28.454 28.174 28.159 28.145 28.137 28.052 41.595 46.888 53.684 49.515 54.209 54.15 54.136 57.429 57.876 57.903 57.978 58.032 58.037 58.074 57.534 52.828 57.513 54.529 54.414 54.429 51.483 35.846 28.085 28.259 27.697 27.637 27.601 27.54 27.558 27.45 27.425 27.349 27.317 30.299 32.105 34.298 34.423 31.041 28.364 30.437 31.483 32.942 35.745 36.086 36.319 36.511 36.716
28.927 28.889 28.886 28.873 28.951 28.893 28.906 28.889 28.831 28.951 29.033 29.034 29.102 29.181 30.168 29.104 29.148 29.382 29.386 29.42 29.312 29.307 29.215 29.258 29.252 29.293 29.259 29.303 29.303 29.254 29.244 29.28 29.307 29.303 29.337 29.329 29.376 29.417 29.385 29.382 29.403 29.484 29.482 29.52 29.62 29.521 29.545 29.43 29.372 29.35 29.783 29.411 29.951 30.925 29.56 29.493 29.483 29.452 29.465 29.508 29.516 32.593 34.162 34.451 34.777 35.18 34.936 32.638 32.988 33.234 33.154 33.155 33.088 33.104 33.175 32.985 32.998 32.907 32.843 34.532 36.341 33.14 32.134 28.635 28.361 28.433 28.5 31.743 31.68 32.573 33.025 31.865 29.26 28.628 28.755 37.197 38.14 38.036 38.191 38.059 33.488 29.482 29.064 29.069 29.578 29.545 29.31 29.932 31.33 30.226 33.046 32.112 28.584 28.882 29.089 29.481 29.458 29.565 29.708 29.728 29.608 29.041 28.403 28.297 28.353 28.381 28.368 28.746 29.866 29.836 30.005 30.196 30.349 30.185 30.629 30.351 30.359 30.528 29.442 29.349 29.209 29.279 29.056 28.973 28.681 28.631 28.652 28.586 28.551 28.412 28.301 28.215 28.41 28.636 29.703 30.375 31.157 34.507 34.523 34.556 34.587 34.641 35.327 36.808 36.828 37.686 37.754 36.931 36.817 36.759 36.963 37.059 36.771 36.724 36.733 36.713 36.798 36.763 36.711 36.735 36.712 36.723 37.171 37.363 36.762 36.716 36.75 37.157 37.519 36.408 36.763 36.858 36.765 36.766 36.795 36.801 36.756 36.768 36.797 36.793 36.853 36.862 36.725 36.728 36.979 37.852 37.627 36.738 36.728 36.698 36.729 36.734 36.747 36.685 36.706 36.736 36.725 36.73 36.71 36.705 36.672 36.722 31.942 32.214 36.7 36.538 33.876 28.003 28.179 28.125 28.126 28.126 28.079 28.004 27.994 28.182 28.233 28.217 28.24 28.181 28.178 28.194 28.164 28.157 28.145 28.148 28.149 28.133 28.133 28.152 28.172 28.222 28.207 28.23 28.233 28.198 28.206 28.261 28.765 28.474 28.411 28.33 28.3 33.499 33.591 33.56 33.504 33.645 33.512 33.555 33.553 33.64 37.347 39.618 33.232 36.934 33.461 31.891 32.512 33.591 34.702 33.921 34.799 35.999 35.32 33.992 33.337 34.014 35.415 35.796 34.63 33.674 30.389 28.143 28.142 28.08 28.135 28.061 28.16 28.252 28.13 28.084 28.059 28.016 28.139 28.203 28.123 28.082 27.947 27.976 27.987 27.978 28.067 29.715 28.314 32.73 33.629 33.803 34.029 34.263 34.457 34.371 34.142 33.898 33.727 33.461 33.417 33.682 33.872 34.116 34.268 34.505 34.244 34.006 33.676 33.445 33.427 30.874 30.869 29.94 30.058 31.923 32.253 31.32 31.038 31.316 31.154 32.594 33.549 33.742 33.984 34.121 34.369 34.283 34.141 33.927 33.718 33.526 32.443 28.368 27.987 27.907 27.896 27.877 27.846 27.856 27.849 27.851 27.882 27.911 28.99 28.517 28.029 28.594 28.825 28.738 28.383 28.252 28.276 28.555 28.724 28.059 28.365 28.542 28.178 28.052 28.694 36.02 46.91 53.802 54.238 54.169 56.257 57.971 57.947 57.938 58.869 58.21 57.98 58.045 58.045 58.104 55.038 54.976 53.827 54.439 54.428 49.735 36.048 30.88 28.515 27.669 27.609 27.608 27.52 27.523 27.442 27.361 27.331 27.291 27.293 27.673 29.024 28.161 28.336 31.204 31.2 33.543 29.736 35.258 35.461 35.908 35.98
28.894 28.924 28.861 28.917 28.974 28.869 28.846 28.786 28.821 29.018 29.023 29.073 29.07 29.153 29.526 29.252 29.158 29.401 29.403 29.432 29.41 29.238 29.228 29.279 29.229 29.293 29.301 29.31 29.3 29.344 29.309 29.3 29.315 29.307 29.327 29.359 29.39 29.426 29.433 29.429 29.468 29.564 29.533 29.535 29.574 29.539 29.599 29.424 29.351 29.342 29.331 29.343 29.359 29.446 30.723 29.901 29.575 29.485 29.478 29.508 29.485 29.583 33.98 34.421 34.678 35.014 35.367 33.424 32.962 33.322 33.177 33.158 33.043 33.049 33.059 33.004 32.953 32.973 33.24 34.269 36.904 35.671 32.25 29.021 29.725 28.503 30.243 31.912 31.618 31.634 31.667 30.125 28.496 28.807 37.266 38.046 38.084 38.76 38.751 38.057 30.293 29.916 29.086 29.525 30.2 28.827 29.193 28.686 30.848 32.781 33.524 32.31 29.318 29.477 29.745 29.803 29.939 29.9 29.842 29.876 29.753 29.092 28.468 28.324 28.346 28.373 28.405 28.711 29.949 30.181 30.34 30.245 30.252 30.413 30.251 30.216 30.196 30.376 29.379 30.409 31.45 29.181 28.675 28.631 28.62 28.579 28.522 28.561 28.547 28.383 28.303 28.226 28.098 30.092 31.679 31.919 31.988 33.895 34.748 35.02 36.319 36.102 35.482 36.69 36.823 37.803 37.271 36.783 36.785 36.818 36.738 36.789 36.783 36.758 36.75 36.699 36.749 36.749 36.746 36.7 36.66 36.663 37.42 37.132 36.89 36.737 36.753 36.769 36.787 36.799 36.79 36.799 36.765 36.787 36.77 36.771 36.783 36.762 36.78 36.997 38.345 37.259 36.764 36.746 36.755 36.969 36.741 36.704 36.731 36.681 36.69 36.712 36.704 36.74 36.742 36.758 36.736 37.092 36.185 36.736 36.71 36.71 36.191 34.781 36.043 36.698 32.405 27.995 28.022 28.121 28.143 28.156 28.12 27.997 28.146 30.565 28.314 28.204 28.161 28.182 28.197 28.195 28.144 28.174 28.172 28.225 28.201 28.18 28.224 28.243 28.191 28.231 28.211 28.232 28.29 28.271 28.282 28.242 28.648 28.519 28.422 28.277 28.283 33.267 33.381 33.368 33.409 33.361 33.371 33.432 33.311 33.394 37.839 38.325 40.927 39.942 35.981 30.76 31.295 31.436 32.226 34.533 34.756 36.076 35.233 33.844 33.405 34.15 35.34 35.789 34.483 33.696 29.85 28.152 28.109 28.163 28.089 28.081 28.164 28.215 28.1 28.104 28.103 28.082 28.174 28.191 28.211 28.181 28.144 28.093 28.155 28.135 28.159 29.449 28.298 31.795 33.58 33.804 34.021 34.206 34.397 34.368 34.11 33.662 33.661 32.534 32.194 32.572 29.825 29.168 30.065 31.539 31.963 31.016 30.485 30.18 29.121 28.23 29.889 28.911 28.251 28.517 28.289 28.224 28.181 28.232 28.275 31.837 33.521 33.786 33.932 34.185 34.364 34.306 34.18 33.961 33.787 33.541 31.261 28.33 28.108 28.842 28.262 27.861 27.816 27.858 27.86 27.873 27.888 28.294 28.858 28.203 28.498 28.757 28.722 28.309 28.248 28.271 28.43 28.779 28.195 28.816 51.713 48.542 31.16 28.204 28.058 27.23 35.293 37.266 54.135 57.454 57.416 52.702 57.971 57.938 59.143 58.033 57.95 58 58.026 58.018 54.81 40.947 50.684 40.912 54.084 53.929 54.039 31.39 36.444 27.719 27.663 27.617 27.572 27.51 27.476 27.454 27.402 27.361 27.317 27.291 27.304 27.445 28.236 28.695 29.417 29.012 27.516 27.737 28.815 30.299 31.061
28.921 28.879 28.894 28.932 28.881 28.854 28.775 28.766 28.778 29.02 29.029 29.015 29.103 29.85 29.652 29.725 29.239 29.311 29.452 29.435 29.427 29.275 29.254 29.264 29.254 29.307 29.327 29.327 29.325 29.327 29.328 29.275 29.327 29.316 29.366 29.378 29.42 29.462 29.475 29.399 29.442 29.543 29.537 29.56 29.56 29.548 29.549 29.397 29.32 29.316 29.304 29.318 30.051 29.352 29.318 29.347 30.022 29.905 29.525 30.859 29.509 29.462 32.44 34.246 34.569 34.822 35.271 33.909 32.945 33.297 33.168 33.125 33.051 33.087 33.086 32.991 33.013 33.046 33.219 33.469 35.378 36.22 29.765 28.556 31.033 31.873 31.713 31.687 31.575 31.699 31.613 29.937 28.295 35.762 38.107 38.444 38.137 38.138 38.155 30.551 28.955 28.938 29.901 29.293 28.715 28.531 28.648 28.822 30.887 32.682 32.891 30.658 30.017 29.922 30.054 30.048 30.028 29.962 29.948 29.99 29.816 29.168 28.478 28.33 28.365 28.35 28.437 29.078 30.201 30.232 30.254 30.176 30.239 30.166 30.123 30.339 30.483 29.853 29.338 28.993 29.023 28.718 28.62 28.578 28.544 28.55 28.533 28.534 28.442 28.348 28.275 28.223 28.043 31.062 32.245 34.204 32.662 35.756 35.547 36.214 36.915 36.564 35.841 36.673 36.818 36.794 36.841 36.832 36.801 36.73 36.806 36.819 36.788 36.758 36.727 36.7 36.735 37.611 37.532 36.73 36.739 36.717 36.867 36.979 36.735 36.762 36.722 36.811 36.772 36.8 36.783 36.787 36.788 36.77 37.778 37.447 36.842 36.735 36.775 37.286 37.571 36.947 36.723 36.738 36.733 36.747 36.732 36.722 36.712 36.701 36.709 36.67 36.773 36.672 36.698 36.719 36.864 37.054 34.71 36.749 36.675 36.693 36.672 36.744 36.687 36.695 36.804 29.841 27.942 28.212 28.117 28.171 28.095 28.129 32.216 33.119 33.259 30.366 28.271 28.203 28.22 28.256 28.279 28.191 28.278 28.238 28.292 28.233 28.284 28.271 28.223 28.341 28.329 28.367 28.421 28.411 29.09 28.912 28.783 28.696 28.565 28.333 29.219 33.047 33.126 33.124 33.157 33.152 33.141 33.178 33.076 35.699 36.373 36.187 40.346 39.318 31.929 28.162 28.7 30.825 31.538 32.294 33.105 33.31 34.442 33.882 33.304 34.241 35.632 35.802 34.538 33.296 29.6 28.189 28.077 28.124 28.093 28.086 28.132 28.195 28.112 28.099 28.087 28.088 28.196 28.222 28.195 28.191 28.22 28.227 28.207 28.205 28.291 29.383 28.252 31.747 29.639 29.781 28.841 31.499 31.845 32.121 31.428 31.456 31.348 30.804 28.685 28.644 28.243 28.24 28.26 28.304 28.287 28.302 28.328 28.245 28.172 28.19 28.394 28.249 28.309 28.287 28.25 28.189 28.23 28.981 28.646 31.745 33.434 33.739 33.869 34.143 34.282 34.416 34.166 33.963 33.811 33.547 31.846 28.293 29.984 28.652 27.915 27.888 27.813 27.833 27.87 27.858 28.132 28.297 28.902 29.111 28.484 28.667 28.41 28.251 28.643 28.642 28.541 28.502 27.781 46.176 54.401 52.842 54.358 33.87 28.151 27.862 27.275 46.632 49.666 53.979 56.095 58.08 58.033 57.959 57.935 57.91 57.911 57.922 58.021 54.991 54.25 54.27 54.267 54.296 54.365 51.268 49.728 53.721 44.678 29.222 28.215 27.633 27.566 27.537 27.521 27.507 27.401 27.379 27.82 27.312 27.24 27.461 27.342 27.561 27.624 28.242 28.266 28.248 27.959 27.696 28.248
28.876 28.902 28.905 28.834 28.824 28.787 28.792 28.781 28.949 28.957 28.997 28.963 29.107 31.62 29.241 29.352 29.246 29.287 29.44 29.439 29.431 29.398 29.31 29.221 29.26 29.252 29.308 29.296 29.33 29.357 29.364 29.34 29.383 29.379 29.417 29.431 29.398 29.37 29.387 29.387 29.405 29.507 29.548 29.529 29.576 29.547 29.513 29.532 29.332 29.311 29.292 29.273 29.291 29.357 29.329 29.318 29.339 29.431 31.115 32.001 31.785 29.965 32.084 34.204 34.483 34.762 35.144 35.097 33.18 33.31 33.189 33.035 33.034 33.014 33.124 33.016 33.017 32.947 32.922 33.184 34.649 35.167 30.863 28.459 31.574 32.622 32.55 32.665 32.412 31.48 30.944 28.598 35.414 38.197 38.104 38.197 38.063 38.061 30.835 30.442 30.587 28.571 28.511 28.508 28.677 28.828 29.287 29.525 29.618 30.476 30.425 30.255 30.105 30.12 30.088 30.108 30.029 29.949 29.875 29.977 29.72 29.088 28.528 28.354 28.356 28.349 28.466 29.581 29.904 30.373 30.114 30.233 30.162 30.116 30.069 30.303 30.406 29.798 29.236 29.168 29.083 28.725 28.614 28.576 28.54 28.602 28.569 28.544 28.445 28.34 28.246 28.202 28.091 29.005 35.746 36.516 36.875 36.144 35.471 35.769 36.715 36.854 35.969 36.438 36.831 36.882 36.786 36.766 36.806 36.784 36.792 36.776 37.241 36.832 36.688 36.758 36.766 37.845 37.274 36.681 36.683 36.724 36.707 36.778 36.738 36.761 36.749 36.749 36.758 36.79 36.779 36.78 36.816 36.752 35.173 37.859 36.926 36.803 36.789 36.762 36.81 36.787 36.754 36.736 36.691 36.734 36.75 36.76 36.726 36.69 36.706 37.096 37.869 37.245 36.731 36.709 36.707 36.873 36.834 36.674 36.682 36.686 36.703 36.695 36.673 36.698 36.623 29.66 27.924 28.154 28.126 28.174 28.137 29.832 33.42 34.848 33.402 30.848 28.191 28.238 28.235 28.352 28.32 28.443 28.451 28.77 28.45 29.04 30.639 29.294 32.042 29.301 32.274 31.975 32.798 32.71 32.909 32.904 30.478 28.451 28.485 28.325 28.411 33.202 34.2 33.896 33.333 34.233 33.077 34.212 33.879 33.373 34.835 40.532 37.86 33.029 32.753 30.827 30.211 28.134 28.673 29.152 31.493 32.161 32.592 32.924 33.342 34.572 35.373 35.591 34.309 33.357 29.403 28.167 28.104 28.132 28.165 28.099 28.159 28.225 28.078 28.126 28.08 28.157 28.214 28.207 28.285 28.282 28.325 28.299 28.304 28.282 28.276 30.139 28.324 28.679 28.249 28.25 28.267 28.223 28.572 28.282 28.245 28.23 28.336 28.262 28.197 28.227 28.209 28.228 28.279 28.246 28.289 28.219 28.16 28.199 28.154 28.146 29.293 28.869 28.835 29.273 28.206 28.198 28.192 28.516 28.468 31.958 33.563 33.706 33.92 34.109 34.275 34.328 34.207 33.982 33.793 33.585 33.31 28.328 28.231 28.096 28.268 27.986 27.846 27.873 27.865 28.651 28.224 27.946 28.933 28.441 28.582 28.294 28.295 28.284 28.415 28.342 28.343 28.329 42.103 54.233 54.619 54.566 52.827 46.346 34.625 28.112 27.535 27.424 27.404 45.897 51.464 57.354 58.125 58.15 58.024 58.002 58.171 55.985 55.263 54.15 54.194 54.224 54.269 54.272 53.805 54.336 49.19 54.448 51.627 45.835 31.764 32.59 27.588 27.595 27.546 27.603 27.443 27.452 27.554 27.35 27.292 27.288 27.279 27.353 27.423 27.508 27.701 27.707 27.831 27.809 28.252
28.811 28.823 28.865 28.846 28.847 28.8 28.77 28.75 28.895 28.918 28.941 28.982 29.142 31.12 29.19 29.185 29.145 29.242 29.39 29.394 29.436 29.423 29.31 29.278 29.232 29.262 29.292 29.324 29.492 29.344 29.374 29.398 29.387 29.428 29.375 29.374 29.357 29.403 29.398 29.412 29.393 29.452 29.598 29.564 29.472 29.513 29.381 29.315 29.317 29.256 29.246 29.235 29.297 29.352 29.639 29.29 29.311 29.307 29.404 30.072 31.853 32.027 31.409 33.064 34.327 34.668 35.023 35.34 33.477 33.102 33.208 33.064 33.123 33.055 33.112 33.081 32.973 32.918 32.884 32.903 33.734 33.905 29.694 28.43 31.053 31.977 32.086 32.305 32.628 31.4 28.795 35.56 38.445 38.271 38.058 38.107 38.155 31.627 30.838 28.856 28.45 28.555 28.74 29.215 29.284 29.49 29.726 29.918 29.981 30.164 30.12 30.049 30.005 30.033 29.882 29.88 29.774 29.724 29.715 29.87 29.702 29.002 28.496 28.381 28.364 28.378 28.572 30.295 30.018 30.157 30.076 30.027 30.123 30.103 30.077 30.192 30.467 29.813 29.248 29.136 28.927 28.676 28.564 28.562 28.553 28.582 28.541 28.507 28.472 28.329 28.26 28.182 28.089 28.2 35.54 36.344 36.952 36.367 35.7 35.687 36.502 36.852 36.136 35.897 36.83 36.8 36.801 36.839 36.792 36.801 36.8 37.101 38.358 37.414 36.725 36.726 36.762 36.837 36.74 36.714 36.733 36.727 36.766 36.786 36.782 36.739 36.772 36.728 36.738 37.555 37.637 36.876 36.756 36.765 36.832 37.127 36.78 36.712 36.745 36.712 36.759 36.778 36.759 36.735 36.703 36.713 37.073 37.217 36.869 36.652 36.671 36.725 36.298 37.184 36.705 36.685 36.683 36.702 36.7 36.713 36.707 36.678 36.701 36.671 36.978 36.559 36.685 35.168 28.078 28.182 28.108 28.111 28.192 28.219 32.238 32.347 34.464 32.523 30.666 29.039 31.493 31.813 32.288 32.06 32.341 32.079 33.032 33.011 33.031 33.04 33.097 33.204 33.212 33.257 33.259 33.275 33.369 33.384 30.402 28.68 28.508 28.426 28.34 33.035 33.24 33.74 34.257 34.146 33.672 33.492 32.733 33.093 34.18 35.62 35.247 34.339 33.536 33.033 30.948 29.546 28.326 28.11 28.741 31.084 31.439 31.785 30.452 29.856 33.946 35.428 34.289 33.175 29.15 28.114 28.167 28.132 28.103 28.116 28.102 28.115 28.161 28.138 28.06 28.256 28.352 28.356 28.383 28.376 28.357 28.436 28.39 28.373 28.348 29.95 28.459 28.645 28.252 28.218 28.257 28.271 28.205 28.197 28.199 28.188 28.383 28.238 28.178 28.171 28.128 28.176 28.194 28.195 28.187 28.121 28.152 28.145 28.174 28.114 28.168 28.604 28.318 28.667 28.184 28.17 28.193 28.297 28.36 31.679 33.498 33.732 33.902 34.092 34.321 34.378 34.249 33.98 33.796 33.644 33.328 28.37 28.191 28.307 28.167 27.887 27.861 27.879 27.961 27.949 28.591 28.748 28.716 28.26 28.371 28.358 28.267 28.471 28.642 28.48 27.981 42.186 52.2 52.165 54.533 54.474 54.445 53.928 28.366 28.15 28.114 27.542 27.661 28.117 39.548 54.65 54.208 56.324 55.31 55.204 54.148 48.771 54.007 54.124 54.164 54.181 54.261 54.266 50.078 54.339 51.726 54.393 54.397 54.41 50.307 49.261 28.066 27.623 27.573 27.557 27.499 27.534 27.438 27.36 27.335 27.299 27.269 27.248 27.316 27.438 27.421 27.547 27.594 27.532 27.534
28.748 28.818 28.801 28.854 28.845 28.817 28.758 28.742 28.909 28.974 28.937 28.998 29.208 29.951 29.106 29.101 29.154 29.259 29.333 29.417 29.382 29.389 29.363 29.297 29.307 29.282 29.338 29.526 29.514 29.467 29.436 29.462 29.344 29.399 29.37 29.378 29.396 29.416 29.382 29.379 29.407 29.389 29.524 29.425 29.379 29.312 29.293 29.295 29.232 29.24 29.221 29.242 29.26 29.251 29.745 29.734 29.302 29.303 29.283 29.329 30.078 30.801 29.679 32.554 34.191 34.548 34.885 35.246 34.99 35.143 33.33 33.062 33.105 33.074 33.095 33.031 33.007 32.908 32.941 33.09 33.834 34.828 29.716 28.482 28.684 29.574 29.855 30.321 31.333 30.015 37.231 39.997 39.634 38.141 38.006 37.978 31.263 28.736 28.574 28.776 28.995 29.046 29.241 29.843 29.753 29.871 30.087 30.17 30.156 30.046 29.959 29.934 29.8 29.651 29.616 29.549 29.506 29.494 29.596 29.704 29.707 28.908 28.528 28.339 28.403 28.386 28.532 29.507 30.245 30.364 30.203 30.069 30.05 30.081 30.071 30.153 30.189 30.329 29.451 29.14 28.857 28.68 28.57 28.534 28.448 28.563 28.591 28.476 28.459 28.337 28.193 28.148 28.071 28.033 33.906 36.191 36.961 36.653 35.941 35.477 36.091 36.803 36.326 35.755 36.831 36.851 37.358 37.538 37.017 36.796 36.769 36.919 37.431 36.98 36.773 36.738 36.728 36.705 36.736 36.69 36.75 36.719 36.724 36.756 37.193 36.847 36.712 36.742 36.733 36.735 37.664 36.798 36.796 36.697 36.765 36.783 36.827 36.758 36.749 36.737 36.722 36.751 36.777 36.695 36.717 36.706 37.188 38.155 37.033 36.669 36.627 36.71 35.527 36.688 36.669 36.721 36.67 36.728 36.713 36.707 36.692 36.665 36.642 36.571 35.13 35.036 36.692 32.974 29.758 28.185 28.186 28.153 28.177 28.188 28.151 29.584 32.489 33.017 33.018 33.028 33.158 33.219 33.251 33.298 33.309 33.369 33.365 33.455 33.444 33.514 33.552 33.558 33.639 33.7 33.735 33.777 33.796 33.769 30.93 28.565 28.549 28.426 28.4 33.335 33.141 33.611 34.153 34.245 33.697 33.155 32.636 32.817 33.486 33.89 34.448 33.997 33.499 33.072 33.085 28.6 28.087 27.997 28.239 28.586 28.79 28.562 28.492 28.169 28.074 28.267 31.592 33.264 29.231 28.146 28.123 28.092 28.12 28.105 28.14 28.147 28.136 28.13 28.169 28.291 28.433 28.439 28.49 28.416 28.43 28.457 28.428 28.447 28.417 29.171 28.763 28.362 28.273 28.27 28.206 28.262 28.247 28.227 28.183 28.155 28.212 28.169 28.158 28.117 28.115 28.183 28.104 28.14 28.117 28.126 28.166 28.113 28.148 28.163 28.143 28.13 28.168 28.125 28.128 28.118 28.153 28.185 28.164 28.274 33.443 33.727 33.853 34.055 34.273 34.367 34.25 34.018 33.844 33.649 33.46 29.31 28.324 28.632 27.949 27.936 27.856 27.987 30.799 28.102 30.598 28.802 28.664 28.29 28.309 28.291 28.476 28.73 28.7 28.282 29.009 47.113 54.623 54.561 54.528 54.48 54.455 54.471 52.475 46.79 29.923 28.194 27.87 27.838 28.268 37.401 35.502 48.568 54.603 41.265 38.133 30.841 49.323 53.612 54.107 54.158 54.173 54.221 54.221 54.249 54.278 54.317 54.364 54.435 40.17 30.432 27.725 27.622 27.552 27.529 27.474 27.488 27.538 27.495 27.386 27.258 27.263 27.301 27.28 27.254 27.296 27.43 27.667 27.709 27.675
28.781 28.819 28.777 28.856 28.854 28.835 28.794 28.786 28.985 28.99 28.988 28.974 29.154 29.509 29.09 29.125 29.12 29.148 29.21 29.393 29.396 29.381 29.447 29.341 29.3 29.288 29.359 29.554 29.543 29.453 29.384 29.347 29.406 29.354 29.372 29.41 29.419 29.377 29.368 29.422 29.436 29.37 29.439 29.387 29.371 29.353 29.286 29.287 29.269 29.264 29.217 29.207 29.219 29.234 29.247 29.261 29.273 29.303 29.292 29.303 29.302 29.354 29.556 30.168 33.077 34.332 34.747 35.113 35.408 35.525 34.96 33.106 33.031 33.026 32.984 33.099 32.943 32.915 32.944 32.823 33.324 34.253 29.872 28.463 28.779 28.671 28.984 28.788 36.902 39.749 39.934 40.413 39.93 38.08 38.154 33.252 28.773 29.001 29.206 29.419 29.519 29.53 29.81 29.842 29.926 29.958 29.994 30.038 30.014 29.883 29.683 29.497 29.5 29.356 29.308 29.34 29.431 29.393 29.335 29.548 29.598 28.863 28.542 28.352 28.45 28.367 28.727 29.692 30.422 30.687 30.155 30.099 30.114 30.092 30.123 30.124 30.522 29.98 29.377 29.118 28.801 28.608 28.568 28.55 28.54 28.59 28.537 28.459 28.423 28.272 28.182 28.122 28.057 28.008 29.535 35.798 36.634 36.838 36.065 35.377 36.005 36.781 36.784 35.903 36.612 36.829 37.287 38.169 37.256 36.75 36.787 36.801 36.795 36.806 36.805 36.741 36.741 36.758 36.75 36.777 36.744 36.696 36.686 36.774 38.088 37.681 36.734 36.687 36.731 36.735 36.749 36.748 36.752 36.716 36.755 36.737 36.765 36.754 36.712 36.736 36.716 37.138 37.643 36.782 36.691 36.735 36.815 37.153 36.809 36.707 36.745 36.735 36.707 36.725 36.709 36.69 36.692 36.694 36.786 33.262 36.549 36.648 36.575 35.453 32.185 36.223 36.685 36.523 33.781 28.37 28.133 28.131 28.169 28.12 28.151 28.255 28.404 33.391 33.484 33.489 33.552 33.611 33.657 33.638 33.766 33.804 33.804 33.769 33.821 33.695 33.826 33.688 33.7 33.675 33.618 33.652 33.462 33.496 32.372 28.548 28.577 28.488 28.364 32.958 33.232 33.73 34.211 34.22 33.683 33.227 32.564 32.951 33.413 33.942 34.365 34.048 33.498 33.145 32.843 28.137 28.043 27.994 28.127 28.209 28.236 28.34 28.293 28.639 28.409 28.604 28.323 32.028 28.896 28.152 28.173 28.189 28.158 28.108 28.094 28.194 28.154 28.133 28.228 28.319 28.383 28.47 28.535 28.438 28.501 28.495 28.492 28.5 28.451 30.224 29.186 30.504 29.327 28.531 28.225 28.258 28.207 28.216 28.162 28.188 28.139 28.124 28.153 28.106 28.136 28.123 28.122 28.099 28.05 28.117 28.095 28.121 28.171 28.169 28.141 28.097 28.14 28.118 28.143 28.126 28.152 28.136 28.171 29.119 33.296 33.692 33.896 34.036 34.252 34.406 34.242 34.066 33.838 33.656 33.375 28.855 29.555 30.068 30.073 28.026 27.911 27.906 28.955 29.513 29.072 28.986 28.663 28.295 28.277 28.454 28.676 28.445 28.247 29.006 47.067 54.649 54.601 54.527 54.473 54.431 54.48 54.525 54.578 54.615 42.611 28.256 27.907 27.78 27.823 27.941 28.089 28.288 28.466 29.428 30.205 30.122 30.074 34.802 53.876 54.104 54.145 54.182 54.247 54.262 49.57 54.252 53.849 36.029 37.301 27.753 27.621 27.66 27.587 27.515 27.482 27.479 27.384 27.495 27.432 27.355 27.275 27.258 27.252 27.217 27.274 27.344 27.492 27.679 30.63
28.69 28.717 28.762 28.784 28.785 28.796 28.842 28.767 28.957 28.941 28.965 29.16 29.178 29.955 29.074 29.133 29.131 29.224 29.205 29.356 29.4 29.41 29.382 29.398 29.321 29.277 29.325 29.484 29.453 29.404 29.36 29.414 29.374 29.413 29.407 29.394 29.365 29.399 29.388 29.354 29.381 29.41 29.384 29.379 29.381 29.343 29.324 29.306 29.29 29.275 29.237 29.251 29.231 29.265 29.245 29.319 29.815 29.372 29.274 29.289 29.308 29.353 29.324 29.699 29.483 30.359 34.357 34.965 35.293 33.998 33.238 33.095 32.976 32.974 32.957 33.04 33.031 32.933 32.918 32.851 34.131 34.57 29.406 28.464 28.73 28.589 28.665 36.263 38.956 38.44 38.365 38.179 38.057 37.375 31.911 29.424 29.442 29.551 29.581 29.714 29.767 29.977 29.971 29.923 29.879 29.974 29.969 29.901 29.594 29.489 29.312 29.185 29.295 29.378 29.342 29.46 29.618 29.285 29.31 29.427 29.447 28.983 28.568 28.403 28.45 28.384 28.5 29.329 30.414 30.567 30.326 30.116 30.108 30.116 30.108 30.142 30.727 30.297 29.348 29.395 28.748 28.527 28.614 28.536 28.599 28.506 28.501 28.475 28.327 28.228 28.193 28.144 28.087 28.044 33.057 35.733 36.471 36.943 36.409 35.706 35.72 36.594 36.899 36.161 35.804 36.841 36.824 36.927 36.794 36.808 36.783 36.839 36.823 36.815 36.815 36.798 36.701 36.726 37.118 37.452 36.938 36.709 36.665 36.755 37.13 37.149 36.772 36.716 36.751 36.742 36.758 36.723 36.779 36.822 36.728 36.695 36.929 36.984 36.688 36.703 36.7 37.389 36.879 36.702 36.696 36.737 36.717 36.75 36.715 36.732 36.702 36.711 36.664 36.69 36.748 36.685 36.723 36.659 36.91 37.83 35.954 36.688 36.656 36.642 36.707 36.704 36.634 36.783 31.504 28.968 28.351 28.104 28.164 28.142 28.146 28.228 28.374 33.686 33.785 33.775 33.79 33.68 33.645 33.66 33.619 33.6 33.46 33.572 33.441 33.362 33.376 33.266 33.241 33.198 33.195 33.148 33.089 33.125 32.912 28.779 28.571 28.527 28.416 33.197 33.143 33.684 34.199 34.153 33.624 33.108 32.612 32.842 33.427 33.838 34.431 34.094 33.505 33.035 31.827 28.179 28.05 28.025 28.153 28.143 28.276 28.312 28.367 28.231 29.362 29.536 29.94 31.635 28.211 28.173 28.208 28.154 28.187 28.135 28.202 28.163 28.181 28.153 28.309 28.35 28.442 28.521 28.495 28.535 28.552 28.548 28.556 28.487 28.451 28.64 28.749 31.515 29.964 28.321 28.302 28.222 28.208 28.187 28.131 28.164 28.119 28.143 28.114 28.109 28.136 28.081 28.112 28.087 28.105 28.128 28.083 28.085 28.123 28.149 28.142 28.119 28.105 28.077 28.099 28.116 28.153 28.119 28.211 28.336 32.799 33.617 33.807 34.03 34.183 34.397 34.245 34.031 33.877 33.694 33.4 29.316 28.31 30.791 30.771 28.092 27.935 27.954 28.963 28.961 28.974 28.821 28.466 28.306 28.297 28.521 28.552 28.187 27.97 42.523 54.681 54.59 54.55 54.491 54.413 54.444 54.486 54.553 54.636 54.67 54.237 30.109 28.102 27.866 27.967 28.01 28.138 28.295 28.388 28.641 29.379 30.1 30.11 40.941 53.732 54.027 54.095 54.154 54.196 54.214 54.195 54.38 38.497 27.806 27.733 27.687 27.653 27.599 27.59 27.525 27.457 27.45 27.418 27.45 27.36 27.4 27.375 27.263 27.241 27.245 27.259 27.24 27.313 27.381 32.446
28.734 28.753 28.749 28.768 28.775 28.77 28.789 28.791 28.905 28.926 28.977 29.004 31.202 29.171 29.173 29.142 29.156 29.187 29.223 29.253 29.375 29.404 29.378 29.343 29.356 29.347 29.381 29.405 29.394 29.345 29.337 29.386 29.388 29.363 29.392 29.361 29.366 29.328 29.395 29.362 29.373 29.399 29.397 29.415 29.352 29.357 29.341 29.291 29.255 29.266 29.259 29.24 29.242 29.26 29.258 29.3 29.285 29.512 29.287 29.293 29.313 29.324 29.379 29.287 29.4 29.455 29.512 30.825 29.751 29.468 33.963 33.361 33.026 32.974 32.907 33.016 32.975 32.863 32.969 32.861 33.808 35.204 28.724 28.566 28.598 28.875 32.109 37.887 38.481 38.398 38.239 38.089 38.181 30.205 29.206 29.517 29.964 29.97 29.79 29.868 29.916 29.852 29.95 29.845 29.717 29.718 29.544 29.456 29.435 29.35 29.425 29.417 29.357 29.345 29.315 29.386 29.543 29.372 29.319 29.373 29.476 28.902 28.564 28.386 28.435 28.407 28.609 29.381 30.455 30.747 30.725 30.111 30.12 30.1 30.133 30.198 30.48 30.345 29.546 28.95 28.695 28.507 28.454 28.516 28.574 28.538 28.499 28.384 28.294 28.16 28.155 28.118 28.059 28.053 28.115 34.035 36.223 36.893 36.622 35.837 35.502 36.196 36.873 36.439 35.898 36.822 36.818 36.798 36.778 36.812 36.836 36.836 36.811 36.826 36.864 36.762 36.728 36.706 37.266 38.307 37.215 36.714 36.689 36.689 36.758 36.77 36.721 36.727 36.749 36.733 36.758 36.751 36.712 36.776 36.699 36.743 37.891 37.79 36.762 36.703 36.705 36.753 36.881 36.711 36.714 36.735 36.711 36.747 36.756 36.739 36.671 36.671 36.693 37.121 37.592 36.763 36.679 36.663 36.797 35.961 36.801 36.705 36.649 36.679 36.641 36.756 35.193 30.57 28.135 28.096 28.114 28.117 28.204 28.208 28.185 28.199 28.377 33.374 33.451 33.419 33.366 33.236 33.26 33.47 33.207 33.092 33.104 33.062 33.087 32.914 32.924 32.809 32.779 32.675 32.733 32.32 30.653 30.834 30.113 29 28.65 28.598 28.407 33.047 33.031 33.697 34.153 34.118 33.72 33.135 32.703 32.924 33.399 33.834 34.374 34.012 33.492 33.017 29.767 28.161 28.108 28.15 28.202 28.233 28.276 28.505 28.302 27.937 27.884 28.544 28.214 28.846 28.168 28.219 28.202 28.164 28.217 28.156 28.102 28.198 28.174 28.219 28.318 28.431 28.436 28.573 28.527 28.593 28.564 28.547 28.548 28.516 30.493 28.538 30.411 31.624 30.594 28.365 28.293 28.241 28.22 28.236 28.205 28.152 28.105 28.129 28.124 28.114 28.148 28.057 28.108 28.085 28.124 28.176 28.092 28.064 28.134 28.118 28.127 28.138 28.116 28.171 28.139 28.165 28.139 28.149 28.199 28.329 32.874 33.649 33.839 33.984 34.196 34.415 34.233 34.055 33.871 33.692 33.47 29.749 28.197 30.349 30.774 28.347 27.983 27.975 28.131 28.493 28.531 28.381 28.255 28.266 28.277 28.306 28.15 27.873 28.26 54.381 54.599 54.577 54.488 54.46 54.433 54.675 54.52 54.61 54.647 54.256 30.802 27.816 28.257 28.051 28.02 28.059 28.145 28.287 28.484 28.499 28.878 29.866 30.602 51.585 54.132 54.1 54.064 54.076 54.14 54.152 54.282 36.908 27.849 27.709 27.706 27.6 27.609 27.653 27.643 27.63 27.98 27.601 27.476 27.425 27.396 27.344 27.325 27.432 27.318 27.232 27.253 27.234 27.248 27.264 27.418
28.694 28.703 28.709 28.73 28.74 28.745 28.786 28.806 28.869 28.973 28.992 29.041 29.13 29.157 29.128 29.19 29.166 29.18 29.34 29.254 29.385 29.36 29.357 29.349 29.376 29.384 29.383 29.378 29.383 29.387 29.382 29.406 29.368 29.4 29.361 29.39 29.349 29.363 29.395 29.383 29.363 29.406 29.377 29.395 29.36 29.371 29.338 29.288 29.312 29.28 29.29 29.283 29.261 29.249 29.273 29.279 29.28 29.685 29.737 29.29 29.318 29.347 29.331 29.355 29.31 29.433 30.549 30.235 29.79 29.394 32.001 33.123 33.038 33.034 33.012 32.939 33.007 32.898 32.878 32.866 32.827 31.283 28.583 29.425 31.184 29.799 38.455 38.412 38.415 38.215 38.129 33.186 31.803 29.563 29.719 29.763 29.968 30.114 29.928 29.868 29.731 29.697 29.664 29.603 29.51 29.377 29.347 29.425 29.463 29.402 29.409 29.413 29.347 29.285 29.31 29.392 29.28 29.362 29.274 29.497 29.438 28.816 28.537 28.41 28.422 28.466 28.582 29.4 30.483 30.615 30.198 30.13 30.071 30.104 30.159 30.217 30.535 30.337 29.431 28.941 28.564 28.544 28.575 28.532 28.485 28.532 28.509 28.43 28.254 28.189 28.099 28.077 28.113 28.295 32.577 35.2 35.989 36.778 36.794 36.118 35.469 36.023 36.864 36.58 36.009 36.811 36.814 36.806 36.819 36.794 36.775 36.763 36.776 37.394 37.954 36.871 36.739 36.719 36.819 36.863 36.718 36.74 36.671 36.681 36.737 36.78 36.741 36.744 36.684 36.704 36.944 37.356 36.89 36.709 36.799 36.717 37.367 35.834 36.754 36.735 36.735 36.741 36.758 36.733 36.737 36.714 36.714 36.729 36.938 36.754 36.665 36.69 36.674 37.328 37.77 36.907 36.668 36.675 36.668 36.674 36.66 36.666 36.961 36.953 30.699 28.11 28.088 28.119 28.123 28.134 28.323 28.123 28.154 28.221 28.195 28.177 28.296 32.429 32.999 32.945 32.885 32.848 32.71 32.624 32.125 30.093 30.608 31.637 30.006 29.661 28.95 30.572 29.739 30.656 28.671 31.74 31.93 32.235 31.992 30.06 28.686 28.693 28.604 31.643 33.552 34.086 34.308 34.205 33.711 33.147 32.636 32.834 33.34 33.858 34.441 34.071 33.496 33.104 33.372 30.013 28.389 28.274 28.327 28.309 28.39 28.47 28.278 27.954 27.902 27.871 28.05 29.949 28.207 28.24 28.187 28.16 28.219 28.159 28.178 28.205 28.179 28.236 28.345 28.361 28.549 28.543 28.549 28.558 28.501 28.51 28.554 28.473 30.583 29.267 31.351 31.91 31.132 28.381 28.368 28.277 28.259 28.249 28.225 28.194 28.171 28.139 28.119 28.111 28.097 28.169 28.17 28.131 28.104 28.112 28.108 28.117 28.121 28.104 28.149 28.153 28.15 28.166 28.153 28.22 28.158 28.293 28.164 28.244 32.321 33.574 33.811 33.944 34.231 34.337 34.328 34.115 33.892 33.754 33.505 32.272 28.301 30.271 30.77 28.598 27.947 28.002 28.111 28.334 28.272 28.194 28.298 28.239 28.22 28.127 27.892 41.85 52.211 54.648 54.603 54.501 54.447 54.42 54.511 54.53 54.575 54.635 54.187 30.766 27.779 27.833 28.258 28.966 28.123 28.08 28.154 28.272 28.415 28.476 28.562 28.886 30.371 53.835 54.173 54.157 54.108 54.065 54.071 53.643 31.592 27.883 27.787 27.699 27.655 27.672 28.097 29.131 27.963 27.685 29.901 32.401 28.114 27.509 27.508 27.398 27.273 27.346 27.378 27.312 27.188 27.231 27.229 27.337 28.612
28.651 28.633 28.662 28.706 28.718 28.683 28.737 28.815 28.83 28.996 28.965 29.096 30.091 29.201 29.121 29.189 29.193 29.233 29.213 29.25 29.301 29.317 29.373 29.368 29.396 29.393 29.392 29.418 29.4 29.356 29.387 29.379 29.363 29.385 29.362 29.373 29.336 29.367 29.404 29.359 29.378 29.402 29.406 29.394 29.386 29.385 29.356 29.345 29.311 29.278 29.268 29.271 29.252 29.278 29.299 29.301 29.28 29.306 29.733 29.336 29.298 29.289 29.334 29.345 29.357 30.888 31.985 32.41 31.031 31.042 30.958 33.974 33.153 32.874 32.976 32.981 32.999 32.853 32.878 32.9 33.451 33.496 28.9 29.74 38.004 38.408 38.394 38.375 38.169 38.172 38.533 30.488 29.297 29.757 30.085 30.105 30.162 30.044 29.889 29.757 29.702 29.602 29.398 29.452 29.388 29.36 29.373 29.445 29.371 29.453 29.552 29.567 29.349 29.39 29.391 29.346 29.378 29.408 29.349 29.428 29.607 28.977 28.573 28.419 28.438 28.439 28.575 29.543 30.224 30.303 30.181 30.574 30.069 30.075 30.137 30.176 30.384 30.154 29.566 29.086 28.729 28.528 28.554 28.577 28.512 28.505 28.434 28.45 28.309 28.182 28.122 28.102 28.24 33.236 34.04 34.783 35.687 36.544 36.916 36.378 35.592 35.774 36.458 36.733 36.262 36.484 36.81 36.837 37.128 37.27 36.846 36.771 36.797 37.224 37.72 36.929 36.719 36.74 36.68 36.717 36.705 36.701 36.676 36.659 36.685 36.728 37.017 36.721 36.675 36.692 36.904 37.692 37.235 36.722 36.673 36.709 36.709 36.738 36.705 36.689 36.704 36.705 36.736 36.716 36.726 36.666 36.701 36.716 37.517 37.642 36.812 36.719 36.648 36.684 36.003 36.7 36.696 36.666 36.651 36.621 36.1 33.201 35.955 30.692 28.133 28.082 28.059 28.042 28.031 28.14 28.16 28.164 28.117 28.195 28.241 28.21 28.209 29.686 29.528 29.634 30.433 33.335 30.061 32.606 31.662 31.611 31.596 32.251 32.311 32.709 32.193 32.882 33.005 33.121 33.083 33.152 33.305 33.305 33.498 30.605 28.653 29.359 29.173 32.406 33.242 33.654 34.048 34.205 33.675 33.117 32.622 32.787 33.301 33.796 34.328 33.899 33.481 32.976 34.175 34.552 30.288 28.389 28.418 28.46 28.513 28.664 28.292 27.997 27.924 27.965 28.183 28.691 28.202 28.181 28.176 28.214 28.224 28.157 28.134 28.186 28.16 28.327 28.437 28.464 28.53 28.527 28.666 28.577 28.565 28.53 28.517 28.515 30.738 30.583 31.475 31.883 28.931 28.371 28.334 28.333 28.285 28.284 28.258 28.219 28.211 28.219 28.193 28.17 28.173 28.155 28.153 28.156 28.179 28.164 28.162 28.191 28.162 28.134 28.154 28.158 28.19 28.184 28.251 29.265 29.025 29.011 28.214 28.241 31.811 33.579 33.804 33.984 34.179 34.358 34.318 34.13 33.944 33.724 33.5 29.671 28.27 28.674 28.776 28.179 28.031 28.03 28.313 28.231 28.252 28.278 28.31 28.247 28.116 27.922 27.81 47.059 54.676 54.591 54.52 54.438 56.057 55.174 55.102 54.65 54.656 54.698 48.611 28.135 27.756 27.76 27.837 29.436 28.274 28.15 28.145 28.226 28.273 28.371 28.542 28.682 28.847 30.155 53.741 53.686 54.151 54.084 53.614 30.985 27.967 27.814 27.747 27.693 27.732 27.738 28.136 27.688 27.654 42.41 40.766 46.694 35.444 28.065 27.551 27.477 27.339 27.31 27.295 27.309 27.378 27.321 27.253 27.242 28.719
28.734 28.614 28.622 28.669 28.7 28.733 28.735 28.766 28.773 28.945 28.951 29.26 31.512 29.15 29.396 29.211 29.198 29.299 29.379 29.313 29.308 29.326 29.355 29.336 29.34 29.341 29.355 29.385 29.413 29.369 29.398 29.343 29.396 29.359 29.369 29.338 29.347 29.357 29.361 29.352 29.394 29.39 29.376 29.399 29.376 29.368 29.374 29.343 29.325 29.315 29.314 29.299 29.299 29.26 29.288 29.29 29.29 29.305 29.34 29.861 29.407 29.386 29.331 29.299 29.345 31.928 32.45 32.088 30.828 29.945 29.629 33.005 33.057 32.863 32.937 32.896 32.948 32.895 32.91 32.868 32.791 32.735 29.564 37.697 38.387 38.371 38.436 38.572 38.163 38.057 30.85 29.623 29.849 30.099 30.221 30.128 30.03 30.002 29.762 29.713 29.605 29.526 29.558 29.531 29.442 29.468 29.563 29.564 29.426 29.424 29.547 29.466 29.423 29.599 29.526 29.399 29.308 29.36 29.369 29.413 29.644 29.043 28.565 28.443 28.419 28.401 28.495 29.829 30.408 30.24 30.286 30.525 30.035 30.041 30.06 30.095 30.122 30.098 30.472 29.267 28.734 28.541 28.53 28.639 28.568 28.527 28.436 28.325 28.195 28.179 28.134 28.078 28.233 33.666 33.98 34.344 35.432 36.168 36.921 36.486 35.866 35.638 36.279 36.868 36.335 36.572 36.768 36.887 37.718 37.822 36.76 36.775 36.772 36.833 36.865 36.782 36.758 36.726 36.692 36.712 36.741 36.694 36.723 36.714 36.668 37.153 38.053 36.953 36.709 36.715 36.707 36.982 36.969 36.671 36.731 36.723 36.708 36.73 36.742 36.73 36.704 36.695 36.735 37.663 36.974 36.688 36.695 36.652 37.284 37.336 36.767 36.667 36.677 36.687 36.675 36.763 36.669 35.438 34.608 34.505 31.745 31.559 32.367 29.823 28.123 28.074 28.058 28.097 28.101 28.267 28.629 28.19 28.144 28.199 28.264 28.261 28.206 28.283 28.409 28.441 33.753 36.023 36.035 33.744 33.215 33.206 33.331 33.47 33.543 33.518 33.591 33.578 33.786 33.775 33.776 34.139 34.034 34.15 34.204 32.114 28.8 28.763 29.111 32.6 33.041 33.602 34.136 34.11 33.678 33.103 32.717 32.698 33.247 33.771 34.315 34.107 33.558 32.949 34.157 34.554 30.484 28.554 28.512 28.533 28.809 28.375 28.218 28.048 28.008 27.953 28.094 28.232 28.191 28.204 28.19 28.22 28.199 28.149 28.21 28.202 28.209 28.405 28.522 28.452 28.545 28.573 28.595 28.517 28.566 28.503 28.427 28.592 29.095 28.571 31.61 31.858 28.946 28.466 28.385 28.355 28.347 28.341 28.271 28.328 28.287 28.266 28.302 28.233 28.283 28.228 28.236 28.181 28.188 28.19 28.204 28.216 28.179 28.215 28.172 28.216 28.197 28.264 28.247 28.47 29.337 29.943 28.709 28.221 32.515 33.524 33.775 33.909 34.132 34.385 34.364 34.187 33.958 33.731 33.547 30.085 28.27 28.277 28.625 28.152 28.071 28.088 28.2 28.26 29.069 29.008 28.432 28.194 28.107 27.82 42.36 54.697 54.607 54.535 54.457 54.471 57.178 57.663 57.169 55.587 54.684 54.242 28.098 27.69 28.243 27.823 30.203 28.91 28.667 28.274 28.123 28.12 28.156 28.287 28.373 28.465 28.557 29.071 30.015 38.967 53.888 54.201 52.662 28.329 27.852 27.8 27.754 27.762 27.751 27.784 27.737 28.777 43.064 33.065 51.948 54.476 38.499 44.604 28.564 27.445 27.445 27.378 27.228 27.242 27.279 27.325 27.25 27.173 27.238
28.805 28.639 28.577 28.682 28.688 28.721 28.736 28.748 28.766 28.886 28.962 29.193 30.23 29.168 29.207 29.238 29.241 29.366 29.394 29.421 29.384 29.352 29.342 29.36 29.337 29.366 29.376 29.41 29.402 29.386 29.369 29.328 29.387 29.346 29.384 29.371 29.38 29.376 29.368 29.34 29.343 29.364 29.385 29.371 29.379 29.373 29.379 29.327 29.345 29.307 29.281 29.288 29.297 29.264 29.273 29.292 29.271 29.286 29.292 29.331 29.406 29.344 29.338 29.357 29.334 31.139 31.298 30.947 29.927 29.392 31.67 30.791 32.989 32.93 32.869 32.881 33.042 32.999 32.889 32.875 32.816 36.043 38.441 38.417 38.321 38.358 39.445 39.564 34.157 29.926 29.598 29.72 30.193 30.332 30.266 30.091 29.942 29.849 29.63 29.521 29.508 29.591 29.458 29.426 29.424 29.481 29.445 29.492 29.543 29.552 29.446 29.522 29.51 29.485 29.473 29.45 29.422 29.366 29.378 29.401 29.644 29.102 28.604 28.436 28.458 28.444 28.5 29.314 30.421 30.413 30.051 30.301 29.951 29.971 29.93 30.01 30.729 30.046 30.137 29.37 29.032 28.61 28.549 28.569 28.573 28.388 28.372 28.293 28.284 28.152 28.126 28.118 28.172 33.629 33.954 34.173 35.184 35.975 36.814 36.869 35.926 35.609 36.053 36.725 36.483 35.774 36.762 36.843 37.162 37.024 36.763 36.767 36.793 36.812 36.752 36.775 36.761 36.758 36.696 36.75 36.951 37.145 36.704 36.667 36.711 36.81 37.852 36.882 36.666 36.626 36.716 36.661 36.762 36.728 36.708 36.727 36.72 36.732 36.729 36.74 36.646 36.708 36.937 38.122 37.587 36.713 36.644 36.666 36.714 36.69 36.743 36.693 36.646 35.994 35.426 34.575 34.69 34.764 34.515 34.326 32 31.125 31.15 33.707 28.58 29.069 34.22 29.59 28.362 28.403 28.329 28.301 28.208 28.291 28.272 28.257 28.252 28.298 28.353 28.416 32.403 36.027 36.023 35.6 33.93 33.94 34.101 34.266 34.407 34.347 34.408 34.446 34.497 28.873 33.029 34.567 34.655 34.477 34.564 33.35 28.853 28.681 28.635 32.505 33.086 33.629 34.08 34.22 33.605 33.245 32.552 32.799 33.262 33.81 34.286 34.027 33.496 32.956 34.204 34.592 33.405 28.618 28.525 28.56 28.661 28.453 28.256 28.056 28.018 28.029 28.05 28.721 28.239 28.233 28.173 28.227 28.22 28.278 28.226 28.242 28.319 28.408 28.424 28.499 28.5 28.531 28.567 28.523 28.552 28.434 28.469 28.513 32.937 29.04 30.108 30.346 28.959 28.431 28.458 28.405 28.411 28.391 28.335 28.338 28.313 28.323 28.301 28.268 28.343 28.279 28.335 28.3 28.289 28.244 28.274 28.237 28.22 28.291 28.215 28.289 28.254 28.269 28.258 28.788 28.49 28.584 28.664 28.19 31.81 33.405 33.626 33.878 34.16 34.323 34.351 34.196 33.997 32.319 31.682 30.148 28.214 28.246 28.417 28.143 28.223 28.148 28.257 28.293 28.901 28.764 28.705 28.222 27.986 42.584 54.667 54.62 54.549 54.497 54.426 54.45 55.047 57.041 57.977 57.923 41.422 32.045 27.771 27.751 27.782 28.633 28.939 28.962 29.012 28.356 28.232 28.028 28.06 28.132 28.178 28.264 28.313 28.553 29.178 34.278 49.804 40.095 28.045 27.879 27.803 27.741 27.779 27.808 27.918 27.824 42.52 54.488 43.309 54.647 54.485 54.428 54.323 37.3 34.004 27.522 27.427 27.401 27.277 27.148 27.138 27.217 27.369 27.172 27.212
29.045 28.908 28.648 28.63 28.634 28.703 28.739 28.782 28.765 28.839 28.922 29.18 29.913 29.177 29.2 29.211 29.207 29.25 29.369 29.447 29.45 29.423 29.319 29.318 29.336 29.348 29.353 29.354 29.373 29.361 29.368 29.379 29.352 29.369 29.354 29.328 29.381 29.344 29.38 29.353 29.402 29.377 29.35 29.337 29.339 29.345 29.403 29.361 29.309 29.324 29.323 29.302 29.29 29.306 29.258 29.269 29.239 29.276 29.296 29.302 30.163 29.83 29.317 29.305 29.422 29.317 29.575 29.296 29.378 30.848 33.293 33.234 33.203 33.02 32.912 32.914 32.949 33.006 32.926 33.109 38.385 38.564 38.398 38.387 39.056 39.04 39.317 34.849 31.325 30.298 30.139 30.167 30.32 30.293 30.226 29.927 29.73 29.584 29.453 29.551 29.437 29.537 29.527 29.531 29.489 29.436 29.408 29.437 29.552 29.521 29.439 29.558 29.494 29.521 29.531 29.397 29.44 29.388 29.454 29.433 29.709 29.28 28.655 28.442 28.43 28.427 28.641 29.518 29.945 30.043 29.933 30.232 29.826 29.801 29.821 29.837 30.16 29.923 29.874 29.559 30.943 28.888 28.684 28.967 29.146 28.427 28.339 28.337 28.369 28.245 28.123 28.058 28.031 32.503 33.909 34.13 34.561 35.752 36.576 37.002 36.31 35.429 35.744 36.579 36.649 35.765 36.331 36.814 36.805 36.755 36.727 36.78 36.779 36.72 36.808 36.768 36.766 36.746 36.722 36.728 37.737 37.225 36.915 36.676 36.631 36.713 36.748 36.728 36.715 36.694 36.702 36.685 36.674 36.722 36.72 36.68 36.691 37.179 37.855 36.978 36.705 36.662 36.659 36.852 36.788 36.68 36.671 36.662 36.665 36.662 36.461 34.828 34.479 34.522 32.098 34.966 35.45 35.465 33.738 34.282 32.314 31.268 31.342 36.132 38.746 38.26 38.962 30.83 28.491 28.417 28.379 28.49 28.246 28.218 28.251 28.314 28.262 28.313 28.358 28.385 33.746 36.079 36.051 35.77 33.024 34.642 34.635 34.674 34.582 34.496 34.396 34.313 34.219 32.746 31.525 34.17 33.851 33.983 33.81 33.118 28.817 28.618 28.609 31.929 33.139 33.625 34.131 34.162 33.636 33.169 32.515 32.769 30.882 33.724 34.309 34.082 33.519 33.026 34.115 34.531 31.667 28.552 28.566 28.566 28.621 28.455 29.216 28.008 28.022 28.023 28.066 28.165 28.216 28.257 28.201 28.187 28.252 28.283 28.295 28.282 28.308 28.468 28.49 28.562 28.483 28.56 28.543 28.516 28.485 28.473 28.51 28.517 28.862 29.112 29.146 29.299 28.65 35.049 28.761 28.52 28.48 28.496 28.443 28.409 28.354 28.367 28.344 28.357 28.322 28.358 28.364 28.334 28.358 28.306 28.373 28.332 29.548 33.065 28.38 28.339 28.306 28.276 28.231 28.258 28.638 28.234 28.237 28.279 28.206 29.15 28.718 29.432 28.898 29.5 29.079 28.948 29.05 28.985 28.568 28.254 28.25 29.985 28.996 28.167 28.175 28.234 28.306 28.467 28.842 28.952 28.54 27.893 41.996 54.708 54.648 54.569 54.495 54.427 54.405 54.477 54.522 54.681 57.801 57.847 42.305 27.812 27.77 27.746 27.786 27.799 29.378 29.643 29.383 28.658 28.329 28.125 27.979 28.08 28.075 28.066 28.074 28.097 28.171 30.007 31.885 32.803 28.036 27.883 27.786 27.769 27.827 27.92 30.409 47.205 54.856 54.692 54.57 54.521 54.482 54.463 50.396 41.204 31.921 27.683 27.36 27.358 27.347 27.189 27.122 27.232 27.193 27.344 27.204
29.25 29.049 28.807 28.623 28.603 28.661 28.735 28.756 28.747 28.81 28.914 29.056 29.752 29.164 29.166 29.21 29.246 29.211 29.334 29.405 29.419 29.397 29.344 29.289 29.389 29.342 29.292 29.347 29.375 29.377 29.357 29.362 29.349 29.354 29.34 29.368 29.379 29.355 29.394 29.356 29.358 29.364 29.362 29.354 29.384 29.353 29.358 29.328 29.366 29.31 29.322 29.3 29.296 29.264 29.274 29.271 29.246 29.289 29.295 29.311 29.301 30.763 29.561 29.316 29.325 29.32 29.488 29.292 29.324 29.372 32.604 33.317 33.733 33.446 32.866 32.922 32.837 32.926 33.266 38.417 38.564 38.357 38.393 38.518 39.581 39.098 34.344 30.792 30.288 30.468 30.322 30.403 30.389 30.199 29.953 29.697 29.65 29.67 29.507 29.442 29.462 29.569 29.616 29.543 29.645 29.47 29.524 29.525 29.557 29.521 29.54 29.495 29.518 29.534 29.484 29.459 29.452 29.495 29.418 29.469 29.705 29.232 28.648 28.516 28.491 28.464 28.721 29.475 29.87 29.948 29.933 29.718 29.694 29.721 29.694 29.716 29.687 29.952 29.749 29.407 30.59 29.481 29.151 29.318 29.137 28.4 28.373 28.464 28.381 28.244 28.088 28.071 27.989 31.218 33.797 34.051 34.278 35.718 36.106 36.999 36.485 35.088 35.228 36.13 37.029 35.997 36.027 36.828 36.811 36.775 36.816 36.767 36.796 36.801 36.776 37.888 37.291 36.742 36.696 36.722 36.987 36.87 36.694 36.662 36.682 36.693 36.72 36.68 36.652 36.672 36.643 36.703 37.049 37.158 36.678 36.699 36.692 36.798 37.974 37.018 36.695 36.663 36.675 36.663 36.688 36.67 36.101 35.992 34.815 34.439 34.594 32.044 31.679 33.716 35.405 33.344 34.694 34.369 34.437 34.528 37.127 39.211 38.305 38.877 38.908 38.893 38.922 30.593 28.527 28.448 28.395 28.301 28.301 28.28 28.327 28.31 28.304 28.356 28.369 28.434 33.782 36.025 36.027 35.088 33.79 33.936 33.959 33.813 33.671 33.64 33.612 33.436 33.578 33.294 33.263 33.342 33.15 33.14 33.054 33.001 29.604 28.767 28.686 31.747 33.029 33.595 34.112 34.2 33.643 33.087 32.635 32.75 33.299 33.804 34.247 34.014 33.416 33.06 34.082 34.523 32.16 28.497 28.63 28.566 28.76 28.411 28.269 28.054 28.117 28.093 30.113 28.389 28.281 28.289 28.32 28.282 28.222 28.348 28.315 28.31 28.375 28.51 28.613 28.591 28.579 28.583 28.542 28.584 28.482 28.47 28.529 30.059 29.083 30.591 29.57 28.804 36.998 33.724 34.673 29.147 32.07 29.164 28.539 28.487 28.54 28.461 28.452 28.407 28.415 28.418 28.566 28.39 28.369 28.371 28.363 28.849 34.179 37.056 30.242 28.795 28.384 28.319 28.306 28.239 28.262 28.237 28.256 28.201 28.159 28.184 28.178 28.161 28.189 28.137 28.205 28.155 28.187 28.27 28.26 28.222 28.713 30.914 28.606 28.178 28.219 28.373 28.452 28.793 28.866 28.493 28.109 29.394 51.769 54.651 54.597 54.542 54.465 54.421 54.685 54.547 54.586 54.669 54.775 34.87 28.246 27.734 27.747 27.803 28.31 27.819 27.991 29.596 29.264 28.679 28.471 28.159 27.931 27.957 27.978 27.971 27.974 27.936 27.939 28.015 28.044 28.072 27.987 27.842 27.81 27.825 27.929 42.561 54.973 54.813 54.675 54.648 54.586 54.561 54.501 54.234 50.418 43.701 29.731 27.795 27.349 27.305 27.33 27.247 27.118 27.105 27.196 27.268 27.276
29.338 29.229 29.035 28.749 28.589 28.656 28.698 28.75 28.754 28.763 28.85 28.991 30.525 29.275 29.152 29.235 29.243 29.38 29.29 29.351 29.348 29.373 29.365 29.296 29.349 29.348 29.343 29.359 29.39 29.356 29.366 29.365 29.375 29.326 29.373 29.329 29.362 29.333 29.364 29.339 29.345 29.342 29.343 29.39 29.366 29.36 29.486 29.455 29.348 29.339 29.318 29.303 29.304 29.289 29.289 29.357 29.308 29.254 29.286 29.289 29.323 29.409 29.518 29.725 29.629 29.384 29.31 29.375 29.437 29.14 31.117 30.185 35.402 35.328 33.319 32.914 33.04 35.884 38.746 38.482 38.414 38.449 38.436 38.57 39.355 36.195 32.209 30.071 30.228 30.319 30.47 30.447 30.275 29.944 29.895 29.603 29.607 29.621 29.561 29.523 29.531 29.488 29.516 29.576 29.515 29.513 29.495 29.488 29.401 29.488 29.417 29.526 29.56 29.481 29.479 29.472 29.471 29.552 29.4 29.508 29.751 29.205 28.711 28.474 28.541 28.517 28.521 28.986 29.663 29.762 29.679 29.59 29.549 29.622 29.62 29.638 29.581 29.714 29.758 29.577 30.637 30.08 29.138 28.932 29.231 29.101 29.186 29.077 28.915 28.641 28.146 28.032 27.995 28.724 33.706 35.911 35.756 34.969 35.733 36.586 36.552 35.492 35.035 35.86 36.739 36.183 35.272 36.823 36.785 36.749 37.153 36.816 36.78 36.763 36.857 37.879 37.558 36.767 36.717 36.729 36.759 36.73 36.702 36.668 36.697 36.694 36.688 36.705 36.682 36.687 36.636 36.628 33.009 38.191 36.865 36.723 36.703 36.714 35.453 36.717 36.647 37.151 36.729 36.054 32.699 34.723 34.332 34.608 31.984 32.212 33.232 31.418 32.277 33.7 34.371 35.793 34.87 40.643 39.638 38.994 38.866 38.877 38.869 38.839 38.831 38.859 33.635 30.515 28.52 28.478 28.385 28.364 28.345 28.245 28.32 28.351 30.009 28.779 28.395 28.438 33.888 36.061 35.947 35.245 33.306 33.261 33.066 33.111 32.943 33.021 32.889 32.779 32.801 32.749 32.669 32.715 32.765 32.652 32.835 32.845 28.977 28.918 28.681 32.541 33.007 33.646 34.077 34.203 33.693 33.185 32.656 32.737 33.101 33.772 34.191 34.056 33.581 33.04 34.048 34.536 31.277 28.554 28.619 28.6 28.603 28.459 28.242 28.103 28.152 28.151 30.109 28.715 28.424 28.413 28.38 28.348 28.386 28.444 28.336 28.375 28.487 28.608 28.632 28.578 28.574 28.603 28.587 28.628 28.468 28.558 28.575 28.53 28.947 29.462 31.23 35.392 37.746 47.121 39.497 40.219 39.213 30.352 36.282 29.003 28.541 35.041 30.699 30.465 28.689 37.753 29.773 31.709 28.62 29.629 28.45 29.506 37.417 37.309 35.324 31.004 28.522 28.388 28.291 28.246 28.278 28.221 28.249 28.231 28.205 28.222 28.173 28.15 28.149 28.168 28.18 28.185 28.201 28.26 29.356 28.273 28.621 28.851 28.285 28.261 28.299 28.384 28.463 28.528 28.483 28.187 28.52 47.062 54.679 54.611 54.521 54.504 54.439 54.459 54.543 54.564 54.647 54.692 54.261 31.884 30.805 28.542 27.829 28.302 27.834 28.824 29.678 29.324 29.097 28.806 28.611 28.247 28.004 27.895 27.957 28.048 27.966 27.965 27.918 27.892 27.936 28.227 27.914 27.825 27.871 28.476 52.081 54.949 54.78 54.775 54.722 54.679 54.638 54.6 54.529 50.131 41.517 43.907 32.05 28.707 27.293 27.313 27.248 27.251 27.232 27.073 27.071 27.149 27.206
29.443 29.428 29.324 29.098 28.759 28.679 28.724 28.726 28.772 28.799 28.796 28.907 29.08 30.651 29.159 29.377 29.284 29.22 29.196 29.352 29.374 29.351 29.369 29.37 29.341 29.335 29.32 29.376 29.354 29.375 29.368 29.346 29.395 29.345 29.354 29.357 29.344 29.365 29.357 29.36 29.354 29.356 29.37 29.361 29.371 29.357 29.364 29.378 29.338 29.327 29.342 29.304 29.292 29.299 29.287 29.228 29.27 29.246 29.312 29.327 29.362 29.416 29.513 29.44 29.624 29.473 30.162 29.388 29.099 30.096 30.697 30.189 33.402 33.794 32.926 32.915 38.023 38.462 38.405 38.419 38.427 38.483 38.725 39.04 35.104 35.447 34.219 30.331 30.353 30.612 30.496 30.449 30.219 29.964 29.757 29.735 29.568 29.522 29.517 29.561 29.481 29.489 29.464 29.528 29.502 29.468 29.483 29.528 29.482 29.454 29.482 29.475 29.522 29.474 29.432 29.462 29.491 29.457 29.582 29.54 29.811 29.32 28.698 28.544 28.554 28.52 28.522 29.34 29.752 29.677 29.61 29.501 29.462 29.534 29.482 29.55 29.546 29.905 29.757 29.345 29.415 29.544 29.574 29.478 29.34 29.297 29.017 28.925 29.034 28.896 28.13 28.028 28.083 34.823 35.987 36.842 35.919 35.037 35.45 36.263 36.784 35.792 34.924 35.409 36.597 36.543 35.519 36.456 36.769 37.267 38.188 37.294 36.737 36.73 36.8 36.841 36.809 36.726 36.705 36.734 36.758 36.776 36.692 36.665 36.652 36.657 36.582 36.234 37.346 36.672 36.651 36.675 36.975 37.248 36.918 36.672 36.714 36.716 36.727 36.683 35.407 35.087 34.485 38.223 34.112 34.309 34.038 33.702 31.486 34.895 34.682 34.319 36.134 37.228 37.983 38.257 41.371 41.432 40.953 38.893 38.836 38.857 38.886 38.857 38.827 38.884 38.699 30 28.549 28.477 28.419 28.388 28.335 28.282 28.38 28.387 28.354 28.504 28.439 28.457 28.633 35.965 36.018 35.944 32.762 32.674 32.741 32.704 32.788 32.844 32.902 32.994 33.025 33.144 33.263 33.296 33.367 33.37 33.52 33.683 29.906 28.746 28.714 32.464 32.983 33.56 34.026 34.27 33.72 33.099 32.694 32.742 33.201 33.755 34.294 34.007 33.572 32.996 33.742 34.559 32.229 28.588 28.644 28.599 29.686 28.605 28.296 28.096 28.116 28.176 29.189 28.413 28.379 28.419 28.473 28.426 28.451 28.455 28.441 28.358 28.465 28.659 28.6 28.576 28.624 28.618 28.566 28.58 28.522 28.561 28.562 30.416 28.917 28.849 29.086 28.914 38.425 45.596 38.064 41.785 40.457 40.959 40.767 34.469 31.624 39.322 43.252 30.277 35.031 42.004 35.189 37.316 36.596 39.22 29.038 32.136 38.057 37.998 35.755 34.558 31.981 28.463 28.347 28.347 28.3 28.259 28.199 28.267 28.236 28.263 28.54 28.257 28.209 28.221 28.245 28.17 28.234 28.324 29.279 28.247 30.346 29.068 28.274 28.311 28.386 28.461 28.513 28.366 28.411 27.891 28.527 52.712 54.63 54.575 54.5 54.406 54.45 54.496 54.586 54.648 54.685 49.852 31.085 28.408 30.307 30.719 29.888 30.546 30.612 28.772 28.836 29.34 29.178 29.671 28.544 28.308 28.017 27.941 27.928 27.981 27.986 27.977 27.99 27.982 27.959 27.954 27.924 27.843 27.92 27.95 49.562 54.997 54.83 54.818 54.754 54.721 54.65 54.609 54.57 40.898 51.192 36.754 33.889 29.46 28.624 27.256 27.209 27.233 27.198 27.103 27.015 27.092 27.098
