ncols 434
nrows 32
xllcorner    429058
yllcorner    433264
cellsize     2
NODATA_value -9999
-9999 -9999 26.211 26.201 -9999 -9999 -9999 -9999 26.269 26.28 26.53 31.063 30.777 29.666 29.74 29.399 28.188 27.606 28.408 28.806 29.548 29.54 29.177 29.137 30.425 29.076 29.545 30.696 30.553 30.594 30.61 30.649 30.633 30.659 30.717 30.824 30.78 30.711 30.721 30.712 30.697 30.692 30.677 30.718 30.713 30.706 30.671 30.652 30.646 30.672 30.624 30.585 30.57 30.626 30.58 30.552 30.522 30.557 30.528 30.57 30.51 30.459 30.433 30.423 30.466 30.445 30.343 30.319 30.301 30.222 30.172 30.015 29.878 29.692 29.237 29.234 29.275 29.171 29.158 29.103 28.945 28.475 28.605 29.126 29.216 29.138 29.081 32.016 29.302 34.31 35.036 35.111 35.187 35.251 35.339 35.408 35.52 35.621 35.746 35.849 35.822 35.975 36.203 36.424 36.655 36.832 36.964 37.123 37.34 37.343 37.103 37.038 36.846 36.718 36.499 36.349 36.022 35.871 35.754 35.595 35.384 35.224 35.048 34.213 33.304 29.01 28.778 28.759 28.767 28.804 28.869 28.932 28.914 28.908 28.83 28.814 28.839 28.9 28.983 31.269 30.632 29.897 29.154 31.097 31.267 29.553 29.102 29.096 29.191 29.144 29.161 29.164 29.199 29.222 29.332 33.587 34.582 35.372 35.547 35.719 35.862 36.076 36.034 35.964 35.854 35.798 35.694 35.6 35.55 35.456 35.358 35.178 35.33 35.432 35.542 35.563 35.668 35.759 35.859 35.97 36.04 36.082 36.187 36.281 36.334 36.543 36.715 36.386 36.143 36.006 35.784 35.626 35.448 34.191 30.871 32.861 32.051 29.27 29.147 29.13 29.145 29.086 29.096 29.093 29.068 29.047 29.057 29.028 29.01 30.072 30.678 34.747 37.728 39.029 39.257 33.417 30.206 29.287 29.325 29.33 29.309 29.382 29.466 29.831 29.558 29.551 29.607 29.626 29.616 29.712 29.699 29.667 29.644 29.619 29.609 29.607 29.791 29.81 29.892 32.211 33.011 44.214 53.468 54.145 54.578 54.629 54.78 54.952 55.061 55.279 55.431 55.582 55.65 55.477 55.324 55.222 55.032 54.851 54.748 52.096 55.461 53.794 48.87 37.981 59.074 58.997 58.987 59.061 59.044 59.059 59.041 55.135 48.506 30.469 30.016 29.925 29.919 29.866 29.819 29.782 29.722 29.691 29.714 29.702 29.705 29.715 29.654 29.693 29.691 29.687 33.241 29.774 49.035 34.077 30.785 30.1 29.667 29.662 29.607 29.495 29.39 29.376 29.315 29.278 29.23 29.202 29.19 29.16 29.874 30.333 36.885 52.518 52.273 52.929 51.707 51.461 51.43 51.426 50.679 41.409 41.391 41.514 41.89 41.002 38.463 29.198 34.284 40.616 43.122 44.396 44.75 43.577 41.929 34.777 49.098 66.147 67.968 67.356 67.86 66.44 67.009 66.296 66.204 66.249 65.291 36.133 35.077 34.522 34.466 34.494 34.44 34.439 45.808 66.15 66.391 66.419 66.411 49.186 34.382 34.389 40.761 37.967 34.392 34.422 34.462 36.13 34.709 34.567 34.514 34.547 34.536 34.515 34.494 34.543 34.578 34.685 35.398 34.442 34.368 34.408 34.416 34.386 34.279 34.178 34.121 33.969 33.817 33.758 33.641 33.609 33.608 33.612 33.652 33.826 33.5 33.499 33.503 33.539 33.574 33.603 33.668 34.546 37.8 37.861 37.913 39.495 44.955 45.589 45.58 45.125 45.097 45.086 45.108 45.172 45.536 45.487 44.755 42.486 42.41 42.468 42.54 39.859 39.777 40.108 39.705 39.936 40.068 39.756 37.138 34.411 33.92 33.806 33.904 33.964
-9999 26.373 26.249 26.23 -9999 26.133 26.13 -9999 -9999 -9999 -9999 29.9 30.347 30.917 30.602 30.181 28.316 27.124 28.222 28.792 29.855 28.986 29.208 29.172 29 29.102 31.784 30.598 30.517 30.729 30.697 30.697 30.701 30.686 30.756 30.813 30.798 30.721 30.759 30.787 30.727 30.763 30.753 30.764 30.829 30.75 30.726 30.695 30.672 30.67 30.672 30.686 30.689 30.674 30.679 30.598 30.582 30.595 30.583 30.544 30.552 30.507 30.495 30.471 30.48 30.801 30.406 30.244 30.173 30.124 30.006 29.884 29.821 29.086 29.062 29.081 29.142 29.118 29.154 29.249 29.178 29.353 30.196 30.292 29.181 29.081 29.24 33.763 35.021 35.119 35.23 35.266 35.371 35.455 35.581 35.596 35.723 35.776 35.892 35.929 36.098 36.423 36.638 36.79 37.007 37.124 37.325 37.298 37.285 37.119 36.89 36.655 36.462 36.315 36.096 36.032 35.801 35.71 35.68 35.561 35.519 35.3 35.106 34.935 34.299 31.024 28.866 28.784 28.784 28.773 28.868 28.866 28.962 28.911 28.865 28.834 28.879 29.022 29.679 29.086 30.918 32.267 29.586 29.039 29.03 28.995 29.012 29.044 29.093 29.121 29.124 29.157 29.168 29.189 29.201 30.101 33.843 35.143 35.477 35.63 35.83 35.914 35.853 35.746 35.711 35.599 35.519 35.492 35.26 35.212 35.311 35.4 35.509 35.623 35.696 35.746 35.854 35.946 35.994 36.083 36.183 36.258 36.332 36.548 36.733 37.021 36.959 36.497 36.248 36.03 35.899 35.771 35.554 35.353 30.485 30.259 29.67 29.229 29.214 29.157 29.157 29.123 29.126 29.122 29.106 29.11 29.051 32.519 30.802 34.372 33.139 31.798 35.936 37.441 38.679 32.327 29.301 29.398 29.461 29.457 29.459 29.495 29.479 29.555 29.59 29.596 29.661 29.638 29.729 30.664 30.494 29.638 29.637 29.626 29.728 30.296 29.868 29.941 32.719 35.121 47.789 54.337 54.518 54.628 54.79 55.015 55.096 55.298 55.425 55.584 55.556 55.489 55.364 55.222 54.996 54.808 54.664 54.502 54.567 44.457 53.704 41.654 32.472 30.291 58.346 58.993 59.001 59.036 59.046 58.974 43.311 45.667 43.298 30.582 29.86 29.861 29.799 29.787 29.747 29.738 29.685 29.689 29.655 29.678 29.704 29.671 29.687 29.715 29.702 29.616 30.979 30.498 51.24 43.78 33.399 30.672 30.148 29.684 29.647 29.58 30.177 29.413 29.37 29.332 29.315 29.253 29.464 30.01 30.035 30.745 49.978 51.961 51.511 51.822 51.6 51.408 51.387 51.274 42.14 38.771 40.247 39.841 39.866 39.735 31.744 29.38 37.202 41.387 44.237 43.318 44.219 43.824 41.044 34.985 39.375 65.795 68.455 67.424 67.52 67.952 66.536 66.276 66.23 65.856 55.31 37.046 34.688 34.363 34.337 34.317 34.338 34.335 39.189 65.261 66.34 65.829 41.09 34.375 34.374 34.414 34.386 34.407 34.434 34.447 34.484 34.558 34.929 35.053 34.584 34.6 34.533 34.607 34.546 34.585 35.682 34.563 34.508 34.348 34.351 34.414 34.372 34.284 34.211 34.105 34.005 33.886 33.78 33.655 33.635 33.639 33.617 33.617 33.682 33.783 33.529 33.475 33.502 33.504 33.532 33.538 33.628 33.804 37.393 37.827 37.888 37.896 42.773 44.113 45.627 45.51 45.068 45.087 45.11 45.117 45.231 45.6 45.379 44.014 42.476 40.957 39.462 40.04 39.661 39.844 40.148 39.519 40.767 41.52 40.967 34.086 33.942 33.79 33.94 34.076
27.093 -9999 26.253 26.255 -9999 26.128 26.111 -9999 -9999 -9999 -9999 -9999 29.004 28.443 28.22 28.053 27.303 27.133 27.786 29.438 30.243 30.809 30.546 29.313 28.932 29.03 30.997 30.476 30.445 30.676 30.745 30.712 30.758 30.805 30.828 30.803 30.825 30.769 30.838 30.807 30.797 30.818 30.795 30.822 30.853 30.776 30.784 30.77 30.725 30.656 30.724 30.724 30.722 30.695 30.708 30.659 30.629 30.624 30.586 30.583 30.551 30.851 30.552 30.41 30.518 31.093 30.49 29.862 29.942 30.004 29.899 29.906 29.758 29.595 29.138 28.964 28.984 29.217 29.407 29.949 29.32 29.298 29.65 29.187 29.084 29.064 29.288 33.281 35.001 35.163 35.308 35.438 35.534 35.626 35.705 35.745 35.823 35.872 36.21 36.428 36.583 36.81 37.001 37.177 37.325 37.337 37.177 37.134 36.849 36.707 36.496 36.166 36.07 35.94 35.813 35.774 35.643 35.509 35.486 35.374 35.292 35.209 35.202 35.04 34.629 33.313 29.214 28.813 28.777 28.798 28.846 28.876 28.945 28.937 28.924 28.925 28.909 29.047 30.494 29.02 29.794 29.312 29.365 28.956 28.936 28.955 28.973 28.981 29.061 29.118 29.156 29.163 29.175 29.171 29.2 29.281 33.562 34.227 35.356 35.549 35.74 35.757 35.679 35.569 35.525 35.399 35.241 35.107 35.371 35.46 35.523 35.616 35.667 35.728 35.801 35.942 36.023 36.085 36.179 36.258 36.327 36.581 36.78 36.937 37.118 37.396 37.178 36.791 36.32 36.157 35.976 35.809 35.668 35.486 34.765 29.466 29.242 29.231 29.228 29.185 29.158 29.171 29.149 29.396 29.13 29.246 31.408 37.953 34.781 37.016 32.423 33.604 35.174 32.132 37.413 29.394 29.414 29.488 29.533 29.53 29.576 29.544 29.604 30.199 29.694 29.669 29.696 29.684 29.68 29.724 29.63 29.616 29.742 30.323 30.549 30.214 31.007 29.992 44.591 54.465 56.253 54.896 54.771 54.992 55.12 55.316 55.467 55.585 55.622 55.401 55.273 55.122 54.996 54.819 54.675 54.468 54.537 53.788 44.148 35.367 34.428 30.899 29.861 29.628 45.098 44.323 58.661 59.009 59.089 59.043 55.602 34.191 55.268 47.841 30.166 29.784 29.727 29.704 29.668 29.684 29.646 29.652 29.674 29.675 29.695 29.746 29.754 29.716 29.724 35.907 33.985 30.558 35.647 52.579 36.955 32.942 30.681 30.493 29.659 29.753 29.859 29.484 29.458 29.541 29.581 30.102 29.497 30.059 30.21 30.914 49.946 53.511 54.166 53.917 53.849 53.307 52.005 51.489 50.895 32.02 32.187 33.156 31.784 34.32 30.785 29.461 35.49 40.512 43.196 41.648 42.208 42.674 38.758 35.933 67.126 69.431 67.769 67.742 67.378 66.7 66.293 66.218 66.063 65.556 57.661 37.718 34.595 34.368 34.35 34.306 34.286 34.288 49.852 64.999 56.255 36.232 34.473 34.341 34.365 34.318 34.353 34.372 34.446 34.407 34.432 34.502 34.506 35.116 36.437 35.202 35.101 35.623 36.705 34.569 34.526 34.421 34.343 34.357 34.388 34.31 34.315 34.305 34.701 34.096 33.996 33.795 33.728 33.651 33.634 33.691 33.762 33.736 33.745 34.12 33.522 33.49 33.424 33.524 33.525 33.537 33.569 33.638 33.816 37.689 37.832 37.885 37.923 43.459 45.317 45.602 45.104 45.055 45.081 45.134 45.116 45.494 45.581 45.287 44.597 40.038 39.449 39.665 40.069 39.648 39.684 41.746 41.644 41.218 40.096 38.101 35.081 33.824 33.928 34.028
26.89 26.346 26.266 26.266 26.255 -9999 -9999 -9999 -9999 -9999 -9999 -9999 27.862 26.939 27.123 26.979 27.063 26.994 27.559 29.645 30.887 31.018 30.861 29.604 29.15 31.126 30.675 30.452 30.484 30.595 30.676 30.757 30.75 30.819 30.869 30.855 30.879 30.884 30.932 30.904 30.914 30.865 30.836 30.805 30.794 30.836 30.812 30.733 30.703 30.704 30.731 30.736 30.775 30.748 30.714 30.685 30.672 30.724 30.835 30.693 30.65 30.601 30.529 30.482 30.528 30.487 30.293 29.633 29.701 29.849 29.855 29.805 29.637 29.723 29.553 29.106 29.29 30.205 29.341 29.584 29.267 29.149 29.094 28.986 28.968 29.056 29.086 29.908 34.877 35.118 35.258 35.409 35.628 35.778 35.887 35.942 36.233 36.42 36.624 36.825 36.946 37.186 37.278 37.262 37.127 36.981 36.834 36.732 36.406 36.732 36.056 35.846 35.863 35.739 35.619 35.543 35.435 35.392 35.295 35.175 35.139 35.064 34.982 34.85 34.84 33.55 32.254 28.906 28.799 28.822 28.786 28.861 28.913 29.304 28.953 28.92 29.061 30.698 29.873 29.005 28.99 29.019 28.973 28.978 28.956 28.899 28.922 28.999 29.051 29.655 29.157 29.133 29.152 29.176 29.181 29.243 30.221 33.844 35.015 35.462 35.621 35.564 35.498 35.418 35.368 35.263 35.349 35.411 35.545 35.586 35.71 35.714 35.859 35.902 36.023 36.111 36.203 36.263 36.359 36.616 36.804 36.942 37.098 37.299 37.471 37.622 37.309 36.979 36.564 36.265 36.101 35.887 35.715 35.509 35.398 32.482 29.312 29.253 29.222 29.199 29.172 29.175 29.155 31.754 29.398 29.232 35.009 37.65 33.423 31.98 33.275 30.93 29.607 29.602 32.777 29.43 29.502 29.547 29.592 29.6 29.63 29.658 29.716 29.688 29.686 29.653 29.613 29.633 29.617 29.628 29.72 31.122 31.735 29.93 29.434 29.38 29.846 30.1 55.98 56.618 56.432 55.969 55.181 55.292 55.466 55.514 55.573 55.377 55.302 55.075 55.018 54.71 54.653 54.512 54.52 41.463 39.829 34.784 32.956 32.275 30.912 31.345 30.917 29.525 33.316 58.539 59.031 59.044 59.048 59.043 53.882 43.218 48.635 40.084 30.186 29.726 29.723 29.666 29.658 29.642 29.638 29.657 29.668 29.688 29.826 29.912 29.931 29.734 31.886 31.563 36.047 30.919 42.106 46.884 43.235 43.25 32.045 30.803 29.699 29.696 29.681 29.623 29.614 29.628 30.237 30.173 30.086 33.951 30.807 34.744 52.177 53.889 54.287 54.599 54.749 54.38 53.942 51.861 32.455 29.303 29.178 29.187 29.607 29.304 29.514 29.189 29.642 32.433 31.608 33.737 36.14 35.242 38.827 50.703 53.992 69.216 67.764 66.503 66.232 66.248 66.202 66.2 66.227 65.232 56.402 36.776 34.412 34.299 34.295 34.275 34.237 34.358 47.972 49.487 37.137 35.696 34.488 34.309 34.31 34.312 34.348 34.368 34.388 34.381 34.38 34.466 34.633 34.464 34.52 34.525 34.524 34.523 34.502 34.418 34.348 34.342 34.34 34.32 34.331 34.317 34.299 34.418 34.193 34.081 34.028 33.984 33.75 33.602 33.701 33.946 33.952 34.536 34.424 33.619 33.512 33.496 33.447 33.478 33.523 33.535 33.561 33.632 33.725 36.631 37.837 37.874 37.872 38.135 43.612 45.41 45.556 45.093 45.208 45.114 45.103 45.16 45.241 45.535 45.433 43.003 40.357 39.395 39.742 39.692 42.626 42.259 41.318 41.226 40.924 37.838 37.157 33.937 33.971 34.134
26.836 26.922 26.678 26.602 -9999 -9999 -9999 -9999 -9999 -9999 -9999 -9999 27.897 27.539 27.259 27.046 27.117 27.27 27.774 29.156 30.713 31.065 30.421 29.573 29.271 30.557 30.508 30.458 30.596 30.594 30.725 30.809 30.823 30.873 30.858 30.941 30.981 30.959 30.918 30.912 30.941 30.899 30.81 30.838 30.815 30.804 30.784 30.77 30.774 30.709 30.738 30.737 30.756 30.7 30.713 30.683 31.087 31.388 31.628 31.888 30.949 30.648 30.514 30.438 30.4 30.297 30.176 29.772 29.564 29.622 29.68 29.615 29.549 29.45 29.264 29.003 29.109 29.274 29.222 29.198 28.928 29.081 28.858 28.999 29.543 29.061 29.039 29.044 33.558 34.999 35.15 35.334 35.542 35.667 35.8 36.203 36.579 36.721 36.951 37.085 37.315 37.327 37.197 37.011 36.981 36.592 36.45 36.276 36.028 35.916 35.816 35.694 35.667 35.501 35.517 35.405 35.328 35.249 35.086 35.065 35.007 34.792 34.953 34.99 35.018 34.059 32.569 28.911 28.79 28.781 28.772 28.809 28.928 29.165 29.179 28.903 29.253 28.909 31.042 28.953 28.943 28.986 28.968 29.001 28.926 28.908 28.959 28.996 29.062 29.244 31.791 29.184 29.157 29.148 29.186 29.252 29.412 32.911 34.785 35.401 35.46 35.378 35.219 35.283 35.394 35.46 35.503 35.6 35.693 35.765 35.83 35.933 36.065 36.102 36.209 36.307 36.362 36.697 36.853 37.011 37.175 37.216 37.495 37.647 37.676 37.647 37.331 37.117 36.767 36.344 36.173 35.981 35.818 35.647 35.461 32.473 29.355 29.264 29.252 29.242 29.188 32.06 29.331 35.127 37.445 35.436 33.536 31.822 32.178 37.714 36.224 34.244 31.337 29.629 30.389 29.447 29.545 29.579 29.633 29.658 29.694 29.706 29.678 29.675 29.712 29.612 29.584 29.892 29.788 31.171 31.721 30.43 29.893 29.903 29.375 29.317 29.281 30.604 48.212 56.381 55.606 55.761 55.351 55.555 55.521 55.442 55.222 55.071 54.917 54.769 54.615 54.558 54.556 49.028 37.421 34.388 34.166 30.992 30.855 30.813 30.794 31.238 31.234 29.746 29.429 53.481 59.011 58.467 53.839 59.051 58.547 31.47 32.785 30.134 30.544 29.687 29.661 29.62 29.609 29.625 29.652 29.647 29.65 30.117 30.626 30.139 29.981 29.583 34.493 30.426 31.218 31.781 54.899 38.247 51.435 48.022 34.816 30.614 29.729 29.859 29.686 29.67 29.644 30.103 30.925 30.414 46.903 48.631 51.226 37.583 53.051 53.987 54.318 54.677 54.747 54.343 53.988 52.94 34.498 29.197 29.14 29.167 29.207 29.243 29.205 29.195 29.091 29.072 29.059 29.291 29.196 30.174 33.468 46.639 65.509 69.166 67.541 66.476 66.252 66.245 66.212 65.782 62.47 65.823 51.157 35.913 34.488 34.251 34.275 34.247 34.239 34.229 34.662 35.306 35.38 34.938 34.336 34.32 34.328 34.328 34.369 34.394 34.367 34.381 34.383 34.464 34.648 34.439 34.41 34.375 34.403 34.39 34.345 34.373 34.304 34.36 34.277 34.343 34.3 34.299 34.28 34.222 34.111 34.29 33.868 33.875 33.613 33.618 33.722 34.376 33.849 33.882 33.904 33.706 33.608 33.555 33.47 33.484 33.52 33.532 34.017 33.655 33.915 36.853 37.825 37.877 37.903 37.933 39.564 44.918 45.542 45.531 45.168 45.105 45.115 45.115 45.278 45.613 45.508 44.678 42.166 39.589 41.124 42.434 42.156 42.163 41.672 41.241 39.511 37.821 35.719 33.922 33.935 34.105
27.039 26.853 26.589 26.519 26.565 -9999 -9999 -9999 -9999 -9999 -9999 -9999 -9999 26.322 26.235 27.214 27.087 27.144 27.064 28.532 30.024 31.122 31.104 30.929 29.847 31.204 30.56 30.475 30.568 30.631 30.755 30.793 30.834 30.924 30.946 30.998 31.04 30.949 30.976 30.889 30.97 30.914 30.886 30.919 30.859 30.814 30.844 30.804 30.806 30.76 30.775 30.784 30.71 30.722 30.654 30.659 30.725 31.26 31.282 31.116 30.834 30.561 30.541 30.366 30.217 30.134 29.983 29.642 29.416 29.399 29.342 29.41 29.352 29.262 29.144 29.155 29.081 29.192 29.195 29.112 28.899 28.923 30.293 31.126 29.02 28.959 28.967 28.98 29 33.699 35.072 35.203 35.417 35.572 35.778 35.966 36.43 36.755 37.134 37.346 37.13 37.069 36.792 36.61 36.483 36.192 36.071 35.873 35.829 35.767 35.616 35.589 35.449 35.368 35.317 35.201 35.178 35.033 34.918 34.889 34.889 34.999 35.083 35.158 35.164 34.921 33.569 31.102 28.844 28.798 28.764 28.795 28.828 28.864 29.122 28.937 28.941 28.931 28.862 28.839 28.865 28.955 28.986 28.989 28.98 28.962 29.019 29.056 29.486 30.679 31.788 31.087 29.123 29.144 29.182 29.204 29.333 31.99 33.856 35.058 35.339 35.246 35.283 35.416 35.536 35.6 35.713 35.768 35.881 35.985 36.069 36.101 36.214 36.238 36.375 36.635 36.768 37.017 37.133 37.387 37.468 37.677 37.726 37.602 37.393 37.226 36.997 36.829 36.653 36.452 36.264 36.104 35.944 35.744 35.567 35.332 30.073 29.279 29.248 29.386 32.331 29.915 30.692 34.425 36.442 37.42 31.791 37.266 31.909 34.337 31.97 36.811 29.936 29.748 29.495 29.497 29.566 29.62 29.68 29.669 29.67 29.7 29.657 29.638 29.671 29.695 30.954 32.16 30.695 30.101 29.546 29.474 29.353 29.42 29.302 29.256 29.288 29.288 30.615 54.214 54.669 54.91 55.319 55.525 55.44 55.127 54.898 54.751 54.581 54.507 54.211 44.198 37.09 34.348 35.042 35.14 32.115 30.924 30.787 30.75 30.736 30.813 31.249 30.632 29.414 45.12 58.864 59.254 58.622 58.41 55.883 33.701 29.672 29.699 29.633 29.596 29.55 29.596 29.631 29.643 29.646 29.61 30.23 30.853 30.532 30.186 33.214 33.6 37.335 37.536 32.124 30.386 54.008 54.354 51.137 52.155 47.282 32.395 34.799 30.842 30.793 30.198 30.315 30.638 30.351 30.612 48.864 52.71 52.47 49.718 53.685 54 54.323 54.722 54.632 54.312 53.925 52.463 34.515 29.337 29.105 29.137 29.182 29.194 29.195 29.18 29.1 29.056 29.031 29.01 28.924 30.701 34.507 40.036 63.972 68.776 67.229 66.372 66.216 66.24 66.262 66.222 66.171 65.517 45.703 35.808 34.463 34.305 34.288 34.252 34.268 34.334 34.341 34.487 34.372 34.263 34.266 34.312 34.418 34.385 34.407 34.382 34.392 34.359 34.41 34.441 34.557 34.566 34.444 34.383 34.389 34.402 34.362 34.343 34.272 34.299 34.3 34.313 34.263 34.306 34.6 34.111 33.93 33.835 33.682 33.67 33.569 34.08 34.073 33.835 33.982 33.907 33.841 33.789 33.771 33.585 34.242 33.705 33.48 33.515 33.607 34.013 33.756 37.334 37.809 37.878 37.862 37.924 37.955 43.532 45.173 45.593 45.508 45.089 45.107 45.109 45.126 45.488 45.645 45.491 44.544 42.619 42.6 42.254 42.164 42.198 41.663 41.245 39.596 37.867 37.752 34.003 33.981 34.143
27.676 27.02 26.66 26.549 26.755 -9999 26.644 26.467 -9999 -9999 -9999 -9999 -9999 -9999 26.54 -9999 27.59 27.315 27.12 27.755 29.898 30.705 30.866 30.242 31.192 32.728 31.412 30.72 30.646 30.721 30.738 30.779 30.862 30.919 30.977 30.998 31.017 31.024 31.032 30.995 30.998 30.961 30.894 30.88 30.884 30.852 30.858 30.84 30.851 30.808 30.757 30.742 30.747 30.721 30.684 30.634 30.623 30.692 30.636 30.581 30.515 30.573 30.54 30.113 29.935 29.778 29.691 29.493 29.307 29.275 29.243 29.226 29.103 29.132 29.091 29.049 29.421 29.127 29.04 28.979 28.841 28.807 32.83 31.58 30.091 28.893 28.902 29.057 30.034 33.142 35.05 35.11 35.318 35.506 35.65 35.872 36.195 36.664 37 36.91 36.825 36.65 36.369 36.181 36.016 35.927 35.813 35.725 35.613 35.579 35.488 35.394 35.285 35.269 35.152 35.062 34.988 34.753 34.862 34.997 35.059 35.202 35.24 35.349 35.22 35.027 34.046 32.54 29.062 28.793 28.766 28.784 28.796 28.871 28.897 29.024 28.923 28.86 28.839 28.824 28.815 28.901 28.964 28.969 28.987 29.012 29.073 29.113 29.231 33.264 31.87 33.751 31.389 29.216 29.168 29.185 29.21 29.318 33.638 34.187 35.305 35.435 35.521 35.595 35.72 35.785 35.85 35.97 36.037 36.149 36.206 36.32 36.424 36.621 36.887 36.978 37.222 37.174 37.56 37.663 37.783 37.63 37.293 37.223 37.047 36.891 36.627 36.413 36.287 36.247 36.142 36.078 35.93 35.85 35.686 35.477 34.158 29.5 30.222 31.997 32.067 34.691 31.817 32.824 35.888 36.334 33.212 35.755 33.551 32.642 31.343 36.483 30.824 31.606 29.523 29.637 29.643 29.667 29.658 29.674 29.675 29.609 29.628 29.678 29.777 32.005 31.145 29.95 29.985 29.98 29.575 29.189 29.187 29.208 29.205 29.2 29.218 29.236 30.443 49.805 54.564 54.83 55.11 55.482 55.608 55.281 55.029 54.635 54.49 50.289 35.749 35.282 35.116 34.291 31.531 31.03 30.753 30.706 30.657 30.65 30.647 31.041 31.257 31.222 29.761 29.429 52.559 48.781 29.437 39.431 58.311 31.902 29.628 34.215 29.643 29.56 29.599 29.575 29.64 29.652 29.563 30.855 31.44 30.977 30.665 30.581 36.681 32.844 35.802 31.139 30.282 30.371 54.518 54.813 54.78 51.473 50.097 48.504 48.122 49.384 45.285 50.006 43.013 35.021 42.526 34.563 34.44 48.675 52.729 53.166 53.862 54.281 54.5 54.802 54.592 54.173 53.733 42.571 30.733 29.509 29.236 29.135 29.115 29.126 29.169 29.184 29.091 29.019 28.966 28.934 28.842 31.051 33.97 35.627 43.194 56.104 63.839 64.188 65.347 65.861 65.989 66.117 65.807 62.629 41.451 34.436 34.346 34.326 34.299 34.252 34.229 34.286 34.342 34.328 34.298 34.245 34.258 34.307 34.332 34.371 34.398 34.385 34.409 34.43 34.393 34.459 34.588 34.575 34.439 34.388 34.363 34.324 34.34 34.331 34.272 34.236 34.278 34.269 34.221 34.222 34.202 34.583 33.943 33.793 33.648 33.728 33.486 33.733 33.833 33.841 33.872 33.855 33.887 33.957 33.752 33.625 34.004 33.775 33.512 33.517 33.574 33.625 33.632 34.663 37.803 37.843 37.877 37.898 37.914 38.135 44.992 45.215 45.094 45.132 45.091 45.594 45.286 45.131 45.52 45.331 45.071 42.779 43.496 42.885 42.277 42.585 41.387 41.182 41.554 37.937 37.79 34.046 34.028 34.134
28.492 27.151 26.959 26.829 26.837 27.172 26.737 26.449 26.331 -9999 -9999 -9999 26.318 26.349 -9999 -9999 -9999 27.515 27.634 27.878 28.959 28.706 29.665 29.681 32.185 33.17 33.557 31.977 30.848 30.806 30.766 30.739 30.882 30.959 31.012 31.033 31.029 31.062 31.036 31.033 31.037 31.016 30.882 30.882 30.872 30.912 30.845 30.816 30.858 30.785 30.801 30.751 30.687 30.705 30.654 30.643 30.655 30.581 30.568 30.569 30.523 30.52 30.268 29.933 29.662 29.487 29.483 29.331 29.161 29.14 29.209 29.075 28.977 28.873 28.948 28.93 28.937 29.036 28.919 29.138 29.149 31.968 34.054 29.772 29.339 28.903 31.784 33.718 31.788 30.491 34.838 35.028 35.205 35.415 35.599 35.77 35.948 36.417 36.67 36.571 36.459 36.213 36.088 35.876 35.79 35.726 35.675 35.526 35.5 35.355 35.296 35.25 35.139 35.042 34.973 34.924 34.914 34.986 35.086 35.184 35.253 35.361 35.407 35.47 35.295 35.098 34.959 33.537 30.216 28.795 28.77 28.756 28.802 28.886 28.905 28.959 28.904 28.847 28.808 28.801 28.839 28.875 28.941 29.034 29.045 29.044 29.172 30.933 29.518 32.297 32.584 31.789 29.235 29.152 29.13 29.173 29.171 29.183 32.678 33.877 35.154 35.536 35.629 35.801 35.83 35.938 36.049 36.153 36.239 36.306 36.37 36.661 36.795 37.055 37.181 37.321 37.589 37.776 37.75 37.604 37.433 37.197 37.07 36.899 36.744 36.502 36.307 36.222 36.107 36.062 35.982 35.86 35.781 35.722 35.611 35.495 35.377 30.603 31.576 32.039 29.579 32.827 30.783 34.964 36.515 34.284 34.214 31.659 29.784 29.618 29.462 29.62 29.64 29.669 29.651 29.677 29.665 29.638 29.649 29.626 29.619 29.647 31.531 29.963 31.431 31.407 29.978 30.964 32.082 30.406 28.957 29.073 29.139 29.166 29.173 29.182 29.202 29.228 29.244 30.883 53.755 54.71 54.944 55.277 55.555 55.478 55.076 54.773 54.165 36.192 35.208 35.243 35.26 34.541 31.901 30.763 30.693 30.64 30.615 30.611 30.499 31.206 31.01 31.288 29.696 29.365 29.841 29.421 29.233 34.494 32.403 29.51 29.547 29.565 29.549 29.577 29.559 29.631 30.157 29.634 29.389 30.286 30.552 30.902 30.886 30.817 29.46 29.53 32.401 36.339 30.427 48.038 54.812 54.82 54.227 51.504 51.456 49.444 40.544 51.212 40.885 48.446 38.04 49.052 38.668 51.639 49.245 52.205 53.613 54.012 54.323 54.507 54.765 54.699 54.472 54.185 52.901 44.39 33.45 29.542 29.144 29.1 29.08 29.085 29.108 29.211 29.147 29.002 28.945 29.628 29.906 30.712 33.671 34.019 36.823 39.261 41.303 41.715 43.761 47.151 50.132 52.915 55.494 54.604 36.401 34.326 34.323 34.311 34.268 34.281 34.192 34.291 34.391 34.329 34.331 34.271 34.223 34.279 34.32 34.342 34.374 34.398 34.408 34.438 34.426 34.452 34.527 34.503 34.366 34.344 34.306 34.305 34.296 34.277 34.233 34.264 34.175 34.155 34.153 34.193 35.234 34.076 33.858 33.714 33.644 33.588 33.474 33.526 33.54 33.564 33.955 33.876 33.844 33.79 33.647 33.546 33.734 33.561 33.538 33.589 33.599 33.597 33.706 36.679 37.806 37.83 37.922 37.91 37.92 37.915 38.184 44.972 45.567 45.604 45.123 45.133 45.125 45.122 45.142 45.435 45.465 45.685 44.338 44.261 43.767 42.533 41.34 41.23 40.684 38.506 37.026 34.208 34.087 34.185
29.509 28.28 27.349 27.049 27.112 27.045 26.763 -9999 26.352 26.328 26.298 -9999 -9999 -9999 -9999 -9999 -9999 -9999 28.054 28.247 28.548 28.481 28.972 28.961 30.168 32.408 34.31 33.467 31.762 31.036 30.943 30.72 30.822 30.942 30.954 30.987 31.036 31.06 31.088 31.035 31.069 30.991 30.983 30.915 30.884 30.911 30.874 30.832 30.807 30.793 30.794 30.784 30.713 30.663 30.599 30.605 30.594 30.646 30.584 30.451 30.156 29.895 29.822 29.595 29.509 29.41 29.303 29.197 29.139 29.002 29.093 29.229 28.955 28.867 28.816 28.894 28.853 28.896 28.763 28.849 33.527 30.59 28.943 32.24 30.607 33.627 34.236 34.231 34.22 34.061 34.52 34.99 35.191 35.36 35.471 35.689 35.862 36.196 36.353 36.121 36.005 35.841 35.809 35.704 35.589 35.554 35.489 35.394 35.285 35.167 35.152 35.05 34.936 34.77 34.95 34.984 35.118 35.152 35.243 35.364 35.433 35.538 35.568 35.566 35.366 35.205 35.063 34.496 33.304 29.084 28.846 28.779 28.792 28.846 28.929 28.935 28.909 28.898 28.858 28.865 28.871 28.932 28.98 29.032 31.574 29.962 29.043 29.044 29.037 29.042 29.86 29.142 29.44 29.113 29.142 29.186 29.131 29.207 29.3 33.545 34.797 35.36 35.571 35.717 35.887 36.038 36.266 36.31 36.375 36.612 36.844 37.067 37.185 37.357 37.587 37.765 37.729 37.592 37.314 37.28 37.05 36.959 36.618 36.453 36.32 36.211 36.158 36.025 35.934 35.905 35.781 35.728 35.614 35.549 35.452 35.331 32.072 30.791 35.233 34.672 33.726 31.011 29.404 30.375 36.02 35.614 31.235 29.772 29.648 29.637 29.622 29.673 29.689 29.654 29.657 29.65 29.63 29.615 29.669 29.703 29.719 29.781 30.214 30.144 30.147 30.339 29.942 31.572 32.016 31.849 30.542 28.924 29.077 29.146 29.128 29.163 29.211 29.223 29.238 29.444 47.169 54.541 54.903 55.165 55.435 55.535 55.298 54.953 54.633 50.915 35.653 35.248 35.287 35.272 33.903 30.763 30.553 30.568 31.272 31.32 30.416 30.386 30.739 31.004 29.655 29.353 29.424 29.905 29.349 29.351 29.477 29.521 29.523 29.54 29.543 29.566 30.125 32.271 33.109 29.466 29.005 29.509 30.864 31.197 31.251 30.582 31.428 34.064 37.738 37.263 30.871 47.751 54.806 54.811 54.227 51.525 51.446 51.465 51.452 51.477 51.204 50.632 49.745 48.454 51.093 48.23 50.953 53.209 54.078 54.363 54.557 54.769 54.703 54.412 54.17 53.949 53.652 49.389 32.839 29.524 29.096 29.118 29.069 29.021 28.988 29.043 29.038 28.998 28.971 29.513 30.566 31.253 33.694 34.032 34.053 34.372 34.741 35.162 35.437 34.861 35.099 38.378 42.984 38.303 35.25 34.415 34.302 34.259 34.259 34.259 34.27 34.287 34.33 35.737 34.41 34.273 34.267 34.305 34.32 34.398 34.406 34.432 34.408 34.419 34.455 34.502 34.51 34.382 34.32 34.313 34.293 34.236 34.219 34.205 34.205 34.178 34.142 34.094 34.077 34.073 33.972 33.937 33.802 33.672 33.602 33.593 33.503 33.44 33.512 33.595 33.769 33.792 33.726 33.651 33.6 33.533 33.524 33.58 33.594 33.558 33.578 33.625 33.791 37.576 37.834 37.851 37.894 37.906 37.919 37.945 37.958 41.252 45.362 45.616 45.294 45.073 45.094 45.091 45.103 45.227 45.611 45.391 45.329 43.66 43.157 42.668 41.517 41.584 41.579 38.716 37.772 34.946 34.135 34.275
30.714 29.687 28.536 27.558 27.114 27.156 27.145 26.891 -9999 -9999 -9999 -9999 -9999 -9999 -9999 -9999 26.265 -9999 27.933 28.296 28.349 28.096 28.257 30.376 32.023 33.718 36.401 34.937 32.41 31.404 30.766 30.747 30.804 30.925 31.001 31.058 31.144 31.106 31.127 31.063 31.107 31.033 30.999 30.909 30.906 30.896 30.841 30.786 30.831 30.748 30.793 30.744 30.672 30.631 30.665 30.656 30.597 30.419 30.26 29.829 29.479 29.653 29.578 29.188 29.248 29.216 29.066 29.046 28.971 28.928 28.989 28.932 28.716 28.802 28.746 28.793 28.829 28.822 28.783 28.734 28.778 28.894 33.618 34.206 34.22 34.217 34.196 34.229 34.227 33.672 29.425 34.756 35.114 35.285 35.424 35.611 35.714 35.958 35.993 35.869 35.774 35.699 35.625 35.549 35.489 35.379 35.291 35.208 35.09 35.047 34.94 34.9 34.885 34.96 35.103 35.18 35.251 35.337 35.421 35.546 35.596 35.672 35.742 35.599 35.461 35.336 35.118 34.946 33.615 31.745 29.268 28.912 28.798 28.837 28.85 28.933 28.927 28.933 28.912 28.902 28.945 29.075 29.02 28.997 29.099 29.832 29.006 28.987 28.971 28.97 28.973 29.011 29.116 29.093 29.165 29.134 29.17 29.176 29.234 32.257 33.923 35.064 35.489 35.659 35.802 36.025 36.197 36.359 36.749 37.09 37.266 37.44 37.63 37.727 37.796 37.615 37.514 37.254 37.088 36.91 36.602 36.464 36.285 36.225 36.131 36.064 35.954 35.856 35.808 35.679 35.629 35.524 35.458 35.36 32.475 32.641 34.938 34.61 30.876 33.161 32.174 33.309 31.487 30.691 29.664 29.654 29.634 29.609 29.661 29.665 29.678 29.682 29.654 29.628 29.601 29.604 29.645 29.69 30.773 29.87 29.94 29.802 29.837 29.862 30.12 33.131 30.17 29.932 31.528 30.157 28.944 28.781 29.01 29.073 29.119 29.132 29.198 29.285 29.249 29.718 35.624 54.179 54.695 54.996 55.286 55.596 55.424 55.044 54.768 54.057 48.882 35.448 35.275 35.287 33.92 30.595 30.605 30.451 30.809 30.928 30.286 30.288 31.203 30.931 31.198 29.393 29.346 29.417 29.406 29.439 29.506 29.512 29.536 29.541 29.613 30.326 41.629 46.45 35.081 47.092 29.915 41.524 31.499 31.339 30.641 30.029 33.993 35.142 35.679 35.736 31.001 51.979 54.821 54.876 54.472 51.596 51.455 51.443 51.491 51.499 51.515 51.611 51.601 51.549 51.502 51.393 51.455 51.735 54.218 54.662 54.706 54.585 54.363 54.118 53.89 53.004 52.528 39.916 30.568 29.36 29.113 29.075 29.053 29.031 28.976 28.922 28.857 28.863 28.87 29.509 30.535 32.597 34.502 34.045 33.87 34.045 34.137 33.863 32.359 28.922 28.405 28.65 33.153 34.564 34.601 34.576 34.207 34.201 34.208 34.225 34.245 34.266 34.302 34.343 34.349 34.296 34.292 34.314 34.37 34.41 34.41 34.416 34.463 34.53 34.503 34.443 34.349 34.357 34.334 34.266 34.239 34.22 34.393 34.243 34.194 34.137 34.102 34.098 34.016 34.029 34.014 34.157 33.728 33.698 33.628 33.581 33.538 33.484 33.485 33.509 33.615 33.65 33.587 33.595 33.548 33.535 33.546 33.591 33.57 33.624 33.611 33.657 33.858 37.833 37.847 37.859 37.888 37.91 37.934 37.957 38.894 38.177 44.2 45.429 45.639 45.163 45.088 45.086 45.389 45.176 45.5 45.618 45.319 44.876 41.541 41.894 41.402 41.299 41.279 38.588 37.575 34.778 34.184 34.297
31.378 30.704 30.053 28.935 27.966 27.467 27.119 26.597 26.915 -9999 -9999 -9999 -9999 -9999 26.241 26.244 26.149 26.296 26.74 26.68 28.856 28.502 28.183 32.055 35.052 35.454 36.166 34.323 32.959 31.513 30.845 30.752 30.847 30.916 30.975 31.087 31.147 31.104 31.084 31.053 31.107 31.068 30.931 30.918 30.893 30.877 30.847 30.823 30.843 30.769 30.782 30.72 30.767 30.799 30.687 30.485 30.024 29.873 29.304 29.172 29.238 29.31 29.257 29.063 29.057 29.076 29.016 28.95 28.874 28.832 28.934 28.794 28.93 28.716 28.753 28.76 29.744 29.814 28.829 28.766 28.756 29.96 34.139 34.216 34.214 34.194 34.21 34.248 34.235 34.251 30.063 33.105 35.002 35.391 35.311 35.504 35.688 35.849 35.751 35.698 35.608 35.502 35.421 35.297 35.324 35.152 35.096 35.007 34.903 34.888 34.9 35.009 35.091 35.213 35.223 35.347 35.404 35.501 35.632 35.71 35.782 35.854 35.914 35.726 35.556 35.345 35.161 34.983 33.937 33.452 29.953 29.177 28.847 28.789 28.84 28.906 29.011 29.141 28.953 28.957 28.97 30.955 29.043 29.001 29.011 28.944 28.966 28.951 28.889 28.866 28.896 29.051 30.116 29.931 29.149 29.148 29.169 29.205 29.197 29.23 32.948 34.232 35.403 35.55 35.742 35.874 36.043 36.285 36.528 37.003 37.35 37.727 37.757 37.576 37.278 37.282 37.093 36.866 36.61 36.429 36.336 36.22 36.111 36.073 35.978 35.928 35.824 35.713 35.644 35.525 35.446 35.381 32.31 32.625 36.077 37.355 38.13 38.723 36.906 30.384 31.271 31.119 30.134 29.611 29.621 29.658 29.652 29.665 29.714 29.674 29.656 29.639 29.605 29.604 29.616 29.697 31.135 30.144 29.972 29.724 29.845 29.819 29.818 29.862 31.548 32.89 31.874 29.661 28.94 28.639 28.649 28.689 28.885 29.024 29.134 29.131 29.175 29.271 29.278 29.275 29.454 48.002 54.489 54.885 54.01 55.499 55.665 54.881 51.431 52.251 41.842 38.667 35.242 35.256 35.217 30.65 31.288 30.598 30.286 30.236 30.141 30.134 30.32 30.273 30.96 29.609 29.345 29.39 29.386 29.455 29.474 29.516 29.528 29.563 31.772 30.543 51.624 54.317 53.53 45.67 54.531 49.679 39.156 31.728 30.853 29.569 32.707 38.599 38.707 35.924 30.417 34.715 54.475 54.957 52.541 51.472 51.499 51.494 51.523 51.498 51.567 51.568 51.557 51.563 51.547 51.491 51.46 51.498 52.399 54.591 54.467 54.342 54.022 53.773 53.44 52.514 42.768 34.503 30.523 29.138 29.122 29.02 28.982 28.994 28.871 28.812 28.73 28.738 28.84 29.376 31.505 31.94 33.007 33.522 33.387 33.204 33.387 32.348 31.167 28.936 28.67 29.276 32.136 33.105 34.255 34.497 34.21 34.001 34.138 34.719 34.26 34.291 34.307 34.298 34.301 34.412 34.327 34.356 34.369 34.389 34.427 34.457 34.542 34.488 34.379 34.36 34.334 34.336 34.231 34.222 34.234 34.943 36.107 34.252 34.212 34.123 34.136 34.039 34.064 33.973 34.545 33.987 33.857 33.782 33.687 33.649 33.553 33.576 33.478 33.546 34.511 33.635 33.532 33.524 33.548 33.594 33.547 33.604 33.595 33.597 33.605 33.744 36.778 37.851 37.867 37.897 37.938 37.934 38.026 38.55 39.566 39.16 40.453 44.645 45.462 45.576 45.173 45.203 45.129 45.126 45.155 45.321 45.467 45.402 43.002 41.546 41.67 41.904 41.395 38.225 37.708 34.87 34.296 34.382
31.908 31.112 30.879 29.923 28.923 27.84 27.161 26.538 26.899 26.519 -9999 -9999 -9999 26.234 26.234 26.246 26.329 -9999 -9999 -9999 26.969 30.473 32.246 34.499 33.617 35.395 35.497 32.481 31.946 31.18 30.968 30.832 30.968 31.001 30.968 31.075 31.126 31.132 31.136 31.095 31.084 31.014 30.934 30.9 30.89 30.896 30.833 30.854 30.842 30.795 30.741 30.755 30.611 30.366 29.822 29.652 29.399 29.206 29.109 29.096 29.193 29.215 29.287 29.015 28.931 29.012 28.886 28.83 28.794 28.813 28.926 28.763 29.826 28.743 28.739 29.979 28.98 28.806 28.843 28.806 28.784 29.985 34.124 34.197 34.247 34.225 34.251 34.227 34.058 30.472 28.986 29.084 34.756 35.104 35.278 35.412 35.595 35.692 35.61 35.569 35.473 35.342 35.263 35.17 35.097 35 31.644 30.527 33.584 34.966 35.068 35.179 35.228 35.336 35.437 35.545 35.606 35.693 35.783 35.866 35.938 36.155 36.031 35.8 35.622 35.414 35.254 35.104 34.733 33.716 31.884 29.052 28.862 28.779 28.796 28.842 28.907 30.287 31.715 29.012 28.938 29.255 28.932 28.931 28.947 28.924 28.976 28.916 28.898 28.887 28.948 29.156 33.441 34.785 33.009 29.304 29.209 29.187 29.187 29.234 32.642 33.84 35.283 35.482 35.594 35.814 35.964 36.172 36.399 36.771 37.168 37.523 37.423 37.274 37.032 36.848 36.568 36.557 36.331 36.24 36.156 36.065 35.956 35.918 35.757 35.738 35.648 35.527 35.459 35.288 35.222 32.142 29.996 33.378 38.95 38.729 39.823 38.506 37.957 35.085 29.727 29.576 29.591 29.646 29.653 29.705 29.678 29.703 29.642 29.652 29.615 29.595 29.651 29.636 31.084 31.011 30.537 29.749 29.717 29.734 29.771 29.823 29.755 29.81 30.56 32.804 32.591 29.741 29.604 28.662 28.713 28.76 28.9 29.003 29.093 29.121 29.206 29.233 29.257 29.281 29.297 34.075 54.148 53.117 52.585 54.724 55.677 55.429 44.719 47.662 54.228 46.591 35.423 35.261 35.316 32.154 30.676 31.131 30.167 30.112 30.087 30.45 30.172 30.212 30.94 30.006 29.335 29.389 29.436 29.453 29.494 29.495 29.537 29.555 30.37 42.763 53.83 53.87 47.846 54.086 54.109 53.656 46.494 31.78 30.727 29.356 29.238 35.904 36.281 30.242 29.992 29.747 34.621 51.905 51.521 51.633 51.499 51.497 51.5 51.501 51.553 51.569 51.591 51.594 51.555 51.527 51.422 51.307 51.816 53.511 54.117 53.917 52.765 51.67 50.55 40.355 33.693 31.038 29.103 29.065 29.015 28.938 28.865 28.839 28.779 28.707 28.617 28.588 28.689 29.372 31.387 31.678 32.25 32.914 33.314 32.95 33.434 29.94 28.252 29.623 26.781 27.025 26.646 27.294 33.779 34.579 34.359 34.08 34.139 34.203 34.241 34.331 34.272 34.284 34.304 34.333 34.346 34.377 34.351 34.392 34.493 34.511 34.45 34.365 34.341 34.34 34.312 34.2 34.172 34.275 37.619 40.231 41.118 36.787 34.278 34.181 34.101 34.013 34.006 34.825 35.007 34.299 33.878 33.756 33.73 33.623 33.596 33.6 33.52 33.476 33.526 33.701 33.519 33.553 33.528 33.617 33.655 33.616 33.648 33.665 33.695 36.118 37.951 37.872 37.909 37.961 37.963 38.076 38.146 38.848 40.129 39.216 39.15 39.36 45.019 45.493 45.607 45.114 45.137 45.118 45.151 45.147 45.628 45.57 44.566 42.223 41.381 41.258 41.199 39.054 37.838 35.522 34.425 34.516
32.201 32.047 31.644 31.049 30.411 29.326 28.288 27.646 27.296 26.689 -9999 -9999 -9999 -9999 26.235 -9999 -9999 -9999 -9999 -9999 -9999 31.095 32.288 33.327 31.504 30.818 30.417 30.592 30.505 32.607 32.382 30.976 31.109 31.276 31.097 31.091 31.083 31.036 30.666 30.937 31.046 31.028 30.966 30.905 30.887 30.88 30.885 30.885 30.8 30.77 30.626 30.144 29.595 29.391 29.236 29.156 29.216 29.148 29.172 29.173 29.25 29.11 29.073 28.998 28.93 28.879 28.821 28.779 28.698 28.71 28.794 28.725 28.755 28.733 28.984 28.702 28.818 28.84 28.871 28.808 28.756 28.918 30.762 34.192 34.267 34.278 34.025 30.422 29.004 28.983 29.011 29.342 33.126 35.008 35.178 35.379 35.506 35.519 35.443 35.372 35.259 35.166 35.109 35.016 34.809 31.64 28.894 28.923 29.287 33.727 35.062 35.285 35.415 35.489 35.632 35.674 35.754 35.869 35.967 36.042 36.4 36.513 36.316 35.895 35.663 35.526 35.335 35.169 35.022 34.008 32.995 29.186 28.771 28.77 28.738 28.823 28.868 31.618 33.381 30.25 28.942 28.922 28.835 28.869 28.888 28.922 28.96 28.929 28.939 28.951 28.985 29.993 29.076 34.565 31.916 29.742 29.175 29.168 29.202 29.223 29.341 32.914 34.221 35.35 35.538 35.753 35.922 36.056 36.279 36.564 37.015 37.195 37.105 36.873 36.579 36.406 36.296 36.284 36.125 36.061 35.946 35.858 35.834 35.7 35.655 35.57 35.476 35.349 32.674 31.173 34.633 29.642 31.791 31.186 37.01 34.062 34.173 39.284 37.731 35.716 29.671 29.606 29.681 29.658 29.705 29.688 29.678 29.705 29.62 29.631 29.635 31.001 30.959 29.749 29.724 29.728 30.765 29.996 29.755 29.739 29.76 29.803 29.824 29.815 29.924 32.292 32.842 30.737 29.135 28.77 28.817 28.906 28.976 29.05 29.063 29.151 29.164 29.193 29.214 29.23 29.267 29.26 49.819 53.499 53.687 52.99 55.414 55.568 55.202 54.904 54.463 41.323 35.258 35.251 35.264 34.366 30.433 30.225 30.779 30.005 29.932 30.523 30.283 30.079 30.024 31.335 29.496 29.375 29.478 29.466 29.463 29.469 29.529 29.556 29.691 30.139 52.956 53.492 53.529 53.638 49.458 50.972 38.41 32.145 30.886 29.267 29.208 30.595 34.49 29.377 29.782 29.855 41.68 50.997 51.115 51.937 52.467 51.347 51.297 51.555 51.499 51.559 51.527 51.599 51.61 51.535 51.449 51.42 51.418 51.853 53.472 52.654 50.749 47.021 39 33.407 31.205 30.07 29.272 30.35 29.136 28.876 28.852 28.807 28.714 28.544 28.353 27.747 28.246 28.895 30.258 31.118 27.919 29.671 31.751 31.745 32.215 30.916 30.074 28.022 26.938 26.786 26.862 27.309 34.227 34.433 34.319 34.176 34.166 34.202 34.155 34.273 34.251 34.262 34.314 34.387 34.394 34.383 34.398 34.464 34.496 34.424 34.346 34.29 34.349 34.244 34.214 34.231 34.81 39.525 40.198 40.184 41.03 40.257 37.228 34.742 34.335 34.051 33.972 34.627 34.258 34.235 33.922 33.834 33.743 33.702 33.639 33.609 33.611 33.579 33.527 33.552 33.539 33.553 33.594 33.584 33.59 33.658 33.665 33.773 36.246 37.447 37.855 37.895 38.109 39.071 37.95 38.74 39.755 40.23 40.292 39.897 39.252 39.245 43.879 45.186 45.632 45.484 45.075 45.101 45.131 45.142 45.227 45.632 45.513 45.09 41.403 41.214 41.234 41.496 37.877 37.668 34.636 34.544
32.337 32.308 32.213 32.252 32.385 32.229 30.33 28.176 27.588 27.538 27.497 -9999 -9999 26.3 26.25 -9999 -9999 -9999 26.263 -9999 30.728 30.601 29.932 30.271 29.43 28.372 30.098 30.848 32.727 34.651 34.109 30.876 31.081 31.154 31.08 30.929 30.899 30.64 30.355 30.38 30.848 31.076 30.962 30.896 30.875 30.852 30.916 30.909 30.814 30.367 29.818 29.398 29.217 29.079 29.077 29.087 29.123 29.148 29.184 29.203 29.198 29.102 28.98 28.903 28.816 28.819 28.783 28.766 28.722 28.738 28.743 28.73 28.591 28.596 28.691 28.757 28.741 28.724 28.829 28.823 28.766 28.874 28.706 33.157 34.178 31.381 30.296 29.273 29.138 28.926 28.964 28.996 29.395 34.84 35.131 35.292 35.411 35.316 35.261 35.197 35.103 34.964 34.929 31.635 28.861 28.862 28.857 28.88 28.903 30.197 34.961 35.161 35.342 35.495 35.726 35.807 35.939 36.188 36.371 36.594 36.726 36.778 36.496 35.972 35.803 35.634 35.417 35.243 35.096 34.948 33.523 29.966 28.831 28.793 28.755 28.758 28.838 31.243 32.124 30.123 28.884 28.858 28.82 28.806 28.87 28.906 28.962 28.983 28.978 28.991 29.028 29.066 31.179 29.158 33.607 31.192 29.144 29.104 29.214 29.228 29.27 32.271 33.839 35.29 35.473 35.65 35.816 35.946 36.188 36.444 36.849 36.83 36.701 36.483 36.3 36.204 36.179 36.068 35.987 35.894 35.8 35.688 35.618 35.559 35.459 35.316 35.162 33.522 31.013 38.634 37.369 33.69 36.022 30.331 34.523 38.015 36.879 36.206 31.501 29.609 29.634 29.689 29.708 29.697 29.661 29.636 29.644 29.651 29.681 30.678 30.813 30.623 29.753 29.715 29.68 29.746 29.812 29.863 29.728 29.74 29.787 29.775 29.803 29.793 29.882 31.923 32.944 32.903 28.911 28.887 28.923 30.855 32.277 32.165 29.132 29.135 29.15 29.15 29.175 29.204 29.279 30.399 45.381 53.74 54.835 53.247 54.953 55.644 55.404 55.054 54.811 54.157 45.958 35.478 35.255 35.298 31.616 30.247 30.2 30.127 29.859 30.002 30.145 30.021 31.169 32.822 31.356 29.422 29.442 29.5 29.518 29.514 33.181 32.648 33.814 42.128 55.021 53.16 53.179 53.801 53.811 51.07 36.381 32.396 31.22 29.341 29.148 34.362 34.659 32.308 30.018 30.328 30.72 51.182 51.554 47.709 51.033 49.335 50.783 50.175 50.789 50.271 50.504 51.089 51.496 51.59 51.512 51.442 51.477 51.567 52.219 49.815 43.561 39.951 34.046 32.098 31.925 31.287 30.678 30.672 28.766 28.771 28.909 28.955 28.761 28.394 27.599 26.915 27.791 26.447 27.33 28.803 28.114 -9999 30.535 29.733 30.25 30.635 31.237 -9999 -9999 -9999 -9999 -9999 -9999 -9999 -9999 34.596 34.199 34.204 34.226 34.288 34.292 34.283 34.307 34.373 34.441 34.446 34.441 34.463 34.351 34.344 34.351 34.325 34.212 34.201 34.286 37.094 39.969 40.199 40.238 40.212 40.213 40.265 40.44 37.252 45.311 35.508 33.959 33.879 34.109 33.887 33.975 34.727 33.913 33.705 33.715 33.558 33.611 33.605 33.565 33.619 33.622 33.611 33.675 33.669 33.703 33.699 34.066 37.021 37.911 37.86 37.891 38.195 39.215 39 38.747 39.132 39.157 40.029 39.351 39.281 39.311 39.394 39.356 44.023 45.48 45.32 45.093 45.087 45.078 45.475 45.148 45.371 45.45 45.134 42.74 41.239 41.251 41.038 36.118 39.212 40.802 39.608
32.489 32.42 32.34 33.391 34.358 34.902 33.37 29.594 27.864 27.137 27.439 26.811 -9999 26.379 26.272 -9999 -9999 -9999 26.226 26.276 -9999 30.11 29.882 29.778 29.096 28.683 29.332 30.954 34.903 36.475 34.25 31.318 30.768 30.845 30.966 30.814 30.744 30.468 30.196 29.929 30.413 30.998 30.944 30.928 30.936 31.004 30.942 30.687 30.026 29.643 29.314 29.141 29.081 29.048 28.933 29.031 29.121 29.159 29.206 29.215 29.15 29.058 29.017 28.883 28.892 28.881 28.803 28.826 28.772 28.796 28.76 28.751 28.58 28.601 28.766 28.713 28.711 28.732 28.779 28.946 29.175 28.773 28.752 29.816 30.277 29.227 29.077 28.847 28.845 28.91 28.937 28.997 29.017 30.713 34.992 35.148 35.285 35.175 35.086 35.019 34.688 30.466 29.436 28.826 28.815 28.863 28.859 28.858 28.892 29.099 34.726 35.115 35.222 35.444 35.594 35.688 35.967 36.314 36.678 36.976 37.11 36.907 36.628 36.141 35.89 35.68 35.526 35.328 35.193 34.991 34.625 32.448 28.951 28.809 28.751 28.752 28.816 28.866 28.95 28.963 28.909 28.815 28.753 28.868 28.85 28.898 28.975 28.998 29.014 29.011 29.806 31.856 29.545 29.535 32.511 29.768 29.154 29.151 29.172 29.242 29.308 29.451 33.555 34.197 35.361 35.528 35.713 35.89 36.049 36.279 36.619 36.44 36.302 36.216 36.186 36.022 35.964 35.875 35.836 35.705 35.663 35.574 35.485 35.372 32.581 32.032 31.503 36.251 39.561 39.677 39.569 38.166 31.15 34.582 38.314 33.714 30.61 29.479 29.66 29.66 29.685 29.683 29.672 29.592 29.588 29.62 29.726 29.803 30.087 29.937 29.677 29.677 29.727 29.713 29.713 29.725 29.765 29.75 30.113 29.879 31.287 32.981 29.929 29.763 29.799 30.452 32.291 32.437 30.223 28.956 29.514 31.733 33.063 33.038 29.857 29.1 29.147 29.159 29.189 29.207 29.257 29.349 30.459 51.243 52.845 54.834 54.771 55.633 55.565 55.27 54.881 54.535 42.436 39.075 35.241 35.267 34.468 30.48 29.958 31.013 29.805 29.687 29.703 30.042 31.026 32.285 31.371 29.46 29.443 29.521 29.507 29.54 52.314 37.7 49.612 51.04 57.065 56.294 54.35 54.208 54.13 53.891 52.149 32.972 30.34 29.222 29.141 29.119 30.101 29.202 29.388 29.928 30.084 31.618 35.002 35.721 36.525 37.853 39.819 47.038 41.704 48.417 48.591 49.272 50.616 50.228 48.323 49.846 49.892 51.577 49.799 37.195 29.45 29.108 31.105 31.687 31.461 30.863 29.31 28.92 28.497 28.01 28.375 28.958 29.75 28.864 28.054 27.603 -9999 -9999 -9999 -9999 -9999 -9999 -9999 29.608 29.988 28.611 27.474 -9999 -9999 -9999 -9999 -9999 -9999 -9999 28.672 29.388 33.958 34.224 34.239 34.281 34.303 34.272 34.286 34.697 34.575 34.458 34.401 34.323 34.304 34.317 34.27 34.226 34.189 34.478 39.208 40.183 40.198 40.246 40.242 40.24 40.26 40.294 40.522 46.388 46.66 39.687 34.047 33.887 33.844 33.885 37.037 36.678 34.548 33.832 33.733 33.713 33.657 33.582 33.63 33.644 33.658 33.708 33.686 33.702 33.793 33.986 37.817 37.823 37.908 37.921 38.264 37.909 38.197 38.988 39.181 39.189 39.21 39.32 39.358 39.415 39.363 39.307 39.238 39.32 44.9 45.414 45.63 45.18 45.077 45.107 45.11 45.142 45.447 45.528 45.284 41.459 41.258 41.229 39.627 41.474 41.471 40.315
32.944 32.435 32.433 34.001 34.983 35.492 34.401 30.722 29.105 28.016 27.613 27.607 27.079 -9999 26.375 26.311 -9999 -9999 26.219 26.209 26.255 26.255 30.091 -9999 -9999 28.783 28.565 31.097 33.937 35.512 33.927 31.297 30.955 31.022 30.988 30.787 30.548 30.423 30.181 30.034 30.019 30.503 30.938 31.002 30.988 30.84 30.536 29.682 29.281 29.2 29.027 29.052 28.975 28.893 28.962 28.992 29.053 29.091 29.193 29.195 29.119 29.112 28.988 28.892 28.953 28.9 28.84 28.831 28.802 28.858 28.873 28.811 28.77 28.741 28.725 28.739 28.693 28.731 28.776 28.781 29.794 28.852 29.1 29.827 28.783 28.79 28.805 28.829 28.841 28.882 28.921 29.231 32.165 30.178 34.749 35.087 35.109 34.982 34.649 30.533 28.86 28.813 28.779 28.767 28.767 28.802 28.825 28.898 28.919 28.946 31.48 34.995 35.144 35.337 35.47 35.667 35.857 36.117 36.651 36.933 37.256 37.093 36.819 36.413 35.976 35.771 35.616 35.42 35.305 35.102 34.945 33.75 30.013 28.82 28.784 28.786 28.831 28.866 28.933 28.883 28.879 28.845 28.822 28.851 28.883 28.938 28.995 29.124 29.109 29.036 29.058 29.036 29.032 29.705 29.043 29.541 29.113 29.134 29.106 29.21 29.283 29.343 32.342 33.856 35.143 35.5 35.608 35.823 35.942 36.195 36.28 36.201 36.104 36.052 35.957 35.87 35.84 35.71 35.636 35.54 35.447 35.368 32.476 30.521 36.927 36.449 37.248 30.515 37.227 39.695 39.438 38.621 36.68 33.832 31.591 30.434 29.622 29.65 29.656 29.667 29.614 29.608 29.582 29.638 29.661 30.61 30.589 30.227 29.778 29.706 29.706 29.72 29.735 29.711 29.74 29.781 29.832 33.584 32.077 32.54 32.514 32.378 30.419 29.698 29.749 29.848 32.087 32.715 30.179 30.949 31.899 32.092 33.027 32.901 32.171 29.101 29.146 29.169 29.207 29.193 29.226 29.291 29.325 46.36 49.662 53.91 55.001 55.772 55.571 55.298 55.017 54.721 52.253 48.572 35.711 31.83 30.132 30.355 29.975 30.835 30.023 29.59 29.599 29.951 29.495 30.35 29.665 29.433 29.423 29.495 29.553 29.519 46.09 46.459 57.514 57.411 56.962 56.544 54.104 54.155 53.386 41.198 44.487 31.555 29.928 29.196 29.14 29.085 29.058 31.59 33.758 30.472 29.678 33.85 31.166 29.961 30.678 30.491 32.559 31.556 31.266 33.478 31.503 36.461 39.817 36.262 38.165 39.051 40.53 43.5 33.795 30.461 29.074 29.019 29.453 30.737 30.384 29.817 28.411 28.2 27.931 26.96 27.643 28.938 29.62 29.227 -9999 -9999 -9999 -9999 -9999 -9999 -9999 -9999 27.065 27.016 26.648 -9999 -9999 -9999 -9999 -9999 -9999 -9999 -9999 -9999 26.342 26.315 32.609 32.875 33.891 34.269 34.292 34.31 34.353 34.434 34.335 34.337 34.342 34.365 34.293 34.253 34.175 34.211 36.91 39.948 40.208 40.235 40.213 40.237 40.242 40.261 40.337 40.32 40.398 44.689 45.445 46.616 43.364 34.071 33.89 33.858 37.08 37.36 37.507 35.851 33.872 33.791 33.716 33.744 33.699 33.681 33.688 33.693 33.745 33.831 36.054 38.383 35.584 36.921 38.088 38.055 37.878 38.403 38.85 39.158 39.189 39.255 39.285 39.354 39.419 39.355 39.31 39.228 39.145 39.029 39.318 44.082 45.601 45.594 45.068 45.048 45.075 45.106 45.209 45.592 44.879 43.266 41.79 41.535 41.482 41.486 41.505 41.545
49.688 33.28 32.512 32.377 34.789 35.308 34.022 31.019 29.73 28.483 27.721 27.673 27.558 -9999 -9999 -9999 -9999 -9999 -9999 26.233 26.249 26.252 30.637 30.408 29.826 28.985 27.702 30.23 34.058 34.084 32.749 31.244 31.59 31.88 31.203 30.683 30.353 30.421 30.217 29.93 29.798 29.844 30.137 30.501 30.609 29.95 29.474 29.152 29.102 29.07 28.991 28.877 28.905 28.944 28.928 28.979 28.981 29.019 29.06 29.063 29.106 29.06 28.916 28.864 28.88 28.901 28.865 28.876 28.85 28.878 29.544 28.913 28.856 28.861 28.694 28.689 28.685 28.703 28.713 28.754 28.818 28.803 28.771 28.541 28.723 28.736 28.783 28.817 28.984 31.425 29.087 32.263 33.999 32.172 33.891 34.971 34.781 30.627 28.84 28.821 28.761 28.758 28.726 28.758 28.774 28.784 28.85 28.889 29.078 29.94 29.135 34.766 35.059 35.221 35.341 35.581 35.705 35.922 36.423 36.802 37.002 36.853 36.604 36.479 36.165 35.874 35.689 35.556 35.413 35.158 35.003 34.505 32.674 28.961 28.81 28.818 28.803 28.837 28.867 28.961 30.521 31.608 28.927 28.868 28.913 28.972 28.997 32.052 30.002 29.033 29.037 28.994 28.948 29.117 28.98 29.057 29.089 29.102 29.117 29.129 29.262 29.334 29.458 33.505 34.882 35.413 35.587 35.7 35.91 36.092 36.118 36.045 35.91 35.859 35.761 35.738 35.628 35.504 35.429 35.346 32.397 31.344 35.358 38.293 39.171 38.878 38.086 35.619 37.982 39.815 38.395 33.134 31.177 29.56 29.632 29.632 29.68 29.615 29.607 29.554 29.986 29.588 29.717 30.412 30.275 29.859 29.763 30.324 29.779 29.771 29.732 29.782 29.784 29.807 29.855 30.062 34.978 35.669 35.574 31.213 30.365 30.076 29.796 29.77 29.755 29.774 30.04 31.054 31.968 30.045 32.043 32.164 32.462 32.855 32.863 29.189 29.154 29.17 29.171 29.168 29.227 29.253 29.266 29.647 41.061 54.251 54.935 55.232 55.584 55.542 55.205 54.974 54.495 49.175 31.011 30.034 29.987 30.185 29.876 29.98 29.772 29.576 29.528 29.506 29.452 29.432 29.426 29.414 29.444 29.471 29.495 30.204 35.417 38.756 50.268 57.213 56.858 56.064 52.212 51.818 51.118 50.18 32.53 31.412 29.829 29.105 29.094 29.008 29.09 31.786 33.123 30.594 33.771 34.886 34.298 29.278 29.145 31.062 32.017 31.836 29.762 29.85 30.17 30.423 31.4 31.234 29.69 29.835 31.692 31.523 30.91 28.98 29.064 28.985 28.418 28.453 28.815 28.158 27.959 26.479 27.772 27.656 27.986 26.459 -9999 -9999 -9999 -9999 -9999 -9999 -9999 -9999 -9999 -9999 26.297 26.413 26.233 26.409 -9999 -9999 -9999 -9999 -9999 -9999 -9999 26.744 26.582 26.72 26.697 32.288 33.798 34.317 34.38 34.377 34.37 34.303 34.291 34.316 34.304 34.263 34.186 34.183 34.232 37.95 40.352 40.221 40.207 40.241 40.271 40.269 40.266 40.307 40.311 40.425 41.751 40.718 44.773 46.623 44.401 36.941 33.971 33.906 33.886 37.057 37.373 36.848 34.954 33.876 33.852 33.864 33.828 33.87 33.79 33.814 34.059 37.772 38.253 34.501 33.894 34.7 35.08 37.796 38.6 37.719 38.503 39.235 39.334 39.288 39.478 39.347 39.269 39.236 39.317 36.481 33.883 34.635 39.78 40.274 45.338 45.584 45.244 45.032 45.073 45.111 45.109 45.014 44.455 42.346 41.677 41.517 41.521 41.568 41.547 41.568
41.861 33.778 32.529 32.337 32.24 32.911 32.235 31.622 30.337 28.909 28.064 27.346 27.396 28.009 -9999 -9999 -9999 -9999 -9999 -9999 -9999 -9999 30.999 31.282 30.86 29.982 29.758 31.307 33.738 33.432 32.048 32.903 32.845 32.611 31.498 31.032 30.589 30.341 30.079 29.854 31.28 30.097 29.713 29.647 29.468 29.216 29.12 29.014 28.906 28.951 28.969 29.001 28.928 28.854 29.066 29.098 29.065 29.014 29.037 28.993 29.045 29.061 28.914 28.941 28.941 28.932 28.954 28.888 28.911 28.924 28.861 28.903 28.856 28.801 28.658 28.738 28.693 28.688 28.72 28.66 28.779 28.804 28.769 28.711 28.737 28.759 29.009 33.055 34.08 36.147 29.545 31.513 34.507 34.413 29.55 31.602 29.432 28.838 28.771 28.744 28.704 28.713 28.711 28.719 28.774 28.773 28.815 28.859 29.496 30.698 29.526 33.06 34.921 35.16 35.296 35.468 35.639 35.83 36.257 36.574 36.614 36.505 36.343 36.036 35.907 35.814 35.696 35.57 35.476 35.252 35.126 34.712 33.449 32.083 28.891 28.938 28.853 28.828 28.811 28.916 29.297 34.607 29.058 30.883 29.21 29.845 28.98 29.011 29.041 29.01 28.96 28.97 28.908 28.925 28.99 29.034 29.099 29.088 29.122 29.137 29.226 29.219 29.248 32.287 33.861 35.083 35.467 35.66 35.809 36.015 35.936 35.864 35.767 35.696 35.595 35.53 35.428 35.331 32.386 32.909 36.429 38.499 33.534 40.115 40.283 34.479 35.253 37.389 35.366 31.741 31.159 29.61 29.644 29.634 29.684 29.694 29.684 29.608 29.586 29.627 30.492 31.132 30.494 30.337 30.104 29.756 29.763 29.804 29.816 29.775 29.742 29.823 29.861 30.188 33.68 35.585 35.6 35.641 35.559 33.877 30.505 29.796 29.772 29.779 29.756 29.773 30.001 30.265 30.462 30.928 31.139 32.17 32.455 33.058 33.059 30.207 29.122 29.151 29.149 29.201 29.212 29.238 29.259 29.442 47.144 54.457 54.788 56.085 55.474 55.6 55.36 55.007 54.679 40.047 39.541 30.359 30.164 30.167 29.685 29.689 30.899 29.555 29.474 29.453 29.412 29.438 29.415 29.44 29.455 29.445 29.415 29.419 29.511 29.413 32.036 48.968 52.651 51.936 51.233 50.716 49.796 49.135 36.259 31.15 29.245 29.014 28.959 28.998 29.089 28.928 30.968 29.887 33.577 33.821 32.993 30.371 29.051 29.419 31.952 31.419 30.436 29.097 29.107 29.1 29.109 29.047 29.108 29.1 28.999 29.911 29.052 28.979 28.749 29.099 29.492 28.165 27.678 27.46 27.872 -9999 -9999 -9999 -9999 -9999 -9999 -9999 -9999 -9999 -9999 26.275 -9999 26.242 26.233 -9999 -9999 -9999 26.228 26.229 -9999 -9999 26.396 -9999 -9999 -9999 26.664 26.695 26.664 31.023 31.256 30.842 31.268 34.058 34.374 34.394 34.324 34.28 34.317 34.331 34.247 34.652 34.329 35.604 40.16 40.237 41.043 40.482 40.189 40.248 40.236 40.288 40.317 40.863 40.503 40.63 41.03 41.656 42.178 45.64 46.566 45.16 34.576 33.946 33.92 36.89 37.324 35.268 34.604 35.421 36.188 36.176 35.876 36.638 35.814 33.968 34.959 35.939 33.898 33.882 33.826 36.394 35.877 38.269 38.044 38.322 38.737 39.137 39.383 39.356 39.428 39.24 39.185 39.002 34.455 33.886 37.186 39.537 40.065 40.099 43.597 45.175 45.479 45.133 45.033 45.074 44.736 44.442 42.37 41.721 41.6 41.578 41.554 41.577 41.623 41.613
62.36 51.522 33.915 33.012 32.524 32.32 32.194 31.774 30.705 29.478 28.694 27.928 28.342 28.908 26.687 -9999 -9999 -9999 -9999 -9999 -9999 -9999 31.201 31.599 31.377 -9999 26.88 26.926 32.249 32.826 32.204 31.733 32.111 31.585 31.283 31.341 30.557 30.287 30.118 30.897 30.481 29.807 29.405 29.179 29.093 29.005 29.057 28.948 28.864 28.985 28.969 29.071 28.979 28.968 29.025 28.964 29.016 28.911 28.993 29.005 29.017 29.018 28.943 28.946 28.949 28.934 28.92 28.902 28.899 28.915 28.867 28.839 28.792 28.778 28.738 28.742 28.678 28.637 28.698 28.592 28.694 28.819 28.798 28.752 28.742 31.031 34.116 35.093 36.629 35.005 33.361 28.999 32.281 32.127 28.963 29.374 28.799 28.743 28.752 28.725 28.669 28.66 28.62 28.683 28.716 28.793 28.773 28.831 28.907 28.922 29.471 29.632 34.736 35.057 35.181 35.403 35.576 35.74 35.968 36.419 36.176 36.067 35.915 35.833 35.705 35.632 35.532 35.477 35.37 35.358 35.173 35.018 34.07 32.623 29.46 28.958 28.846 28.811 28.821 29.651 31.934 34.13 30.427 30.906 30.542 29.377 28.972 28.954 28.971 28.985 28.955 28.923 28.909 28.931 28.978 29.06 29.098 29.138 29.072 29.109 29.142 29.197 29.213 29.295 32.814 34.739 35.397 35.572 35.791 35.815 35.825 35.685 35.602 35.514 35.45 35.354 34.116 30.516 35.363 36.751 37.894 37.623 39.013 40.416 40.383 39.5 37.51 32.743 30.194 29.619 29.612 29.625 29.708 29.601 29.613 29.632 29.569 29.627 29.738 30.118 30.549 30.312 30.26 30.253 29.956 29.731 29.792 29.84 29.88 29.867 29.908 33.516 35.073 35.64 35.67 35.623 35.613 35.645 35.647 35.002 30.608 29.819 29.78 29.773 29.762 29.814 29.859 30.114 30.52 32.724 29.305 32.104 32.21 33.012 33.073 32.848 29.117 29.113 29.178 29.169 29.193 29.253 29.24 29.623 30.396 49.833 41.805 54.489 55.28 55.395 55.326 54.927 55.857 56.12 51.178 32.405 29.687 29.542 29.995 30.388 30.715 29.613 29.39 29.377 29.365 29.406 29.417 29.445 29.435 29.391 50.263 52.828 40.223 29.715 31.619 34.463 45.936 50.124 50.097 49.587 48.664 47.781 34.175 29.678 29.214 29.031 28.987 28.982 29.001 28.933 28.968 28.948 29.764 31.747 29.322 29.021 29.043 30.252 31.083 31.23 30.695 29.071 28.944 29.057 28.978 28.889 28.897 28.306 28.057 28.74 28.443 28.868 29.107 29.179 28.894 27.395 28.565 28.357 28.034 -9999 -9999 26.384 -9999 -9999 -9999 -9999 -9999 -9999 26.276 26.283 26.272 26.245 26.216 26.177 -9999 -9999 -9999 -9999 -9999 -9999 26.399 -9999 -9999 -9999 26.652 26.683 27.123 30.451 31.206 30.284 33.25 34.147 34.302 34.27 34.251 34.28 34.277 34.807 34.7 34.568 38.279 40.59 41.47 40.236 40.387 40.356 40.228 40.286 40.29 40.326 40.369 40.589 40.846 40.865 41.174 41.95 41.839 42.79 46.489 46.148 35.456 33.966 33.959 33.89 33.899 33.977 35.246 36.127 35.389 35.556 35.363 35.984 34.895 34.044 34.077 33.895 33.85 34.784 37.575 37.944 37.835 38.239 37.433 38.514 36.047 37.895 39.39 39.249 39.286 38.957 35.335 35.679 36.992 38.406 40.017 39.907 39.967 39.979 38.536 44.99 45.478 45.262 44.782 44.537 42.862 41.549 41.542 41.533 41.729 41.606 41.629 41.609 41.649 41.657
62.286 43.779 35.693 33.369 32.866 32.506 32.325 31.983 31.325 30.648 30.779 29.295 29.84 30.083 29.69 -9999 -9999 -9999 -9999 -9999 -9999 -9999 31.091 31.379 31.427 -9999 -9999 26.528 31.857 32.165 32.268 31.288 31.266 31.129 30.706 30.311 30.274 30.084 29.945 29.766 29.412 29.202 29.057 29.021 29.04 28.97 28.989 28.951 28.977 28.95 28.905 29.068 28.952 28.873 28.876 28.884 28.929 28.912 29.004 29.016 29.019 29.041 29.038 28.998 28.99 28.994 28.956 28.888 28.897 28.891 28.844 28.832 28.849 28.844 28.748 28.721 28.681 28.646 28.678 28.697 28.625 28.935 28.78 28.761 28.753 31.866 29.41 29.38 31.297 34.581 34.256 31.229 29.886 28.847 28.837 28.778 28.774 28.687 28.711 28.732 28.696 28.631 28.615 28.655 28.722 28.735 28.768 28.795 28.829 28.859 29.136 28.964 30.191 34.936 35.145 35.277 35.493 35.629 35.824 36.033 35.863 35.75 35.684 35.613 35.586 35.451 35.379 35.313 35.231 35.15 35.061 35.018 34.629 33.574 29.954 28.891 28.801 28.766 28.743 29.628 28.852 30.055 30.931 28.902 28.905 28.909 28.884 28.899 28.946 28.98 28.961 28.95 28.945 28.998 29.027 29.065 30.601 31.729 29.837 29.116 29.147 29.196 29.252 29.228 30.188 33.84 35.081 35.475 35.698 35.688 35.572 35.501 35.439 35.284 32.991 33.442 34.73 36.478 37.338 39.105 39.871 37.838 39.999 36.431 38.993 38.439 32.738 29.557 29.6 29.629 29.632 29.635 29.586 29.523 29.602 29.762 29.74 30.627 30.333 30.345 29.828 29.9 29.737 29.764 29.765 29.818 29.819 29.859 29.883 30 34.91 35.607 35.585 35.602 35.641 35.649 35.601 35.597 35.564 35.567 32.943 29.885 29.839 29.804 29.745 29.771 29.768 30.03 30.976 31.234 30.355 32.139 32.257 32.695 30.76 30.064 29.057 29.133 29.149 29.158 29.193 29.216 29.266 29.264 29.185 49.045 54.557 54.817 55.285 55.082 55.607 51.445 55.904 55.791 55.609 40.614 29.566 30.154 30.388 29.84 29.471 29.323 29.305 29.383 29.379 29.402 29.392 29.386 29.398 32.539 53.752 51.827 55.939 33.804 31.59 34.177 47.926 51.767 52.05 50 48.145 48.348 34.34 29.787 29.098 29.023 28.982 29.078 29.119 29.08 29.1 29.022 29.103 29.227 28.945 28.966 28.911 28.965 30.515 30.545 29.312 28.997 28.706 28.849 28.636 28.207 28.38 27.234 26.947 27.525 26.837 -9999 -9999 -9999 28.709 28.256 28.39 28.434 -9999 -9999 26.301 26.23 26.269 -9999 -9999 -9999 -9999 -9999 -9999 26.28 -9999 -9999 26.243 -9999 -9999 -9999 -9999 26.3 26.324 -9999 -9999 -9999 26.349 -9999 28.622 28.773 29.185 30.593 31.078 33.105 34.064 34.177 34.229 34.193 34.241 34.243 34.24 34.605 34.569 39.511 40.841 40.227 40.502 40.385 40.244 40.299 40.276 40.302 40.33 40.367 41.497 40.398 41.799 41.211 41.35 42.242 41.872 41.85 42.578 37.709 34.972 34.029 33.974 33.913 33.959 33.953 36.325 36.386 36.439 35.086 34.054 33.912 33.94 33.845 33.864 33.842 37.182 38.39 37.294 37.373 37.831 37.883 38.216 37.791 38.274 38.743 38.869 39.182 37.774 35.497 33.957 37.404 39.872 40.048 39.976 39.958 39.941 39.914 40.14 43.048 45.142 44.732 44.009 42.351 41.54 41.741 41.839 41.623 41.651 41.931 41.677 41.652 41.675 41.694
70.357 67.917 44.468 34.331 35.478 33.303 32.266 32.181 32.657 33.252 33.632 31.398 30.743 30.769 29.937 27.472 -9999 -9999 -9999 -9999 -9999 -9999 -9999 -9999 -9999 -9999 -9999 26.584 31.187 30.818 30.996 30.873 30.715 30.785 30.403 30.058 30.002 30.05 29.855 29.596 29.271 29.059 29.001 29.012 29.043 28.965 29.018 28.971 28.933 29.013 28.902 28.865 28.88 28.904 28.853 28.924 28.963 28.921 29.02 29.001 29.037 29.03 29.016 29.007 29.024 28.995 28.978 28.912 28.948 28.909 28.888 29.171 29.12 28.813 28.792 28.742 28.616 28.597 28.666 28.66 28.674 28.81 28.823 28.799 28.733 28.877 30.636 34.195 30.109 32.283 29.426 32.067 30.428 28.777 28.818 28.829 29.218 28.766 28.752 28.72 28.7 28.669 28.602 28.617 28.665 28.734 28.724 28.777 28.791 28.878 28.885 28.936 28.932 33.741 35.065 35.162 35.379 35.549 35.784 35.781 35.724 35.622 35.591 35.532 35.373 35.274 35.245 35.114 35.127 34.979 34.903 34.846 34.956 34.022 33.278 29.015 28.754 28.756 28.73 28.752 28.903 32.699 31.508 29.063 28.859 28.878 28.836 28.848 28.911 28.954 28.979 28.981 28.987 29.01 29.119 29.081 32.429 33.25 29.326 31.494 29.211 29.179 29.222 29.275 30.142 33.583 34.543 35.39 35.56 35.506 35.405 35.345 34.567 32.818 29.441 34.77 36.641 33.622 32.399 31.453 37.437 37.516 38.638 36.301 36.325 30.367 29.592 29.638 29.579 29.604 29.597 29.548 29.488 29.634 30.463 30.31 30.465 29.982 31.084 30.26 29.78 29.782 29.735 29.772 29.801 29.812 29.898 29.949 29.957 29.884 34.395 35.5 35.583 35.634 35.63 35.608 35.601 35.576 35.468 31.54 30.505 29.969 29.887 29.806 29.704 29.708 29.813 29.927 30.082 30.219 30.261 30.852 32.223 32.247 31.481 29.19 29.594 29.099 29.146 29.185 29.194 29.209 29.229 29.242 30.643 36.366 54.27 54.681 54.883 54.84 54.889 55.658 55.618 55.385 55.23 50.598 34.255 30.362 29.857 29.356 29.314 29.336 29.357 29.316 29.386 29.363 29.404 29.387 30.711 61.597 66.395 63.575 53.137 40.542 36.985 33.888 49.168 51.855 50.671 49.652 48.976 38.879 31.171 29.456 29.157 29.018 29.074 29.321 29.627 29.687 29.34 30.196 29.835 28.985 28.984 28.988 28.904 28.879 28.909 28.853 29.02 28.582 27.646 28.12 27.636 27.011 27.393 26.793 26.443 27.168 -9999 -9999 -9999 -9999 -9999 -9999 28.25 -9999 -9999 -9999 -9999 26.253 -9999 26.322 26.329 -9999 -9999 -9999 -9999 -9999 26.299 26.297 26.318 26.278 -9999 -9999 26.297 26.232 26.201 -9999 -9999 -9999 26.35 28.968 28.475 27.909 28.62 30.195 32.362 34.362 34.278 34.278 34.217 34.237 34.184 34.182 34.167 37.76 39.885 40.25 41.294 40.315 40.246 40.259 40.302 40.303 40.312 40.555 41.581 40.435 40.588 41.745 41.964 41.593 41.652 41.742 41.883 41.769 41.794 40.422 38.184 34.032 33.984 33.972 33.964 33.958 35.628 36.363 34.164 33.953 33.883 33.906 33.933 33.849 35.187 36.698 37.979 37.248 37.185 37.406 37.347 37.781 37.607 38.49 38.551 38.838 36.109 34.887 34.91 34.241 38.33 40.185 40.016 40.02 39.974 39.929 39.887 39.878 39.897 42.329 44.732 44.542 41.867 41.595 41.555 41.595 41.877 41.64 41.628 41.769 42.071 41.716 41.724 41.766
72.297 70.066 50.638 35.386 33.433 32.846 32.394 32.229 32.757 34.347 34.976 34.056 30.86 30.589 29.598 28.94 26.64 -9999 -9999 -9999 -9999 -9999 -9999 -9999 -9999 -9999 -9999 26.429 30.646 31.089 30.956 30.437 30.393 30.734 30.683 29.85 29.766 29.752 29.664 29.373 29.113 29.088 29.023 28.96 28.997 28.974 28.984 28.93 28.864 28.905 28.823 28.858 28.864 28.851 28.854 28.919 28.94 29.003 29.063 29.045 29.06 29.049 29.036 29.019 29.023 28.955 28.911 28.92 28.887 28.857 28.828 29.145 29.182 28.835 28.638 28.606 28.627 28.642 28.695 28.731 28.698 29.051 28.758 28.819 28.753 31.464 31.909 37.308 38.982 35.491 29.916 28.829 28.843 28.823 28.831 28.805 28.825 28.814 28.749 28.719 28.667 28.659 28.633 28.639 28.644 28.686 28.744 28.772 28.769 28.827 28.888 28.919 28.98 33.599 34.957 35.185 35.328 35.517 35.661 35.619 35.554 35.467 35.417 35.347 35.211 35.167 35.09 34.959 34.93 34.999 34.996 35.061 35.115 34.088 33.421 29.688 28.853 28.762 28.744 28.766 28.9 28.974 29.793 29.286 28.856 28.814 28.815 28.859 28.94 28.968 29.02 29.015 29.029 29.168 30.371 29.955 31.469 33.856 30.051 29.525 29.168 29.199 29.236 29.235 29.331 32.324 33.93 35.3 35.45 35.306 34.435 33.944 33.7 33.39 29.454 33.941 37.311 35.54 29.92 31.141 33.07 34.562 32.971 29.608 30.782 29.559 29.58 29.579 29.591 29.514 29.59 29.703 29.811 29.903 29.957 30.018 31.098 30.205 29.883 29.815 29.771 29.803 29.828 29.844 29.858 32.714 30.143 30.042 30.889 32.4 31.505 35.429 35.558 35.577 35.62 35.617 35.498 32.529 30.449 29.96 30.242 29.91 29.877 29.822 29.77 29.789 29.834 29.883 30.033 30.203 31.269 30.78 32.076 32.23 32.17 31.608 29.818 29.065 29.122 29.149 29.158 29.195 29.214 29.246 30.944 30.541 53.142 52.232 54.652 54.557 54.55 54.945 55.219 55.136 38.644 31.976 29.304 29.259 29.304 29.311 29.322 29.309 29.331 29.374 29.397 29.407 29.652 30.142 58.907 62.7 62.024 58.307 58.124 55.879 49.051 48.511 51.5 50.282 49.002 47.997 47.378 47.027 32.42 29.703 29.272 29.083 29.115 29.206 29.681 29.206 29.368 29.453 29.159 29.168 28.988 28.855 28.793 28.814 28.672 28.141 27.826 27.669 27.012 27.255 27.214 27.098 27.21 26.815 26.792 -9999 -9999 -9999 -9999 26.323 26.305 -9999 -9999 -9999 -9999 -9999 -9999 -9999 -9999 26.307 26.286 26.275 26.219 26.191 -9999 -9999 26.297 -9999 26.278 26.241 26.263 26.288 26.347 26.281 -9999 -9999 -9999 -9999 30.528 29.049 27.433 27.797 30.742 33.38 34.044 34.322 34.269 34.248 34.27 34.182 34.188 34.301 38.451 40.091 40.086 40.224 40.268 40.351 40.312 40.298 40.314 40.303 40.366 40.368 41.27 41.671 42.026 41.96 41.862 41.876 42.011 41.798 41.76 41.762 41.736 41.709 40.081 34.049 34.005 33.98 33.969 33.971 33.99 34.166 33.895 33.899 33.879 35.014 34.672 37.463 38.831 37.444 37.217 37.177 37.247 37.155 37.223 38.565 38.571 38.547 38.87 37.491 34.047 33.997 34.05 39.291 40.164 39.96 39.96 39.916 39.926 39.935 39.878 39.831 39.833 39.815 43.671 42.441 41.582 41.765 41.67 41.609 41.665 41.888 41.754 42.729 42.287 41.838 41.775 41.749
70.103 65.766 38.516 33.692 33.335 33.403 32.514 32.303 32.456 33.964 34.673 33.92 30.773 29.414 28.76 28.16 26.521 26.496 26.429 -9999 -9999 -9999 -9999 -9999 -9999 -9999 -9999 26.668 30.403 30.489 30.325 30.143 30.206 31.408 30.883 29.96 29.584 29.53 29.23 29.178 29.119 29.136 29.102 29.021 29.052 28.99 28.833 28.851 28.933 28.85 28.825 28.817 28.784 28.893 28.91 28.9 28.919 29.005 29.032 29.043 29.074 29.041 28.994 29.025 28.966 28.954 28.975 29.009 28.934 28.854 28.816 28.819 29.107 28.689 28.625 28.664 28.614 28.653 28.682 28.751 28.749 28.755 29.109 28.801 28.763 28.746 29.184 38.32 39.766 37.021 29.815 28.844 28.87 28.83 28.84 28.848 28.827 30.006 28.822 28.738 28.689 28.686 28.662 28.624 28.62 28.651 28.694 28.741 28.795 28.822 28.858 28.91 28.944 30.127 34.739 35.087 35.241 35.437 35.563 35.439 35.375 35.276 35.181 35.148 35.021 35.022 34.865 34.852 34.993 35.064 35.167 35.279 35.206 35.032 33.901 31.946 29.597 28.81 28.76 28.782 28.878 28.884 28.972 28.921 28.885 28.861 28.854 28.878 28.923 28.98 29.02 31.131 29.14 29.067 29.08 29.078 29.192 30.341 29.161 29.129 29.174 29.221 29.316 29.354 29.495 30.182 33.639 34.288 34.568 34.024 33.717 33.522 31.274 29.501 30.361 32.641 35.601 32.021 33.026 29.619 29.58 29.606 29.607 29.618 29.594 29.599 29.541 29.513 29.613 29.691 30.17 29.988 29.846 29.82 29.897 30.266 29.86 29.85 29.813 29.818 29.865 29.847 29.835 30.032 33.77 34.876 30.624 29.945 30.414 32.718 31.372 34.099 35.545 35.574 35.356 31.711 30.143 29.911 29.815 29.909 29.871 29.811 29.838 29.838 29.77 29.865 29.911 29.971 30.02 30.179 31.032 30.549 31.924 32.249 32.197 32.094 29.293 29.02 29.104 29.16 29.188 29.177 29.157 29.247 29.218 30.084 40.892 54.548 54.49 54.569 34.312 32.411 40.986 32.118 29.333 29.268 29.22 29.244 29.274 29.26 29.308 29.3 29.361 29.361 29.389 29.654 29.423 31.034 60.826 60.143 59.304 60.82 61.088 59.889 57.506 52.057 50.029 48.829 47.458 46.219 45.756 45.336 35.765 29.461 29.015 29.008 29.146 30.011 29.708 29.027 28.909 28.966 29.002 28.813 28.887 28.776 28.47 28.45 28.253 27.25 27.446 27.281 26.73 26.94 -9999 27.126 -9999 -9999 -9999 -9999 -9999 -9999 -9999 26.276 26.273 -9999 -9999 -9999 -9999 -9999 -9999 -9999 26.375 26.338 26.203 26.293 26.29 26.256 -9999 -9999 26.244 -9999 26.259 26.149 26.236 26.28 26.31 -9999 -9999 -9999 -9999 -9999 32.036 30.971 29.891 30.872 33.462 33.998 34.029 34.185 34.175 34.262 34.184 34.193 34.424 38.112 39.605 40.032 40.199 40.259 40.253 40.286 40.338 40.337 40.374 40.361 40.42 40.392 41.707 42.431 42.067 41.904 41.834 41.81 41.816 41.811 41.742 41.713 41.713 41.679 40.371 35.598 34.022 33.974 33.937 33.958 33.92 33.93 33.875 34.007 35.796 36.495 37.634 37.382 37.159 37.175 37.355 37.138 37.121 38.552 38.592 38.554 38.573 38.054 37.606 37.42 35.731 34.012 33.998 38.162 39.979 39.994 39.924 39.9 39.879 39.884 39.847 39.834 39.845 41.194 41.566 41.637 41.572 41.592 41.863 41.643 41.647 41.848 42.039 41.988 41.811 42.013 41.776 41.794
51.79 37.132 35.702 35.413 34.063 35.231 33.144 32.355 32.214 32.534 33.59 33.631 32.068 29.566 28.262 28.043 27.848 27.025 26.583 -9999 -9999 -9999 -9999 -9999 -9999 -9999 26.27 -9999 30.37 29.401 28.88 28.361 30.569 32.824 30.935 29.752 29.335 29.316 29.217 29.223 29.469 29.383 29.398 29.339 29.457 29.223 28.858 28.835 28.878 28.767 28.815 28.85 28.84 28.931 28.915 28.973 28.967 29.002 28.961 29.017 29.066 29.037 29.003 28.95 28.949 28.987 28.97 29.005 29.009 28.974 28.975 28.802 28.73 28.655 28.573 28.654 28.721 28.694 28.722 28.745 28.766 28.737 28.721 28.751 28.798 28.759 28.755 35.802 35.972 30.722 31.045 29.652 28.871 28.846 28.83 28.802 28.831 28.779 28.963 28.7 28.681 28.715 28.681 28.609 28.61 28.657 28.689 28.729 28.791 28.811 28.847 28.883 28.963 28.968 33.052 34.989 35.163 35.318 35.33 35.243 35.184 35.072 35.094 34.997 34.816 34.889 34.975 35.04 35.168 35.182 35.317 35.49 35.282 35.082 34.775 33.724 29.843 28.791 31.808 29.048 29.611 28.85 28.911 28.938 28.909 28.865 28.857 28.89 28.954 28.996 29.002 32.202 29.109 29.054 29.56 29.023 29.02 29.044 29.071 29.146 29.185 29.244 29.338 29.437 31.43 30.286 32.345 33.974 33.75 31.34 29.764 29.696 30.121 29.774 29.823 29.627 29.513 33.083 31.44 30.282 29.638 29.654 29.654 29.6 29.593 29.515 29.449 29.606 29.929 30.116 29.816 29.827 31.508 30.08 31.121 30.431 29.842 29.834 29.825 29.836 29.93 29.856 31.671 32.699 33.255 35.337 34.04 31.238 29.916 30.448 31.105 33.558 35.471 33.222 30.052 30.189 30.198 31.056 29.798 29.794 29.847 29.759 29.779 29.847 29.876 29.896 29.964 30.12 30.016 30.146 30.489 30.262 30.606 32.194 32.216 32.191 29.948 28.993 29.082 29.142 29.138 29.138 29.16 29.205 29.214 31.034 31.396 40.765 35.727 29.488 29.513 29.071 29.208 29.236 29.228 29.234 29.239 29.287 29.283 29.276 29.271 29.473 29.4 29.393 29.944 44.684 52.83 58.764 58.243 57.255 56.399 56.425 58.053 57.298 53.033 49.52 48.104 47.486 46.048 44.584 43.576 33.139 31.351 29.542 29.079 29.047 29.184 29.325 29.542 28.995 28.823 28.98 28.753 28.776 28.744 28.584 27.968 27.351 28.053 27.589 27.526 27.164 26.939 27.077 -9999 -9999 -9999 -9999 -9999 -9999 -9999 -9999 -9999 -9999 -9999 -9999 -9999 -9999 -9999 -9999 -9999 26.385 26.393 26.38 26.28 26.33 26.32 26.276 -9999 26.218 26.226 26.229 -9999 26.196 -9999 -9999 -9999 26.253 -9999 -9999 26.511 27.387 33.075 33.538 33.898 33.488 33.656 34.027 34.14 34.105 34.122 34.158 34.241 36.762 38.969 39.087 40.236 40.095 40.241 40.268 40.284 40.307 40.347 40.359 40.366 40.39 40.501 42.396 42.124 42.674 42.963 41.837 41.838 41.769 41.778 41.783 41.766 41.721 41.714 41.711 41.705 36.855 34.012 33.949 33.962 33.915 33.931 33.869 34.321 36.109 36.222 36.948 37.658 37.273 37.238 37.111 37.158 38.077 38.487 39.615 38.575 38.016 37.579 37.396 37.39 37.5 38.447 37.136 34.072 37.153 39.973 39.937 39.908 39.864 39.882 39.84 39.818 39.986 41.351 41.52 41.507 41.792 41.634 41.615 41.628 41.945 41.72 41.745 41.885 41.853 42.392 41.904 42.009 41.761
41.845 35.558 35.67 35.713 35.189 34.406 33.79 32.55 32.265 32.239 32.179 31.736 30.678 29.53 28.799 28.151 28.207 27.921 -9999 -9999 -9999 -9999 -9999 -9999 -9999 -9999 26.362 26.408 28.446 29.113 27.621 27.605 30.252 30.849 30.484 29.398 29.083 29.154 29.297 29.32 29.396 29.31 30.334 30.013 29.709 29.397 29.004 28.822 28.817 28.767 28.858 28.905 28.932 28.938 28.932 28.947 28.905 28.928 29.027 28.999 29.012 28.983 29.042 29.046 28.93 28.953 29.02 29.048 29.036 29.041 29.109 29.046 28.794 28.627 28.5 28.601 28.709 28.696 28.726 28.752 28.775 28.744 28.962 28.957 28.81 28.807 28.767 28.673 28.806 29.592 30.075 28.849 28.885 28.848 28.838 28.8 28.804 28.788 29.188 28.729 28.709 28.698 28.687 28.627 28.596 28.618 28.662 28.736 28.745 28.808 28.819 28.885 28.93 29.002 29.805 34.856 35.081 35.236 35.161 35.11 35.033 34.912 34.816 34.916 34.963 35.088 35.157 35.271 35.282 35.414 35.506 35.561 35.341 35.14 35.018 33.939 32.706 29.76 31.019 36.284 28.879 28.794 28.89 28.95 29.126 28.932 28.904 29.056 32.132 30.533 29.01 30.158 29.055 29.052 28.986 28.967 28.956 28.983 29.058 29.126 29.198 29.243 29.392 29.494 30.633 31.665 29.658 31.23 29.806 29.752 30.092 29.944 29.743 29.567 29.519 29.563 29.576 29.555 29.602 29.631 29.606 29.63 29.74 29.544 29.524 29.553 30.141 29.896 29.758 29.814 29.807 29.806 29.819 29.825 29.998 30.676 29.86 29.842 29.827 29.846 30.383 29.95 32.609 32.714 32.824 35.27 34.906 30.485 29.817 29.855 29.869 29.906 30.762 29.94 29.934 29.864 30.859 35.173 29.769 29.8 29.858 29.808 29.774 29.817 29.939 29.969 29.962 29.951 29.925 30.105 30.359 30.369 30.057 31.501 31.855 31.472 29.23 28.898 29.033 29.087 29.135 29.147 29.162 29.146 29.207 29.203 29.944 29.373 29.241 29.189 29.486 29.176 29.186 29.218 29.243 29.214 30.192 30.326 30.208 29.314 29.524 30.272 29.933 42.571 43.894 59.95 57.191 57.064 55.882 54.846 54.076 53.513 53.576 52.716 52.257 48.442 46.118 45.495 44.717 43.032 41.049 32.856 30.797 29.44 28.923 29 29.011 29.195 29.244 28.737 28.761 28.778 28.746 28.74 28.663 28.436 27.996 27.843 -9999 -9999 -9999 -9999 -9999 -9999 -9999 -9999 -9999 -9999 -9999 -9999 -9999 -9999 -9999 -9999 -9999 -9999 -9999 -9999 -9999 -9999 -9999 26.379 26.388 -9999 -9999 -9999 -9999 -9999 -9999 -9999 26.228 -9999 -9999 -9999 -9999 -9999 26.273 31.078 26.266 32.528 32.934 33.322 34 34.3 34.191 33.936 34.29 34.21 34.2 34.135 34.202 34.951 37.984 38.813 38.834 39.273 39.922 40.167 40.271 40.259 40.304 40.351 40.41 40.397 40.398 41.622 42.123 42.08 42.726 42.548 42.181 41.831 41.814 41.803 41.743 41.762 41.717 41.693 41.698 41.678 35.286 34.162 33.992 33.932 33.913 33.902 33.846 33.832 33.885 36.128 36.61 36.563 37.278 37.325 37.214 37.088 37.305 38.428 45.405 47.684 38.872 38.339 37.727 37.488 38.028 38.394 38.355 37.489 37.43 38.761 42.072 39.911 39.902 39.843 39.879 39.798 40.65 41.496 41.783 41.806 41.603 41.596 41.914 41.66 41.699 41.899 41.818 41.807 41.859 42.079 42.027 42.134 41.826 41.829
35.551 35.445 35.57 35.697 35.835 35.389 34.188 33.102 32.36 32.213 32.214 31.849 31.126 29.949 29.055 28.885 28.821 28.53 28.536 -9999 -9999 -9999 -9999 -9999 -9999 -9999 -9999 27.09 31.296 31.429 28.346 28.678 29.434 29.934 30.01 29.557 29.202 29.082 29.419 30.079 30.201 30.22 30.607 30.279 29.909 29.583 29.204 28.827 28.8 28.773 28.874 28.878 28.949 28.924 28.919 28.913 28.878 28.936 29.013 28.949 28.925 28.983 29.115 28.962 28.937 28.988 29.03 29.052 29.056 29.036 29.089 29.692 29.018 28.675 28.594 28.624 28.794 28.769 28.7 28.774 28.757 28.978 29.732 29.164 28.776 28.791 28.78 28.762 28.76 28.769 28.802 28.823 28.852 28.842 28.843 28.807 28.827 28.797 28.759 28.727 28.706 28.681 28.688 28.68 28.623 28.631 28.647 28.694 28.718 28.785 28.827 28.902 28.927 28.936 29.913 33.245 35.132 35.06 35.019 34.905 34.867 34.867 34.977 35.029 35.144 35.259 35.346 35.45 35.496 35.561 35.691 35.617 35.431 35.269 35.115 34.708 32.92 32.597 28.979 32.034 29.634 28.83 28.8 28.932 29.289 28.955 29.005 29.526 31.91 30.384 28.98 29.012 29.04 29.027 29.008 28.956 28.943 28.984 29.037 29.165 29.333 29.266 29.54 29.437 29.552 31.08 29.522 29.308 30.112 29.788 29.726 29.615 29.579 29.544 29.596 29.582 29.591 29.63 29.743 30.229 30.602 30.121 30.065 29.537 29.592 29.619 29.751 29.799 30.216 29.98 29.836 29.837 29.82 29.841 29.853 29.835 29.854 29.893 29.934 30.769 34.638 32.185 32.34 32.783 32.996 33.186 35.335 31.601 29.812 29.799 29.872 30.24 29.952 30.011 29.82 30.816 71.83 30.323 29.683 29.771 29.813 29.904 30.193 30.119 29.953 29.871 29.878 29.913 29.887 30.09 30.341 29.957 31.92 29.985 29.025 29.241 28.767 28.923 28.899 29.046 29.128 29.124 29.139 29.137 29.163 29.197 30.744 29.54 29.148 29.138 29.183 29.177 29.201 29.232 29.358 35.016 78.108 62.8 33.604 29.42 30.203 30.354 56.326 59.538 60.571 57.883 56.942 55.787 53.73 52.609 51.767 51.165 50.907 50.89 50.121 47.152 44.919 43.865 43.515 40.614 33.418 30.669 30.305 29.229 28.809 29.028 28.909 28.902 28.804 28.69 28.815 28.637 28.711 28.721 -9999 -9999 -9999 -9999 -9999 -9999 -9999 -9999 -9999 -9999 -9999 -9999 26.249 26.251 -9999 26.31 26.314 -9999 -9999 -9999 -9999 -9999 -9999 -9999 26.261 26.257 -9999 -9999 -9999 26.334 26.334 -9999 -9999 -9999 -9999 -9999 -9999 -9999 -9999 26.35 -9999 26.333 30.818 30.03 30.797 32.764 33.691 34.062 34.152 34.166 34.18 34.222 34.317 34.156 34.117 34.178 34.245 37.537 38.5 39.149 40.687 40.253 40.023 40.222 40.307 40.349 40.338 40.377 40.411 40.46 41.636 42.021 41.897 41.87 41.999 41.831 41.826 41.798 41.8 41.737 41.729 41.716 41.774 41.672 40.112 34.316 34.199 34.188 34.018 33.918 33.847 33.838 33.821 33.881 35.963 37.742 36.66 36.47 37.057 36.944 38.58 42.41 45.8 49.763 51.098 50.864 41.974 38.334 38.206 38.256 38.459 38.242 38.021 37.822 47.757 56.34 53.517 40.059 39.83 39.858 39.86 41.184 41.76 41.59 41.622 41.742 41.632 41.64 41.785 41.919 41.679 41.745 41.951 41.83 41.787 41.806 42.004 42.447 42.105 41.923
35.499 35.496 35.49 35.68 35.765 35.843 34.874 33.661 32.755 32.293 32.13 32.037 31.708 30.942 29.786 29.283 28.964 28.661 28.547 -9999 -9999 -9999 -9999 -9999 -9999 -9999 -9999 31.543 31.495 31.63 -9999 28.092 27.527 27.474 29.606 29.957 29.352 29.109 29.354 31.372 31.164 30.987 30.842 30.455 30.091 29.793 29.466 29.071 28.847 28.833 28.845 28.876 28.869 28.913 28.87 28.914 28.875 28.939 28.954 28.972 29.317 29.058 29.124 28.98 28.981 29.06 29.102 29.059 29.038 29.032 29.058 29.274 29.069 28.87 28.765 28.768 28.866 28.902 28.883 28.89 28.777 28.784 29.177 29.164 28.776 28.822 28.802 28.751 28.744 28.725 28.798 28.797 28.854 28.853 28.849 28.833 28.819 28.784 28.808 29.18 28.737 28.69 28.712 28.678 28.65 28.604 28.68 28.702 28.723 28.781 28.821 28.872 28.905 28.944 28.997 29.413 34.81 34.911 34.897 34.91 34.965 35.039 35.143 35.257 35.342 35.427 35.53 35.646 35.698 35.743 35.815 35.699 35.548 35.39 35.177 35.028 34.024 32.07 29.106 28.871 28.781 28.794 28.829 28.868 30.313 31.28 31.727 31.88 28.983 28.921 28.986 28.943 28.985 29.021 28.997 28.959 28.948 29.012 31.252 32.434 32.133 29.377 29.443 29.532 29.515 33.23 30.803 31.17 29.715 29.597 29.605 29.605 29.614 29.602 29.638 29.604 29.611 30.151 29.831 30.945 29.566 29.238 29.342 30.099 29.671 29.693 29.684 29.845 29.747 29.803 29.827 29.834 29.845 29.844 29.913 30.066 31.477 31.637 32.305 30.83 33.72 34.142 30.112 32.679 31.601 30.591 34.119 31.475 30.135 29.873 29.853 29.822 29.735 29.772 29.765 29.742 29.733 29.683 30.334 30.35 29.782 31.385 31.692 30.026 29.823 29.794 29.798 29.932 29.761 29.964 31.514 29.475 29.384 31.656 30.349 31.201 28.994 28.924 29.269 29.011 29.097 29.139 29.092 29.109 29.149 29.16 29.58 29.589 29.154 29.171 29.188 29.174 29.211 29.272 30.957 63.144 78.262 76.656 41.688 30.211 43.551 62.918 67.979 66.386 58.726 55.714 54.618 53.485 51.69 50.719 49.561 48.784 48.433 48.645 47.899 46.881 44.523 42.243 41.636 33.332 30.4 29.975 29.266 28.813 28.929 29.033 28.824 28.945 28.827 28.607 28.668 28.698 -9999 -9999 -9999 -9999 -9999 -9999 -9999 -9999 -9999 -9999 -9999 -9999 -9999 -9999 26.248 26.248 -9999 -9999 26.314 26.262 -9999 -9999 -9999 -9999 26.305 -9999 -9999 -9999 26.235 26.226 -9999 -9999 -9999 -9999 -9999 -9999 -9999 -9999 -9999 -9999 26.317 31.509 31.328 31.269 30.785 28.209 31.033 33.358 33.964 34.074 34.262 34.257 34.243 34.24 34.18 34.107 34.115 34.572 37.156 38.632 39.761 39.752 39.731 40.312 40.194 40.295 40.371 40.317 40.378 40.382 40.603 43.021 41.903 41.91 41.856 41.88 41.826 41.802 41.758 41.735 41.737 41.731 41.715 41.695 41.564 36.417 34.342 34.211 34.217 34.761 34.471 33.856 33.83 33.822 35.56 37.46 38.804 40.173 38.689 36.477 36.415 36.679 45.771 50.191 51.543 51.483 50.962 50.762 50.654 46.905 38.43 38.37 38.206 37.93 38.504 53.439 58.698 56.31 53.434 42.803 39.89 39.899 40.462 41.527 41.717 41.757 41.61 41.633 41.861 41.694 41.71 41.92 41.811 41.78 41.74 42.008 41.784 41.75 41.774 41.95 42.458 41.832
35.58 35.491 35.439 35.959 35.69 35.856 35.934 34.643 33.719 33.507 32.172 32.103 32.029 31.428 30.461 29.534 29.104 28.645 28.516 27.155 -9999 -9999 -9999 -9999 -9999 -9999 30.969 31.639 31.673 -9999 -9999 27.878 27.624 27.555 28.712 30.357 29.586 29.043 29.445 30.912 31.593 31.339 31.056 30.776 30.484 30.155 29.747 29.352 29.042 28.969 28.889 28.819 28.884 28.907 28.934 28.894 28.862 28.936 28.91 28.899 29.026 29.072 29.12 29.27 29.109 29.186 29.081 29.061 29.106 31.148 29.6 29.398 29.051 29.01 28.932 28.939 28.923 28.952 29.393 28.926 28.82 28.808 28.845 29.142 28.945 28.793 28.819 28.764 28.789 28.728 28.749 28.765 28.838 28.835 28.874 28.823 28.823 28.817 28.818 28.8 28.964 28.719 28.709 28.68 28.684 28.667 28.661 28.708 28.719 28.819 28.828 28.903 28.905 28.895 28.959 29.04 34.183 34.896 34.984 35.062 35.14 35.191 35.315 35.379 35.539 35.599 35.698 35.767 35.858 35.932 35.998 35.796 35.591 35.46 35.24 35.03 34.859 33.449 29.527 28.872 28.768 28.842 28.902 28.867 28.873 32.16 30.31 30.139 28.926 28.856 28.892 28.913 28.98 29.006 29.029 29.03 28.951 28.971 29.045 31.268 33.061 29.645 29.531 29.547 29.8 36.368 37.373 33.257 29.626 29.547 29.588 29.63 29.613 29.64 29.616 29.76 30.726 29.885 30.037 29.332 28.86 28.962 28.826 29.641 30.594 29.708 29.694 29.668 29.715 29.786 29.868 29.853 29.919 31.78 31.088 31.715 30.293 30.414 32.085 32.109 30.916 31.167 29.947 30.705 30.337 30.113 30.237 29.951 30.108 29.792 29.801 29.715 29.71 29.735 29.737 29.726 29.781 30.315 30.582 30.663 29.763 30.162 33.99 30.243 29.722 29.751 30.167 50.087 30.205 29.763 30.193 30.139 29.715 32.111 28.939 29.547 28.967 32.892 30.172 28.937 29.053 29.096 29.081 29.075 29.107 29.164 29.153 29.42 29.183 29.168 29.174 29.207 29.222 52.869 69.15 73.602 66.379 51.224 70.525 59.213 67.372 65.794 64.897 63.83 59.691 53.402 51.869 50.971 50.206 48.914 47.637 46.636 46.389 46.472 45.848 44.687 36.139 37.35 32.531 30.098 29.158 28.64 28.456 28.652 28.981 29.028 28.888 28.853 28.75 28.491 27.534 -9999 -9999 -9999 -9999 -9999 -9999 -9999 -9999 -9999 -9999 -9999 -9999 -9999 -9999 -9999 -9999 -9999 26.342 26.339 -9999 26.237 -9999 -9999 -9999 -9999 26.309 -9999 -9999 26.305 26.37 26.288 -9999 -9999 -9999 -9999 -9999 -9999 -9999 -9999 -9999 31.523 26.613 31.05 30.589 31.902 32.994 32.974 33.416 33.377 33.633 34.283 34.355 34.448 34.329 34.194 34.125 34.213 35.882 37.384 38.602 40.426 39.956 39.888 40.31 40.279 40.361 40.336 40.22 40.041 40.455 41.523 42.009 41.879 41.871 41.863 41.821 41.764 41.785 41.794 41.773 41.754 41.723 41.731 41.699 40.128 35.224 35.945 35.019 34.188 34.021 34.253 33.879 34.946 35.437 35.92 38.594 39.64 40.918 42.204 43.066 41.152 36.996 48.318 51.613 51.519 51.359 51.025 50.713 50.575 50.445 48.1 40.476 38.304 37.948 47.931 59.275 59.648 59.153 56.071 56.358 54.61 40.602 40.269 40.532 40.451 41.587 41.843 41.625 41.617 41.754 41.805 41.773 41.751 41.979 41.842 41.792 41.812 41.888 41.692 41.722 41.957 41.742 42.453
35.517 35.454 35.466 35.49 35.622 35.796 35.902 35.907 34.219 33.411 32.379 32.222 32.15 31.883 31.332 30.218 29.382 28.929 28.987 28.647 28.643 -9999 -9999 -9999 -9999 -9999 28.953 31.768 31.644 -9999 -9999 -9999 28.104 27.707 27.647 29.893 30.519 29.144 29.16 29.636 31.177 31.636 31.442 31.17 30.838 30.5 30.064 29.672 29.348 28.971 28.878 28.815 28.88 28.868 28.917 28.85 28.806 28.866 28.865 28.919 29.029 29.637 29.384 29.229 29.101 29.108 29.049 29.065 29.086 31.183 30.708 29.636 29.054 29.752 29.213 29.062 30.753 31.475 30.974 28.908 28.838 30.108 29.631 29.369 29.178 28.801 28.827 28.759 28.724 28.715 28.736 28.78 28.834 28.831 28.86 28.859 28.856 28.815 28.822 28.772 29.18 28.791 28.756 28.688 28.69 28.71 28.68 28.742 28.776 28.836 28.873 28.869 28.905 28.975 29.087 33.688 34.969 35.073 35.162 35.233 35.366 35.391 35.478 35.54 35.668 35.758 35.858 35.951 36.063 36.366 36.082 35.839 35.729 35.506 35.337 35.153 34.969 33.805 29.869 28.941 28.905 28.853 28.977 28.978 28.971 29.046 29.364 28.98 28.911 28.809 28.823 28.863 28.956 28.952 29.033 29.257 29.015 29.059 29.251 34.683 30.563 30.736 29.574 29.625 29.487 29.421 29.482 29.529 29.595 29.637 29.713 29.618 29.618 30.01 30.875 30.548 30.163 29.345 28.895 28.768 28.867 28.893 28.714 28.561 29.745 29.714 29.729 29.733 29.759 29.814 29.888 29.864 29.906 31.802 30.09 31.496 30.903 30.998 31.975 31.647 30.774 29.989 30.097 29.92 30.242 30.405 29.852 29.791 29.749 29.727 29.74 29.739 29.701 29.754 30.269 30.61 30.077 30.904 29.874 31.575 36.503 63.9 48.268 31.403 30.368 30.53 57.259 49.362 37.16 29.666 29.952 30.669 30.679 31.014 29.768 28.785 32.534 33.789 28.985 28.871 28.971 29.082 29.079 29.06 29.088 29.113 29.13 29.555 29.745 29.531 29.202 29.195 29.294 60.764 72.764 70.722 68.862 70.05 68.439 67.074 65.978 62.903 61.916 61.166 58.51 52.354 49.658 48.986 48.057 46.966 46.185 45.205 44.634 44.65 36.479 31.106 29.453 28.951 28.84 28.955 28.763 27.893 28.017 28.588 28.843 28.878 28.921 -9999 -9999 27.199 -9999 -9999 -9999 -9999 -9999 -9999 -9999 -9999 -9999 -9999 -9999 -9999 -9999 -9999 -9999 -9999 -9999 -9999 26.34 26.341 26.264 26.272 26.275 -9999 -9999 26.329 26.342 26.333 26.337 26.374 26.595 -9999 -9999 -9999 -9999 26.291 28.873 29.051 29.35 29.73 30.553 31.393 31.964 32.015 32.127 32.819 34.095 34.23 33.856 33.743 34.182 34.214 34.323 34.33 34.185 34.155 35.097 36.465 37.56 40.209 38.965 39.771 40.063 40.075 40.297 40.306 40.277 40.19 39.944 39.85 41.795 41.923 41.899 41.862 41.822 41.852 41.844 41.804 41.768 41.725 41.727 41.732 41.733 41.687 37.514 34.278 35.95 36.558 34.285 33.954 33.896 33.848 33.979 36.384 37.731 39.067 40.286 41.482 43.017 44.271 45.879 45.059 50.303 51.548 51.471 50.976 50.763 50.605 50.467 50.349 50.059 49.8 46.24 38.595 40.77 56.074 58.592 59.565 56.959 55.93 55.927 56.289 45.505 43.429 40.545 40.594 41.368 41.636 41.921 41.742 41.745 41.927 41.848 41.76 41.827 42.048 41.72 41.717 41.756 41.778 41.649 41.642 41.798 41.839
35.443 35.535 35.474 35.445 35.47 35.727 35.998 35.955 35.45 34.105 34.962 32.811 32.22 32.171 32.135 31.556 30.3 29.801 29.3 28.368 28.721 -9999 -9999 -9999 -9999 28.434 27.113 30.757 31.431 -9999 -9999 -9999 31.121 29.003 29.426 30.322 30.749 29.743 29.031 29.037 30.666 32.021 31.825 31.464 31.118 30.74 30.339 30.084 29.626 29.262 28.901 28.953 28.938 28.967 28.834 28.886 28.88 28.848 28.885 29.126 29.149 29.045 29.089 29.105 29.121 29.124 29.039 29.174 29.062 30.297 31.021 29.363 30.851 31.529 30.448 31.513 31.499 31.409 29.628 28.86 28.793 30.912 30.873 28.968 29.359 28.841 28.797 28.771 28.76 28.721 28.759 28.764 28.813 28.811 28.822 28.836 28.821 28.809 28.8 28.778 28.797 29.102 28.756 28.684 28.734 28.735 28.718 28.756 28.776 28.861 28.844 29.126 32.107 32.074 34.417 35.095 35.185 35.265 35.309 35.41 35.519 35.576 35.67 35.728 35.754 35.903 36.141 36.362 36.507 36.641 36.428 35.97 35.756 35.603 35.432 35.233 35.079 34.251 33.32 29.208 28.933 28.915 29.03 29.345 29.091 29.058 29.208 32.348 29.227 28.825 28.822 28.903 28.961 28.983 29.905 29.369 29.132 30.035 30.038 36.944 31.043 29.665 29.615 29.553 30.3 30.129 29.619 29.591 29.697 29.61 29.625 29.61 29.629 29.603 29.653 29.951 29.031 29.988 29.067 28.846 28.885 28.917 28.464 28.332 29.305 29.713 29.747 29.737 29.768 29.805 29.896 30.985 31.532 31.509 30.323 29.887 31.854 32.02 30.628 31.822 32.811 29.948 30.049 29.864 30.352 29.777 29.753 29.747 29.704 29.734 29.987 29.922 29.864 29.721 57.575 30.509 30.196 30.617 54.538 60.614 67.6 67.362 47.778 56.241 40.557 62.954 61.188 47.914 48.016 29.625 29.66 30.186 30.385 30.423 32.828 28.864 28.805 30.773 28.931 28.892 28.92 29.03 29.079 29.072 29.066 29.082 29.112 29.111 30.538 29.292 29.279 29.005 51.691 57.775 69.891 67.681 65.723 66.046 65.158 63.792 61.419 60.153 58.915 58.053 57.492 50.585 47.813 46.385 45.704 44.765 43.614 40.433 33.328 30.273 29.964 29.041 28.895 28.693 28.781 28.794 28.592 28.27 28.061 28.384 28.684 28.844 -9999 -9999 -9999 -9999 -9999 -9999 -9999 -9999 -9999 -9999 -9999 -9999 -9999 -9999 -9999 -9999 -9999 -9999 -9999 -9999 -9999 26.313 26.314 -9999 26.254 26.309 -9999 -9999 -9999 -9999 26.337 -9999 -9999 27.122 26.878 28.422 27.724 -9999 26.32 28.92 28.185 28.627 28.419 28.714 30.084 31.888 32.845 33.146 33.523 33.476 34.133 34.173 34.05 34.167 34.136 34.16 34.175 34.158 34.142 34.479 40.578 40.504 41.502 40.26 40.25 39.864 40.146 40.332 40.368 40.346 40.469 39.926 39.777 41.72 42.753 41.927 41.852 41.838 41.832 41.792 41.779 41.78 41.734 41.719 41.713 41.704 41.54 36.345 34.692 34.695 34.944 35.019 34.338 33.87 33.853 34.876 36.992 38.48 39.724 41.306 42.609 43.786 45.039 46.817 49.604 51.115 51.538 51.104 50.89 50.656 50.54 50.342 50.175 49.932 49.725 49.417 47.368 46.057 39.856 48.502 56.252 56.25 55.919 55.971 55.985 56.001 55.993 42.292 40.374 40.538 40.511 41.64 41.846 41.972 41.759 41.758 42.051 41.761 41.738 41.74 41.773 41.675 41.652 41.866 41.629 41.572 41.643 41.638
35.596 35.584 35.572 35.451 35.45 35.574 35.771 35.82 45.138 40.327 36.38 33.757 32.646 32.239 32.082 31.724 30.891 29.65 29.374 28.891 28.873 29.018 -9999 -9999 -9999 31.546 31.455 28.042 28.511 -9999 -9999 -9999 31.124 30.447 30.762 31.406 31.253 30.295 29.011 29.003 29.883 31.827 31.97 31.708 31.284 30.936 30.589 30.314 29.935 29.569 29.243 29.026 28.965 28.965 28.96 28.961 29.081 29.08 29.067 29.04 29.079 29.057 29.183 29.093 29.109 29.094 29.057 29.074 29.077 29.049 29.984 29.096 29.788 31.594 30.307 31.477 29.705 29.224 28.885 28.861 28.79 28.856 31.215 29.745 28.986 29.06 28.762 28.787 28.788 28.755 28.741 28.747 28.794 28.827 28.854 28.824 28.857 28.816 28.807 28.754 29.365 29.424 28.843 28.805 28.771 28.774 28.753 28.782 28.84 28.961 33.177 34.887 34.994 35.127 35.166 35.243 35.322 35.44 35.544 35.579 35.709 35.76 35.859 35.923 36.031 36.259 36.48 36.667 36.924 36.876 36.535 36.174 35.847 35.674 35.514 35.337 35.196 34.981 34.331 30.86 29.086 29.284 29.904 29.096 29.204 29.174 31.667 32.523 29.822 28.881 28.852 28.929 28.983 29.033 29.242 29.666 30.479 30.355 30.48 30.929 30.27 29.594 29.598 29.581 29.625 29.614 29.611 29.659 29.624 29.593 29.527 29.495 29.632 30.05 29.791 31.892 30.298 29.039 28.873 28.969 28.97 28.402 28.554 28.544 29.437 29.726 29.656 29.735 29.77 29.846 29.925 30.459 30.125 30.766 31.578 31.063 32.116 31.679 31.67 31.165 29.974 30.055 30.37 29.769 29.722 29.728 29.711 29.679 29.711 29.716 29.719 29.62 57.497 50.042 29.962 30.159 50.468 64.173 68.971 68.857 67.995 68.457 68.3 59.534 67.897 67.183 41.985 62.949 61.213 37.759 29.564 29.707 30.295 30.388 30.925 28.959 28.851 31.812 31.973 28.861 28.903 29.002 29.049 29.076 29.061 29.062 29.044 29.069 29.076 30.046 38.751 59.541 64.811 68.205 66.68 65.193 63.236 61.838 60.876 59.3 58.032 56.902 56.062 55.024 54.403 52.284 47.078 43.897 42.188 39.473 32.869 29.576 29.293 29.468 29.108 28.855 28.674 28.391 28.487 28.666 28.539 28.133 26.398 -9999 -9999 -9999 -9999 -9999 -9999 -9999 -9999 -9999 -9999 -9999 -9999 -9999 -9999 -9999 -9999 -9999 -9999 -9999 -9999 -9999 26.316 -9999 26.312 26.305 26.3 -9999 -9999 26.364 -9999 -9999 -9999 -9999 -9999 -9999 -9999 -9999 30.158 30.52 26.88 26.914 29.722 28.544 27.19 28.516 28.821 30.949 31.378 33.082 33.044 33.393 33.485 33.625 34.008 34.127 34.178 34.134 34.147 34.16 34.228 34.255 34.18 36.793 37.556 41.456 40.524 40.263 40.312 40.304 40.314 40.363 40.367 40.377 40.38 41.293 41.725 41.896 42.882 42.035 41.837 41.805 41.793 41.781 41.76 41.947 41.723 41.694 41.721 39.312 37.209 37.144 35.586 34.428 34.241 34.001 33.824 33.892 36.49 38.06 39.315 40.734 41.666 43.161 44.684 46.061 49.468 51.577 51.56 51.486 50.869 50.764 50.605 50.49 50.272 50.067 49.827 49.467 49.266 48.813 48.38 47.846 40.505 40.194 55.538 56.065 55.959 55.992 55.957 47.974 53.352 47.545 41.577 40.451 40.658 40.493 41.496 41.972 41.929 41.767 41.805 41.986 41.73 41.7 41.895 41.887 41.619 41.619 41.864 41.57 41.56 41.399
35.552 35.561 35.451 35.52 35.567 35.511 51.137 54.74 67.494 48.632 44.073 34.077 32.949 32.308 32.114 31.95 31.668 30.176 29.42 29.237 28.935 28.909 26.477 -9999 -9999 31.84 31.709 28.623 -9999 -9999 -9999 -9999 -9999 30.419 31.044 31.326 30.683 31.105 29.535 29.014 28.95 29.898 30.798 31.271 29.013 31.177 30.779 30.508 30.171 29.842 29.434 29.09 28.972 28.999 29.047 29.281 29.161 29.054 29.491 29.238 29.059 29.083 29.063 29.076 29.037 29.092 29.059 29.083 29.067 29.04 29.15 30.012 29.195 31.064 29.335 29.274 28.997 28.966 28.924 28.816 28.778 28.805 29.23 29.031 28.742 28.849 29.078 28.792 28.806 28.772 28.784 28.77 28.774 28.781 28.833 28.836 28.84 28.852 28.804 28.79 29.698 30.676 29.456 28.849 28.804 28.802 28.811 28.829 29.052 34.251 34.983 35.083 35.175 35.282 35.312 35.448 35.485 35.611 35.69 35.761 35.853 35.996 36.181 36.371 36.582 36.645 36.867 37.082 37.288 37.13 36.764 36.358 35.987 35.802 35.584 35.389 35.257 35.106 34.688 33.462 31.793 29.101 29.987 29.763 29.303 29.32 29.335 29.847 32.247 32.358 29.076 28.776 29.329 36.772 35.048 32.114 29.905 29.824 29.731 29.681 29.622 29.617 29.625 29.612 29.648 29.623 29.6 29.595 29.557 29.553 29.608 29.682 29.863 29.902 33.698 34.759 36.782 31.01 29.783 29.586 29.657 28.725 29.023 29.751 30.525 29.896 29.711 29.706 29.75 29.832 30.766 30.468 30.129 30.196 31.511 31.572 31.466 31.902 30.703 30.957 29.998 29.769 29.721 29.718 29.689 29.702 29.666 29.727 29.7 29.544 29.288 30.599 65.886 35.581 44.317 65.038 68.492 68.295 68.925 68.921 68.867 66.228 68.246 68.335 65.92 66.408 47.557 62.154 42.002 56.276 30.188 29.604 29.851 30.247 30.464 32.443 30.102 31.021 30.118 28.786 29.028 28.925 29.021 29.062 29.043 29.046 29.057 29.041 29.112 50.778 63.312 68.953 67.572 65.822 64.044 62.591 60.936 59.242 57.485 56.221 55.226 54.43 53.431 52.103 51.271 50.883 37.565 30.591 29.82 29.753 29.09 28.873 28.728 28.71 28.755 28.777 28.446 27.671 28.019 28.374 28.477 27.679 -9999 -9999 -9999 -9999 -9999 -9999 -9999 -9999 -9999 -9999 -9999 -9999 -9999 -9999 -9999 -9999 -9999 -9999 -9999 -9999 -9999 26.319 26.323 26.316 26.313 26.303 -9999 26.205 26.301 -9999 -9999 -9999 -9999 -9999 -9999 -9999 -9999 27.74 28.534 31.622 29.948 27.449 30.916 29.691 28.432 30.979 32.694 32.848 32.269 32.574 33.068 33.546 33.609 33.746 33.857 34 34.111 34.146 34.185 33.876 33.612 33.847 34.186 34.422 37.953 38.333 38.949 39.427 39.916 40.248 40.392 40.417 40.438 40.431 42.01 42.006 41.943 41.86 41.884 41.841 41.773 41.806 41.756 41.794 41.719 42.932 42.032 41.603 37.712 37.201 37.17 37.091 35.225 33.968 33.854 33.788 35.379 37.184 38.806 39.912 41.307 42.653 43.9 45.108 46.713 50.256 51.59 51.492 51.114 50.873 50.667 50.545 50.33 50.19 49.904 49.688 49.296 49.04 48.637 48.086 47.699 47.2 44.701 39.928 43.107 56.167 56.114 56.037 56.029 55.765 53.374 56.284 46.194 43.273 40.619 40.773 40.93 41.788 41.962 41.793 41.727 41.917 41.758 41.659 41.602 41.84 41.609 41.571 41.712 41.626 41.349 40.342
