ncols 447
nrows 31
xllcorner    429036
yllcorner    430622
cellsize     2
NODATA_value -9999
77.539 76.805 76.033 72.843 73.584 72.858 72.111 72 71.773 71.686 71.607 71.793 71.707 72.364 76.106 78.922 81.697 80.081 76.75 71.602 70.773 70.765 70.626 70.536 71.401 70.483 70.683 70.913 70.829 71.096 71.403 70.224 72.397 69.528 69.032 69.194 70.286 69.423 68.702 72.05 69.419 70.33 68.512 67.984 68.173 67.857 67.705 67.519 67.422 67.384 67.364 67.908 67.346 71.368 72.94 72.913 73.224 68.481 67.98 68.095 67.945 67.928 67.914 68.501 67.588 67.324 67.882 67.193 70.191 72.995 73.673 73.204 71.168 67.972 68.074 67.41 67.359 67.311 67.44 68.592 67.147 67.028 67.1 66.979 66.932 66.909 66.852 66.819 66.778 66.76 67.469 66.75 66.405 67.73 70.847 71.853 72.458 73.134 73.857 74.264 73.838 73.444 72.732 71.516 68.538 66.606 66.227 66.057 65.862 65.772 65.675 65.696 65.691 65.643 65.644 65.601 65.5 65.483 65.631 65.948 65.893 65.379 65.375 66.427 66.298 66.08 66.209 65.569 68.16 69.212 71.737 72.837 73.687 74.047 72.927 69.037 65.467 64.992 65.753 65.508 64.811 65.277 64.979 65.509 65.636 65.109 69.117 72.94 74.183 73.567 72.494 67.115 65.179 64.845 65.772 66.314 67.041 64.533 68.787 76.138 78.933 81.143 78.179 81.38 81.377 78.87 77.718 82.263 72.868 76.845 78.857 79.861 76.817 68.155 63.324 63.293 63.325 63.349 63.357 63.346 63.38 63.368 63.317 63.272 63.242 63.29 63.217 63.241 63.264 63.235 63.161 63.145 63.111 63.073 63.023 62.986 62.958 62.854 62.754 62.658 62.504 62.459 62.373 62.301 62.172 62.131 61.988 61.885 61.853 61.768 61.626 61.582 61.509 61.365 61.263 61.2 61.169 61.117 61.06 60.935 60.871 60.837 60.796 60.715 60.737 60.735 60.588 60.474 60.413 60.373 60.31 60.246 60.095 60.093 60.028 62.537 70.395 70.786 65.152 61.548 60.058 59.487 59.362 59.213 59.007 58.817 58.728 58.589 58.496 58.538 58.534 58.499 58.453 59.081 69.262 72.244 73.735 66.079 71.69 66.849 62.491 58.621 58.279 58.121 57.974 57.737 57.759 57.695 57.587 57.51 57.378 57.278 57.321 57.601 57.168 57.185 59.693 57.876 60.919 63.736 64.212 64.81 65.287 65.677 65.066 64.598 64.29 63.224 61.853 56.381 54.99 54.941 56.18 55.663 54.327 54.258 54.469 54.498 54.104 54.06 53.931 53.916 53.828 53.899 57.444 60.088 62.137 63.223 62.37 62.581 62.196 61.952 60.568 52.961 52.844 52.724 52.83 53.319 53.833 53.124 52.97 58.903 61.542 62.713 61.971 61.597 60.376 52.49 52.547 52.038 52.202 51.934 51.566 51.432 51.36 51.495 54.422 58.712 59.809 60.257 59.713 58.157 52.806 51.282 51.252 50.379 50.434 50.955 51.183 57.72 58.242 58.869 58.36 57.505 52.035 49.802 50.003 49.807 49.462 49.444 49.301 49.211 49.117 49.036 49.028 49.469 53.217 58.044 58.258 58.69 57.815 56.887 52.429 49.862 48.581 47.999 47.918 47.594 47.483 47.35 47.322 47.592 47.252 49.93 52.982 54.423 53.488 48.256 46.444 46.303 46.188 46.18 46.043 46.002 46.079 46.118 46.169 46.173 46.139 46.139 46.102 46.043 46.012 45.891 45.965 46.07 46.102 46.113 46.17 47.048 47.888 46.61 45.691 45.518 45.357 45.393 50.196 50.82 50.815 50.749 50.741 50.937 50.677 50.591 51.137 50.82 52.374 52.319 45.815 49.831 50.456 50.692 51.266 52.011 52.587 52.148 51.346 50.717 50.431 51.003 51.482 52.239 52.393 51.74 51.078 50.518 50.679
72.979 72.742 72.725 72.492 72.585 72.121 71.887 71.838 71.774 71.64 71.779 71.896 71.701 71.477 71.447 74.794 76.297 73.332 72.885 70.781 70.617 70.638 70.545 70.439 70.493 71.019 70.402 69.831 70.548 70.729 73.673 75.547 74.818 70.271 70.105 69.133 68.917 68.422 68.398 68.406 69.025 69.931 69.424 68.98 68.318 68.013 68.438 67.665 67.456 67.346 67.31 67.296 67.337 72.419 74.444 74.292 74.041 71.101 67.988 67.919 67.851 67.908 67.828 68.013 67.451 67.165 68.245 71.616 73.364 74.829 74.648 73.761 71.924 67.867 67.415 67.341 67.341 68.283 67.471 67.106 67.024 67.056 67.004 66.959 66.938 66.824 66.866 66.759 66.702 66.692 66.978 66.457 68.489 72.687 73.222 74.14 73.671 74.209 73.823 73.388 72.76 72.212 68.288 67.775 66.799 66.178 65.993 65.743 65.618 65.627 65.669 65.66 65.576 65.621 65.574 65.559 65.969 65.595 68.227 67.542 67.041 65.75 65.259 65.509 65.398 65.903 66.337 65.811 68.293 68.894 69.253 72.388 73.579 73.881 74.23 71.703 65.757 64.963 64.88 64.908 64.705 64.678 64.82 64.691 64.812 64.942 70.082 72.809 74.377 73.878 74.796 69.517 69.197 70.215 66.882 66.138 65.331 65.876 64.315 77.928 76.812 80.787 76.607 81.343 71.241 72.8 73.155 82.946 81.844 71.703 80.297 78.041 81.248 75.888 63.602 63.27 63.262 63.283 63.276 63.292 63.342 63.295 63.268 63.279 63.24 63.204 63.214 63.247 63.204 63.171 63.135 63.062 63.071 63.027 62.99 62.911 62.91 62.841 62.739 62.616 62.509 62.405 62.326 62.271 62.155 61.999 61.919 61.841 61.711 61.665 61.621 61.495 61.428 61.351 61.242 61.187 61.147 61.086 60.973 60.91 60.85 60.793 60.745 60.672 60.645 60.571 60.475 60.428 60.345 60.305 60.277 60.241 60.148 60.046 59.943 59.985 61.735 61.563 60.758 59.536 59.513 59.391 59.286 59.157 59.047 58.805 58.663 58.492 58.477 58.399 58.414 58.404 58.36 63.116 62.135 68.293 71.254 70.693 73.652 73.363 58.943 58.581 58.456 58.112 57.977 57.986 58.213 57.646 57.516 57.433 57.417 57.434 57.542 57.775 57.184 59.256 63.857 63.214 64.517 65.242 65.33 65.527 65.132 64.943 64.139 63.529 62.361 55.973 55.094 55.007 55.097 54.738 54.946 54.335 54.258 54.202 54.205 54.101 54.094 55.07 54.371 53.845 55.473 58.827 61.519 62.218 63.054 62.509 62.537 61.984 61.716 60.837 55.195 52.978 52.664 52.64 52.577 53.581 52.448 53.402 54.612 55.183 60.863 61.935 62.508 61.972 61.806 55.318 52.792 53.038 51.602 51.893 51.451 51.321 51.142 51.375 51.793 57.477 59.625 59.855 59.742 58.456 56.303 51.11 50.732 50.282 50.159 50.172 50.205 55.111 57.937 58.084 58.734 58.959 56.218 50.527 49.775 49.388 49.281 49.258 49.247 49.131 49.137 49.22 48.943 49.133 49.944 55.967 58.023 58.695 59.328 57.143 55.313 49.267 48.198 48.109 48.035 47.485 47.346 47.234 47.145 47.834 47.052 52.005 53.492 53.521 49.591 46.53 46.367 46.328 46.203 46.047 45.995 46.021 46.076 46.112 46.146 46.174 46.159 46.07 46.048 46.011 45.92 45.929 46.04 46.048 46.041 46.147 46.135 46.21 47.76 48.302 46.508 45.465 45.338 49.202 50.791 50.783 50.77 50.817 50.891 50.788 50.625 50.857 51.566 52.167 52.561 47.258 49.515 50.603 50.606 51.037 51.786 52.501 52.341 51.653 50.945 50.375 50.777 51.424 51.984 52.544 52.06 51.26 50.752 50.553 51.038
74.116 73.25 73.206 72.412 72.065 71.953 71.791 71.878 72.108 72.384 71.952 71.806 71.557 71.289 71.196 72.573 71.531 71.867 70.885 70.838 70.664 70.486 70.464 70.352 70.204 70.195 69.94 69.689 71.192 75.09 76.023 76.612 75.994 74.026 70.9 68.886 68.482 68.428 68.338 68.215 68.149 68.263 68.915 68.516 68.287 67.911 67.776 67.593 67.766 68.074 68.28 68.199 68.77 73.36 74.528 76.197 73.935 68.882 67.986 67.957 67.81 67.772 67.791 67.999 67.235 67.731 72.835 73.426 74.034 74.274 73.94 73.187 69.65 67.115 67.207 67.271 67.537 67.559 67.125 67.074 67.015 66.959 66.889 66.877 66.838 66.798 66.791 66.716 66.629 66.705 67.649 66.53 66.761 70.646 74.276 74.254 74.015 73.243 72.741 72.253 67.299 66.612 66.265 67.165 65.833 65.749 65.703 65.676 65.702 65.606 65.608 65.597 65.542 65.536 65.604 70.974 69.192 66.37 67.99 66.405 67.839 67.373 66.861 65.131 65.267 65.501 65.559 66.378 65.917 65.785 66.183 70.487 73.884 73.754 73.648 72.503 66.965 66.068 64.777 65.016 64.647 64.571 64.54 64.533 65.28 66.07 67.181 71.56 73.247 73.758 73.383 72.012 71.386 71.856 67.901 66.874 64.64 64.413 64.023 71.074 77.758 70.727 75.058 78.243 81.618 78.89 83.505 84.273 78.032 83.6 79.083 79.278 77.329 69.973 73.565 63.366 63.251 63.263 63.227 63.265 63.271 63.24 63.244 63.214 63.206 63.188 63.183 63.18 63.136 63.139 63.056 63.006 62.981 62.905 62.842 62.838 62.803 62.764 62.662 62.562 62.454 62.361 62.281 62.211 62.099 62.01 61.865 61.705 61.664 61.556 61.492 61.395 61.354 61.283 61.2 61.18 61.093 61.072 61.018 60.86 60.813 60.818 60.716 60.607 60.564 60.529 60.443 60.337 60.296 60.277 60.209 60.197 60.113 60.003 59.934 61.104 59.864 59.706 59.594 59.491 59.462 59.311 59.255 59.121 58.995 58.812 58.697 58.433 58.4 58.344 58.232 58.283 58.202 58.314 69.468 69.055 70.515 69.624 67.281 63.336 60.71 58.14 58.153 58.635 58.323 58.981 59.841 58.343 57.482 57.546 58.051 57.508 57.275 57.662 56.585 65.315 65.587 65.694 65.397 66.069 65.83 65.36 64.86 64.369 64.086 56.143 55.179 55.48 55.454 54.755 54.647 54.359 54.311 54.255 54.169 54.141 54.105 54.033 53.949 54.238 55.321 59.391 61.371 61.908 62.793 62.616 62.709 62.136 62.241 60.745 59.006 55.198 53.061 52.96 52.593 52.505 52.537 52.379 52.266 53.931 54.649 53.621 59.682 61.627 62.393 62.39 62.769 58.394 51.704 52.013 51.754 51.913 51.419 51.236 51.183 51.088 51.383 52.912 57.731 58.793 59.762 59.807 58.056 52.477 50.868 50.644 50.098 50.085 50.125 50.645 56.755 57.705 58.446 58.354 57.102 52.26 49.929 49.534 49.309 49.117 49.147 49.06 49.105 49.886 48.801 49.185 49.051 50.787 57.077 58.157 58.266 57.365 57.111 52.904 48.321 48.035 47.437 47.334 47.258 47.168 47.004 47.007 47.057 47.892 52.264 52.927 47.742 46.725 46.23 46.173 46.02 45.926 45.973 45.999 46.07 46.217 46.225 46.083 46.075 46.051 45.934 45.876 45.929 46.008 46.026 46.072 46.047 46.111 46.098 46.136 46.199 46.801 47.831 45.889 50.254 50.823 50.793 50.784 50.76 48.935 50.225 50.62 50.668 51.37 52.005 52.485 52.048 51.428 49.85 50.434 46.294 49.916 52.238 52.402 47.374 51.07 50.438 50.57 51.365 51.845 52.479 52.11 51.445 50.732 50.339 50.808 51.506
72.748 72.743 72.718 72.077 72.143 71.853 71.771 71.756 71.836 71.962 71.797 71.827 71.396 71.217 71.367 72.317 70.954 71.008 70.843 71.97 70.686 70.327 70.252 70.164 70.685 70.747 70.034 69.737 69.808 74.536 75.985 76.753 76.97 75.689 70.812 68.964 68.529 68.381 68.191 68.187 68.138 68.429 69.534 68.308 67.852 67.653 67.538 67.477 67.299 67.229 67.213 67.584 67.606 73.372 74.827 75.108 73.828 69.491 68.446 68.541 68.925 67.721 67.86 68.448 67.748 71.728 73.245 74.181 73.992 73.366 72.397 70.277 67.136 67.177 67.175 67.173 67.094 67.097 67.069 67.05 67.021 66.923 66.994 66.919 66.838 66.68 66.7 66.592 66.599 66.509 66.762 66.65 66.492 68.461 73.68 73.592 73.064 72.262 69.432 66.644 66.466 66.727 66.246 65.94 65.715 65.676 65.7 65.68 65.669 65.569 65.555 65.567 65.588 68.21 73.845 74.714 74.458 69.592 68.521 65.927 65.511 66.403 65.738 65.099 65.107 65.193 65.316 65.387 65.341 65.362 65.343 66.477 72.088 73.158 73.537 72.649 70.58 65.125 65.154 64.845 64.86 64.515 64.466 64.449 65.332 65.58 64.727 70.406 72.377 73.327 73.377 72.149 71.45 70.772 69.351 65.155 64.333 65.493 64.337 72.991 69.136 66.643 70.968 67.98 69.619 73.993 84.22 83.892 83.214 83.512 84.089 82.338 79.326 74.374 68.155 63.196 63.201 63.217 63.219 63.294 63.236 63.202 63.152 63.178 63.143 63.116 63.128 63.13 63.091 63.048 63.003 62.933 62.854 62.831 62.777 62.696 62.697 62.702 62.597 62.512 62.421 62.319 62.233 62.165 62.054 61.939 61.79 61.725 61.61 61.497 61.432 61.349 61.289 61.237 61.196 61.138 61.097 61.027 60.963 60.862 60.814 60.688 60.648 60.538 60.468 60.437 60.384 60.282 60.261 60.208 60.165 60.116 60.061 59.922 59.848 59.762 59.767 59.696 59.536 59.401 59.369 59.271 59.172 59.048 58.945 58.814 58.654 58.457 58.298 58.229 58.189 58.074 58.1 58.009 64.829 72.301 65.636 72.051 67.745 68.313 58.356 58.006 58.002 57.996 59.129 59.72 59.798 59.815 58.041 57.542 57.426 58.321 61.977 64.526 65.053 65.389 65.526 66.02 65.734 65.398 65.334 63.81 62.778 56.304 55.859 54.966 54.916 55.111 54.635 54.422 54.347 54.334 54.362 54.23 54.153 54.626 55.103 54.077 54.108 58.932 61.162 61.816 62.657 62.734 62.825 62.428 62.271 61.939 58.152 56.355 52.957 52.95 52.688 52.491 52.336 52.407 52.388 52.329 52.224 52.71 53.208 52.225 53.903 60.76 62.51 62.13 61.365 61.39 53.813 51.795 52.018 51.291 51.178 51.131 51.071 50.942 51.259 51.817 55.695 58.594 59.709 59.587 58.669 57.417 50.621 50.308 50.171 49.824 50.208 49.937 54.886 56.897 57.777 58.595 57.829 57.078 50.759 49.176 49.057 48.999 49.017 48.928 48.852 48.755 48.652 48.645 49.035 50.851 57.115 57.609 57.821 57.939 57.241 54.358 48.026 48.18 47.386 47.254 47.148 47.049 46.934 46.838 46.87 46.881 46.789 47.629 46.592 46.244 46.165 46.024 45.934 45.973 45.975 46.042 46.13 46.23 46.117 46.064 46.028 45.94 45.849 45.809 45.973 46.116 46.214 46.052 46.016 46.045 46.095 46.15 46.183 46.233 46.45 49.736 50.853 50.799 50.763 50.749 50.654 47.504 47.711 47.648 47.404 51.194 52.437 52.21 51.537 50.98 50.477 50.751 51.117 51.299 52.568 51.815 49.713 50.777 50.46 51.109 51.881 52.38 52.292 51.708 50.981 50.406 50.762 51.191 51.934
72.658 72.268 71.978 71.934 71.841 71.747 71.685 71.828 71.884 71.901 71.783 71.434 71.13 71.09 71.076 72.541 71.774 70.933 70.766 70.795 70.747 70.441 70.178 70.089 69.937 70.555 70.048 69.844 69.663 71.122 75.341 76.339 77.003 76.407 74.173 69.372 68.663 68.317 68.231 68.148 69.528 68.453 68.038 68.611 68.863 67.927 67.634 67.984 68.094 67.246 67.204 67.216 67.506 73.673 74.611 75.003 73.298 68.198 67.756 68.043 67.698 67.698 68.012 70.477 68.267 67.482 72.427 73.479 73.057 71.457 67.152 67.074 67.212 67.202 67.483 67.093 67.116 67.126 67.034 66.948 66.939 68.115 68.273 68.034 67.588 66.697 66.576 66.546 66.548 66.48 66.391 66.652 66.576 66.537 70.351 71.798 67.079 67.25 66.875 67.12 66.061 65.84 65.749 65.688 65.745 65.638 65.622 65.614 65.559 65.493 65.544 65.694 72.57 74.665 74.804 75.023 74.25 73.149 67.84 65.668 65.666 65.755 65.814 65.039 65.027 65.255 65.524 65.248 65.123 66.19 67.864 68.487 71.681 72.735 73.761 73.501 71.566 66.578 65.565 64.68 65.41 64.468 64.425 65.052 64.418 64.454 64.65 65.496 71.884 72.927 73.581 72.525 70.007 65.441 65.293 64.897 64.622 64.272 64.323 63.79 66.644 74.738 65.87 68.675 74.592 79.23 68.807 84.025 82.207 83.525 82.47 77.428 70.238 68.165 63.206 63.186 63.186 63.183 63.165 63.167 63.158 63.18 63.15 63.078 63.089 63.081 63.071 63.055 63.027 63.007 62.913 62.787 62.77 62.736 62.691 62.635 62.609 62.585 62.577 62.469 62.339 62.262 62.197 62.074 61.989 61.902 61.782 61.676 61.585 61.479 61.393 61.323 61.222 61.173 61.122 61.077 61.029 60.955 60.902 60.821 60.731 60.711 60.571 60.468 60.411 60.354 60.322 60.216 60.206 60.169 60.118 60.032 59.992 59.885 59.802 59.743 60.168 59.636 59.492 59.378 59.27 59.187 59.1 59.005 58.88 58.788 58.632 58.456 58.269 58.15 58.115 58.055 57.958 57.942 64.627 69.964 70.076 62.895 68.833 59.206 58.863 57.831 57.887 57.934 57.895 59.285 59.64 58.313 58.682 57.356 57.539 63.706 65.884 66.026 66.129 65.993 65.812 65.35 65.241 64.955 64.888 59.569 58.126 55.254 55.222 55.198 54.694 54.436 54.36 54.333 54.339 54.331 54.239 54.161 54.051 54.2 54.174 60.173 60.61 61.643 62.915 62.726 62.774 62.348 61.696 61.239 60.82 56.308 53.054 53.044 52.726 52.838 52.414 52.357 52.257 52.269 52.242 52.216 52.118 51.967 52.09 53.306 54.603 58.322 60.579 61.872 61.843 61.368 58.117 51.662 51.504 51.27 51.047 51.008 51.009 50.945 51.171 50.877 50.882 59.178 59.496 59.766 59.432 57.547 51.732 50.34 50.515 49.803 49.727 50.305 50.648 56.224 57.274 58.493 58.419 57.394 53.866 49.194 48.935 48.82 48.825 48.858 48.79 48.698 48.535 48.511 48.896 48.765 54.093 57.647 57.628 58.181 57.35 56.154 52.803 47.963 47.946 47.18 47.083 46.905 46.826 46.675 46.745 46.805 46.698 46.456 46.331 46.297 46.056 45.946 45.962 45.944 45.994 46.039 46.166 46.125 46.001 45.983 45.937 45.887 45.785 45.866 46.019 46.205 46.122 46.07 46.068 46.06 46.079 46.166 46.195 46.833 46.622 46.22 48.031 50.67 50.752 50.528 47.733 47.405 47.39 47.377 47.369 47.411 48.456 51.612 51.194 50.54 50.747 45.499 51.78 52.48 52.205 51.503 50.789 50.483 50.85 51.559 52.217 52.528 51.811 51.049 50.556 50.577 51.271 51.788 52.456
72.192 72.173 71.925 71.859 71.813 71.764 71.683 71.955 71.844 71.815 71.544 71.155 75.744 75.143 75.005 75.712 73.273 74.141 74.019 71.005 72.028 70.728 70.072 69.961 69.873 69.962 70.26 70.142 70.133 70.235 73.324 75.515 76.646 76.989 75.548 72.969 68.644 68.763 69.533 68.273 68.756 67.853 68.35 70.305 69.498 69.501 68.254 67.326 67.265 67.275 67.55 67.636 68.106 73.601 74.948 74.862 73.387 68.226 67.735 67.728 68.034 67.864 67.895 69.44 67.486 67.276 67.704 72.127 69.332 67.65 67.109 68.04 70.172 67.299 67.123 67.147 67.115 67.042 66.955 67.371 70.77 72.998 70.881 67.489 67.644 68.182 66.528 66.561 66.464 66.436 66.343 66.305 66.784 66.321 66.841 67.345 68.155 67.674 65.905 65.813 65.731 65.739 65.709 65.716 65.653 65.599 65.6 65.531 65.476 65.441 65.784 65.921 69.448 74.599 75.556 75.446 74.876 73.286 71.115 66.328 65.688 65.332 65.41 65.103 64.966 64.991 65.121 65.137 65.126 65.223 68.683 68.797 70.816 72.711 73.608 73.982 73.43 69.644 65.68 64.647 64.449 64.482 64.377 65.488 64.654 64.729 64.45 66.36 71.03 72.743 73.765 73.08 71.526 65.388 65.161 67.117 66.416 65.424 65.45 63.659 63.81 75.462 75.711 76.746 69.494 71.549 69.639 82.451 82.286 82.573 74.953 76.356 71.324 68.232 63.331 63.2 63.187 63.128 63.121 63.14 63.1 63.112 63.085 63.024 63.038 62.989 62.988 62.966 62.949 62.921 62.828 62.7 62.69 62.66 62.607 62.585 62.528 62.527 62.458 62.363 62.271 62.191 62.128 62.019 61.91 61.831 61.721 61.616 61.543 61.441 61.38 61.292 61.208 61.143 61.068 60.999 60.973 60.88 60.831 60.772 60.738 60.583 60.515 60.479 60.389 60.283 60.259 60.183 60.168 60.103 60.033 59.992 59.976 59.901 59.811 59.748 59.705 59.674 59.509 59.311 59.231 59.139 59.052 58.886 58.836 58.709 58.601 58.466 58.275 58.069 58.031 57.973 57.894 57.815 59.13 62.851 65.333 57.728 59.48 57.547 57.517 57.588 58.015 66.689 65.8 58.155 58.33 57.943 57.594 57.047 63.822 65.95 66.066 66.568 66.339 66.568 65.285 64.562 64.705 58.994 56.39 57.668 57.889 55.49 54.651 55.109 54.464 54.439 54.437 54.342 54.292 54.261 54.189 54.149 54.29 59.017 61.859 61.72 62.4 62.794 63.116 62.969 62.05 61.578 60.628 56.843 53.716 54.253 53.483 52.764 52.627 52.398 52.346 52.217 52.583 52.277 52.098 52.072 52.144 51.969 51.867 52.121 52.469 52.224 60.032 61.187 62.06 61.887 60.266 52.807 51.582 51.363 51.195 50.894 50.829 50.803 51.29 50.865 50.978 57.721 59.249 59.236 59.18 58.295 56.504 50.214 50.031 49.724 49.589 50.092 49.595 54.157 56.109 57.848 58.712 57.652 49.15 48.939 48.864 48.76 48.758 48.718 48.69 48.595 48.398 48.355 48.43 48.578 49.211 56.86 57.581 57.775 58.993 57.372 56.728 49.997 48.03 48.368 46.96 46.823 46.747 46.609 46.51 46.538 46.598 46.386 46.307 46.132 46.044 45.909 45.918 45.976 46.028 46.131 46.147 46.006 45.953 45.95 45.907 45.78 45.82 46.006 46.097 46.111 46.135 46.1 46.086 46.092 46.073 46.045 46.095 46.701 46.345 46.196 46.286 47.209 50.653 50.435 49.826 47.535 47.365 47.424 47.398 47.405 47.436 48.079 49.942 50.469 51.13 51.814 52.443 52.335 51.558 50.853 50.504 50.94 51.232 52.077 52.464 52.108 51.363 50.698 50.512 50.929 51.671 52.371 52.416
72.028 72.145 72.031 72.467 71.796 71.704 71.735 71.841 71.798 71.613 71.328 72.239 76.76 77.672 78.004 78.045 78.058 77.194 72.744 70.351 70.816 70.323 70.173 69.987 69.805 69.765 69.92 69.663 70.214 69.595 69.511 74.022 75.578 76.525 76.15 75.048 70.695 69.015 69.796 68.046 67.862 68.676 69.55 68.552 67.774 67.871 67.62 67.297 67.221 67.184 67.158 67.157 67.287 73.173 74.715 74.392 71.895 68.634 67.64 67.729 68.158 67.614 67.729 67.966 67.432 67.355 67.238 67.232 67.123 67.14 67.167 67.413 67.839 67.312 67.173 67.127 67.004 67.012 68.882 72.882 73.392 73.57 72.711 68.699 67.331 68.402 67.114 67.45 66.493 66.356 66.327 66.199 66.459 67.383 66.636 68.059 66.545 65.863 65.771 65.72 65.727 65.715 65.647 65.684 66.144 65.527 65.473 65.527 65.534 65.395 65.42 66.091 66.02 70.656 74.222 74.881 74.931 74.282 74.208 68.082 65.585 65.582 65.258 65.065 64.884 64.889 66.045 65.29 64.973 64.993 67.113 67.251 69.529 73.469 74.013 73.415 72.378 70.576 66.071 64.723 64.463 64.855 64.3 64.484 64.339 64.259 65.097 65.415 68.399 73.987 73.993 73.303 72.224 70.841 70.609 70.2 66.722 64.596 64.403 64.007 65.225 69.463 74.964 72.931 69.572 76.581 79.753 80.61 78.651 77.605 78.041 70.629 63.432 63.119 63.192 63.176 63.136 63.128 63.091 63.067 63.049 63.04 62.998 62.959 62.907 62.935 62.886 62.885 62.911 62.848 62.761 62.671 62.624 62.568 62.548 62.513 62.448 62.425 62.379 62.285 62.18 62.152 62.072 61.92 61.827 61.741 61.62 61.542 61.456 61.399 61.335 61.266 61.219 61.093 61.075 60.977 60.881 60.822 60.803 60.724 60.671 60.551 60.486 60.366 60.341 60.282 60.163 60.102 60.107 60.051 60.016 59.958 59.914 59.849 59.794 59.717 59.71 59.57 59.495 59.358 59.225 59.035 58.999 58.84 58.725 58.635 58.538 58.429 58.26 58.072 57.97 57.911 57.82 59.553 60.643 62.171 57.71 57.515 57.492 57.447 57.409 57.607 68.987 67.474 69.531 64.463 57.485 58.508 57.806 57.079 57.878 64.617 66.716 66.372 65.538 64.985 63.61 57.8 56.335 55.883 56.13 55.482 55.7 54.703 54.537 54.507 54.507 54.477 54.456 54.302 54.858 54.789 54.234 58.007 60.627 62.482 62.395 62.997 63.005 63.247 62.128 61.837 60.873 55.334 53.311 54.279 55.161 52.79 53.054 52.487 52.468 52.317 52.729 52.381 52.24 52.432 52.21 51.929 51.975 51.83 51.683 51.863 51.978 51.866 58.204 61.03 61.624 62.242 60.545 58.855 51.71 51.159 51.102 50.829 50.684 50.678 50.584 50.545 51.199 51.709 57.832 58.773 59.041 58.762 57.342 51.408 50.31 50.145 49.504 49.473 49.402 49.392 52.095 57.291 57.801 50.087 48.945 48.806 48.789 48.726 48.61 48.611 48.506 48.463 48.385 48.272 48.255 48.171 48.971 48.896 56.638 59.859 58.707 58.342 57.989 54.481 49.007 47.575 46.889 46.777 46.665 46.56 46.404 46.511 46.506 46.378 46.237 45.942 45.842 45.927 45.933 45.974 46.024 46.111 45.992 45.962 45.927 45.853 45.813 45.796 45.937 46.104 46.123 46.127 46.133 46.117 46.103 46.101 46.09 46.06 46.04 46.102 46.09 46.189 47.143 46.337 49.811 51.965 51.448 48.378 47.433 47.42 47.427 47.414 47.393 47.496 50.349 50.883 51.465 52.621 52.543 51.82 51.158 50.508 50.53 51.228 51.835 52.527 52.241 51.428 50.942 50.402 50.835 51.517 52.19 52.438 51.756
72.116 72.224 71.862 71.904 71.699 71.732 71.842 71.843 71.696 71.51 71.273 71.348 76.532 77.734 78.19 78.419 78.328 76.963 72.564 70.498 72.291 70.299 70.277 70.061 70.684 69.69 69.59 69.986 69.642 69.787 70.027 70.873 74.792 75.779 76.514 75.766 73.657 69.107 68.804 68.21 68.646 68.355 67.9 67.694 67.659 68.134 68.927 68.017 70.166 69.983 67.254 67.223 70.043 73.311 74.47 74.447 71.963 67.764 67.621 67.642 67.684 67.575 68.765 68.837 67.486 67.388 67.415 68.571 67.248 67.198 67.333 67.529 67.427 67.143 67.078 67.03 67.075 67.09 71.763 73.321 74.174 74.558 73.555 70.43 67.526 66.944 68.244 66.519 66.541 66.322 66.303 66.179 66.028 66.055 65.939 65.881 65.818 65.771 65.792 65.749 65.685 65.716 65.657 66.658 65.832 65.587 65.427 65.437 65.425 65.414 65.785 65.615 66.842 66.456 73.675 74.133 74.547 74.784 74.428 73.506 67.07 65.545 66.202 65.315 65.016 64.881 65.096 64.92 64.849 64.957 64.984 65.03 65.106 70.138 72.48 73.323 72.972 71.643 65.592 64.978 64.378 64.226 64.227 64.167 64.084 64.208 65.762 65.849 67.15 71.172 72.957 73.844 72.584 71.503 70.712 70.953 66.238 64.873 65.053 63.704 63.595 74.346 77.988 73.694 77.667 80.287 71.563 71.104 77.473 76.191 69.171 77.743 70.196 68.594 64.804 63.121 63.089 63.079 63.044 63.024 62.956 62.939 62.89 62.913 62.861 62.892 62.831 62.836 62.775 62.767 62.739 62.641 62.599 62.566 62.458 62.429 62.389 62.346 62.296 62.177 62.143 62.066 61.998 61.889 61.771 61.672 61.613 61.478 61.404 61.377 61.304 61.221 61.166 61.125 61.053 60.947 60.906 60.823 60.737 60.708 60.613 60.498 60.409 60.355 60.285 60.211 60.165 60.083 60.055 60.001 59.972 59.934 59.884 59.83 59.752 59.7 59.616 59.6 59.497 59.34 59.218 59.073 58.894 58.749 58.722 58.653 58.509 58.404 58.276 58.082 57.902 57.827 57.874 62.814 65.02 64.867 61.941 57.574 57.414 57.388 57.326 57.573 70.992 70.221 70.217 58.568 57.233 57.243 58.676 57.211 57.604 58.725 65.352 64.827 64.342 59.974 56.916 56.54 55.365 55.62 55.494 54.872 54.686 54.53 54.567 54.54 54.437 54.411 54.332 54.306 54.43 58.562 59.436 62.077 62.369 63.037 62.98 62.614 62.297 61.756 61.184 56.769 54.174 53.186 53.426 52.86 53.445 52.606 52.523 52.431 52.37 52.563 52.474 52.489 56.394 59.377 54.319 51.836 51.859 51.779 51.706 51.666 51.987 51.737 52.67 60.716 61.313 61.687 61.213 59.926 53.144 51.016 51.047 50.824 50.607 50.605 50.519 50.461 50.378 50.554 55.162 57.278 58.857 59.347 58.153 55.715 50.296 49.75 49.468 49.325 49.447 49.234 50.426 49.943 49.546 48.988 48.778 48.793 48.751 48.648 48.607 48.476 48.387 48.347 48.325 48.167 47.987 48.077 48.931 48.168 53.798 57.868 58.257 58.568 58.638 54.673 49.718 46.844 47.506 46.62 46.532 46.478 46.272 46.201 46.263 46.361 45.989 45.858 45.866 45.93 45.958 45.989 46.065 46.015 45.956 45.897 45.859 45.766 45.688 45.811 45.969 46.246 47.033 46.146 46.106 46.108 46.114 46.115 46.084 46.077 46.101 46.052 46.064 46.136 46.213 46.881 49.441 51.601 52.718 49.911 47.473 47.438 47.484 47.436 47.518 49.814 50.779 51.537 52.131 52.56 51.984 49.811 50.709 50.519 50.993 51.739 52.44 52.239 51.676 51.074 50.441 50.701 51.197 52.038 52.579 52.116 51.379
71.966 71.836 71.842 71.814 71.825 71.967 71.912 71.718 71.578 71.448 71.662 72.231 76.631 76.978 76.982 77.262 77.269 77.089 71.456 72.484 73.439 73.202 71.821 70.313 70.2 70.015 69.566 69.403 69.663 69.392 69.44 69.19 70.601 75.149 75.99 76.901 75.457 71.08 69.851 69.946 69.079 68.182 67.864 67.68 67.612 67.915 67.636 71.516 72.316 68.745 67.289 67.516 70.352 73.535 75.762 74.443 72.194 68.618 67.761 67.636 67.467 67.49 67.694 68.088 67.443 67.367 67.732 68.83 67.491 68.188 67.602 67.12 67.074 67.052 67.019 66.955 67.702 67.378 69.479 72.333 74.791 74.739 74.071 72.922 71.337 67.507 68.879 66.902 66.52 67.279 66.226 66.174 66.054 65.933 65.818 65.782 65.745 65.769 65.734 65.682 65.647 65.598 65.612 65.85 65.861 65.598 65.449 65.344 65.368 65.366 65.529 66.293 65.878 65.895 67.362 73.836 74.376 74.809 74.874 73.676 68.599 65.277 65.349 65.062 65.311 65.414 64.647 64.692 64.884 64.923 64.796 64.703 66.771 69.948 71.9 72.865 73.004 72.085 68.355 65.919 64.473 65.071 64.557 64.144 64.989 64.914 65.003 64.401 64.382 71.084 72.441 73.567 73.085 71.891 70.458 67.704 65.233 64.368 64.323 64.338 64.399 76.916 77.741 75.402 76.029 79.898 80.221 77.222 73.062 80.18 77.972 80.901 72.256 77.408 75.235 63.511 63.061 62.97 62.952 62.914 62.926 62.855 62.867 62.868 62.863 62.783 62.773 62.729 62.741 62.669 62.644 62.648 62.562 62.451 62.44 62.389 62.326 62.309 62.271 62.145 62.086 62.052 61.948 61.84 61.757 61.633 61.543 61.388 61.376 61.268 61.252 61.198 61.139 61.098 61.029 60.957 60.873 60.781 60.695 60.596 60.553 60.447 60.372 60.296 60.218 60.161 60.095 60.048 60.004 59.999 59.989 59.906 59.842 59.797 59.726 59.681 59.652 59.533 59.402 59.296 59.171 58.97 58.855 58.717 58.643 58.521 58.471 58.377 58.258 58.11 57.944 57.762 57.807 63.81 61.21 65.103 63.097 57.461 57.328 57.298 57.181 57.41 63.136 68.153 67.67 59.106 57.076 56.983 57.217 58.247 58.189 56.686 58.367 57.183 56.53 55.672 55.958 55.975 55.105 55.042 54.838 54.72 54.684 54.602 54.536 54.499 54.432 54.372 54.422 58.627 60.103 61.832 62.238 62.921 63.048 63.184 62.462 61.799 60.941 59.304 54.215 53.286 53.597 53.187 52.928 52.677 52.614 52.465 52.518 52.801 52.559 52.524 56.012 57.383 59.733 60.371 61.055 52.132 51.721 51.703 51.595 51.489 51.453 51.549 51.548 58.327 61.108 61.39 61.528 60.929 59.268 51.439 50.896 51.884 50.541 50.331 50.316 50.331 50.177 50.714 50.522 54.458 58.985 58.741 58.281 57.242 51.902 49.577 49.991 49.274 49.119 49.23 49.137 49.556 49.079 49.622 48.969 48.747 48.675 48.548 48.584 48.485 48.326 48.258 48.212 48.11 47.964 47.916 48.437 47.688 48.039 57.892 58.139 58.581 58.611 57.216 54.882 46.994 47.1 46.538 46.389 46.331 46.25 46.144 46.096 46.008 45.845 45.85 45.883 45.965 46.002 46.043 45.954 45.975 45.911 45.816 45.763 45.68 45.785 45.978 46.222 49.643 51.017 48.186 46.236 46.112 46.15 46.12 46.097 46.095 46.1 46.1 46.093 46.081 46.139 46.113 47.065 48.921 49.032 47.779 47.554 47.427 47.435 47.446 48.926 50.578 51.15 51.951 52.564 52.253 51.314 50.938 50.409 50.93 51.682 52.116 52.461 51.783 51.235 50.602 50.612 51.024 51.718 52.51 51.971 50.012 50.851
72.843 71.867 71.8 71.971 71.954 72.053 71.669 71.552 72.324 72.005 71.801 71.324 70.915 72.004 72.03 71.422 74.22 74.505 70.596 71.919 71.897 71.751 69.411 70.03 69.617 69.472 69.419 69.353 69.308 69.313 69.232 69.161 69.366 72.563 75.248 76.124 75.56 74.681 69.736 68.595 68.353 67.827 67.788 67.584 67.565 67.638 67.751 70.756 71.85 71.501 67.383 67.269 71.448 73.821 74.62 74.189 71.495 68.735 70.807 71.675 67.535 67.418 68.947 68.266 67.695 68.324 69.18 67.579 67.179 67.315 67.116 67.09 67.096 67.149 67.004 66.818 67.052 68.599 69.582 69.345 72.659 73.731 74.71 73.53 72.467 69.502 67.166 66.834 66.39 67.946 66.503 66.106 66 65.963 65.897 65.788 65.689 65.697 65.722 65.603 65.631 66.906 71.633 74.111 67.332 65.539 65.557 65.649 66.529 65.344 65.28 65.389 65.173 66.269 65.635 69.33 73.893 75.548 74.933 74.24 73.176 66.848 65.625 65.008 64.956 65.197 64.59 64.623 64.865 64.765 64.666 66.762 68.289 69.083 72.085 72.697 73.256 72.947 71.298 66.607 66.233 64.166 64.809 64.031 64.031 64.759 66.03 66.059 64.794 67.958 71.894 73.057 73.716 72.375 68.956 69.237 69.862 66.028 65.948 65.527 63.902 66.409 66.362 77.624 76.987 76.818 77.699 79.256 76.089 76.022 73.077 81.646 81.824 81.324 68.016 62.959 62.984 62.897 62.865 62.868 62.841 62.774 62.805 62.843 62.767 62.743 62.771 62.688 62.629 62.589 62.607 62.523 62.486 62.444 62.412 62.363 62.367 62.26 62.199 62.129 62.078 61.986 61.907 61.848 61.706 61.597 61.527 61.391 61.319 61.29 61.188 61.146 61.111 61.04 60.968 60.894 60.814 60.732 60.648 60.576 60.481 60.345 60.319 60.283 60.184 60.127 60.081 60.03 59.967 59.943 59.885 59.846 59.848 59.762 59.69 59.631 59.526 59.468 59.334 59.27 59.101 58.964 58.842 58.722 58.593 58.548 58.413 58.331 58.225 58.116 57.944 57.74 57.606 61.897 63.708 63.756 57.48 57.312 57.23 57.184 57.132 57.087 59.613 64.672 60.981 57.776 56.927 56.874 56.794 57.098 57.731 57.621 56.108 57.107 55.539 56.022 55.194 54.923 54.76 54.738 54.697 54.726 54.663 54.606 54.517 54.414 54.61 55.677 59.504 61.862 62.464 62.987 63.236 63.069 62.514 62.061 61.309 59.477 55.429 53.446 53.185 53.322 53.006 52.737 52.661 52.564 53.174 52.626 52.729 52.746 53.5 58.607 59.74 60.118 60.746 61.278 61.278 54.624 51.617 51.49 51.491 51.433 51.827 51.306 51.364 51.532 58.076 60.809 61.707 61.038 59.848 52.781 50.928 51.592 50.621 50.386 50.255 50.152 50.098 50.048 50.148 51.488 56.981 58.165 58.791 58.116 56.598 49.649 49.339 49.342 48.994 49.08 49.136 48.972 49.933 49.592 48.76 48.645 48.525 48.615 49.133 48.687 48.311 48.126 48.128 48.088 47.922 47.825 47.781 47.642 47.992 53.468 56.544 57.968 58.303 57.337 56.208 48.646 47.119 46.977 46.285 46.273 46.247 46.1 45.996 45.897 45.813 45.861 45.905 45.938 45.955 45.971 45.957 45.904 45.866 45.788 45.676 45.702 45.861 46.286 48.718 51.064 51.012 50.999 51.034 47.741 46.146 46.127 46.095 46.106 46.115 46.134 46.074 46.059 46.056 46.015 46.195 48.487 48.23 47.656 47.521 47.507 47.447 47.95 50.222 51.181 51.695 52.439 52.229 51.441 50.975 50.443 50.704 51.396 52.076 52.832 52.071 51.343 50.668 50.418 50.919 50.151 52.283 52.387 51.678 48.646 50.249
71.987 71.786 71.931 71.95 72.105 72.871 71.733 72.568 77.749 76.545 72.629 71.216 71.234 70.648 70.572 70.602 72.076 73.236 72.681 71.631 72.485 71.684 69.435 69.465 69.828 69.727 69.321 69.221 69.215 69.148 69.126 69.388 69.654 69.647 74.873 74.747 69.584 70.486 70.286 68.338 67.853 67.806 67.78 67.6 67.594 68.005 67.503 67.568 68.864 69.196 67.627 67.38 71.953 73.591 74.212 74.007 72.586 67.591 72.066 68.452 67.46 67.351 67.372 68.952 69.301 67.711 67.331 67.113 67.154 67.139 67.077 67.196 67.218 69.044 68.775 66.791 66.716 67.024 67.115 67.147 70.924 73.126 74.032 74.357 73.142 71.678 67.467 66.291 66.267 66.344 66.151 66.054 65.997 65.995 65.841 65.782 65.629 65.561 65.539 66.319 72.292 74.926 74.803 74.572 73.669 67.155 65.604 66.715 65.848 65.319 65.201 65.149 65.947 65.157 65.282 65.906 71.584 72.545 74.365 74.917 73.768 72.475 66.854 65.069 64.838 64.816 64.774 64.481 64.507 64.652 64.791 65.028 67.906 67.536 70.271 72.027 73.117 72.781 71.547 68.039 64.437 64.243 64.641 64.01 63.927 63.859 66.27 67.076 65.286 66.503 71.322 73.368 73.075 72.47 70.797 70.061 69.336 65.718 64.518 63.839 63.581 63.337 63.38 66.002 73.991 67.69 72.542 73.012 72.232 80.36 75.974 79.173 82.238 72.05 72.71 63.121 62.841 62.816 62.754 62.685 62.721 62.755 62.731 62.764 62.732 62.68 62.65 62.662 62.595 62.5 62.47 62.475 62.435 62.366 62.348 62.312 62.278 62.209 62.144 62.015 62.018 61.977 61.913 61.81 61.684 61.557 61.463 61.387 61.313 61.225 61.149 61.107 61.029 60.991 60.936 60.898 60.772 60.681 60.611 60.489 60.404 60.298 60.266 60.199 60.146 60.126 60.049 59.95 59.93 59.916 59.865 59.818 59.75 59.708 59.624 59.52 59.51 59.43 59.308 59.214 59.078 58.938 58.796 58.712 58.578 58.468 58.429 58.343 58.2 58.086 57.976 57.75 57.537 57.366 58.639 60.67 57.461 57.312 57.198 57.112 57.094 56.984 56.905 56.747 56.791 56.697 56.745 56.734 56.697 56.634 56.766 57.744 57.526 57.371 57.135 55.459 54.88 56.074 56.025 54.833 54.718 54.694 54.658 54.585 54.503 55.274 62.872 62.535 61.749 62.92 63.282 63.193 62.777 62.743 61.708 57.16 55.814 54.22 53.364 53.611 52.932 52.837 52.729 52.629 52.633 52.846 52.702 52.78 52.909 57.743 59.627 60.078 61.006 61.332 61.231 61.155 60.293 59.932 51.819 51.412 51.43 51.342 51.957 51.244 51.286 51.333 52.568 59.699 61.004 61.558 60.505 57.952 50.824 50.59 50.521 50.244 50.119 50.124 50.098 50.167 50.406 50.025 55.305 58.488 58.53 58.179 56.912 50.91 49.565 49.938 48.925 48.875 49.047 48.749 48.719 48.749 48.623 48.497 48.55 48.852 48.555 48.33 48.202 48.034 48.021 48.053 47.843 47.691 47.599 47.584 47.671 48.359 56.169 57.848 58.15 57.504 58.938 51.648 46.299 46.473 46.269 46.283 46.09 46.045 45.896 45.791 45.873 45.9 45.906 45.936 45.922 45.999 45.877 45.851 45.748 45.69 45.696 45.855 46.018 46.325 50.514 51.039 51.007 51.056 51.119 50.101 49.658 46.294 46.121 46.103 46.119 46.112 46.113 46.041 46.064 46.019 48.59 47.385 47.524 47.44 47.6 47.534 47.524 49.93 50.942 51.605 52.441 52.568 51.296 48.724 50.571 50.655 51.135 51.837 52.505 52.341 51.591 50.878 50.451 50.808 51.412 52.237 52.532 52.009 51.246 50.388 42.625
71.761 71.734 71.833 71.903 72.028 72.002 75.563 77.912 78.365 78.588 77.537 73.351 71.185 70.754 70.541 70.281 72.197 73.256 73.049 74.553 75.718 75.402 71.298 70.743 71.86 70.37 69.251 69.218 69.088 69.081 69 69.252 68.97 68.837 70.671 71.246 69.571 70.505 69.441 67.739 67.738 67.72 67.602 67.513 67.635 67.746 67.507 67.561 68.634 69.333 67.903 67.525 69.647 73.338 74.428 73.851 71.274 67.838 69.689 68.589 67.363 67.37 67.352 67.259 67.191 67.166 67.13 67.137 67.11 67.126 67.427 69.395 67.223 67.687 67.13 67.421 66.628 66.605 67.204 67.099 68.148 72.451 73.604 74.518 73.929 72.622 71.16 66.761 66.247 66.163 66.13 66.105 65.976 65.909 65.825 65.718 65.568 65.623 65.651 68.433 73.331 74.188 75.027 74.683 74.563 73.278 66.28 66.424 65.537 65.104 65.102 65.102 65.409 65.572 65.157 65.615 66.837 72.679 73.782 74.552 74.317 73.39 71.272 65.771 64.89 65.728 65.967 64.459 64.381 64.579 64.597 64.56 65.339 64.554 67.344 71.732 72.609 72.73 72.501 70.287 64.452 64.787 64.276 64.335 63.837 63.843 64.202 65.677 67.401 66.72 68.761 71.351 72.201 72.654 71.22 69.912 65.554 63.956 63.703 63.669 63.441 63.377 63.557 68.452 70.681 74.055 69.876 78.044 81.216 76.553 82.532 82.375 82.156 75.715 67.929 65.744 62.75 62.71 62.676 62.665 62.659 62.678 62.73 62.707 62.653 62.636 62.598 62.537 62.461 62.474 62.415 62.355 62.304 62.292 62.242 62.235 62.235 62.169 62.076 62.021 61.947 61.858 61.847 61.71 61.602 61.507 61.462 61.328 61.268 61.221 61.132 61.038 61.043 60.943 60.866 60.77 60.754 60.603 60.526 60.402 60.351 60.273 60.257 60.156 60.11 60.032 60.012 59.919 59.884 59.86 59.805 59.76 59.663 59.622 59.562 59.467 59.427 59.363 59.263 59.153 59.069 58.927 58.792 58.703 58.578 58.499 58.373 58.291 58.196 58.11 57.98 57.752 57.624 57.395 57.331 57.267 57.276 57.27 57.176 57.063 56.953 56.955 56.863 56.729 56.743 56.647 56.547 56.541 58.723 60.737 57.242 56.407 57.704 56.133 56.359 55.067 55.068 55.512 54.861 54.877 55.042 54.659 54.603 55.88 61.313 62.267 62.644 63.033 63.314 63.333 63.39 62.789 61.968 57.859 56.748 54.266 53.654 55.78 53.314 53.036 52.805 52.716 53.169 52.979 52.891 52.691 52.936 58.649 58.673 60.302 60.725 61.529 61.422 61.812 60.317 60.179 59.064 53.772 51.73 51.332 51.283 51.259 51.201 51.05 51.03 51.05 51.653 57.879 60.303 61.453 60.643 59.318 54.266 50.694 50.74 50.256 50.845 50.038 49.951 50.385 49.979 49.829 51.02 57.021 58.364 58.479 57.875 56.331 49.979 49.095 48.878 48.759 48.766 48.72 48.723 48.651 48.516 48.505 49.042 48.59 48.817 48.444 48.056 47.973 47.89 47.825 47.795 47.605 47.494 47.396 47.322 47.214 51.259 57.7 58.297 57.22 56.77 54.988 48.472 46.369 46.341 46.05 45.991 45.925 45.79 45.817 45.881 45.937 45.927 45.948 45.882 45.875 45.864 45.785 45.658 45.688 45.764 45.84 46.422 49.78 51.075 51.024 51.048 51.09 51.121 51.154 51.105 50.161 46.288 46.116 46.136 46.13 46.115 46.104 46.064 48.339 53.569 46.346 47.309 47.486 47.476 47.512 49.456 50.723 51.374 52.108 52.595 52.086 51.383 50.659 50.462 50.929 51.758 52.434 52.419 51.546 48.64 50.481 50.689 49.919 51.919 52.535 52.087 51.545 50.792 46.334 41.704
71.737 71.802 71.888 71.898 71.771 73.867 77.511 78.444 79.37 78.406 77.123 71.854 71.839 71.259 70.523 70.786 70.819 70.403 73.851 75.427 76.419 76.327 74.45 71.717 71.37 69.686 69.423 69.078 69.027 68.954 68.919 68.914 68.905 68.803 68.795 69.33 69.697 70.167 68.055 70.851 68.306 67.901 67.705 67.689 67.527 67.616 67.4 67.591 67.763 69.112 67.868 67.634 68.588 72.945 73.19 73.579 71.286 67.424 67.375 67.299 67.337 67.3 67.294 67.26 67.188 67.159 67.174 67.091 67.263 67.677 68.599 70.052 68.854 67.957 66.774 66.911 66.73 66.52 66.698 66.553 66.531 70.596 72.447 73.674 74.249 73.387 72.065 68.105 66.262 66.235 66.058 65.865 65.906 65.877 65.779 65.658 65.644 65.77 65.647 65.82 72.117 73.668 74.537 74.99 74.607 74.378 68.176 66.149 65.42 65.104 65.888 65.097 65.021 65.165 64.924 65.17 65.27 68.5 73.229 73.943 74.518 74.362 72.986 67.303 66.065 65.632 64.901 64.394 64.333 64.413 65.033 64.629 64.704 64.455 64.471 70.591 71.919 72.824 72.02 69.899 65.933 66.094 64.315 64.086 63.766 63.849 64.251 64.153 66.06 65.573 66.024 70.654 71.801 72.614 72.327 71.18 64.756 63.594 63.592 63.477 64.126 63.328 63.247 63.629 67.315 65.85 73.563 73.142 67.441 72.274 80.625 81.759 78.378 77.357 75.307 64.14 62.648 62.638 62.58 62.556 62.594 62.66 62.666 62.633 62.633 62.59 62.489 62.468 62.429 62.376 62.349 62.333 62.305 62.208 62.19 62.14 62.104 62.116 61.997 61.906 61.894 61.865 61.789 61.677 61.628 61.462 61.381 61.334 61.266 61.209 61.085 61.005 60.937 60.894 60.83 60.77 60.637 60.547 60.444 60.373 60.306 60.252 60.231 60.13 60.095 60.044 59.984 59.955 59.876 59.836 59.76 59.701 59.609 59.575 59.523 59.417 59.323 59.258 59.222 59.165 59.061 58.922 58.759 58.683 58.549 58.437 58.326 58.245 58.171 58.046 57.926 57.804 57.572 57.31 57.26 57.21 57.209 57.179 57.161 57.092 56.96 56.882 56.726 56.713 56.64 56.567 56.451 56.363 58.962 60.484 56.974 56.516 56.077 55.812 55.57 55.891 55.406 54.964 55.876 56.683 55.075 54.721 59.571 61.103 62.421 62.931 63.303 63.466 63.177 63.017 61.964 61.176 55.959 53.689 53.419 53.934 53.15 53.072 52.932 52.794 52.689 52.762 52.874 52.857 54.038 54.454 58.701 60.382 60.693 61.622 61.281 61.302 60.727 60.055 59.469 53.824 52.378 51.454 51.378 51.281 51.193 51.189 51.032 50.905 50.906 50.939 51.073 52.087 59.189 60.581 61.207 60.054 58.63 50.916 50.572 50.68 50.218 50.125 49.879 49.797 50.15 49.645 49.951 54.31 57.63 57.998 57.766 56.697 50.97 48.799 48.938 48.706 48.708 48.675 48.577 48.99 48.457 49.055 48.626 53.556 56.325 51.085 48.141 47.866 47.761 47.737 47.742 47.538 47.389 47.261 47.299 47.364 49.625 54.938 56.307 56.909 56.613 55.853 53.964 46.265 46.074 45.96 45.917 45.798 45.755 45.866 45.865 45.917 45.92 45.902 45.881 45.827 45.769 45.69 45.623 45.698 45.826 46.228 45.977 45.986 50.105 50.927 51.055 51.076 51.139 51.133 51.042 50.992 50.972 47.193 46.26 46.148 46.117 46.114 48.444 52.987 55.936 44.438 43.817 47.262 47.349 49.552 50.58 46.911 51.793 52.557 52.228 51.379 50.87 50.464 50.834 50.504 52.288 52.408 51.962 50.126 50.553 50.7 51.129 51.804 52.417 52.322 51.584 50.881 50.21 41.742 41.655
-9999 71.878 71.897 71.779 72.345 77.171 78.434 79.02 78.431 77.403 73.156 70.989 70.631 70.462 71.063 70.695 69.677 69.747 72.013 74.856 75.899 76.986 76.118 71.708 69.649 69.16 69.89 69.103 68.965 68.921 68.9 68.828 68.728 68.941 68.832 69.282 69.219 68.131 71.884 73.822 73.924 73.452 72.392 72.009 69.169 67.832 70.435 68.256 67.337 67.35 67.322 67.192 67.402 67.331 67.55 69.928 70.115 68.159 67.743 67.227 67.253 67.302 67.294 67.261 67.2 67.166 67.12 67.132 70.628 71.944 71.352 67.701 70.171 69.599 67.499 68.175 68.439 66.532 66.424 66.895 66.879 68.546 71.043 72.652 74.715 74.23 72.913 71.481 67.82 66.038 66.187 65.934 66.736 66.225 65.749 65.652 65.566 65.574 66.02 65.665 67.911 71.945 74.083 74.916 74.899 74.371 71.707 66.85 65.288 65.353 65.255 65.378 64.965 64.945 64.845 64.886 64.918 65.806 72.177 74.49 74.405 74.399 73.634 72.415 65.25 64.856 64.678 64.515 64.424 64.254 64.487 64.919 65.048 64.484 66.434 68.691 71.597 72.698 72.651 71.223 69.105 65.685 64.924 63.73 63.695 63.666 63.651 64.998 66.186 63.655 65.845 70.275 72.046 72.548 72.412 70.967 69.059 69.805 65.388 63.515 64.486 63.406 63.227 63.246 63.91 72.358 64.494 70.339 78.586 77.785 80.401 78.288 77.395 76.396 68.906 63.496 62.568 62.517 62.508 62.517 62.498 62.567 62.544 62.58 62.512 62.5 62.469 62.421 62.373 62.351 62.312 62.253 62.248 62.163 62.071 62.071 62.045 61.962 61.912 61.868 61.827 61.801 61.731 61.664 61.557 61.478 61.353 61.238 61.231 61.198 61.049 60.967 60.893 60.826 60.756 60.666 60.594 60.459 60.396 60.358 60.324 60.244 60.196 60.162 60.087 60.045 60.001 59.932 59.89 59.838 59.733 59.679 59.59 59.548 59.487 59.409 59.322 59.255 59.235 59.173 59.015 58.916 58.783 58.647 58.547 58.386 58.315 58.208 58.074 57.984 57.917 57.829 57.628 57.442 57.178 57.123 57.068 57.084 57.11 57.058 56.975 56.811 56.702 56.559 56.55 56.439 56.357 56.236 56.153 57.414 56.131 59.443 56.372 61.009 56.065 56.957 56.442 55.618 55.104 54.764 58.462 60.57 62.267 62.807 63.549 63.443 63.147 63.349 63.051 62.393 56.674 54.579 53.925 53.475 53.761 53.162 53.063 52.95 52.813 53.13 53.052 52.823 53.399 54.754 59.793 60.413 61.041 61.545 61.757 61.546 61.68 60.184 59.372 55.329 52.48 51.577 51.493 51.448 51.298 51.165 51.136 51.025 51.031 50.928 50.752 50.816 51.012 50.955 54.022 59.562 60.945 60.85 59.41 52.194 50.212 50.09 49.957 49.819 49.78 49.714 50.442 49.746 49.836 50.72 56.34 57.623 58.179 57.458 56.425 49.249 48.925 48.64 48.709 48.616 48.586 49.196 49.548 50.239 51.266 56.228 57.188 53.325 49.05 47.782 47.683 47.515 47.476 47.438 47.271 47.117 47.108 47.028 46.923 47.618 55.798 56.228 57.119 56.201 55.078 47.765 45.94 45.87 45.83 45.749 45.811 45.84 45.884 45.898 45.858 45.908 45.841 45.785 45.649 45.611 45.591 45.653 45.967 46.339 46.107 45.899 45.986 47.007 50.899 51.117 51.104 51.074 50.966 51.035 51.132 51.113 49.98 46.235 46.126 46.095 52.861 55.664 48.2 42.634 42.752 42.595 47.301 50.522 51.144 51.73 52.333 52.375 47.082 50.129 50.486 50.75 51.359 52.045 52.63 52.05 51.219 50.742 50.459 50.859 51.721 52.303 52.36 51.695 51.188 50.135 42.571 41.654 41.657
-9999 -9999 71.745 71.653 71.565 74.974 77.841 78.142 77.301 75.398 71.44 70.872 70.215 69.711 69.648 70.472 69.459 69.462 71.787 72.594 75.34 76.309 76.356 75.374 72.548 69.546 69.767 69.005 69.009 68.866 68.812 68.751 68.72 68.74 70.326 69.492 68.538 68.009 69.865 74.055 74.947 74.74 74.564 74.332 73.962 73.615 73.58 73.209 72.54 72.141 70.291 67.498 67.267 67.288 67.296 67.308 67.434 67.667 67.688 67.249 67.301 67.284 67.221 67.246 67.204 67.076 67.344 67.81 69.087 70.799 70.563 69.728 72.268 71.806 68.983 68.659 68.609 68.033 66.328 66.297 67.004 67.451 67.429 71.773 72.951 74.302 73.92 73.007 70.384 66.249 65.905 65.98 66.113 65.629 65.683 65.597 65.527 65.912 65.573 66.189 66.311 69.56 73.042 74.032 74.724 74.129 73.309 70.229 65.638 65.261 65.957 64.986 65.396 64.868 64.802 64.738 64.836 65.253 67.983 72.408 73.471 74.168 74.098 73.91 71.859 65.347 64.555 64.504 64.298 64.14 64.134 64.286 64.434 66.024 67.44 68.07 70.859 72.088 72.849 72.568 69.99 65.708 64.278 63.557 63.593 63.612 63.525 63.937 64.607 64.962 64.106 66.857 70.95 72.243 72.65 71.703 70.558 72.044 69.754 64.921 63.639 63.314 63.158 63.119 63.226 66.23 74.22 76.55 76.806 77.632 77.221 74.408 73.012 67.008 67.033 63.285 62.54 62.49 62.481 62.431 62.459 62.453 62.466 62.495 62.48 62.484 62.461 62.45 62.379 62.327 62.244 62.22 62.138 62.077 62.05 62.005 61.946 61.952 61.84 61.765 61.787 61.732 61.589 61.524 61.503 61.419 61.271 61.207 61.17 61.112 61.036 60.927 60.84 60.77 60.692 60.564 60.499 60.48 60.394 60.345 60.302 60.226 60.217 60.116 60.079 60.051 60.002 59.963 59.89 59.809 59.758 59.669 59.571 59.552 59.465 59.395 59.346 59.258 59.179 59.123 58.985 58.89 58.772 58.614 58.494 58.361 58.252 58.134 58.067 57.923 57.892 57.812 57.619 57.422 57.218 57.063 56.99 56.899 56.98 57.001 56.907 56.793 56.679 56.502 56.386 56.301 56.245 56.166 56.04 55.991 55.951 59.5 66.952 66.693 66.345 63.149 58.178 55.948 54.91 57.05 61.844 62.819 63.4 63.509 63.393 64.226 62.984 62.645 56.68 54.716 53.792 53.935 54.304 53.231 53.221 53.068 52.969 52.991 53.151 53.077 53.606 56.715 59.339 60.503 61.044 61.589 61.904 61.46 61.989 60.321 59.951 55.378 51.895 52.264 51.66 51.609 51.479 51.399 51.203 51.066 50.981 50.937 50.877 50.847 50.735 50.648 51.189 50.774 52.754 59.102 60.111 60.727 60.135 59.876 51.187 50.306 52.116 50.044 49.688 49.593 49.508 49.545 49.865 49.536 52.504 57.875 58.034 57.964 56.569 50.886 48.677 48.591 48.645 48.474 48.4 48.514 49.144 51.275 56.836 57.717 58.375 57.785 51.435 47.814 47.575 47.502 47.395 47.345 47.188 47.024 46.993 46.922 46.769 49.378 53.366 55.653 56.682 56.869 55.512 47.61 45.9 45.889 45.767 45.782 45.811 45.864 45.874 45.858 45.862 45.83 45.778 45.716 45.599 45.586 45.637 45.726 45.818 45.867 45.897 45.936 45.949 46.003 47.342 51.09 51.063 51.017 51.011 51.086 51.116 51.033 51.043 49.752 46.36 49.926 55.005 54.868 42.79 42.698 42.633 42.756 49.63 46.524 49.909 52.282 52.44 51.916 50.381 50.556 50.477 50.971 51.885 52.453 52.284 51.393 50.851 50.378 50.802 51.475 52.076 52.525 51.885 51.319 50.676 44.499 41.604 41.597 41.643
-9999 -9999 -9999 71.591 71.488 71.523 74.65 76.982 72.161 71.182 71.288 71.301 69.952 69.634 69.528 69.453 69.521 69.681 70.306 70.83 74.629 75.678 75.639 74.861 71.273 69.924 69.019 70.185 69.583 69.458 69.089 68.719 68.657 68.558 69.071 68.609 68.409 67.859 72.665 74.294 74.793 74.979 75.1 75.104 75.05 74.667 74.73 74.401 74.009 73.003 69.442 66.965 67.408 67.625 67.438 67.309 67.322 67.349 67.294 67.157 67.273 67.238 67.226 67.179 67.126 68.702 68.658 67.345 67.131 68.225 71.531 72.743 73.397 72.983 71.001 67.272 68.294 66.822 66.286 66.236 66.307 66.387 66.559 68.142 72.323 73.437 74.295 73.257 71.836 69.442 66.063 66.106 65.742 65.62 65.953 65.617 65.483 66.062 65.993 65.664 65.735 65.616 70.784 73.272 74.138 74.819 74.053 72.821 69.46 65.952 67.34 65.085 65.925 65.029 64.77 64.687 64.806 65.076 64.907 66.137 72.702 73.88 74.325 73.998 72.91 71.383 64.64 64.5 64.332 64.39 64.015 65.149 66.948 64.445 67.005 66.537 69.515 71.759 72.586 72.11 70.777 67.055 64.449 63.726 63.517 63.509 63.494 63.418 63.508 64.05 63.675 64.352 70.259 71.565 72.796 71.953 70.819 69.973 69.671 65.965 64.349 63.21 63.051 63.048 63.04 63.105 63.55 76.693 70.109 75.356 76.693 77.161 74.984 72.572 62.594 63.248 62.415 62.405 62.437 62.442 62.411 62.402 62.47 62.453 62.418 62.424 62.445 62.354 62.307 62.28 62.202 62.083 62.082 62.027 61.963 61.939 61.944 61.845 61.774 61.759 61.675 61.65 61.534 61.47 61.367 61.337 61.243 61.167 61.132 61.051 60.941 60.846 60.794 60.713 60.64 60.545 60.491 60.452 60.396 60.349 60.313 60.249 60.114 60.102 60.062 60.03 59.978 59.945 59.869 59.837 59.77 59.687 59.626 59.578 59.476 59.425 59.34 59.234 59.154 59.064 58.951 58.838 58.75 58.552 58.432 58.343 58.186 58.146 58.035 57.889 57.779 57.695 57.574 57.451 57.233 57.051 56.907 56.839 56.815 56.904 56.817 56.667 56.59 56.472 56.313 56.16 56.153 56.08 56 55.912 55.788 62.51 66.859 67.178 63.642 58.455 58.989 58.058 55.017 54.753 62.14 63.497 63.446 63.019 62.26 61.712 58.42 54.693 54.62 53.948 53.863 53.491 53.34 53.182 53.046 53.144 53.253 53.204 52.932 53.479 58.001 60.542 61.035 61.499 61.876 61.721 62.329 60.981 59.968 55.651 53.982 51.893 52.519 51.655 51.577 51.521 51.563 52.943 52.057 51.195 51.085 50.935 50.805 50.729 50.592 50.481 50.503 50.591 50.829 56.562 59.203 60.412 60.507 59.235 53.318 51.89 52.528 51.605 49.477 49.465 49.326 49.564 49.783 50.349 54.819 56.248 57.59 53.327 49.038 48.65 48.561 48.575 48.53 48.395 48.375 49.051 50.602 55.058 57.415 57.801 57.817 56.839 50.734 47.624 48.089 47.386 47.203 47.198 47.147 47.012 46.85 46.792 47.352 46.838 49.265 55.045 56.181 57.233 50.823 45.913 45.852 45.844 45.669 45.798 45.836 45.849 45.855 45.838 45.795 45.753 45.686 45.643 45.553 45.613 45.653 45.77 45.78 45.794 45.87 47.36 45.991 45.958 49.271 51.122 51.07 51.007 51.072 51.15 51.086 51.027 51.087 51.07 50.235 55.457 54.635 42.804 42.619 42.624 42.739 47.952 50.689 51.094 52.069 52.536 51.911 49.493 50.782 50.464 50.919 50.722 52.382 52.348 51.808 50.217 50.496 50.49 51.238 51.971 52.519 52.235 51.43 50.757 45.791 41.6 41.626 41.576 41.62
-9999 -9999 -9999 -9999 71.546 71.702 71.507 71.358 71.158 71.633 70.448 69.933 70.286 69.679 69.491 69.447 69.667 71.418 69.411 69.145 72.33 74.97 71.188 69.087 68.862 69.557 69.421 69.702 69.251 68.92 68.65 68.696 68.594 68.439 68.555 69.031 68.067 67.91 72.197 73.421 73.799 73.789 74.154 74.344 74.102 74.171 76.35 74.85 73.981 72.398 67.627 66.917 67.154 68.352 68.111 67.582 67.834 67.324 67.175 67.173 67.218 67.238 67.229 67.115 67.113 67.481 68.722 70.981 67.08 66.854 71.572 72.712 73.53 73.607 72.512 68.349 66.51 66.411 67.238 66.246 66.135 66.241 66.633 66.939 70.459 72.611 73.655 73.818 72.779 71.24 66.944 65.982 65.931 65.805 67.077 65.787 65.457 65.497 66.026 65.312 65.751 66.157 65.211 71.507 73.299 74.591 74.627 73.652 72.542 65.355 65.268 65.015 64.971 64.867 64.7 64.657 65.612 65.007 64.786 64.78 72.944 73.907 74.268 74.294 73.458 72.475 67.232 64.454 64.313 65.001 64.02 65.53 67.324 64.683 64.823 65.386 65.707 70.863 72.036 72.552 71.4 66.477 64.14 63.692 63.435 63.461 63.444 63.421 63.363 63.467 63.421 63.972 68.189 71.023 72.318 72.403 71.39 69.935 64.752 63.836 65.074 63.558 63.034 62.939 63.005 63.127 62.872 66.596 65.029 72.709 76.88 78.904 79.985 69.972 72.368 62.462 62.311 62.357 62.399 62.34 62.371 62.413 62.39 62.432 62.422 62.376 62.343 62.349 62.276 62.201 62.145 62.085 61.99 61.974 61.93 61.861 61.86 61.848 61.735 61.7 61.647 61.609 61.496 61.4 61.329 61.242 61.172 61.136 61.039 60.981 60.887 60.807 60.731 60.682 60.605 60.525 60.467 60.465 60.427 60.315 60.277 60.203 60.158 60.102 60.057 60.019 59.936 59.877 59.849 59.798 59.746 59.695 59.625 59.567 59.465 59.369 59.321 59.242 59.114 59.061 58.939 58.776 58.651 58.507 58.429 58.34 58.176 58.053 57.98 57.848 57.76 57.652 57.528 57.413 57.286 56.99 56.828 56.807 56.732 56.762 56.646 56.547 56.387 56.337 56.28 56.133 56.024 55.868 55.905 55.804 55.662 60.792 63.325 61.373 58.456 55.221 56.489 57.93 57.729 60.896 55.048 57.716 62.189 61.818 57.456 55.846 55.555 54.281 55.004 53.744 53.408 53.256 53.158 53.194 53.311 53.257 53.149 52.518 59.365 61.208 61.169 61.459 61.882 61.668 61.291 60.603 60.356 55.638 52.82 52.715 52.593 52.668 51.856 51.671 51.524 52.485 53.822 53.516 51.619 57.499 59.098 51.178 50.704 50.61 50.497 50.491 50.347 50.646 50.41 52.092 57.356 59.914 60.502 60.706 58.207 51.251 50.195 50.067 49.375 49.268 49.289 49.356 49.989 49.313 49.436 50.165 48.928 49.13 48.669 48.551 48.558 48.552 48.923 48.916 48.509 49.004 53.967 57.028 57.764 58.061 57.045 56.085 48.433 47.489 47.272 47.21 47.099 47.092 47.039 46.927 46.778 46.681 46.872 46.681 46.358 52.958 55.681 54.494 45.926 45.842 45.811 45.733 45.747 45.814 45.812 45.815 45.82 45.735 45.734 45.693 45.632 45.557 45.621 45.667 45.711 45.716 45.783 45.819 45.895 48.367 48.807 47.819 51.082 51.079 51.012 51.077 51.1 51.116 51.002 51.08 51.089 48.153 53.203 55.612 45.572 42.648 42.66 42.636 46.683 50.642 49.688 50.93 52.444 52.316 49.063 50.823 50.355 50.784 51.573 52.34 52.555 51.863 51.323 50.711 50.56 51.164 51.707 52.417 52.275 51.626 51.006 50.252 42.567 41.616 41.589 41.599 41.613
-9999 -9999 -9999 -9999 -9999 71.498 71.331 71.576 71.544 71.129 70.635 70.004 69.702 69.631 71.342 70.306 70.324 69.519 68.83 69.325 69.845 71.588 70.152 68.677 72.504 74.826 69.967 68.614 68.871 69.788 68.741 68.587 68.51 68.468 68.384 68.415 68.178 67.994 68.051 69.034 70.134 70.855 71.551 71.465 72.782 72.787 73.348 73.553 73.652 69.901 67.026 66.914 66.9 67.184 67.447 67.766 67.436 67.233 67.201 67.299 67.209 67.328 67.196 67.232 67.05 67.016 69.143 72.296 71.072 66.965 69.305 71.865 73.073 74.478 73.241 72.272 67.575 67.062 66.301 66.103 66.085 66.047 66.505 68.148 69.285 71.583 72.665 74.266 73.519 72.379 70.159 66.45 66.668 65.705 66.287 65.963 65.379 65.351 65.267 65.199 65.298 65.986 65.363 69.652 72.797 74.991 74.679 74.214 73.862 72.114 66.692 64.98 64.926 64.693 65.079 64.536 65.304 64.751 64.674 64.902 67.932 72.315 73.885 74.208 73.979 73.131 71.196 64.711 65.078 64.193 63.952 64.389 66.301 68.025 64.865 63.983 65.93 70.406 71.624 72.519 71.664 70.676 65.789 64.71 63.535 64.029 63.373 63.314 63.317 63.305 63.543 63.476 67.968 70.661 71.683 72.725 72.529 70.427 69.758 70.151 63.731 63.154 62.902 62.862 63.371 63.205 62.9 62.884 62.915 71.652 76.369 79.157 79.286 77.681 68.307 66.864 62.318 62.316 62.336 62.349 62.313 62.363 62.39 62.403 62.363 62.361 62.317 62.237 62.22 62.17 62.154 62.054 61.975 61.904 61.899 61.855 61.805 61.731 61.644 61.616 61.542 61.465 61.453 61.371 61.309 61.231 61.175 61.075 61.016 60.94 60.827 60.779 60.728 60.658 60.591 60.525 60.503 60.436 60.376 60.315 60.256 60.185 60.111 60.084 60.042 59.992 59.954 59.91 59.873 59.827 59.785 59.705 59.658 59.523 59.464 59.404 59.338 59.232 59.11 58.956 58.867 58.743 58.642 58.501 58.396 58.281 58.123 58.016 57.899 57.796 57.709 57.627 57.481 57.388 57.264 57.04 56.833 56.723 56.663 56.685 56.686 56.498 56.362 56.225 56.17 56.129 55.978 55.821 55.767 55.694 55.577 55.495 55.607 57.945 55.222 55.096 55.129 62.594 64.985 66.486 58.502 63.666 62.101 60.776 54.109 54.051 54.452 53.744 53.501 53.442 53.649 53.229 53.272 53.373 53.274 53.519 58.234 60.458 61.157 61.497 61.942 61.867 61.402 60.689 60.251 59.393 54.314 52.103 51.924 52.276 52.199 51.739 51.7 51.529 51.456 51.824 51.669 53.388 56.721 59.916 59.942 57.459 50.884 50.55 50.555 50.391 50.299 50.269 50.2 50.814 56.638 59.257 60.009 59.895 58.61 56.141 52.932 51.942 49.467 49.223 49.205 49.075 49.204 49 48.993 49.029 49.64 49.293 48.541 48.431 48.47 48.414 49.023 48.47 49.208 52.915 56.16 57.457 58.107 57.691 56.752 50.153 47.151 47.264 47.066 47.057 47.021 46.937 46.904 46.838 46.841 47.93 46.492 46.336 46.121 46.606 54.504 46.993 46.374 45.977 45.744 45.718 45.772 45.823 45.847 45.792 45.798 45.774 45.686 45.623 45.556 45.532 45.608 45.709 45.798 45.756 45.789 45.842 47.904 48.929 49.717 50.922 51.061 50.989 51.078 51.02 46.519 49.994 51.061 51.104 48.4 48.974 55.341 48.214 42.616 42.65 42.609 42.8 50.292 46.739 51.759 52.417 52.021 45.513 50.939 50.53 50.571 49.886 52.125 52.508 52.111 51.362 50.763 50.537 50.888 51.615 52.395 52.537 51.827 51.116 50.638 45.44 41.605 41.616 41.62 41.591 41.593
-9999 -9999 -9999 -9999 -9999 -9999 72.16 73.284 73.301 71.316 71.136 70.629 69.692 70.482 70.565 72.077 69.345 68.903 68.782 69.196 71.436 70.826 68.95 73.8 75.492 75.507 74.642 70.096 68.906 69.214 68.828 68.508 68.462 68.406 68.369 68.334 68.221 68.13 67.997 68.016 68.226 67.706 67.638 67.621 67.48 67.491 67.63 69.354 69.389 68.429 67.1 66.892 66.96 68.56 67.729 67.322 67.244 67.293 67.229 67.195 67.181 67.983 69.011 67.629 67.067 66.967 67.18 69.659 68.909 67.057 68.931 71.157 72.282 73.52 73.663 72.805 70.804 66.37 66.514 67.641 66.699 65.963 66.462 68.416 67.17 69.096 71.918 72.975 73.893 74.029 71.563 67.868 66.045 65.599 65.5 65.337 65.288 65.246 65.269 65.188 65.513 65.279 66.379 65.428 68.992 72.871 73.797 74.438 74.044 73.964 69.207 65.74 65 64.637 64.586 64.514 64.432 64.632 65.432 64.49 64.724 68.321 72.645 74.733 73.817 73.452 73.282 68.211 64.285 64.243 64.201 63.886 63.769 64.378 64.126 65.589 66.663 69.408 71.171 72.325 72.358 71.425 66.278 63.977 63.443 64.143 63.347 63.267 64.102 63.53 64.021 63.844 66.257 70.28 72.563 73.153 73.288 72.674 71.22 70.058 65.084 63.051 63.237 62.741 63.023 63.125 62.921 62.895 62.784 62.907 76.043 74.466 73.661 78.372 69.6 63.485 62.293 62.336 62.334 62.315 62.337 62.357 62.325 62.322 62.318 62.288 62.257 62.229 62.171 62.138 62.098 61.993 61.906 61.837 61.818 61.751 61.694 61.676 61.544 61.517 61.449 61.385 61.364 61.342 61.219 61.133 61.099 61.029 60.951 60.888 60.856 60.807 60.701 60.611 60.599 60.527 60.487 60.397 60.369 60.286 60.226 60.141 60.126 60.106 60.042 60.005 59.95 59.944 59.872 59.831 59.778 59.695 59.598 59.532 59.456 59.365 59.301 59.242 59.136 58.956 58.867 58.734 58.624 58.484 58.364 58.309 58.18 58.013 57.902 57.777 57.654 57.558 57.502 57.381 57.235 57.079 56.819 56.602 56.625 56.524 56.545 56.452 56.318 56.244 56.075 56.001 55.912 55.818 55.657 55.52 55.476 55.419 55.359 55.234 55.045 57.149 59.096 67.271 69.187 66.628 67.902 65.306 64.283 61.273 56.667 54.098 53.559 53.478 53.418 53.426 54.57 53.451 53.736 53.76 57.231 60.512 60.885 61.519 61.967 61.929 61.412 61.946 60.556 55.532 54.247 52.402 52.888 52.409 51.951 51.838 51.781 51.758 51.566 51.487 51.72 54.989 57.597 59.013 60.094 60.258 60.431 60.046 52.722 50.435 50.384 50.339 50.238 50.144 50.303 50.383 51.463 57.151 59.669 60.34 59.524 58.118 54.211 49.803 50.064 49.187 48.992 49.012 48.949 48.804 48.969 49.342 51.51 48.584 48.45 48.477 48.385 48.641 48.367 48.918 52.877 56.542 57.311 57.754 57.716 57.388 51.264 47.954 47.46 47.111 47.035 47.002 46.949 46.83 46.796 46.664 46.636 46.492 46.322 46.309 46.14 45.979 45.914 45.859 45.816 45.767 45.723 45.745 45.777 45.808 45.893 45.795 45.747 45.686 45.618 45.528 45.508 45.566 45.724 45.813 46.32 45.986 47.289 46.463 48.158 49.235 50.304 51.067 50.998 51.078 51.073 47.684 45.97 45.957 47.488 51.01 50.515 54.54 48.093 43.747 42.621 42.597 43.352 49.579 50.554 49.787 52.332 52.512 51.886 49.456 50.569 50.509 51.141 51.676 52.558 51.914 49.888 50.933 50.448 50.705 49.886 52.061 52.481 51.797 51.309 50.688 45.753 41.639 41.626 41.594 41.64 41.615 41.603
-9999 -9999 -9999 -9999 -9999 -9999 -9999 73.351 73.279 73.185 71.849 71.184 71.395 72.926 70.106 70.341 69.169 68.905 71.573 72.52 72.065 69.304 69.613 74.357 75.388 76.215 76.522 71.747 68.586 68.612 68.617 68.461 68.399 68.381 68.348 68.328 68.191 68.396 68.054 68.079 69.048 68.061 67.593 67.435 67.504 67.523 68.041 67.373 67.357 67.526 67.228 67.407 68.048 68.519 67.329 67.241 67.213 67.202 67.238 67.508 67.87 68.213 68.187 68.303 67.203 66.914 66.862 67.102 68.499 68.127 66.933 67.366 71.373 72.892 73.226 73.221 72.317 68.084 66.334 67.116 67.826 65.929 65.878 65.955 66.484 66.481 71.099 72.321 73.624 74.302 72.582 71.176 67.825 65.611 65.487 65.33 65.196 65.245 65.211 65.15 66.255 65.351 65.778 65.439 65.068 71.687 73.086 74.134 74.261 73.989 73.783 66.114 64.72 65.136 64.609 65.477 64.472 64.452 64.929 64.339 64.438 64.925 69.98 73.685 73.481 73.74 72.957 71.914 65.337 65.951 65.001 63.882 63.695 63.711 64.384 65.989 66.974 68.96 70.76 72.086 72.368 72.8 70.258 64.191 64.152 63.348 63.312 63.221 63.286 63.361 63.473 63.574 65.268 70.679 72.02 73.361 73.526 72.973 67.293 64.437 63.225 62.932 62.91 62.76 62.728 62.796 62.94 62.767 62.737 62.543 64.793 67.178 69.001 63.778 62.339 62.31 62.265 62.229 62.259 62.319 62.312 62.321 62.272 62.257 62.236 62.219 62.165 62.119 62.076 62.06 62.027 61.955 61.885 61.785 61.771 61.691 61.603 61.534 61.483 61.45 61.355 61.334 61.302 61.23 61.136 61.106 61.063 61.024 60.97 60.904 60.813 60.735 60.694 60.607 60.533 60.526 60.482 60.386 60.32 60.294 60.213 60.139 60.104 60.07 60.055 60.05 59.977 59.953 59.904 59.843 59.78 59.709 59.603 59.523 59.416 59.312 59.276 59.207 59.056 58.942 58.811 58.725 58.576 58.441 58.342 58.287 58.181 58.081 57.909 57.755 57.648 57.554 57.475 57.358 57.202 57.083 56.831 56.659 56.512 56.451 56.463 56.433 56.29 56.186 56.043 55.956 55.778 55.764 55.677 55.494 55.335 55.196 55.171 55.081 55.024 62.772 62.855 68.359 68.707 70.104 66.765 61.587 64.893 64.798 62.615 54.832 53.611 53.494 54.703 53.812 53.534 53.757 58.354 60.495 61.079 61.744 62.05 61.935 61.845 61.278 60.579 59.784 53.199 53.009 52.152 52.057 52.304 51.925 51.868 51.849 52.582 51.754 51.577 53.274 58.118 59.184 59.597 60.261 60.182 60.247 60.027 59.936 57.466 51.084 50.305 50.299 50.109 49.98 50.06 49.946 49.888 51.711 58.488 59.787 60.295 58.816 52.112 50.097 49.52 49.186 48.969 48.889 48.847 48.724 48.615 49.345 48.565 48.441 48.411 48.394 48.356 48.569 49.169 48.802 54.898 57.416 57.941 58.051 57.393 52.669 49.164 47.572 47.135 47.048 47.156 47.008 46.778 46.75 46.637 46.593 46.468 46.452 46.289 46.183 45.987 45.882 45.883 45.83 45.728 45.67 45.7 45.762 45.793 45.863 45.796 45.685 45.694 45.651 45.587 45.485 45.555 45.584 45.601 45.483 45.401 45.465 49.771 49.464 49.317 49.754 50.333 50.661 50.343 50.957 51.117 48.327 46.074 45.934 45.938 45.991 53.921 55.271 43.843 42.62 42.598 42.6 48.014 50.82 51.292 51.966 52.434 52.073 51.233 50.782 50.378 50.987 51.632 52.47 52.471 51.785 51.066 50.513 50.595 51.076 52.101 52.559 52.201 51.359 50.86 50.038 42.572 41.628 41.62 41.598 41.636 41.646 41.58
-9999 -9999 -9999 -9999 -9999 -9999 -9999 -9999 73.169 73.104 71.79 71.807 71.497 69.78 70.223 71.305 71.258 69.981 70.515 72.817 71.429 68.847 69.051 72.599 74.762 75.64 75.969 74.727 70.507 68.511 68.512 68.628 68.363 68.258 68.249 68.22 68.113 68.097 68.071 68.184 68.673 67.936 67.58 67.464 67.531 67.512 68.029 67.528 67.46 67.443 67.783 68.403 67.615 67.27 67.317 67.237 67.239 67.129 67.317 68.705 68.175 67.329 66.912 67.064 68.133 66.919 66.886 66.835 67.828 67.351 68.241 66.81 66.928 71.839 72.713 73.507 73.074 71.551 69.099 66.108 66.198 66.079 65.808 65.77 66.197 66.872 68.184 71.364 72.916 73.234 73.02 71.839 70.862 67.174 65.539 65.743 65.725 66.05 65.152 65.099 65.051 64.954 64.95 65.135 65.397 70.032 72.571 73.416 74.264 74.135 73.033 66.93 64.977 64.656 64.447 64.552 64.465 64.311 64.406 65.112 64.302 64.5 65.605 71.988 72.681 73.565 73.541 72.536 70.821 64.696 63.921 63.871 63.69 63.649 64.288 64.17 63.851 64.387 70.031 72.816 72.286 71.805 70.609 65.265 63.886 63.296 64.147 63.179 63.12 63.021 63.132 63.293 63.932 66.935 72.4 73.656 73.667 73.349 71.694 66.519 63.906 63.042 62.995 62.795 62.673 62.697 63.18 62.756 62.648 62.587 67.461 73.146 63.949 66.422 62.375 62.238 62.244 62.235 62.258 62.292 62.317 62.278 62.207 62.2 62.164 62.119 62.112 62.068 62.065 62.032 61.97 61.91 61.821 61.772 61.723 61.604 61.559 61.451 61.417 61.349 61.356 61.268 61.24 61.219 61.082 61.047 60.993 60.982 60.945 60.86 60.826 60.714 60.637 60.598 60.559 60.474 60.435 60.366 60.308 60.246 60.172 60.166 60.097 60.067 60.043 59.98 59.965 59.97 59.917 59.872 59.804 59.736 59.617 59.477 59.44 59.321 59.222 59.149 59.061 58.91 58.79 58.686 58.567 58.442 58.364 58.281 58.239 58.069 57.934 57.781 57.657 57.534 57.433 57.368 57.154 57.014 56.842 56.694 56.502 56.427 56.342 56.339 56.274 56.155 55.971 55.861 55.743 55.576 55.548 55.461 55.334 55.125 55.083 54.92 54.871 56.758 65.321 69.229 69.946 64.939 66.013 65.839 69.625 67.075 61.272 54.658 53.676 53.87 53.483 53.514 57.006 59.793 61.136 61.614 61.847 62.217 61.923 61.419 61.126 59.53 54.907 53.149 52.258 52.116 52.124 52.074 52.007 51.989 52.676 52.047 52.032 51.898 56.633 59.052 59.569 60.706 60.174 60.168 59.724 59.172 58.748 54.307 54.237 53.432 50.427 50.183 50.131 50.505 49.952 49.825 49.878 50.605 57.689 59.453 59.883 59.21 57.812 50.075 49.535 50.29 48.941 48.752 48.748 48.681 48.502 48.466 48.444 48.412 48.4 48.966 48.574 48.51 49.037 53.123 56.498 57.628 58.257 58.006 57.146 47.668 47.697 47.343 46.992 47.071 50.402 49.743 47.358 46.617 46.523 46.443 46.423 46.317 46.178 46.095 45.933 46.115 45.836 45.745 45.638 45.679 45.725 45.768 47.47 45.927 45.774 45.664 45.599 45.547 45.521 45.598 45.669 47.663 45.572 45.362 45.215 45.091 46.073 48.167 48.073 49.276 49.721 50.133 50.522 50.439 49.935 49.475 46.983 45.947 48.072 52.816 55.499 47.295 42.621 42.649 42.616 46.591 50.636 51.129 51.773 52.451 52.222 51.445 49.875 50.454 50.85 51.386 52.137 52.492 52.024 51.311 50.644 50.588 51.097 50.739 52.501 52.423 51.794 50.973 50.31 44.1 41.636 41.612 41.615 41.603 41.592 41.548 41.498
-9999 -9999 -9999 -9999 -9999 -9999 -9999 -9999 71.223 70.219 69.922 71.412 73.094 72.727 69.818 70.288 72.445 70.452 68.624 70.758 69.108 68.466 68.455 68.59 73.634 74.889 75.624 75.026 71.188 69.412 68.742 69.715 68.395 68.195 68.192 68.165 68.115 68.052 68.269 68.364 72.775 68.847 67.522 67.497 67.619 67.598 67.621 67.519 67.731 68.336 67.827 67.335 67.3 67.305 67.287 67.25 67.285 68.475 67.546 67.238 66.947 67.159 66.922 66.875 67.324 67.137 66.812 66.763 66.757 68.78 68.066 66.871 66.392 70.071 71.981 73.088 74.622 72.617 69.044 67.65 65.89 65.781 65.779 65.723 65.731 66.158 67.045 68.534 71.695 72.919 73.917 72.813 71.683 68.691 65.577 65.581 65.2 65.942 65.094 65.098 65.021 64.866 64.845 64.983 65.027 65.408 71.345 72.682 74.036 74.143 73.24 72.522 68.81 64.791 65.203 64.554 64.262 64.254 64.191 64.995 64.374 64.472 64.36 69.66 73.38 73.405 73.781 74.253 72.035 69.766 64.109 63.901 63.606 63.494 63.626 63.801 64.333 63.741 64.875 70.692 71.858 71.858 70.993 66.02 63.578 63.501 63.318 63.275 63.01 63.651 63.546 64.123 63.72 64.213 72.993 72.722 73.337 73.281 72.218 70.837 63.547 63.342 62.837 62.68 62.647 62.739 62.89 62.964 74.603 74.661 76.522 77.702 77.174 69.475 62.897 62.282 62.206 62.179 62.211 62.231 62.202 62.206 62.19 62.137 62.111 62.095 62.067 62.015 61.99 61.954 61.884 61.829 61.785 61.721 61.605 61.59 61.536 61.403 61.354 61.288 61.277 61.246 61.19 61.097 61.038 60.992 60.946 60.931 60.934 60.873 60.776 60.673 60.629 60.547 60.489 60.419 60.407 60.359 60.3 60.25 60.17 60.138 60.108 60.054 60.038 60.015 59.937 59.925 59.894 59.825 59.736 59.714 59.597 59.446 59.377 59.307 59.253 59.175 59.028 58.897 58.77 58.684 58.581 58.519 58.373 58.228 58.169 58.086 57.927 57.794 57.673 57.531 57.383 57.309 57.128 57.009 56.858 56.723 56.541 56.341 56.253 56.262 56.211 56.06 55.963 55.783 55.707 55.562 55.495 55.391 55.359 55.175 55.008 54.824 54.666 56.909 66.5 68.066 68.897 61.541 64.577 69.768 66.826 64.114 57.824 53.738 53.602 53.505 53.829 60.417 60.933 61.448 62.068 62.42 62.165 61.468 61.106 60.22 56.055 53.201 52.934 53.354 52.221 52.141 52.109 52.048 52.453 52.657 52.069 51.993 57.382 59.02 59.526 60.896 60.607 60.636 60.161 59.201 58.828 54.667 53.791 50.581 52.289 52.864 50.41 50.051 49.955 49.926 50.283 49.862 50.578 49.879 55.294 59.423 59.48 59.762 58.75 54.27 49.84 49.493 49.046 48.674 48.645 48.535 48.486 48.402 48.35 48.355 48.359 48.594 48.725 49.338 50.402 55.881 57.363 57.912 57.558 56.291 50.666 46.96 47.16 46.998 47.041 49.543 50.603 50.304 49.344 46.58 46.489 46.377 46.279 46.159 46.097 45.968 45.936 46.508 45.751 45.638 45.675 45.76 45.78 45.89 45.899 45.756 45.659 45.613 45.595 45.474 45.538 45.635 46.15 45.818 45.388 45.245 45.169 44.951 44.891 44.722 44.864 46.214 48.605 49.466 50.008 50.22 49.588 48.699 46.26 45.963 50.269 54.622 52.964 42.773 42.644 42.597 42.759 49.675 50.958 51.715 52.279 52.433 46.747 50.937 50.539 50.655 51.298 51.929 52.605 52.148 51.379 50.912 50.414 51.06 51.49 52.253 52.37 51.966 51.222 50.457 41.831 41.662 41.612 41.627 41.619 41.609 41.599 41.531 41.505
-9999 -9999 -9999 -9999 -9999 -9999 -9999 -9999 -9999 69.716 69.547 69.497 72.83 71.843 72.349 72.433 72.856 70.018 69.197 71.106 70.563 68.463 68.552 68.285 69.677 74.315 74.52 71.748 68.699 70.103 68.396 68.532 69.455 68.506 68.153 68.134 68.103 68.06 68.072 70.145 73.709 73.282 68.565 67.522 67.583 67.619 68.167 67.68 68.917 67.758 67.347 67.313 67.306 67.274 67.198 67.373 67.424 68.198 67.008 67.059 71.268 70.987 67.23 66.76 66.929 67.023 66.91 66.71 66.654 66.792 67.254 66.763 66.439 66.509 69.272 72.302 73.038 72.809 72.051 68.599 67.457 66.738 66.503 65.908 65.631 66.152 65.68 66.518 70.658 72.029 72.99 73.441 72.166 71.054 67.755 65.319 65.127 65.02 65.785 65.014 64.872 64.855 64.75 64.84 65.273 65.157 65.047 71.551 72.361 73.855 73.913 73.063 71.846 67.86 65.176 65.05 64.26 64.115 64.157 64.141 64.099 64.177 64.284 65.211 71.688 72.509 73.255 73.298 72.519 71.702 66.08 63.901 63.802 63.463 63.432 63.594 63.44 63.547 66.3 70.509 71.369 72.283 71.491 69.501 64.379 63.287 63.105 63.706 62.946 63.353 64.217 63.025 63.395 63.739 69.451 72.059 72.858 73.693 72.314 64.586 63.171 62.716 62.643 62.675 62.708 64.823 66.403 68.076 80.304 80.308 82.604 80.867 65.543 78.715 62.668 62.18 62.089 62.139 62.14 62.135 62.149 62.166 62.108 62.088 62.006 61.977 61.978 61.936 61.922 61.876 61.848 61.778 61.697 61.655 61.536 61.525 61.465 61.332 61.253 61.281 61.247 61.172 61.112 61.071 61.003 60.948 60.935 60.858 60.81 60.76 60.744 60.6 60.558 60.513 60.449 60.365 60.34 60.308 60.324 60.275 60.164 60.128 60.07 60.064 60.018 59.994 59.955 59.945 59.888 59.845 59.698 59.64 59.532 59.384 59.357 59.306 59.204 59.122 59.025 58.876 58.786 58.697 58.585 58.479 58.339 58.235 58.133 58.061 57.926 57.795 57.654 57.488 57.36 57.271 57.145 56.987 56.861 56.684 56.482 56.336 56.187 56.159 56.144 56.019 55.944 55.775 55.58 55.489 55.427 55.322 55.147 55.096 54.975 54.842 54.599 54.842 57.929 63.319 64.173 66.353 67.708 68.968 68.539 59.46 57.269 55.572 53.719 53.434 53.555 58.76 61.838 62.432 62.261 61.773 61.032 60.238 56.204 52.605 52.403 52.346 52.448 52.316 52.196 52.069 52.053 53.046 52.205 53.758 55.915 58.523 60.017 60.424 60.415 60.464 60.035 59.468 59.324 58.223 53.658 50.679 50.974 50.739 50.252 50.267 49.907 49.812 49.858 49.792 49.726 49.64 50.335 49.643 49.989 57.367 58.937 60.049 60.631 57.495 51.323 50.02 50.945 49.987 48.564 48.469 48.38 48.389 48.366 48.239 48.414 48.165 48.492 51.051 55.382 56.563 57.621 57.33 56.5 55.327 47.571 47.806 47.005 46.975 47.525 47.968 50.072 50.445 47.815 46.492 46.334 46.287 46.172 46.045 46.024 45.875 45.732 45.77 45.657 45.622 45.724 45.727 45.786 45.906 45.811 45.649 45.659 45.598 45.495 45.46 45.608 45.75 45.979 45.438 45.345 45.129 46.677 45.382 44.702 44.568 44.498 44.786 46.481 47.056 47.676 51.469 49.317 46.263 45.919 50.016 54.128 53.425 43.71 42.648 42.616 43.165 48.311 50.858 51.444 52.213 52.466 47.474 51.166 50.63 50.648 51.224 51.865 52.491 52.418 51.585 50.981 50.452 50.712 51.384 52.192 52.653 51.988 51.266 50.594 44.193 41.66 41.65 41.619 41.641 41.606 41.615 41.533 41.497 41.468
-9999 -9999 -9999 -9999 -9999 -9999 -9999 -9999 -9999 -9999 69.417 69.316 69.018 70.042 71.742 73.358 73.791 71.206 69.513 72.911 72.07 69.858 68.314 68.285 69.773 72.977 69.172 70.06 70.277 70.328 68.334 68.359 69.601 68.92 68.208 68.041 67.97 67.955 67.893 68.077 70.068 69.544 67.757 67.584 67.599 68.637 68.084 67.586 68.057 67.692 67.296 67.292 67.241 67.24 67.265 67.776 67.395 66.85 67.167 71.499 73.012 72.725 68.263 66.967 66.944 66.775 67.362 66.705 66.636 67.664 67.22 68.751 67.542 66.345 66.544 71.423 72.538 71.888 68.243 67.501 67.313 66.904 65.881 65.944 65.85 65.531 66.305 65.887 65.79 70.874 73.236 73.47 73.244 71.433 69.607 66.195 65.111 65.307 65.128 65.419 64.814 64.822 64.825 65.395 65.061 65.627 64.812 66.84 72.217 73.268 73.827 73.852 72.521 70.48 64.714 64.315 64.606 64.166 64.067 64.075 64.09 64.68 65.394 66.509 65.27 72.299 72.984 73.194 73.287 72.619 69.93 63.769 63.795 63.573 63.448 63.31 64.394 66.248 66.808 69.49 71.047 72.12 71.727 70.478 65.597 63.898 63.081 63.903 62.886 62.856 63.36 62.922 63.106 62.872 65.682 71.366 73.48 67.657 62.869 62.613 62.621 62.619 62.673 62.683 62.707 63.651 70.895 74.009 75.496 81.575 73.655 80.949 73.579 70.598 65.774 63.575 62.065 62.034 62.082 62.019 61.996 61.979 62.025 61.966 61.922 61.903 61.885 61.876 61.803 61.8 61.695 61.659 61.569 61.506 61.474 61.467 61.394 61.284 61.267 61.229 61.167 61.109 61.029 60.998 60.945 60.886 60.855 60.782 60.745 60.686 60.638 60.56 60.528 60.446 60.399 60.337 60.34 60.265 60.286 60.256 60.177 60.125 60.085 60.03 60.006 59.991 59.954 59.921 59.847 59.731 59.71 59.562 59.527 59.369 59.311 59.248 59.216 59.147 59.053 58.894 58.801 58.713 58.593 58.47 58.349 58.246 58.142 58 57.927 57.818 57.647 57.532 57.41 57.275 57.23 57.011 56.793 56.678 56.558 56.338 56.177 56.192 56.113 56.009 55.838 55.757 55.569 55.478 55.279 55.189 55.087 54.906 54.854 54.806 54.641 54.373 54.251 57.502 56.453 58.412 55.863 65.05 55.219 54.374 59.249 62.967 60.678 53.681 53.258 53.255 60.081 60.229 61.123 60.622 56.285 53.949 52.603 52.434 52.394 52.364 52.298 52.199 52.159 52.064 52.024 52.463 56.585 58.826 60.797 60.087 60.763 60.807 60.381 59.446 58.883 58.211 53.702 51.211 51.038 50.597 50.714 50.177 50.026 49.958 49.882 49.764 49.725 49.665 49.655 50.664 49.542 49.746 50.573 54.158 58.249 58.942 59.542 58.323 53.185 51.048 51.631 49.979 48.452 48.382 48.329 48.339 48.273 49.4 48.383 48.291 48.464 56.058 56.813 57.528 57.603 56.642 55.699 47.551 47.395 47.19 46.977 46.926 47.431 47.116 48.457 54.433 54.95 49.451 46.869 46.506 46.009 45.946 45.867 45.762 45.719 45.638 45.628 45.678 45.709 45.728 45.785 45.72 45.689 45.657 45.597 45.522 45.451 45.701 45.643 46.247 45.512 45.329 45.235 45.095 46.774 46.858 44.643 44.38 44.536 44.334 44.175 45.029 51.903 52.714 49.78 48.409 46.168 52.819 54.799 43.992 42.573 42.599 42.625 46.93 50.716 46.449 52.284 52.676 51.896 45.28 50.697 50.51 50.991 51.77 52.293 52.439 51.672 51.221 50.484 50.692 51.244 51.916 52.555 52.078 51.464 50.917 45.913 41.663 41.657 41.637 41.633 41.616 41.604 41.575 41.521 41.504 41.423
-9999 -9999 -9999 -9999 -9999 -9999 -9999 -9999 -9999 -9999 -9999 69.143 69.018 69.235 71.204 73.194 73.032 72.093 71.835 72.953 71.979 68.918 68.46 70.157 70.625 69.126 69.738 70.044 68.735 69.381 68.817 68.345 69.394 69.866 68.237 68.091 67.95 67.948 67.874 67.821 67.854 67.975 67.677 67.679 68.472 69.947 68.22 67.677 68.466 67.395 67.226 67.292 67.337 67.244 67.174 66.856 66.905 67.995 71.169 73.278 74.179 73.688 72.285 67.26 66.692 66.862 67.329 66.93 66.571 66.998 67.71 68.652 66.78 66.361 66.248 66.937 68.136 68.668 67.464 66.742 65.832 65.581 65.56 65.61 66.788 65.529 65.461 65.509 65.598 67.778 71.391 72.72 73.234 72.479 71.303 68.293 65.768 65.171 64.904 64.82 64.802 64.766 64.729 65.423 65.343 64.689 64.852 66.003 70.646 72.482 75.352 73.888 73.392 72.16 65.012 64.427 64.342 64.404 64.183 64.586 64.018 64.2 63.899 64.548 64.031 68.272 72.14 72.706 73.304 72.809 72.584 67.269 63.917 63.727 63.385 63.251 64.228 66.485 66.352 64.377 70.512 72.13 73.162 70.924 67.999 63.789 63.043 62.873 62.798 62.812 62.775 62.782 63.167 62.834 63.03 62.712 62.67 62.798 63.853 62.613 62.648 62.633 62.658 62.66 62.625 68.158 73.874 76.621 78.729 79.303 80.835 72.573 72.495 72.155 71.262 67.295 62.161 62.015 61.936 61.911 61.922 61.904 61.915 61.822 61.863 61.782 61.747 61.731 61.667 61.668 61.623 61.559 61.508 61.466 61.434 61.414 61.323 61.208 61.218 61.235 61.128 61.051 60.98 60.964 60.919 60.859 60.815 60.752 60.712 60.677 60.65 60.536 60.471 60.446 60.401 60.327 60.307 60.279 60.268 60.207 60.172 60.157 60.094 60.056 60.034 59.943 59.933 59.865 59.772 59.804 59.702 59.571 59.472 59.378 59.283 59.244 59.208 59.127 59.031 58.919 58.822 58.713 58.632 58.492 58.357 58.186 58.087 58.012 57.94 57.806 57.682 57.527 57.395 57.304 57.228 57.035 56.812 56.649 56.546 56.346 62.352 63.651 56.678 57.723 55.805 55.713 55.515 55.402 55.221 55.123 54.949 54.864 54.72 54.701 54.543 54.435 54.279 54.035 53.962 53.762 53.69 53.547 53.583 62.383 65.095 64.561 60.858 55.052 53.134 53.158 53.292 59.023 59.917 53.565 52.728 52.571 52.462 52.387 52.369 52.327 52.271 52.204 52.111 52.258 57.156 58.805 59.755 60.429 61.024 60.729 61.411 60.633 60.517 58.624 52.813 51.178 51.18 51.226 50.454 50.179 50.148 50.04 49.996 51.76 50.743 50.705 49.749 49.65 49.511 49.692 49.559 50.325 49.973 49.261 56.484 58.908 59.331 59.233 57.828 53.92 48.637 48.876 48.566 48.304 48.273 48.287 48.218 48.151 48.156 48.309 53.137 56.61 57.565 57.935 57.299 55.921 47.667 47.303 47.2 46.947 47.015 49.412 48.485 47.064 51.185 54.938 55.851 50.291 46.262 46.071 45.971 45.853 45.825 45.733 45.644 45.576 45.64 45.691 45.743 45.723 45.721 45.659 45.644 45.608 45.549 45.423 45.525 45.604 46.062 45.671 45.41 45.226 45.095 44.948 45.399 47.158 45.062 44.509 50.076 44.929 43.966 45.614 52.079 48.864 51.619 49.817 52.474 50.167 43.71 42.646 42.652 42.605 44.073 50.537 51.199 51.807 52.518 52.143 51.562 50.94 50.49 50.759 51.382 52.262 52.551 51.961 51.267 50.672 50.447 51.103 51.808 52.395 52.368 51.641 51.019 50.163 42.66 41.671 41.611 41.62 41.629 41.61 41.606 41.569 41.483 41.436 41.453
-9999 -9999 -9999 -9999 -9999 -9999 -9999 -9999 -9999 -9999 -9999 69.659 70.845 69.899 70.283 69.606 74.426 74.669 70.281 69.755 69.096 68.43 69.886 70.205 69.52 69.498 69.251 69.543 72.251 72.564 70.278 70.558 67.951 68.002 69.293 68.192 67.867 67.859 67.839 67.764 67.727 67.939 67.636 67.789 68.039 67.447 67.447 67.419 67.36 67.314 67.299 67.583 69.015 68.244 66.98 67.424 67.995 68.693 69.954 73.07 73.688 74.734 73.104 70.287 66.912 66.795 66.954 67.035 66.706 66.49 66.478 66.494 66.86 66.379 66.316 66.165 66.521 69.194 66.922 65.645 65.831 68.734 65.655 66.888 67.823 67.728 65.598 65.39 65.721 66.09 70.268 71.635 73.583 73.186 72.022 70.836 67.136 65.026 64.822 64.819 65.344 64.743 64.678 64.594 64.498 64.471 64.583 64.904 66.046 71.181 73.207 73.238 73.65 72.834 71.066 67.857 64.912 64.6 65.455 66.902 64.387 63.878 64.378 64.008 63.904 64.16 69.678 72.473 72.989 73.093 72.292 71.265 69.344 63.678 63.359 63.496 63.107 63.147 63.396 63.816 69.695 70.996 71.878 71.448 70.125 63.393 62.989 62.781 62.69 62.682 62.698 62.654 62.76 62.711 62.587 62.599 62.571 62.577 62.638 62.633 62.609 62.581 62.532 62.611 63.002 71.859 76.068 80.005 79.873 70.44 76.176 79.034 77.17 69.003 67.38 69.164 62.093 61.925 61.95 61.901 61.843 61.84 61.824 61.763 61.744 61.704 61.647 61.62 61.61 61.56 61.491 61.411 61.422 61.388 61.401 61.366 61.217 61.219 61.154 61.143 61.05 61.031 60.976 60.913 60.905 60.868 60.755 60.75 60.701 60.641 60.621 60.565 60.449 60.401 60.379 60.337 60.3 60.296 60.261 60.234 60.161 60.168 60.11 60.044 60.002 59.952 59.887 59.847 59.755 59.709 59.648 59.574 59.481 59.401 59.313 59.23 59.199 59.154 59.08 58.9 58.865 58.72 58.604 58.499 58.356 58.21 58.092 58.016 57.899 57.824 57.674 57.612 57.486 57.263 57.072 57.154 58.987 66.119 62.791 67.86 70.395 71.896 66.413 65.662 62.807 55.751 55.468 55.374 55.187 55 54.889 54.846 54.689 54.572 54.44 54.38 54.204 54.054 54.001 53.851 53.679 53.58 60.909 65.376 68.94 68.534 65.097 57.838 57.393 54.827 52.956 52.938 53.267 55.562 54.775 52.639 52.477 52.389 52.319 52.262 52.183 52.461 57.046 57.649 60.777 60.354 60.844 61.069 60.751 60.431 59.546 58.61 53.025 52.565 51.18 51.326 50.772 50.419 50.254 50.195 50.076 50.123 52.57 53.848 52.191 53.501 49.761 49.485 49.524 49.429 49.189 49.374 49.282 49.148 50.604 57.758 59.527 59.121 57.945 56.745 49.078 48.969 48.305 48.312 48.253 48.16 48.102 48.087 48.258 54.595 56.312 57.46 58.143 57.417 57.294 52.117 47.625 47.091 46.991 46.964 49.261 50.522 50.33 51.641 54.745 55.858 56.811 57.355 49.079 45.998 45.911 45.75 45.688 45.662 45.627 45.639 45.704 45.734 45.723 45.713 45.65 45.637 45.572 45.523 45.431 45.526 45.61 45.593 45.978 45.614 45.313 45.107 44.969 44.853 45.174 44.564 44.401 49.006 50.825 50.811 48.68 43.906 49.687 50.335 48.416 52.023 55.973 48.368 42.604 42.588 42.601 43.64 50.275 51.064 51.555 52.41 52.374 47.355 50.907 50.528 50.688 51.145 51.917 52.471 52.192 51.453 50.855 50.455 50.863 51.518 52.3 52.514 51.909 51.204 50.654 44.157 41.7 41.636 41.636 41.62 41.607 41.604 41.541 41.534 41.48 41.444 41.425
-9999 -9999 -9999 -9999 -9999 -9999 -9999 -9999 -9999 -9999 -9999 -9999 70.097 69.564 70.526 70.965 72.2 74.302 71.344 68.407 68.752 69.693 69.496 69.7 68.051 69.215 67.883 69.193 73.712 74.398 74.369 72.453 68.937 67.872 68.049 69.236 67.837 67.781 67.721 67.728 67.684 67.739 68.385 67.972 67.517 67.466 67.49 67.388 67.372 67.528 67.399 67.389 66.827 67.098 67.184 68.707 68.582 66.7 67.153 71.141 73.095 73.919 73.81 72.913 68.767 66.801 66.789 67.065 66.703 66.538 66.401 66.368 66.341 67.03 66.292 66.269 66.292 66.325 66.756 68.75 71.526 71.352 67.571 65.985 67.842 66.198 66.352 65.328 65.292 65.147 65.953 70.943 71.822 73.028 73.03 71.643 69.33 65.762 64.881 64.964 65.095 64.76 64.535 64.502 64.592 65.087 64.471 64.902 64.69 65.455 71.924 72.578 73.579 73.358 72.798 70.854 65.585 64.88 64.178 66.12 65.714 63.834 63.81 64.413 63.812 63.93 65.947 72.133 72.523 72.789 72.812 72.032 70.366 63.975 63.577 63.108 63.078 63.688 63.704 63.326 66.645 70.512 71.374 71.683 70.736 64.737 64.739 63.433 62.548 62.62 62.625 62.567 62.532 62.537 62.532 62.557 62.55 62.567 62.561 62.501 62.546 62.558 62.594 62.692 64.006 69.695 78.215 78.777 80.305 79.606 80.451 80.844 80.655 71.369 68.208 67.171 61.836 61.83 61.834 61.796 61.808 61.733 61.745 61.739 61.658 61.627 61.549 61.547 61.492 61.532 61.421 61.366 61.354 61.359 61.341 61.271 61.22 61.162 61.092 61.089 61.066 60.995 60.945 60.904 60.843 60.822 60.78 60.746 60.702 60.665 60.615 60.494 60.467 60.419 60.411 60.316 60.299 60.29 60.266 60.212 60.221 60.141 60.091 60.05 60.021 59.945 59.885 59.816 59.771 59.704 59.669 59.592 59.495 59.366 59.3 59.234 59.192 59.157 59.024 58.919 58.818 58.726 58.627 58.515 58.366 58.233 58.091 57.993 57.908 57.835 57.665 57.57 57.393 57.223 57.085 57.193 67.555 74.251 69.939 75.545 77.894 75.805 75.579 68.833 58.97 56.772 55.459 55.315 55.152 55.034 54.867 54.749 54.624 54.523 54.359 54.196 54.059 53.997 53.887 53.851 53.721 53.485 60.994 67.14 67.782 69.02 69.342 69.724 58.057 61.811 55.217 54.691 53.344 56.143 55.9 52.94 52.523 52.366 52.297 52.29 53.942 59.177 59.852 60.39 61.108 60.998 60.996 61.025 59.855 58.787 57.119 51.973 51.168 51.209 51.053 50.523 50.42 50.305 50.217 51.891 50.66 50.515 52.039 54.219 56.745 57.592 51.796 49.731 49.364 49.275 49.214 49.136 49.419 49.425 50.73 55.375 58.03 59.104 58.899 57.45 52.35 48.401 48.225 48.209 48.205 48.108 48.079 48.281 49.213 56.819 57.214 57.818 57.682 57.442 51.185 47.101 47.217 47.041 46.901 46.932 47.658 49.869 50.573 54.95 55.508 56.285 57.433 56.767 51.17 46.516 45.775 45.676 45.635 45.545 46.464 45.919 45.69 45.675 45.719 45.684 45.646 45.608 45.536 45.436 45.474 45.579 45.618 45.669 45.89 45.956 45.338 44.99 44.875 44.683 44.628 44.435 49.004 50.837 50.812 50.709 47.88 47.295 46.868 47.33 44.653 44.017 53.253 44.091 42.632 42.628 42.755 49.318 50.855 51.526 52.273 52.608 52.015 51.212 50.577 50.553 51.104 51.761 52.619 52.358 51.577 50.998 50.501 50.736 51.244 52.015 52.523 51.928 51.379 50.735 45.812 41.666 41.644 41.655 41.623 41.628 41.611 41.576 41.55 41.447 41.468 41.417 41.406
-9999 -9999 -9999 -9999 -9999 -9999 -9999 -9999 -9999 -9999 -9999 -9999 -9999 69.652 70.871 70.922 70.093 68.944 68.496 68.293 69.676 69.942 69.681 68.754 68.571 69.196 68.097 70.946 73.753 74.836 74.598 71.863 67.867 67.9 68.131 69.217 68.749 67.751 67.655 67.705 67.585 67.541 67.51 67.425 67.418 67.466 67.414 67.339 67.37 68.728 67.217 67.051 66.452 65.951 65.927 67.731 68.586 68.342 67.558 66.355 71.964 73.306 74.239 73.413 71.717 66.815 66.984 66.871 66.595 66.713 66.387 66.347 66.278 66.931 68.387 65.955 65.768 65.636 71.009 71.944 72.28 72.148 70.009 67.446 66.59 65.506 65.614 65.392 65.169 65.41 65.207 67.988 71.199 72.327 72.904 72.213 71.032 67.787 65.352 64.896 64.839 64.504 64.514 64.476 64.512 65.725 65.538 64.401 64.632 64.223 68.715 71.933 73.162 73.775 73.288 72.439 66.621 64.099 64.134 64.069 64.515 63.756 63.759 63.907 64.048 63.883 63.767 66.805 71.743 72.407 72.996 72.48 71.625 65.481 63.573 63.66 63.029 62.931 63.529 66.006 68.124 70.489 71.247 71.991 71.822 70.866 65.771 64.432 62.591 62.564 62.604 62.56 62.501 62.479 62.515 62.525 62.476 62.466 62.445 62.531 62.964 62.902 62.599 62.664 62.836 70.649 78.224 79.381 79.166 79.314 75.118 75.224 78.871 79.638 78.76 66.578 61.817 61.775 61.788 61.758 61.704 61.684 61.659 61.603 61.545 61.551 61.457 61.43 61.456 61.406 61.498 61.482 61.362 61.323 61.299 61.177 61.136 61.112 61.084 61.054 61.082 60.999 60.859 60.865 60.842 60.778 60.727 60.678 60.677 60.615 60.567 60.472 60.437 60.379 60.326 60.311 60.304 60.265 60.241 60.238 60.173 60.125 60.08 60.075 60.006 59.942 59.886 59.853 59.752 59.708 59.643 59.583 59.509 59.43 59.341 59.25 59.164 59.113 59.027 58.955 58.826 58.711 58.51 58.445 58.332 58.199 58.075 57.963 57.9 57.793 57.675 57.47 57.354 57.27 57.048 57.702 72.863 75.54 73.431 71.548 74.155 74.35 68.083 67.88 66.625 58.041 55.417 55.275 55.125 54.952 54.884 54.756 54.557 54.39 54.279 54.18 53.994 53.864 53.797 53.739 59.208 62.989 67.222 68.501 70.667 71.741 72.336 62.049 67.52 69.419 63.57 58.846 54.31 53.487 53.238 53.143 52.718 52.397 55.982 57.527 60.04 60.504 61.136 61.05 61.211 61.243 59.329 59.01 57.619 53.718 53.168 51.393 51.1 50.875 50.579 50.498 50.368 50.348 52.45 53.844 52.093 51.093 55.98 57.28 57.905 58.425 58.553 52.107 49.262 49.236 49.141 48.993 49.048 49.777 49.269 50.422 57.076 58.509 59.11 58.114 50.057 48.195 48.237 48.148 49.522 48.584 48.178 48.504 54.323 57.316 57.743 57.989 57.213 56.785 49.139 47.264 47.075 46.842 46.834 47.149 47.336 47.325 53.718 55.115 56.413 57.278 56.86 55.958 54.995 46.657 45.94 45.672 45.605 45.595 46.012 45.661 45.689 45.683 45.676 45.643 45.586 45.543 45.468 45.383 45.516 45.559 45.568 45.784 45.913 45.779 45.394 45.396 44.812 44.595 44.425 47.79 50.853 50.809 50.818 49.638 48.279 48.012 47.397 46.881 45.828 43.924 43.225 43.406 43.09 42.669 44.591 43.169 51.229 51.963 52.574 52.2 49.91 50.781 50.54 50.74 50.763 52.306 52.53 51.613 51.166 50.506 50.565 51.238 51.957 52.542 52.239 51.507 50.775 50.12 41.908 41.679 41.607 41.644 41.627 41.621 41.625 41.535 41.521 41.495 41.423 41.36 41.362
-9999 -9999 -9999 -9999 -9999 -9999 -9999 -9999 -9999 -9999 -9999 -9999 -9999 70.66 70.899 70.548 68.834 68.33 68.763 69.309 68.094 68.736 69.316 69.729 68.107 69.179 68.377 71.025 74.06 75.162 74.282 71.767 67.933 69.982 70.61 71.462 70.466 68 67.643 67.606 67.586 67.587 67.539 67.449 67.429 67.409 67.357 67.499 67.225 67.157 67.045 66.98 66.102 65.865 65.827 65.963 68.167 66.757 66.109 65.794 70.241 72.582 73.384 73.901 72.979 69.259 67.545 66.521 66.43 66.452 66.431 66.26 66.213 66.323 67.13 66.044 65.736 65.698 67.971 71.849 72.612 73.038 71.939 69.587 65.829 65.704 66.328 65.517 65.145 65.707 65.416 65.802 69.966 71.606 72.211 72.832 71.792 70.518 67.199 64.796 65.202 64.58 64.458 64.42 64.384 64.361 65.275 64.278 64.261 64.366 65.178 70.748 74.211 73.829 73.42 72.682 71.411 65.795 64.201 64.151 63.914 64.403 63.964 63.6 64.325 63.755 63.757 64.115 68.977 71.527 72.525 72.903 73.44 70.949 68.086 63.472 63.601 62.922 63.092 66.035 66.408 69.498 70.618 71.742 71.282 71.005 63.224 62.54 62.525 62.467 62.519 62.554 62.455 62.416 62.454 62.452 62.425 62.527 62.555 62.727 63.493 64.333 62.775 62.695 62.653 63.606 74.293 78.618 69.611 79.292 77.868 77.551 80.872 81.667 77.749 68.004 62.999 61.622 61.581 61.609 61.619 61.571 61.58 61.569 61.472 61.429 61.439 61.401 61.408 61.594 61.693 61.647 61.511 61.297 61.252 61.13 61.064 61.092 61.118 61.072 61.043 60.95 60.924 60.862 60.812 60.806 60.718 60.647 60.628 60.628 60.549 60.5 60.439 60.393 60.372 60.298 60.286 60.286 60.266 60.251 60.152 60.101 60.051 60.077 60.032 59.966 59.886 59.829 59.753 59.676 59.63 59.608 59.491 59.41 59.305 59.23 59.189 59.135 59.005 58.946 58.854 58.675 58.528 58.386 58.333 58.17 58.065 57.96 57.851 57.729 57.612 57.466 57.297 57.203 57.042 56.904 67.126 74.148 74.111 73.651 75.731 76.08 70.851 66.47 62.678 58.051 55.397 55.253 55.089 54.962 54.808 54.616 54.5 54.392 54.188 54.051 53.971 53.863 53.704 56.767 64.379 70.459 66.459 65.55 72.023 72.807 69.448 72.701 73.235 73.613 72.947 65.718 58.678 53.045 53.136 52.805 52.581 52.728 59.085 60.488 60.707 61.239 61.266 60.583 60.128 59.624 58.818 52.4 53.281 51.774 53.544 51.106 50.82 50.575 50.493 50.52 51.203 50.59 52.386 53.994 56.627 58.122 59.598 58.454 59.12 59.198 58.738 58.697 49.339 49.064 49.063 48.979 48.9 48.869 48.879 49.192 55.584 57.84 58.636 49.638 48.194 48.162 48.116 48.069 50.421 48.579 48.267 54.108 56.766 57.408 57.993 57.561 56.706 49.96 47.223 47.267 46.89 46.908 48.924 47.732 47.434 51.917 55.135 56.005 57.201 57.368 56.461 56.182 55.342 46.37 46.236 45.625 45.548 45.579 45.646 45.739 45.711 45.686 45.632 45.585 45.538 45.491 45.405 45.419 45.532 45.573 45.852 45.733 45.586 45.046 44.257 44.625 45.207 44.588 44.654 50.117 50.826 50.784 50.51 49.35 49.073 48.51 47.938 47.552 47.077 45.949 45.344 43.124 43.071 44.094 42.909 42.618 44.165 50.175 52.013 51.534 51.094 50.407 50.81 51.539 52.19 52.496 47.106 44.45 50.703 50.508 51.176 51.644 52.443 52.267 51.677 51.026 50.211 42.752 41.708 41.623 41.667 41.624 41.612 41.581 41.553 41.515 41.509 41.485 41.413 41.387 41.326
-9999 -9999 -9999 -9999 -9999 -9999 -9999 -9999 -9999 -9999 -9999 -9999 -9999 -9999 70.215 69.376 68.479 68.328 69.005 70.351 70.131 67.962 68.41 69.98 68.254 67.824 67.998 72.432 74.414 74.833 73.501 68.323 67.87 67.969 68.413 70.839 71.212 68.696 67.628 67.59 67.604 67.572 67.551 67.494 67.39 67.401 67.596 67.703 67.167 67.057 68.316 69.943 67.342 66.017 65.763 66.743 67.044 66.949 65.8 65.979 65.955 71.25 72.685 73.81 73.993 72.737 69.678 66.402 66.376 66.424 66.513 66.296 66.186 66.111 66.462 66.338 65.837 65.72 66 71.152 72.088 72.831 72.48 71.253 67.481 66.891 66.473 65.452 65.133 65.026 65.249 65.874 65.906 70.081 71.421 73.377 72.668 71.596 68.927 65.445 65.201 65.722 64.527 64.836 64.327 64.308 64.303 64.141 64.15 64.427 64.5 65.686 72.482 73.082 73.425 73.112 72.303 69.454 65.302 64.781 64.338 63.805 63.562 63.517 63.502 64.509 63.509 63.575 65.381 71.044 72.312 72.644 72.412 71.667 69.4 63.703 63.183 63.027 62.748 63.704 63.572 66.056 69.709 63.934 62.66 62.539 62.448 62.463 62.495 62.441 62.526 62.504 62.472 62.38 62.385 62.499 63.674 65.542 66.724 69.112 69.193 69.239 63.956 62.946 62.859 63.45 71.053 74.708 76.122 77.702 74.291 80.924 81.032 81.601 79.34 71.776 61.684 61.513 61.504 61.515 61.479 61.533 61.518 61.506 61.472 61.438 61.372 61.572 61.693 61.894 61.847 61.886 61.671 61.31 61.264 61.172 61.123 61.119 61.09 61.087 60.977 60.926 60.846 60.821 60.8 60.782 60.723 60.642 60.62 60.594 60.55 60.483 60.455 60.385 60.366 60.326 60.311 60.33 60.264 60.204 60.175 60.1 60.039 60.034 59.958 59.935 59.872 59.819 59.759 59.679 59.558 59.535 59.469 59.385 59.356 59.273 59.143 59.075 58.956 58.878 58.794 58.745 58.566 58.395 58.225 58.14 58.035 57.915 57.84 57.757 57.629 57.445 57.319 57.197 57.125 56.899 59.243 71.415 71.462 73.186 70.948 74.721 73.747 65.948 62.315 61.248 56.643 55.185 55.041 54.875 54.766 54.625 54.45 54.283 54.151 54.066 53.868 53.703 53.67 57.289 67.234 71.104 71.574 71.095 69.463 68.026 70.379 73.747 63.027 63.468 74.106 71.483 63.153 58.355 54.193 56.002 58.746 53.511 55.32 61.312 61.407 61.103 60.195 59.463 55.616 54.667 51.856 52.275 52.206 51.696 50.833 50.732 50.66 51.541 52.798 54.042 51.925 52.042 55.313 57.478 58.149 58.844 59.323 59.216 59.053 58.967 57.678 55.479 49.243 48.999 48.97 48.88 48.807 48.807 49.086 48.805 48.976 56.888 55.777 48.361 48.144 48.006 47.968 48.382 48.241 49.053 52.223 55.271 56.734 57.957 57.494 57.367 52.385 48.094 47.29 46.887 46.87 48.229 50.268 50.271 52.165 54.334 56.18 56.555 57.449 56.575 55.387 54.969 48.328 45.68 45.626 45.534 45.585 45.641 45.715 45.695 45.64 45.644 45.6 45.583 45.498 45.402 45.406 45.493 45.548 45.808 45.749 45.307 44.935 44.394 47.89 45.91 44.592 44.506 48.055 50.723 50.798 50.724 49.047 49.289 49.471 49.19 48.733 48.244 47.627 47.187 46.692 45.735 42.998 42.836 42.76 43.015 42.579 42.524 46.286 51.096 50.618 50.476 49.76 52.003 52.556 52.01 47.445 49.936 50.446 50.878 51.603 52.264 52.565 51.809 51.082 50.626 45.027 41.709 41.643 41.657 41.626 41.622 41.606 41.559 41.53 41.465 41.51 41.391 41.374 41.391 41.311
-9999 -9999 -9999 -9999 -9999 -9999 -9999 -9999 -9999 -9999 -9999 -9999 -9999 -9999 69.502 68.996 68.939 68.47 68.337 68.519 69.721 68.043 67.92 67.847 67.827 68.3 67.702 72.898 73.927 73.942 73.687 68.944 67.764 67.74 68.003 68.391 69.234 68.326 67.562 67.569 67.588 67.526 67.441 67.403 67.349 67.408 67.417 67.615 67.381 71.884 72.876 73.24 69.948 66.37 65.669 66.29 65.648 66.417 67.179 66.885 65.898 68.663 72.284 73.11 73.8 73.306 72.097 67.836 66.319 66.259 66.34 66.245 66.116 66.106 65.989 66.673 66.693 66.083 66.31 69.103 71.577 72.405 72.788 72.22 70.722 66.905 66.668 65.777 65.628 64.992 65.001 65.255 64.915 66.41 70.557 71.954 72.912 72.344 71.119 68.673 65.018 64.81 64.399 65.285 64.751 64.251 64.202 64.146 64.027 64.288 64.252 64.336 70.694 72.077 73.006 73.603 72.971 72.123 66.601 64.368 64.056 63.837 63.903 63.584 63.46 63.649 63.424 63.385 63.61 65.314 71.276 72.025 72.577 72.216 71.313 68.999 64.328 63.482 62.687 62.612 63.489 63.048 62.92 63.145 62.727 62.578 62.511 62.459 62.465 62.482 62.422 62.451 62.401 62.347 62.396 62.925 63.112 66.418 68.958 70.09 70.739 69.926 68.617 63.825 62.594 62.708 63.084 64.072 74.067 76.334 78.293 80.467 80.76 79.687 78.598 64.425 61.462 61.43 61.389 61.405 61.429 61.403 61.387 61.436 61.384 61.474 61.741 61.949 62.044 62.025 61.891 61.928 61.872 61.473 61.162 61.143 61.391 61.071 61.083 61.05 60.968 60.902 60.885 60.798 60.733 60.717 60.691 60.57 60.557 60.534 60.562 60.485 60.463 60.39 60.386 60.39 60.327 60.331 60.276 60.242 60.189 60.155 60.046 59.986 59.973 59.927 59.873 59.797 59.756 59.656 59.576 59.493 59.412 59.38 59.275 59.196 59.109 59.089 58.98 58.884 58.774 58.736 58.605 58.364 58.25 58.168 58.058 57.928 57.793 57.712 57.64 57.383 57.238 57.109 57.036 56.907 56.832 63.575 66.213 69.144 70.835 71.351 72.708 68.055 60.243 59.344 55.398 55.203 55.014 54.893 54.711 54.545 54.415 54.31 54.088 53.953 53.831 53.722 53.693 58.553 66.583 68.762 65.413 65.123 69.057 62.079 71.464 72.909 75.113 71.268 72.082 74.593 65.759 61.32 55.601 59.89 61.716 59.201 59.288 60.855 60.779 60.963 60.233 55.635 52.454 51.577 51.626 51.411 51.396 50.889 50.893 50.822 50.952 51.016 52.954 54.261 55.67 57.831 59.735 58.68 59.468 59.486 59.267 56.591 57.585 58.501 54.773 51.342 49.086 48.912 48.935 48.816 48.704 48.643 48.653 48.824 48.78 48.491 48.209 48.042 48.034 47.995 47.888 47.944 48.093 49.805 55.236 56.458 57.386 57.439 57.786 57.05 47.402 47.119 46.935 46.844 47.368 49.036 49.572 52.337 54.354 55.325 56.494 57.61 56.852 55.856 55.293 48.174 45.668 45.646 45.551 45.514 45.591 45.641 45.653 45.691 45.631 45.547 45.525 45.466 45.42 45.428 45.461 45.487 45.602 45.705 45.439 44.599 43.782 43.067 50.566 50.777 50.907 44.688 43.585 47.378 51.796 49.113 48.208 48.609 49.177 49.44 49.327 48.647 48.311 47.958 47.434 46.914 46.437 42.93 42.671 42.772 43.46 42.531 42.497 44.873 50.314 51.178 51.786 52.469 52.418 51.676 51.005 50.498 50.62 46.936 51.895 52.52 51.799 51.417 50.7 45.787 41.703 41.662 41.635 41.629 41.619 41.577 41.599 41.554 41.546 41.503 41.446 41.428 41.383 41.363 41.241
