ncols 425
nrows 32
xllcorner    429106
yllcorner    435120
cellsize     2
NODATA_value -9999
89.569 91.541 89.786 89.516 89.426 89.401 89.384 89.321 89.309 89.339 89.306 89.269 89.249 89.249 89.246 89.321 89.319 89.254 89.169 89.089 89.031 88.996 88.969 88.921 88.901 88.864 88.804 88.826 88.826 88.799 88.839 88.569 88.256 88.066 88.001 87.969 88.074 88.141 88.196 88.304 88.279 88.271 88.256 88.234 88.201 88.584 88.699 88.724 88.629 88.609 88.679 88.689 88.316 87.651 87.214 87.044 87.004 87.001 87.016 87.011 87.016 87.024 87.024 87.004 87.009 86.986 86.989 86.996 87.026 87.039 87.021 87.016 87.001 87.001 87.019 87.016 86.999 86.994 86.979 86.981 86.921 86.896 86.876 86.906 86.931 86.946 86.959 86.854 86.711 86.589 86.409 85.871 85.234 84.884 84.356 83.466 83.371 83.441 83.456 83.406 83.476 86.471 96.771 96.769 96.509 84.861 84.014 84.034 84.084 84.121 84.166 84.276 84.146 84.121 84.076 84.116 84.019 84.069 82.391 82.319 82.411 82.496 84.724 86.484 86.371 83.861 82.434 82.344 91.401 91.294 91.244 89.121 91.276 81.754 81.286 80.689 80.106 79.701 79.489 79.389 79.211 79.089 79.069 79.009 78.984 78.939 78.889 78.829 78.771 78.701 78.631 78.541 78.464 78.464 78.394 78.351 78.326 78.289 78.174 78.001 77.814 77.771 77.791 77.754 77.691 77.604 75.736 75.579 76.426 75.209 75.116 74.976 74.849 74.741 74.651 74.546 74.506 74.504 74.302 74.462 74.254 74.266 74.136 73.959 73.948 73.903 74.828 75.5 75.636 73.996 73.856 73.917 73.896 73.891 73.906 73.794 73.844 73.825 73.67 73.54 73.381 73.275 73.281 73.334 73.294 73.199 73.197 73.059 72.909 72.742 72.664 72.402 72.147 72.107 72.054 71.807 70.534 69.627 69.224 68.864 68.404 67.612 66.999 66.499 66.009 65.432 64.632 63.862 63.272 62.737 62.134 61.884 61.352 63.099 63.552 63.542 63.582 61.344 61.317 61.302 61.287 61.257 61.227 61.279 61.239 61.114 61.027 60.879 70.414 72.652 73.079 73.477 73.799 73.444 73.052 72.629 67.609 60.817 60.594 60.947 60.367 60.132 59.882 59.534 59.189 58.807 58.402 61.809 67.889 63.207 58.212 58.132 58.019 58.017 57.907 57.772 57.657 57.542 57.334 57.719 57.312 57.162 56.502 56.372 56.274 56.089 56.068 56.087 56.16 55.803 55.679 55.584 55.671 55.619 55.476 55.289 55.254 55.218 55.162 55.092 55.044 54.992 54.983 55.035 55.047 55.069 54.832 54.348 54.037 53.787 53.757 56.137 59.267 57.892 53.919 55.857 54.052 54.527 53.447 53.264 53.484 53.349 53.239 53.149 53.082 53.034 52.959 52.919 52.832 52.794 52.732 52.669 52.609 52.539 52.484 52.444 52.399 52.364 52.302 52.212 52.067 51.959 51.877 51.619 51.137 50.659 50.329 50.302 50.249 50.162 50.179 49.967 49.909 49.829 49.747 49.724 49.727 49.737 49.732 49.782 49.854 49.747 70.992 70.554 70.119 69.879 70.332 70.777 49.234 49.022 48.927 48.872 53.929 50.032 53.809 54.682 57.384 59.584 58.712 66.899 67.904 64.589 66.789 58.117 66.522 66.362 61.977 50.332 48.032 47.289 47.292 47.274 47.787 47.719 47.689 47.619 47.534 47.552 46.827 47.295 47.257 47.852 46.982 46.97 46.915 46.842 46.922 46.952 46.96 46.942 46.89 46.847 46.82 46.717 46.63 46.505 46.42 46.362 46.27 46.19 46.092 45.967 45.85 45.757 45.662
89.486 93.071 89.574 89.501 89.484 89.476 89.416 89.379 89.371 89.381 89.354 89.331 89.311 89.311 89.259 89.331 89.396 89.379 89.324 89.241 89.201 89.154 89.119 89.074 89.026 88.974 88.921 88.904 88.966 88.921 88.916 88.739 88.521 88.294 88.134 88.041 88.076 88.159 88.229 88.284 88.414 88.346 88.344 88.326 88.299 88.344 88.691 88.751 88.809 88.671 88.696 88.744 88.714 88.189 87.609 87.169 87.034 87.016 87.029 87.049 87.026 87.026 87.019 87.036 87.011 87.014 87.021 87.016 87.024 87.036 87.061 87.044 87.034 87.021 87.029 86.999 87.024 87.016 86.999 86.981 86.941 86.909 86.909 86.919 86.949 86.959 86.966 86.924 86.829 86.706 86.581 86.176 85.439 85.009 84.166 83.586 83.451 83.529 83.534 83.494 83.546 83.751 93.821 94.984 93.231 85.144 84.291 84.231 84.244 84.266 84.304 84.291 84.251 84.166 84.136 84.139 84.086 84.816 82.516 82.459 82.469 82.531 85.234 86.506 86.531 83.156 82.529 82.779 89.329 91.294 91.241 91.139 91.254 85.116 81.844 80.969 80.279 79.861 79.669 79.519 79.326 79.219 79.081 78.986 78.984 78.954 78.891 78.854 78.799 78.756 78.686 78.624 78.531 78.404 78.316 78.311 78.231 78.204 78.164 78.049 77.906 77.801 77.796 77.781 77.766 76.801 75.784 75.674 75.851 75.371 75.134 75.139 74.964 74.746 74.654 74.634 74.586 74.573 74.587 75.494 75.688 74.387 74.507 74.119 74.043 74.06 74.511 74.445 74.555 74.072 74.011 73.98 73.932 73.937 74.029 74.061 74.069 74.054 74.032 74.003 73.85 73.624 73.472 73.529 73.527 73.404 73.269 73.227 73.277 73.102 72.839 72.604 72.484 72.349 72.107 71.937 71.692 71.499 69.784 69.307 68.932 68.319 67.562 67.064 66.627 66.049 65.349 64.514 63.924 63.424 63.332 62.209 61.759 61.352 63.229 63.557 63.557 62.909 61.359 61.319 61.312 61.284 61.334 61.264 61.129 60.974 60.867 66.624 72.707 73.124 73.524 73.787 73.409 72.984 71.592 64.727 60.897 60.779 60.659 60.674 60.562 60.269 60.039 59.792 59.469 59.132 58.764 58.362 58.217 58.199 58.169 58.169 58.064 58.017 57.882 57.754 57.604 57.492 57.359 57.089 57.709 56.787 56.479 56.422 56.304 56.134 56.199 56.247 56.082 55.861 55.912 55.798 55.876 55.805 55.552 55.338 55.308 55.233 55.217 55.162 55.134 55.079 55.031 54.951 54.896 54.938 54.971 55.01 54.933 54.584 54.249 54.007 53.774 53.782 56.179 57.367 57.114 56.802 54.782 53.389 53.692 53.444 53.309 53.227 53.164 53.102 53.034 53.014 52.934 52.879 52.809 52.742 52.687 52.622 52.574 52.534 52.514 52.469 52.377 52.287 52.134 52.034 51.889 51.504 50.974 50.554 50.402 50.364 50.482 50.782 50.224 50.012 49.979 49.872 49.817 49.777 58.504 67.582 68.039 66.099 63.587 64.657 70.844 70.419 69.992 70.042 70.474 70.917 49.329 49.132 49.054 48.999 48.947 48.902 48.824 48.779 48.707 48.669 48.567 48.594 48.797 48.944 48.637 48.679 48.702 48.607 49.254 48.607 47.972 47.309 47.292 47.669 47.587 47.724 47.712 47.574 47.527 47.657 47.45 46.97 47.272 47.115 48.34 46.99 46.985 46.935 46.875 46.917 46.962 46.985 46.965 46.922 46.917 46.88 46.82 46.752 46.635 46.552 46.465 46.397 46.305 46.157 46.045 45.94 45.812
89.476 89.464 89.456 89.399 89.464 89.491 89.489 89.481 89.441 89.434 89.409 89.409 89.399 89.364 89.306 89.339 89.466 89.506 89.466 89.969 89.314 89.299 89.271 89.209 89.139 89.089 89.056 89.006 88.999 89.074 89.006 88.879 88.859 88.611 88.331 88.199 88.106 88.179 88.251 88.321 88.381 88.474 88.416 88.419 88.391 88.356 88.501 88.754 88.881 88.854 88.716 88.771 88.846 88.704 88.181 87.579 87.121 87.051 87.064 87.061 87.064 87.034 87.044 87.046 87.026 87.044 87.039 87.016 87.021 87.054 87.069 87.064 87.054 87.041 87.039 87.011 87.019 87.024 87.001 86.999 86.981 86.936 86.916 86.939 86.959 86.954 86.964 86.971 86.919 86.841 86.844 86.596 85.916 85.264 84.446 83.736 83.559 83.619 83.626 83.601 83.631 83.791 92.506 94.291 93.599 88.169 84.501 84.439 84.429 84.436 84.419 84.416 84.379 84.291 84.219 84.209 84.271 84.364 82.616 82.554 82.551 82.569 86.166 86.511 86.551 82.606 82.546 86.891 91.341 91.276 91.246 91.191 91.269 83.954 81.991 80.996 80.386 79.929 79.741 80.309 79.504 79.411 79.191 79.101 79.001 78.886 78.859 78.846 78.806 78.769 78.699 78.636 78.576 78.494 78.374 78.226 78.271 78.169 78.091 78.066 77.986 77.874 77.829 77.831 77.786 76.084 75.889 75.666 75.546 75.509 75.319 75.296 75.156 74.871 74.709 74.801 74.971 75.428 78.964 76.775 75.49 74.931 74.706 74.274 74.546 74.606 74.723 74.637 74.102 74.042 73.987 74.062 74.199 74.274 81.434 76.877 74.245 74.164 74.088 74.077 74.076 74.1 74.052 73.945 73.862 73.727 73.619 73.704 73.462 73.309 72.987 72.867 72.702 72.429 72.164 72.052 71.922 71.644 71.377 71.194 69.207 68.834 68.384 67.819 67.194 66.742 65.929 65.267 64.557 63.949 63.382 62.794 62.197 61.664 61.372 63.577 63.554 63.574 62.807 61.347 61.359 61.392 61.497 62.509 60.982 60.874 69.954 72.772 73.179 73.577 73.739 73.334 72.922 72.514 62.637 60.904 60.827 60.689 60.607 60.577 60.629 60.509 60.239 59.972 59.684 59.327 58.987 58.684 58.344 58.257 58.219 58.134 58.064 57.989 57.859 57.697 57.582 57.434 57.337 58.029 56.969 56.694 56.542 56.484 56.319 56.246 56.297 56.294 56.095 55.94 57.274 55.939 56.029 55.982 55.73 55.457 55.373 55.292 55.239 55.213 55.175 55.14 55.094 55.036 55.003 54.939 54.88 54.879 54.956 54.977 54.984 54.617 54.079 53.789 56.959 57.729 57.784 57.069 53.847 53.484 53.634 53.512 53.407 53.324 53.262 53.174 53.124 53.084 53.024 52.964 52.877 52.842 52.799 52.744 52.692 52.654 52.634 52.594 52.497 52.367 52.242 52.052 51.859 51.414 50.937 50.504 50.474 50.439 50.444 50.369 50.239 49.949 49.927 51.047 53.182 51.869 62.519 70.574 70.589 70.597 70.624 70.644 70.747 70.272 69.829 70.179 70.614 61.189 49.377 49.242 49.119 49.067 49.002 48.939 48.874 48.827 48.757 48.712 48.657 48.652 48.674 48.709 48.732 48.717 48.722 48.737 49.269 49.052 49.749 47.359 47.484 47.617 47.622 47.699 47.754 47.862 47.664 47.597 47.647 47.36 46.847 47.297 47.13 47.307 46.995 46.997 46.955 46.872 46.937 46.987 47.042 47.022 46.99 46.932 46.917 46.885 46.845 46.755 46.677 46.625 46.555 46.442 46.32 46.195 46.065
89.611 89.579 89.571 89.541 89.541 89.534 89.529 89.521 89.529 89.536 89.519 89.506 89.496 89.411 89.381 89.394 89.489 89.601 89.684 89.526 89.469 89.401 89.356 89.311 89.251 89.204 89.161 89.106 89.109 89.146 89.164 89.051 89.484 88.936 88.646 88.341 88.269 88.179 88.274 88.529 89.226 88.486 88.524 88.494 88.466 88.459 88.434 88.679 88.891 88.989 88.906 88.791 88.884 88.939 88.679 88.126 87.484 87.129 87.081 87.076 87.054 87.046 87.039 87.039 87.036 87.054 87.051 87.021 87.031 87.039 87.041 87.064 87.056 87.059 87.046 87.041 87.029 87.024 87.029 87.004 86.994 86.979 86.954 86.956 86.979 86.991 86.979 87.006 86.981 86.959 86.951 86.864 86.256 85.414 84.554 83.839 83.669 84.159 83.729 84.166 83.696 83.871 91.451 93.986 93.936 91.009 84.669 84.551 84.559 84.544 84.526 84.526 84.466 84.334 85.284 84.714 85.044 84.099 82.724 82.664 82.634 82.616 86.476 86.534 86.544 82.584 82.596 85.271 91.329 91.271 91.221 91.224 91.284 82.334 81.896 81.029 80.461 80.079 80.059 79.761 79.629 80.306 79.374 79.294 79.089 78.994 78.896 78.756 78.769 78.754 78.706 78.649 78.579 78.526 78.441 78.329 78.289 78.869 78.131 78.026 77.986 77.919 77.876 77.896 76.526 76.154 76.029 75.804 75.706 75.514 75.439 75.334 75.274 75.126 74.996 74.919 74.989 75.783 76.927 77.38 76.574 75.067 74.518 74.493 74.462 74.232 74.326 74.15 74.149 74.244 74.768 74.368 74.265 74.34 85.156 84.909 83.932 83.244 79.468 79.052 74.181 74.309 74.105 74.062 74.08 74.062 73.997 73.957 73.889 73.672 73.307 73.109 72.939 72.624 72.334 72.197 72.047 71.809 71.489 71.224 71.002 70.294 68.789 68.472 67.844 67.342 66.669 65.987 65.372 64.777 64.024 63.412 62.724 62.087 61.574 61.379 63.587 63.559 63.044 61.454 61.444 61.342 61.517 62.974 61.969 72.422 72.834 73.244 73.649 73.682 73.279 72.854 69.409 62.822 60.919 60.839 60.737 60.604 60.594 60.842 60.634 60.687 60.509 60.199 59.962 59.619 59.234 58.902 59.217 58.257 58.219 58.109 58.004 57.909 57.817 57.667 57.534 57.432 57.289 57.142 56.922 56.669 57.039 56.512 56.34 56.357 56.383 56.316 56.08 56.098 56.331 56.027 56.23 56.167 55.862 55.876 55.581 55.82 55.315 55.244 55.209 55.198 55.267 55.101 55.048 55.035 55.004 54.938 54.86 54.842 54.949 55.004 54.619 55.049 57.079 57.397 57.517 56.592 53.749 53.644 53.644 53.589 53.502 53.467 53.384 53.267 53.229 53.172 53.124 53.057 52.979 52.959 52.929 52.887 52.829 52.764 52.717 52.662 52.589 52.462 52.317 52.097 51.844 51.422 50.932 50.572 50.552 50.502 51.122 50.474 50.177 49.959 49.917 63.434 69.434 69.369 69.764 70.114 70.134 70.164 70.184 70.207 71.162 70.404 69.682 69.362 69.624 51.974 49.404 49.287 49.177 49.097 49.027 48.954 48.922 48.897 48.932 48.809 49.572 57.297 57.232 55.757 52.889 48.832 48.817 48.802 48.784 49.182 49.294 47.374 47.364 47.502 47.642 47.572 47.872 47.777 47.759 47.595 47.615 47.507 47.142 46.945 47.305 47.132 48.295 47.095 47.017 46.965 46.897 46.927 47.015 47.09 47.082 46.997 46.95 46.975 46.972 46.895 46.812 46.83 46.785 46.755 46.72 46.57 46.41
89.636 89.631 89.626 89.624 89.614 89.621 89.596 89.591 89.596 89.584 89.556 89.556 89.554 89.516 89.466 89.489 90.091 89.634 92.349 90.566 89.864 94.746 89.476 89.456 89.384 89.314 89.284 89.214 89.151 89.126 89.204 89.206 89.136 89.174 88.941 88.674 88.376 88.319 88.279 88.364 88.506 88.499 88.586 88.581 88.554 88.546 92.821 88.499 88.821 88.991 89.066 88.951 88.909 88.986 88.991 88.596 88.011 87.386 87.134 87.074 87.064 87.061 87.061 87.044 87.039 87.034 87.019 87.019 87.029 87.054 87.046 87.054 87.054 87.061 87.039 87.041 87.041 87.041 87.051 87.026 87.021 86.989 86.969 86.979 86.999 87.006 87.014 87.029 87.021 87.009 87.014 86.919 86.541 85.726 84.861 84.031 83.796 83.909 83.811 84.104 83.879 83.956 90.234 93.631 94.286 91.594 84.654 84.571 84.624 84.634 84.596 84.599 84.549 84.409 84.371 84.289 85.131 83.476 82.829 82.789 82.769 82.711 82.674 82.639 82.781 82.571 82.614 89.596 91.311 91.261 91.161 91.234 91.286 82.326 81.889 81.079 80.509 80.236 80.031 79.886 79.764 80.006 79.514 79.384 79.274 79.174 79.019 78.819 78.739 78.699 78.676 78.651 78.609 78.539 78.469 78.386 78.294 78.211 78.254 79.409 77.884 77.899 77.819 77.739 76.546 76.201 76.084 75.951 75.789 75.724 75.439 75.341 75.246 75.341 75.079 75.034 75.225 76.197 77.691 78.491 75.093 75.228 74.581 74.562 74.45 74.212 74.17 74.141 74.329 89.591 82.096 75.584 75.039 78.156 86.345 86.059 85.803 85.54 85.07 84.713 84.11 84.547 79.735 74.985 74.15 74.084 74.032 73.967 73.854 73.857 73.749 73.384 73.077 72.712 72.479 72.257 72.017 71.649 71.502 71.342 71.032 70.929 70.739 69.894 68.432 68.064 67.589 66.822 66.302 66.929 64.907 64.187 63.412 62.762 62.054 61.407 61.389 63.092 61.384 61.477 61.284 61.127 60.947 62.957 72.482 72.882 73.304 73.717 73.629 73.229 72.802 71.727 60.917 60.927 60.809 60.732 60.622 60.604 60.589 60.554 60.547 60.582 60.814 60.469 60.154 59.894 59.497 59.122 58.797 58.412 58.309 58.172 58.077 57.999 57.852 57.682 57.557 57.414 57.247 60.864 57.009 57.409 56.667 56.535 56.442 56.46 56.468 56.482 56.162 56.054 56.062 56.224 56.381 56.248 55.953 55.593 56.026 56.387 55.586 55.36 55.309 55.261 55.443 55.315 55.154 55.079 55.076 55.028 54.991 54.96 54.891 54.977 54.892 54.362 54.024 55.519 56.924 54.199 53.802 53.824 53.772 53.689 53.607 53.554 53.482 53.392 53.337 53.269 53.207 53.167 53.119 53.082 53.074 53.037 52.947 52.859 52.799 52.747 52.664 52.544 52.412 52.214 51.859 51.372 50.837 50.652 50.629 50.664 50.724 50.519 50.104 49.924 49.889 69.399 69.962 69.834 69.862 69.937 69.909 69.869 69.839 69.857 69.827 69.817 69.469 59.804 65.292 49.727 49.449 49.327 49.219 49.152 49.074 49.009 49.067 49.034 65.569 70.172 69.732 69.417 69.877 70.324 63.674 48.939 48.949 48.877 48.852 49.379 49.224 47.409 47.424 47.492 47.639 47.707 47.622 47.812 47.752 47.792 47.387 47.115 47.435 46.522 46.98 47.355 47.172 47.027 47.03 47.03 46.99 46.93 46.947 47.04 47.157 47.15 47.097 47.062 47.04 46.992 46.947 46.935 46.975 47.035 47.042 46.997 46.825
89.654 89.676 89.684 89.696 89.669 89.676 89.659 89.644 89.616 89.614 89.614 89.606 89.584 89.579 89.586 89.574 89.531 89.594 89.716 89.721 89.689 89.644 89.584 89.539 89.474 89.404 89.309 89.246 89.211 89.309 89.204 89.291 89.266 89.239 89.274 88.969 88.691 88.414 88.384 88.359 88.459 88.526 88.576 88.701 88.644 88.636 92.571 92.336 88.599 88.931 89.066 89.109 89.014 88.999 89.074 89.029 88.511 87.881 87.329 87.126 87.076 87.074 87.074 87.056 87.051 87.046 87.046 87.054 87.079 87.089 87.074 87.066 87.064 87.044 87.039 87.059 87.051 87.059 87.039 87.064 87.036 87.031 86.994 87.006 87.009 87.036 87.029 87.039 87.039 87.029 87.031 87.026 86.821 86.079 85.211 84.221 83.906 83.854 83.906 83.901 83.876 84.054 85.454 93.264 94.621 92.386 84.689 84.599 84.699 84.731 84.679 84.684 86.554 84.604 84.426 84.351 85.364 83.154 82.971 82.939 82.909 82.849 82.754 82.684 82.631 82.561 83.939 89.436 90.879 91.461 91.114 91.234 91.314 82.309 81.774 81.184 80.614 80.384 80.179 80.021 79.919 79.801 79.666 79.546 79.726 79.304 79.166 79.071 78.911 78.824 78.689 78.639 78.556 78.514 78.471 78.406 78.334 78.251 78.181 78.104 77.986 78.901 78.831 77.741 77.716 76.679 76.209 76.051 75.991 75.854 75.799 75.569 75.374 75.281 75.224 75.114 75.331 76.3 76.746 76.454 75.123 74.991 74.623 74.657 74.316 74.254 74.222 74.238 74.179 94.69 101.599 98.429 88.001 94.805 87.857 87.152 86.882 86.661 86.243 86.085 85.714 85.474 84.964 84.925 84.354 83.504 79.812 74.144 73.997 73.907 73.864 73.674 73.279 72.999 72.722 72.422 72.147 71.849 71.557 71.327 71.217 70.962 70.722 70.547 70.392 69.167 68.242 67.697 67.039 66.394 65.754 65.054 64.174 63.564 62.677 62.354 61.529 61.342 61.292 61.089 60.987 60.959 63.649 72.542 72.967 73.354 73.767 73.569 73.174 72.734 67.194 60.934 60.917 60.892 60.754 60.654 60.627 60.604 60.554 60.552 60.537 60.544 60.629 60.722 60.352 60.079 59.759 59.369 58.947 58.629 58.427 58.247 58.139 57.992 57.862 57.664 57.539 57.462 57.519 58.257 56.889 56.797 56.702 56.55 56.557 56.571 56.985 56.579 56.208 56.107 56.175 56.391 56.557 56.588 56.531 56.389 55.858 56.097 55.557 55.45 55.383 55.609 55.223 55.7 55.225 55.114 55.096 55.098 55.067 55.049 55.011 54.924 55.039 54.764 54.377 54.147 53.964 53.954 53.869 53.974 53.832 53.772 53.724 53.707 53.567 53.509 53.432 53.364 53.317 53.289 53.262 53.237 53.219 53.167 53.079 52.962 52.894 52.827 52.754 52.642 52.517 52.309 51.837 51.254 50.777 50.754 50.697 50.639 50.642 50.447 50.032 66.084 66.349 69.624 69.484 70.207 70.394 70.369 70.349 70.342 70.312 70.292 69.552 69.657 69.414 57.999 50.132 49.679 49.399 50.077 49.264 49.194 49.114 49.137 49.129 50.079 65.429 70.152 69.717 69.449 69.889 70.334 63.992 48.997 49.002 48.954 48.892 48.884 48.349 47.447 47.472 47.499 47.707 47.677 47.717 47.592 47.929 47.822 47.727 47.535 47.577 47.855 46.6 46.972 47.227 47.18 47.72 47.325 47.06 47.032 46.975 46.977 47.085 47.185 47.227 47.222 47.132 48.412 47.157 47.01 47.04 47.132 47.252 47.305 47.227
89.744 89.751 89.734 89.719 89.711 89.704 89.711 89.696 89.666 89.646 89.674 89.679 89.666 89.624 89.586 89.624 89.606 89.596 89.734 89.811 89.841 89.876 89.636 89.561 89.519 89.471 89.406 89.351 89.301 93.259 89.254 89.269 89.364 89.326 89.321 89.261 88.974 88.674 88.499 88.534 88.461 88.541 88.611 88.659 88.769 88.704 88.684 92.974 91.014 88.719 89.039 89.169 89.204 89.039 89.079 89.146 88.961 88.384 87.756 87.261 87.129 87.101 87.094 87.079 87.086 87.086 87.086 87.099 87.099 87.091 87.104 87.079 87.076 87.071 87.076 87.069 87.061 87.064 87.051 87.059 87.059 87.049 87.064 87.051 87.039 87.036 87.064 87.066 87.071 87.044 87.056 87.046 87.029 86.409 85.376 84.479 83.999 83.916 83.979 83.991 84.914 84.041 84.796 92.964 96.514 92.776 84.704 84.656 84.959 85.076 85.214 84.756 84.701 84.749 87.049 84.561 84.949 83.251 83.104 83.111 83.089 83.096 82.869 82.719 82.621 82.539 85.196 85.196 91.906 93.984 94.056 94.989 94.739 82.231 81.734 81.341 80.701 80.559 80.341 80.189 80.081 79.961 79.824 79.701 79.584 79.459 79.356 79.219 79.151 79.021 78.871 78.799 78.691 78.589 78.431 78.399 78.341 78.249 78.179 78.116 78.056 77.939 77.924 77.664 77.611 77.614 77.639 76.244 76.206 76.724 75.881 75.766 75.626 77.564 75.396 75.204 75.792 76.139 75.808 75.602 75.2 74.962 75.338 74.991 74.34 74.311 74.267 74.2 80.464 102.149 102.972 102.971 100.072 94.234 88.769 88.3 88.021 87.683 87.421 87.142 86.9 86.559 86.32 86.013 85.713 85.454 85.117 84.854 84.529 74.112 73.939 73.809 73.499 73.114 72.799 72.507 72.214 72.027 71.864 71.562 71.237 71.022 70.764 70.607 70.389 70.182 69.979 68.287 67.812 67.359 66.739 66.002 65.204 64.489 63.537 62.999 62.774 61.262 61.059 61.032 61.042 61.739 72.567 73.019 73.427 73.814 73.509 73.087 72.682 67.544 60.947 60.949 60.907 60.822 60.707 60.674 60.634 60.574 60.544 60.549 60.532 60.529 60.487 60.592 60.717 60.327 59.972 59.569 59.222 58.834 58.527 58.312 58.189 58.039 57.887 57.729 57.577 57.434 57.304 57.069 57.647 56.904 56.73 56.62 56.639 56.682 56.512 56.367 56.273 56.544 56.325 56.694 56.524 56.698 57.957 58.107 56.708 57.063 55.733 55.575 55.553 56.013 55.844 55.559 55.159 55.144 55.133 55.099 55.108 55.104 55.069 54.996 55.002 55.004 54.722 54.472 54.282 54.099 53.964 53.962 53.969 53.879 53.884 53.834 53.687 53.592 53.537 53.489 53.454 53.437 53.419 53.407 53.369 53.327 53.227 53.114 53.024 52.937 52.847 52.739 52.597 52.419 51.849 51.167 50.834 50.827 50.777 52.069 50.737 50.267 50.122 70.987 70.552 70.124 69.934 70.352 70.784 70.829 70.814 70.777 70.772 70.742 69.462 69.427 69.412 52.712 49.887 49.584 49.619 50.109 49.327 49.242 49.164 49.267 49.224 50.107 67.334 70.127 69.699 69.444 69.929 70.367 56.647 49.052 49.077 49.029 49.299 48.947 48.274 47.502 47.504 47.527 47.487 47.667 47.619 47.757 47.582 47.652 47.355 47.562 47.685 47.477 47.617 46.645 46.905 47.115 47.18 47.052 47.39 47.095 47.06 47.002 46.997 47.11 47.237 47.305 47.275 47.172 47.05 46.985 47.035 47.08 47.25 47.365 47.405
89.824 89.814 89.771 89.756 89.761 89.776 89.746 89.741 89.716 89.701 89.714 89.706 89.674 89.669 89.604 89.604 89.646 89.644 89.751 89.866 89.854 89.651 89.614 89.659 89.636 89.574 89.516 89.444 89.409 89.399 89.351 89.321 89.364 89.634 89.364 90.214 89.236 88.951 88.676 88.571 88.456 88.549 88.624 88.691 88.736 88.814 88.761 89.081 93.069 89.784 88.876 89.156 89.286 89.249 89.074 89.124 89.144 88.869 88.254 87.686 87.231 87.126 87.109 87.091 87.096 87.099 87.081 87.114 87.111 87.106 87.109 87.104 87.104 87.089 87.061 87.071 87.071 87.066 87.059 87.056 87.071 87.091 87.101 87.111 87.099 87.086 87.074 87.076 87.059 87.054 87.081 87.034 87.056 86.581 85.669 84.746 84.129 84.001 84.061 84.094 85.149 84.126 83.984 92.599 94.696 93.124 86.174 84.654 84.636 85.094 85.416 84.791 84.731 84.641 84.551 84.429 85.811 83.366 83.261 83.246 83.316 83.184 82.934 82.734 82.624 82.791 85.211 85.196 90.011 94.004 94.116 94.279 91.364 82.261 81.886 81.431 82.694 81.479 80.499 80.346 80.251 80.139 80.004 79.884 79.746 79.639 79.479 79.389 79.326 79.156 79.021 78.914 78.834 78.681 78.556 78.446 78.299 78.244 78.196 78.166 78.069 77.971 77.871 77.769 77.964 79.836 77.629 77.464 78.816 78.746 76.001 75.929 75.876 76.816 75.949 75.759 75.88 75.846 75.896 75.326 74.716 74.985 74.629 74.471 74.379 74.39 74.339 74.339 96.569 102.655 102.923 103.024 102.861 92.44 89.621 89.33 89.051 88.896 88.614 88.32 88.021 87.724 87.424 87.14 86.857 86.554 86.254 85.942 83.764 74.169 74.082 73.977 73.657 73.207 72.929 72.619 72.324 72.107 71.864 71.732 72.637 71.172 70.952 70.579 70.437 70.244 70.052 69.847 69.344 67.899 67.634 67.034 66.244 65.507 64.547 63.899 63.439 63.332 61.074 61.032 61.019 61.134 67.894 72.729 73.187 73.464 73.027 72.622 69.454 61.184 60.932 60.919 60.839 60.762 60.724 60.674 60.609 60.552 60.567 60.517 60.534 60.544 60.567 60.542 60.582 60.552 60.202 59.887 59.552 59.124 58.674 58.424 58.199 58.032 57.917 57.764 57.614 57.482 57.364 57.089 57.187 56.907 56.763 56.933 56.857 56.873 56.564 56.416 56.342 56.487 56.411 56.533 56.515 56.568 56.668 56.796 58.382 57.214 58.478 57.282 56.357 56.272 56.997 56.026 55.971 55.658 55.158 55.161 55.151 55.265 55.092 55.052 54.977 55.029 54.862 54.619 54.402 54.332 54.232 54.054 54.069 54.387 54.189 53.922 53.809 53.957 53.642 53.629 53.619 53.624 53.614 53.587 53.552 53.502 53.419 53.259 53.147 53.029 52.929 52.812 52.684 52.497 51.787 51.107 50.922 50.899 50.864 50.954 50.792 50.164 54.384 70.839 70.407 69.982 70.069 70.487 64.614 49.879 50.267 49.859 49.852 51.132 49.799 49.799 49.789 49.779 49.714 49.564 49.749 50.142 49.364 49.287 49.227 49.757 49.324 49.877 68.704 70.107 69.664 69.489 69.944 70.389 49.154 49.157 49.172 49.107 49.129 49.097 48.329 47.559 47.502 47.542 47.534 47.662 47.862 47.597 47.662 47.655 47.08 47.37 47.487 47.477 47.572 47.52 46.56 46.557 47.057 47.19 47.897 47.36 47.1 47.092 47.057 47.04 47.15 47.297 47.325 47.31 47.215 49.51 47.975 46.982 47.06 47.205 47.305
89.886 89.861 89.839 89.811 89.806 89.824 89.819 89.791 89.744 89.751 89.741 89.724 89.709 89.671 89.636 89.614 89.616 89.684 89.806 89.931 89.744 89.674 89.729 89.779 89.751 89.696 89.646 89.589 89.516 89.484 89.424 89.419 89.441 89.429 89.461 89.414 92.299 89.366 88.979 88.671 88.629 88.531 88.644 88.719 89.739 88.846 88.854 88.829 89.561 93.126 88.759 89.034 89.264 89.344 89.216 89.114 89.159 89.169 88.791 88.199 87.669 87.209 87.131 87.139 87.099 87.101 87.109 87.104 87.111 87.114 87.109 87.111 87.119 87.106 87.099 87.074 87.071 87.074 87.064 87.059 87.081 87.116 87.139 87.121 87.099 87.084 87.066 87.081 87.074 87.101 87.106 87.061 87.046 86.831 85.819 84.939 84.259 84.101 84.189 84.191 84.499 84.159 84.044 92.256 94.459 93.476 87.179 84.631 84.634 84.676 84.884 84.824 84.766 84.731 84.624 84.459 87.161 83.474 83.391 83.391 83.451 83.066 82.969 82.779 82.674 82.559 86.871 92.366 93.946 94.014 94.164 94.119 90.114 82.246 81.899 81.356 87.829 88.691 88.521 86.154 80.761 80.694 80.191 80.076 79.959 79.809 79.659 79.569 79.456 79.276 82.101 78.871 78.854 78.874 78.766 78.601 78.436 78.339 78.166 78.439 78.074 77.981 77.916 77.824 77.739 77.634 77.521 82.219 80.491 77.314 76.546 76.114 75.929 76.466 75.589 75.496 75.549 75.988 75.542 75.026 74.874 74.915 74.709 74.503 74.461 74.485 74.391 76.282 97.992 101.953 102.209 102.293 99.309 89.624 89.437 89.645 89.91 89.974 89.662 89.376 89.109 88.772 88.545 88.232 87.96 87.682 87.379 87.074 81.522 74.209 74.139 74.032 73.767 73.329 72.962 72.774 72.584 72.402 72.142 71.954 71.887 71.244 70.919 70.637 70.517 70.272 70.127 69.844 69.682 69.557 69.167 67.674 67.057 66.379 65.682 64.867 64.072 63.497 63.522 61.064 61.039 61.024 61.189 71.129 72.769 72.952 72.564 63.084 60.927 60.927 60.927 60.884 60.777 60.772 63.959 60.682 60.629 60.574 60.549 60.572 60.557 60.552 60.564 60.569 60.557 60.614 60.517 60.247 60.314 59.639 59.054 61.624 58.382 58.082 57.942 57.832 57.677 57.574 57.324 57.784 57.159 56.962 56.8 57.268 56.834 57.593 56.548 56.455 56.402 56.489 57.025 56.708 57.555 93.207 62.614 58.053 56.767 56.725 57.759 57.395 58.102 56.463 56.266 56.066 56.655 56.021 55.915 55.756 55.217 55.464 55.151 55.089 54.987 55.057 54.939 54.759 54.614 54.889 54.802 54.377 54.174 54.124 54.127 54.019 53.932 54.272 53.864 53.769 53.779 53.772 53.782 53.737 53.704 53.649 53.564 53.407 53.259 53.147 53.029 52.884 52.759 52.527 51.724 51.062 51.019 50.989 51.639 50.919 50.719 50.082 67.399 70.699 70.272 69.854 70.197 70.637 62.574 49.834 49.874 49.709 49.999 49.674 49.644 49.629 49.699 50.712 49.767 49.537 49.487 49.437 49.404 49.347 49.287 49.247 49.197 49.247 70.479 70.092 69.642 69.524 69.964 70.397 49.242 49.212 49.217 49.237 49.194 49.149 48.569 47.612 47.559 47.774 47.974 47.609 47.617 47.632 47.637 47.635 47.692 50.935 47.212 47.477 47.435 47.495 47.745 46.537 46.742 47.217 47.217 47.105 47.102 47.122 47.127 47.102 47.082 47.212 47.327 47.407 47.385 48.435 47.085 46.937 46.962 47.005 47.082
89.931 89.931 89.944 89.911 89.869 89.861 89.866 89.849 89.811 89.806 89.774 89.754 89.729 89.706 89.679 89.651 89.641 89.639 89.754 91.214 89.744 89.746 89.824 89.884 89.864 89.839 89.791 89.696 89.649 89.576 89.501 89.456 89.444 89.474 89.486 89.481 89.426 89.466 89.244 88.986 88.714 88.696 88.629 88.731 88.816 88.846 88.951 88.906 88.881 88.844 88.836 88.819 89.144 89.321 89.364 89.226 89.169 89.199 89.181 88.714 88.169 87.634 87.201 87.171 87.124 87.114 87.119 87.109 87.126 87.131 87.131 87.139 87.139 87.121 87.119 87.099 87.089 87.076 87.076 87.084 87.096 87.126 87.104 87.106 87.114 87.091 87.089 87.089 87.111 87.104 87.119 87.129 87.119 86.779 85.876 85.284 84.399 84.206 84.236 84.284 85.509 84.226 84.334 91.151 94.074 93.814 90.499 84.641 84.634 84.806 84.929 84.929 84.859 84.834 84.696 84.479 84.619 83.584 83.521 83.504 83.541 82.904 82.844 82.816 82.754 82.569 91.399 94.019 93.911 94.001 94.059 94.119 82.604 82.201 81.939 82.781 89.051 89.546 90.136 89.261 90.056 88.139 82.976 80.556 80.176 79.981 79.824 79.751 79.581 79.369 90.641 89.966 83.869 78.861 78.811 78.719 78.631 78.486 78.309 78.186 79.019 77.971 77.899 77.864 77.779 77.701 77.604 77.706 78.131 77.789 77.284 77.314 76.241 75.901 75.824 75.646 76.21 76.512 76.03 75.264 75.278 76.332 75.293 74.617 74.548 74.537 74.494 74.428 74.536 74.539 102.339 100.269 92.797 88.9 88.311 88.639 88.96 89.226 89.566 89.833 89.969 89.88 89.639 89.4 89.056 88.812 88.492 88.227 79.597 78.839 77.472 74.032 73.819 73.349 73.019 72.632 72.434 72.362 72.222 71.852 71.827 71.202 70.962 70.657 70.417 70.207 70.119 69.914 69.684 69.724 69.862 69.504 68.212 67.234 66.889 67.922 64.884 63.987 63.397 63.137 61.069 61.062 61.032 61.232 68.799 70.107 66.632 60.927 60.964 60.947 60.884 60.812 60.797 60.794 62.659 60.879 60.619 60.599 60.539 60.539 60.579 60.579 60.569 60.574 60.579 60.589 60.664 60.439 63.387 62.687 59.739 63.242 59.344 58.317 58.009 57.887 57.772 57.652 57.317 58.064 57.134 56.997 56.908 57.167 56.984 56.69 56.58 56.588 56.928 56.74 56.784 60.736 99.983 98.372 86.038 90.261 72.871 57.002 56.795 57.088 57.867 56.468 57.15 56.595 56.044 55.966 56.64 55.762 55.636 55.938 55.291 55.123 55.012 55.144 55.009 54.819 54.844 55.094 54.997 54.482 54.399 54.232 54.169 54.109 54.037 54.084 53.929 53.909 53.894 53.889 53.849 53.842 53.799 53.764 53.687 53.549 53.379 53.252 53.132 52.979 52.864 52.459 51.577 51.094 51.102 51.057 51.992 51.024 50.477 50.002 64.444 70.562 70.144 69.927 70.344 70.769 49.892 49.894 49.822 49.727 49.684 49.679 49.672 49.654 50.062 50.067 49.594 49.547 49.517 49.482 49.434 49.397 49.362 49.967 49.294 49.284 70.534 70.512 70.277 69.539 69.977 70.412 49.259 49.234 49.259 49.264 49.239 49.187 48.817 47.659 47.632 47.682 47.784 47.489 47.697 47.739 47.652 47.655 52.02 48.957 50.865 47.242 47.56 47.617 47.712 47.645 47.182 46.667 47.177 47.237 47.127 47.105 47.147 47.172 47.165 47.15 47.282 47.442 47.505 47.457 47.315 47.105 47.062 46.98 47.012
90.026 90.026 90.004 89.969 89.941 89.926 89.909 89.904 89.879 89.849 89.811 89.786 89.751 89.724 89.734 89.716 89.691 89.666 89.654 89.781 89.756 89.894 89.994 90.004 89.969 89.956 89.909 89.841 89.794 89.746 89.619 89.671 89.476 89.461 89.481 89.541 89.479 89.491 89.536 89.176 88.976 88.784 88.726 88.719 88.804 88.884 88.934 89.034 88.959 88.959 88.936 88.884 88.894 89.244 89.374 89.411 89.226 89.226 89.254 89.134 88.659 88.124 87.456 87.201 87.156 87.166 87.131 87.119 87.119 87.154 87.144 87.139 87.114 87.109 87.119 87.126 87.114 87.099 87.099 87.119 87.111 87.101 87.086 87.104 87.111 87.096 87.089 87.124 87.141 87.161 87.206 87.204 87.166 86.819 86.156 85.531 84.531 84.299 84.306 84.356 84.799 84.399 84.381 89.164 93.734 94.194 91.744 84.636 84.931 85.159 85.069 85.111 85.031 84.951 84.796 84.641 84.706 83.714 83.641 83.634 83.551 82.986 82.901 83.004 82.851 82.519 90.739 94.011 93.866 94.009 94.061 94.126 82.326 82.206 82.024 87.036 89.571 90.256 90.101 89.949 89.961 89.174 90.254 89.614 85.766 80.111 79.994 79.889 81.019 85.241 90.621 90.574 90.524 90.499 89.019 79.399 80.914 78.736 78.616 78.361 78.166 78.066 78.336 78.946 77.809 77.729 77.646 77.559 77.484 78.044 78.056 77.191 77.151 77.179 76.006 77.276 76.511 76.142 76.507 76.885 78.181 78.704 79.099 76.991 74.826 74.67 74.58 74.536 74.595 74.641 75.637 80.138 86.455 86.869 87.227 87.424 87.718 88.068 88.365 88.74 88.978 89.287 89.596 89.908 90.048 89.939 89.649 89.374 78.854 78.817 75.472 74.019 73.779 73.342 72.939 72.699 73.089 72.314 72.509 72.039 71.569 71.289 71.047 70.817 70.422 70.342 70.172 69.984 69.862 69.697 69.609 69.782 69.134 69.119 67.729 66.852 65.919 65.189 64.012 63.522 62.974 61.082 61.062 61.039 61.097 61.024 60.939 60.929 60.927 60.902 60.857 60.842 60.824 60.774 60.867 60.712 60.652 60.639 60.577 60.557 60.572 60.617 60.622 60.604 60.604 60.524 60.514 60.794 60.517 60.649 59.944 59.634 62.954 60.749 59.639 57.954 57.839 57.619 57.329 58.127 57.204 57.024 57.013 57.037 57.164 56.743 56.651 56.687 56.751 56.891 56.898 74.354 105.088 106.498 106.53 98.685 95.551 57.314 71.326 63.055 57.062 56.289 56.391 56.028 55.967 55.866 55.812 57.034 55.813 55.869 55.24 55.147 55.092 55.154 55.024 54.942 55.004 55.187 54.944 54.739 54.609 54.349 54.242 54.179 54.139 54.087 54.054 54.009 53.962 53.927 53.917 53.894 53.884 53.842 53.777 53.657 53.499 53.347 53.229 53.117 52.912 52.227 51.412 51.192 51.199 51.134 51.009 51.084 50.344 49.959 70.849 70.424 70.002 70.062 70.477 67.424 49.917 49.962 51.022 50.769 49.717 49.692 49.664 49.644 49.604 49.657 49.624 50.444 50.627 49.504 49.459 49.424 49.414 49.424 49.367 49.362 70.499 70.854 70.647 69.557 69.987 70.442 49.282 49.299 49.289 49.299 49.302 49.239 50.179 47.702 47.672 47.642 47.617 46.787 47.717 47.654 47.664 47.657 48.022 50.135 47.607 55.145 47.475 47.76 47.677 47.52 47.565 47.022 46.732 47.295 47.287 47.535 48.085 47.182 47.225 47.245 47.23 47.38 47.495 47.58 47.505 47.305 47.155 47.06 47.042
90.109 90.126 90.099 90.064 90.001 89.986 89.969 89.936 89.929 89.904 89.894 89.844 89.791 89.759 89.771 89.769 89.756 89.754 89.696 89.751 89.759 89.966 90.066 90.086 90.059 90.086 90.059 89.949 89.966 92.561 91.139 89.694 89.629 89.551 89.489 89.501 89.571 89.496 89.649 93.634 89.239 88.999 88.859 88.746 88.816 88.899 88.959 88.996 89.091 89.024 89.011 88.974 88.929 89.031 89.311 89.429 89.431 89.226 89.286 89.296 89.071 88.499 87.841 87.346 87.211 87.176 87.149 87.121 87.126 87.164 87.176 87.156 87.146 87.131 87.131 87.131 87.119 87.111 87.121 87.134 87.119 87.116 87.131 87.124 87.129 87.121 87.126 87.144 87.176 87.219 87.274 87.236 87.154 86.891 86.231 85.581 84.729 84.421 84.364 84.404 84.444 84.989 84.539 87.526 93.391 94.561 92.359 84.656 84.649 85.149 85.184 85.191 85.151 85.066 84.926 84.534 84.096 83.856 83.804 83.779 83.654 83.201 82.956 83.059 82.831 82.601 93.849 94.011 93.876 94.021 94.084 94.131 82.329 82.259 82.059 88.144 89.251 90.154 89.914 90.214 90.216 89.914 90.306 89.026 84.891 80.211 80.159 80.606 79.756 90.666 90.614 90.539 90.494 90.454 90.571 89.109 90.641 89.136 81.606 78.659 78.421 78.189 78.031 78.049 77.879 77.724 77.644 77.579 77.506 77.439 77.341 77.314 84.741 78.136 77.049 76.481 76.466 76.598 76.929 78.556 78.938 80.009 79.698 77.308 75.298 74.837 74.731 74.71 74.639 74.598 74.513 76.873 85.518 85.728 86.034 86.446 86.694 86.941 87.353 87.597 87.92 88.216 88.5 88.789 89.104 89.379 89.757 90.227 78.814 78.769 74.124 74.004 73.802 73.544 73.349 72.789 72.629 72.444 72.159 72.417 71.704 71.557 71.182 70.969 70.587 70.562 70.379 70.254 70.327 69.807 69.639 69.422 69.207 69.092 68.869 70.469 67.269 65.864 65.087 64.439 63.717 62.872 61.084 62.567 61.852 61.004 61.037 60.972 60.927 60.904 60.909 60.892 60.834 60.792 60.777 60.737 60.667 60.684 60.657 60.609 60.587 60.619 60.627 60.624 60.607 60.572 60.549 61.187 66.484 62.654 60.199 60.014 59.214 60.244 58.237 58.007 57.897 57.589 57.994 57.369 57.252 57.115 57.102 57.197 58.08 56.82 56.679 56.616 56.744 56.873 56.831 94.143 107.081 106.526 106.484 106.43 97.395 58.029 101.104 84.538 82.903 83.016 56.928 55.834 55.693 55.627 55.588 56.104 55.538 55.365 55.276 55.205 55.172 55.162 55.224 55.014 55.119 55.157 54.867 54.577 54.837 54.429 54.334 54.242 54.189 54.279 54.167 54.084 53.974 53.942 53.929 53.927 53.892 53.877 53.854 53.774 53.622 53.449 53.309 53.232 52.859 52.012 51.327 51.289 51.267 51.582 51.174 50.984 50.214 51.399 70.709 70.282 69.812 70.192 70.614 54.032 50.049 49.962 49.849 49.779 49.747 49.719 49.679 49.652 49.674 49.649 49.654 49.602 49.579 49.514 49.482 49.439 49.429 49.469 49.432 49.427 70.487 70.024 69.587 69.584 70.002 70.492 49.294 49.332 49.349 49.357 49.332 49.269 50.212 50.407 47.899 47.657 47.644 47.499 46.932 47.687 47.642 47.8 47.647 48.742 48.28 47.617 49.105 46.877 47.197 47.517 47.382 47.477 46.917 47.06 47.26 47.3 47.422 47.255 47.252 47.3 47.332 47.322 47.455 47.577 47.682 47.625 47.44 47.272 47.175
90.171 90.184 90.181 90.146 90.089 90.049 90.009 89.986 89.974 89.961 89.949 89.916 89.881 89.826 89.814 89.789 89.779 89.779 89.754 89.736 89.764 90.014 90.121 90.164 90.169 90.184 90.144 90.061 89.971 89.924 89.879 89.814 89.776 89.694 89.579 89.519 89.551 89.606 89.514 89.644 89.496 89.261 88.999 88.921 88.801 88.899 88.979 89.024 89.071 89.124 89.066 89.036 89.021 88.971 89.136 89.439 89.479 89.404 89.284 89.329 89.261 88.911 88.361 87.691 87.304 87.239 87.179 87.161 87.164 87.176 87.176 87.166 87.169 87.156 87.146 87.154 87.134 87.139 87.131 87.141 87.126 87.129 87.136 87.134 87.151 87.171 87.154 87.221 87.244 87.279 87.314 87.251 87.159 86.979 86.346 86.301 85.001 84.774 84.411 84.449 84.481 84.741 86.211 93.161 93.631 94.784 92.754 88.374 84.904 86.059 85.196 85.164 85.171 85.151 85.076 84.569 84.164 83.991 83.931 83.906 83.901 83.781 83.009 82.994 83.341 82.456 94.084 94.009 93.936 94.029 94.074 93.294 82.344 82.281 82.121 85.956 89.194 90.024 89.964 89.866 89.719 90.141 89.764 88.484 80.561 80.401 80.299 80.129 79.696 79.221 84.291 90.521 90.479 90.389 90.511 90.551 90.581 90.584 90.634 81.346 79.604 78.526 78.246 78.029 77.889 77.736 78.874 77.979 77.546 77.469 77.394 77.276 77.181 77.249 78.196 76.974 77.185 76.676 77.28 77.945 80.46 76.989 79.493 78.776 75.304 74.988 74.908 74.782 74.771 74.693 74.681 78.6 84.278 84.758 84.912 85.206 85.463 85.834 86.148 86.529 86.769 87.094 87.355 87.67 87.953 88.299 88.589 81.379 78.804 78.804 74.084 74.032 73.894 73.389 72.977 72.689 72.514 72.479 72.202 71.909 71.814 71.577 71.322 71.087 70.734 70.629 70.499 70.472 70.342 69.964 69.797 69.627 69.272 69.234 68.927 68.764 68.832 68.489 66.454 65.407 64.529 63.929 63.584 63.314 63.112 62.802 61.057 60.977 60.959 61.207 60.927 60.917 60.879 60.827 60.794 60.782 60.727 60.674 60.687 60.677 60.624 60.609 60.602 60.604 60.587 60.629 62.894 72.317 72.712 69.609 59.982 59.527 58.994 58.644 58.187 57.994 57.894 57.629 57.549 57.469 57.287 57.18 57.199 57.212 57.113 56.825 56.816 56.707 56.841 56.92 63.601 106.316 105.782 106.497 106.523 107.57 66.766 96.995 99.481 106.556 99.67 103.061 65.915 55.755 55.661 55.614 55.58 55.525 55.46 55.409 55.368 55.296 55.302 55.287 55.307 55.109 55.154 55.092 54.822 54.574 55.424 54.572 54.382 54.329 54.279 54.197 54.199 54.119 54.012 53.969 53.939 53.919 53.924 53.899 53.894 53.822 53.694 53.522 53.414 53.319 52.689 51.839 51.344 51.364 51.337 52.029 51.304 50.767 50.112 61.002 70.572 70.142 69.864 71.164 70.754 55.324 50.834 50.132 49.857 49.812 49.787 49.752 49.719 49.684 49.664 49.667 49.697 49.637 49.602 49.549 49.517 49.489 49.462 49.442 49.394 49.432 70.474 70.009 69.557 69.592 70.029 70.484 49.309 49.367 49.374 49.357 49.352 49.289 49.219 49.617 50.557 47.592 47.592 47.549 47.767 47.664 47.939 47.627 47.78 47.627 49.042 47.765 47.03 46.617 47.392 47.64 47.497 46.835 46.477 46.855 47.23 47.327 47.337 47.26 47.252 47.342 47.395 47.43 47.422 47.565 47.712 47.825 47.775 47.6 47.392
90.211 90.206 90.214 90.191 90.154 90.124 90.081 90.034 90.014 90.021 89.986 89.961 89.929 89.859 89.851 89.846 89.789 89.794 89.776 89.746 89.754 89.974 90.174 90.246 90.284 90.349 90.296 90.141 89.984 89.946 89.916 89.781 89.839 90.161 89.731 89.861 89.564 89.639 89.604 89.561 89.649 89.489 89.299 89.014 88.969 88.886 88.961 89.039 89.091 89.156 89.139 89.124 89.081 89.054 89.006 89.341 89.504 89.496 89.346 89.309 89.359 89.314 88.926 88.226 87.639 87.356 87.236 87.201 87.186 87.184 87.186 87.194 87.186 87.184 87.176 87.166 87.171 87.161 87.154 87.151 87.136 87.144 87.134 87.151 87.186 87.196 87.221 87.286 87.331 87.336 87.336 87.276 87.206 86.951 86.566 85.941 85.161 86.601 84.504 84.546 84.579 84.534 85.349 94.461 94.036 94.811 93.499 93.116 92.419 90.759 86.289 85.199 85.176 85.214 85.156 85.109 84.281 84.116 84.076 84.069 84.139 84.106 84.444 83.861 82.804 82.451 87.694 94.006 93.969 94.041 94.106 93.501 82.361 82.344 82.104 81.351 81.341 83.746 89.156 88.614 89.311 90.374 89.204 87.204 80.656 80.564 80.434 80.264 79.296 81.346 90.554 90.501 90.459 90.406 90.469 90.511 90.519 90.534 90.564 90.584 90.604 89.226 78.694 78.409 78.169 77.889 77.746 77.596 78.311 77.661 77.411 77.316 77.236 77.136 77.961 78.851 76.879 76.942 77.625 78.053 78.609 79.065 79.101 78.143 75.653 75.172 75.148 74.925 74.834 74.773 74.712 74.988 79.254 80.101 80.909 82.887 84.526 84.781 85.081 85.333 85.637 85.954 86.268 86.527 86.879 87.152 87.544 78.949 78.794 77.714 74.079 74.024 73.864 73.374 73.162 72.997 72.617 72.657 72.142 72.047 71.879 71.649 71.389 71.222 71.042 70.832 70.602 70.542 70.274 70.072 69.842 69.734 69.537 69.334 69.712 69.174 69.887 69.897 68.212 67.829 65.664 66.312 64.442 63.989 64.022 63.364 63.002 62.862 60.974 60.944 60.939 60.924 60.917 60.864 60.802 60.757 60.724 62.639 62.587 60.674 60.662 60.627 60.597 60.612 60.652 62.392 71.892 72.774 73.147 72.702 67.837 59.167 58.772 58.327 58.124 58.024 57.857 58.737 57.764 57.544 57.351 57.203 57.188 57.52 56.979 56.862 57.444 56.862 56.948 57.008 83.927 104.329 102.046 106.533 106.709 96.248 100.24 108.376 106.543 106.526 106.513 91.016 61.047 55.76 55.683 55.659 55.614 55.55 55.478 55.43 55.395 55.377 55.382 55.382 55.322 55.254 55.164 55.027 54.767 54.617 54.574 54.499 54.532 54.579 54.977 54.279 54.197 54.152 54.067 54.134 53.992 53.942 53.939 53.937 53.919 53.867 53.757 53.619 53.522 53.317 52.517 51.679 51.439 51.452 51.382 51.277 51.422 50.667 50.052 69.089 70.437 70.014 70.059 70.984 70.879 50.777 50.702 50.114 49.937 50.274 49.852 49.772 49.739 49.712 49.962 50.864 50.007 50.184 49.807 49.584 49.557 49.524 49.497 49.692 49.632 49.404 70.442 69.992 69.532 69.609 70.052 69.747 49.327 49.362 49.364 49.349 49.349 49.299 49.252 49.239 49.609 47.834 47.589 47.607 47.672 47.944 48.877 47.855 47.722 47.635 47.62 47.722 47.142 47.547 47.532 47.432 46.707 46.465 46.635 46.45 46.665 47.292 47.377 47.372 47.305 47.362 47.437 47.505 47.547 47.562 47.702 47.862 47.982 47.975 47.825
90.264 90.269 90.254 90.211 90.191 90.171 90.154 90.109 90.094 90.046 90.044 90.029 89.976 89.916 89.881 89.851 89.841 89.821 89.816 89.799 89.764 89.869 90.089 90.204 90.311 90.461 96.479 90.124 91.344 91.679 89.871 89.849 89.846 89.776 89.751 89.684 89.636 89.589 89.636 89.619 89.609 89.611 89.436 89.271 89.051 88.979 88.951 89.029 89.776 90.601 89.246 89.174 89.154 89.124 89.074 89.054 89.394 89.504 89.491 89.376 89.366 89.414 89.261 88.739 88.121 87.614 87.316 87.259 87.241 87.209 87.224 87.204 87.209 87.234 87.239 87.196 87.206 87.156 87.154 87.159 87.159 87.161 87.176 87.184 87.219 87.261 87.304 87.329 87.334 87.334 87.316 87.271 87.216 87.106 86.776 86.231 85.284 84.746 84.599 84.646 84.669 84.634 84.666 91.856 92.886 94.739 94.681 96.071 94.759 94.224 93.564 92.989 92.379 91.249 86.356 85.004 84.399 84.274 84.214 84.251 84.271 83.994 83.974 83.234 84.446 83.731 91.861 93.966 93.979 94.036 94.099 94.166 82.356 82.299 82.074 81.501 81.366 81.341 81.319 81.391 87.001 89.966 88.674 81.276 80.789 80.709 80.546 80.189 79.081 87.629 90.549 90.489 90.389 90.476 90.419 90.396 90.474 90.479 90.506 90.526 90.546 90.594 90.219 88.621 79.559 78.309 78.014 77.716 77.644 78.149 77.476 77.321 77.284 77.211 77.101 76.996 76.865 77.43 77.871 77.876 78.315 78.72 76.673 75.988 75.545 75.423 75.318 75.091 74.982 75.058 74.906 74.599 74.566 74.506 74.511 75.385 77.219 77.928 81.398 84.011 84.565 84.838 85.131 85.45 85.712 86.074 85.237 74.382 75.797 75.289 74.109 74.149 73.994 73.297 73.227 72.947 73.837 73.274 72.099 72.044 71.847 71.679 71.407 71.277 71.109 70.889 70.817 70.609 70.334 73.164 78.692 70.674 72.042 75.362 73.424 69.112 68.952 68.609 68.452 68.234 68.019 66.837 65.462 64.779 64.387 64.199 63.697 63.329 62.884 62.459 60.927 60.934 60.912 60.859 60.802 60.774 60.739 62.192 60.774 60.692 60.649 60.644 60.632 60.839 67.439 72.422 72.832 73.232 73.597 73.109 72.629 68.032 58.417 58.319 58.242 58.119 57.914 58.914 57.727 57.592 57.411 57.26 57.153 57.066 56.981 57.124 57.044 56.934 57.01 58.565 103.232 103.177 106.524 106.527 106.582 104.529 107.113 107.739 106.529 105.81 98.774 85.594 56.246 55.774 55.71 55.689 55.656 55.594 55.538 55.481 55.43 55.466 55.457 55.504 55.467 56.607 55.139 54.947 54.747 54.692 54.619 54.554 54.494 54.422 54.377 54.339 54.262 54.219 54.132 54.114 54.114 53.982 54.284 53.984 53.957 53.904 53.827 53.697 53.612 53.257 52.319 51.584 51.537 51.539 51.949 51.464 51.369 50.507 56.539 70.727 70.307 69.869 70.184 70.609 60.424 51.004 50.052 50.009 50.592 50.822 49.822 49.794 49.757 49.734 50.294 50.989 50.017 49.934 49.992 49.604 49.577 49.569 49.552 49.554 49.599 49.282 70.424 69.959 69.514 69.624 70.077 68.044 49.254 49.332 49.342 49.389 49.337 49.324 49.309 49.154 48.992 48.937 47.629 47.532 47.654 47.757 47.882 47.862 47.59 47.687 47.81 47.262 47.425 47.572 47.732 47.092 46.66 46.375 46.322 45.987 46.25 47.535 47.415 47.432 47.407 47.38 47.472 47.555 47.64 47.682 47.717 47.845 48.03 48.205 48.96
90.314 90.276 90.249 90.224 90.224 90.201 90.186 90.146 90.146 90.109 90.076 90.056 90.026 90.001 89.941 89.884 89.856 89.861 89.871 89.839 89.831 89.831 89.851 89.979 90.094 90.176 90.234 90.014 93.594 94.654 94.009 93.309 90.326 92.264 89.794 89.811 89.671 89.584 89.599 89.664 89.614 89.626 89.646 91.164 89.271 89.094 88.981 89.019 89.086 90.211 89.506 89.299 89.214 89.181 89.166 89.121 89.144 89.451 89.539 89.539 89.374 89.399 89.404 89.166 88.676 88.126 87.564 87.334 87.259 87.244 87.244 87.254 87.276 87.289 87.271 87.269 87.201 87.136 87.151 87.186 87.201 87.216 87.216 87.276 87.341 87.351 87.369 87.391 87.379 87.364 87.344 87.311 87.281 87.204 86.814 86.299 85.596 84.886 84.711 84.734 84.756 84.706 84.704 85.506 91.106 94.636 92.591 93.556 94.081 94.671 95.189 95.114 94.691 93.961 93.346 90.876 84.511 84.401 84.346 84.426 84.346 84.076 83.914 83.351 84.839 84.999 92.056 93.924 96.874 95.359 94.114 94.184 82.601 82.189 81.974 81.546 81.399 81.389 81.341 81.301 81.254 81.204 83.324 81.034 80.911 80.804 80.661 79.151 79.484 85.979 90.809 91.256 90.499 90.774 90.511 90.491 90.456 90.359 90.437 90.479 90.509 90.926 90.831 91.394 87.687 87.196 82.316 78.091 77.841 77.589 77.476 77.284 77.286 77.239 77.164 77.049 76.986 76.874 77.541 77.398 78.234 78.035 76.162 75.767 75.608 75.649 75.433 75.264 75.14 75.069 74.718 74.539 74.516 74.531 74.502 75.534 76.477 76.368 75.853 75.123 76.118 77.314 81.61 84.59 84.644 84.942 80.744 74.247 74.234 74.202 74.197 74.089 73.717 73.209 73.202 73.099 72.972 72.367 72.132 73.057 72.072 71.744 71.547 71.432 71.199 71.077 71.232 70.667 70.569 77.647 72.617 75.959 74.514 75.662 75.869 71.629 68.797 73.292 70.297 68.312 68.262 68.067 67.699 65.482 64.944 64.589 64.489 64.242 63.512 62.972 62.789 60.934 60.887 60.854 60.839 60.814 60.779 60.772 60.739 60.692 60.642 60.654 60.657 70.917 72.487 72.899 73.304 73.614 73.257 72.837 72.414 61.704 58.494 58.572 58.359 58.169 57.969 57.909 57.823 57.644 57.468 57.301 57.188 57.113 57.027 57.179 56.999 57.012 57.036 78.244 104.314 106.487 106.561 106.778 107.124 98.046 106.581 106.591 106.558 106.571 82.675 63.717 55.924 55.78 55.774 55.722 55.683 55.621 55.578 55.528 55.488 56.433 55.519 55.579 55.512 55.382 55.114 54.892 54.779 54.742 54.662 54.614 54.562 54.492 54.459 54.404 54.349 54.274 54.237 54.197 54.137 54.072 54.052 54.027 54.042 53.977 53.922 53.814 53.722 53.032 52.124 51.592 51.629 51.584 51.994 51.602 51.202 50.339 61.807 70.592 70.172 69.884 70.317 70.734 52.202 50.249 50.069 50.044 49.897 49.877 49.849 49.807 49.779 49.769 50.347 50.474 50.514 50.527 50.047 49.662 49.667 49.637 49.594 50.389 50.147 49.319 70.399 69.942 69.484 69.652 70.099 70.569 54.904 52.649 53.092 52.149 51.259 50.217 50.884 50.244 49.082 49.069 48.599 47.597 47.519 47.497 47.574 47.76 47.64 47.612 47.645 47.79 47.67 47.76 47.6 47.657 46.702 46.13 46.062 45.997 45.982 47.652 47.545 47.48 47.442 47.417 47.51 47.59 47.695 47.792 47.85 47.892 48.017 48.217 48.345
90.359 90.316 90.279 90.276 90.289 90.269 90.241 90.209 90.189 90.174 90.151 90.109 90.071 90.039 89.999 89.934 89.906 89.894 89.911 89.859 89.891 89.856 89.846 89.846 89.874 89.939 90.006 90.326 94.206 95.754 95.734 95.099 94.066 92.854 90.531 89.781 89.731 89.671 89.554 89.629 89.684 89.621 94.139 92.089 89.424 89.256 89.131 88.996 89.076 89.146 89.201 89.249 89.324 89.254 89.226 89.194 89.141 89.244 89.486 89.564 89.534 89.384 89.434 89.419 89.069 88.499 87.941 87.454 87.329 87.271 87.269 87.276 87.311 87.314 87.294 87.286 87.239 87.209 87.199 87.229 87.216 87.256 87.329 87.369 87.394 87.404 87.424 87.421 87.406 87.359 87.351 87.309 87.311 87.259 86.919 88.284 85.761 85.044 84.791 84.774 84.819 84.801 84.776 84.834 84.869 84.909 85.084 86.196 91.316 92.561 93.131 93.694 94.339 94.904 95.259 88.951 84.634 84.549 84.481 84.641 84.324 84.056 83.691 84.006 84.949 85.146 93.914 93.886 96.884 94.454 94.119 91.769 85.074 82.619 82.321 81.919 81.771 81.471 81.349 81.309 81.286 81.221 81.214 81.134 81.039 80.916 80.774 78.924 86.964 90.561 90.514 90.479 90.511 85.311 83.974 90.546 88.674 90.486 90.476 90.391 90.441 90.471 90.516 87.989 87.629 87.666 87.674 87.734 83.829 77.751 77.624 77.436 77.264 77.229 77.171 77.121 77.036 76.927 76.821 76.7 76.575 76.548 76.619 76.441 75.732 75.826 75.626 75.479 75.218 75.004 74.852 74.785 74.826 74.511 74.591 76.496 78.956 76.837 75.879 74.421 74.364 74.297 74.352 74.396 74.274 79.554 75.964 74.297 74.299 74.249 74.189 74.117 73.709 73.302 73.172 72.957 72.777 72.377 72.429 72.182 72.017 71.832 71.647 71.462 71.797 71.429 71.167 70.862 70.704 70.492 71.477 70.254 69.709 73.054 78.324 76.574 73.449 69.254 68.604 68.442 72.937 73.497 68.304 67.579 66.902 65.072 64.892 64.859 64.784 63.912 63.074 62.522 60.924 60.899 60.844 60.819 60.789 60.759 60.667 60.662 60.672 60.689 69.092 72.554 72.954 73.379 73.589 73.177 72.779 71.729 64.414 58.314 58.377 58.534 58.524 58.247 58.089 58.042 57.905 57.74 57.629 57.502 57.291 57.136 57.011 57.141 57.048 57.052 59.151 98.281 106.762 106.507 108.59 110.444 109.993 106.985 106.677 106.515 106.499 106.562 94.191 57.285 55.935 55.842 55.786 55.764 55.707 55.674 55.618 55.561 55.558 55.574 55.869 55.647 55.612 55.372 55.124 54.889 54.844 54.797 54.739 54.677 54.624 54.562 54.532 54.489 54.442 54.392 54.297 54.297 54.254 54.172 54.147 54.132 54.099 54.064 54.012 53.922 53.744 52.899 51.984 51.704 51.719 51.674 51.587 51.694 50.994 50.267 56.304 69.379 69.727 69.974 70.462 67.697 50.789 50.302 50.059 49.954 50.022 50.037 49.937 49.839 49.829 49.829 50.052 49.997 49.992 50.002 49.937 49.717 49.714 49.684 50.397 50.434 50.487 50.494 70.379 69.914 69.427 69.659 70.127 70.302 70.317 70.334 70.374 70.379 70.399 70.407 70.432 70.464 70.492 51.697 49.349 47.709 47.547 47.554 47.569 47.56 47.685 47.562 47.585 47.58 47.732 47.722 47.242 46.897 46.15 46.122 46.115 46.052 47.452 47.872 47.68 47.662 47.545 47.457 47.552 47.65 47.755 47.86 47.95 48.03 48.065 48.177 48.332
90.426 90.376 90.326 90.314 90.319 90.316 90.294 90.279 90.244 90.196 90.174 90.146 90.129 90.084 90.046 90.009 89.969 89.936 89.931 89.889 89.929 89.881 89.854 89.844 89.844 89.856 89.829 90.916 93.601 94.266 94.871 98.126 97.406 93.759 90.726 89.794 89.781 89.696 89.576 89.576 89.671 89.704 89.624 89.651 89.564 89.499 89.256 89.166 89.034 89.126 89.199 89.244 89.299 89.316 89.269 89.236 89.184 89.146 89.364 89.531 89.596 89.534 89.394 89.446 89.346 88.861 88.321 87.796 87.401 87.306 87.286 87.284 87.311 87.319 87.286 87.261 87.261 87.261 87.269 87.226 87.214 87.256 87.376 87.416 87.439 87.446 87.436 87.436 87.409 87.389 87.336 87.354 87.349 87.289 86.974 86.919 85.856 85.139 84.901 85.284 84.894 84.899 84.861 84.929 84.989 85.656 86.286 85.181 85.009 85.041 86.019 86.491 91.881 92.709 93.346 84.971 84.766 84.709 84.611 84.739 84.321 83.711 83.551 84.596 85.089 89.011 94.404 93.871 96.884 93.921 94.146 87.194 84.981 83.229 82.791 82.534 82.244 81.959 81.866 81.519 81.599 81.326 81.329 81.256 81.159 81.094 79.094 78.941 83.894 87.204 90.514 90.401 88.031 78.934 78.996 78.891 84.576 87.234 90.519 90.504 90.556 89.901 90.436 87.641 87.604 87.521 87.619 87.656 87.691 87.706 77.844 77.644 77.336 77.239 77.154 77.109 77.036 76.974 76.878 76.763 76.631 76.482 76.361 76.396 76.314 76.32 75.904 75.692 75.306 75.057 74.894 74.723 74.585 74.6 75.337 80.305 79.995 78.191 77.476 74.634 74.288 74.277 74.284 74.274 74.274 74.252 74.247 74.239 74.284 74.084 73.824 73.832 73.607 73.352 73.212 72.754 72.574 72.552 72.354 72.204 72.144 71.902 71.722 71.504 71.462 71.402 71.287 70.974 71.022 79.634 78.094 72.882 69.892 69.564 69.702 72.879 77.642 69.027 71.394 69.674 68.307 68.022 68.627 67.814 67.414 67.022 65.349 65.104 65.427 64.929 63.942 62.987 62.219 60.897 60.847 60.804 60.739 60.689 60.657 60.687 62.344 70.799 72.619 73.032 73.439 73.517 73.122 72.707 70.402 61.642 58.297 58.379 58.404 58.457 58.502 58.344 58.249 58.154 57.985 57.955 57.818 57.59 57.351 57.208 57.096 57.117 57.067 57.094 68.934 105.089 106.505 106.558 110.669 110.731 110.722 110.76 110.126 106.892 106.55 106.501 70.458 56.021 55.922 55.891 55.822 55.795 55.761 55.694 55.653 55.634 56.49 55.644 55.809 55.714 55.602 55.367 55.082 54.944 54.927 54.882 54.817 54.779 54.687 54.644 54.604 54.549 54.519 54.472 54.414 54.349 54.324 54.319 54.249 54.219 54.192 54.162 54.097 53.992 53.644 52.759 51.942 51.809 51.799 52.124 51.767 51.779 50.857 50.237 64.742 69.364 69.562 69.799 67.392 52.107 50.574 50.244 50.147 50.032 49.987 49.977 49.949 49.919 49.897 49.862 49.857 49.849 49.827 49.809 49.784 49.772 49.742 49.697 49.674 49.799 50.079 51.237 70.362 69.902 69.367 69.687 69.827 69.834 69.867 69.884 69.894 69.922 69.927 69.949 69.959 69.974 70.299 54.442 50.092 49.852 47.617 47.524 47.562 47.572 47.615 47.625 47.867 48.15 47.975 47.742 46.772 46.397 46.43 48.105 46.372 46.955 48.015 47.905 47.782 47.902 47.635 47.522 47.612 47.72 47.825 47.927 48.02 48.127 48.212 48.285 48.342
90.431 90.429 90.411 90.356 90.349 90.336 90.326 90.291 90.244 90.199 90.174 90.161 90.156 90.141 90.089 90.074 90.026 89.981 89.979 89.949 91.091 89.964 89.886 89.866 89.864 89.846 89.824 89.859 89.891 90.074 93.634 96.251 96.899 94.471 90.746 89.846 89.859 89.756 90.709 89.581 89.601 89.694 89.691 89.644 89.689 89.599 89.521 89.261 89.194 89.089 89.176 89.231 89.284 89.346 89.314 89.284 89.244 89.186 89.149 89.451 89.556 89.579 89.509 89.426 89.466 89.276 88.744 88.231 87.806 87.409 87.316 87.296 87.294 87.316 87.299 87.311 87.279 87.281 87.291 87.266 87.229 87.214 87.299 87.416 87.444 87.461 87.451 87.419 87.374 87.384 87.384 87.371 87.374 87.306 87.039 86.589 86.031 87.491 91.074 86.559 84.994 84.999 84.939 84.999 85.091 85.154 85.201 85.211 85.181 85.146 85.616 85.251 85.089 85.091 86.569 85.044 84.896 84.819 84.741 84.754 84.411 83.661 83.664 84.796 85.149 97.601 99.534 99.379 99.591 99.071 96.984 85.169 84.676 83.964 83.664 83.269 82.876 82.626 82.319 82.014 81.781 81.571 81.451 81.371 81.289 81.131 78.936 78.941 88.111 90.526 90.459 90.469 88.886 79.881 78.869 78.856 78.954 78.924 82.369 88.896 81.639 81.651 87.276 87.681 87.661 87.649 87.634 87.544 87.581 83.761 78.031 77.786 77.549 77.381 77.349 77.234 77.019 76.956 76.904 76.832 76.73 76.591 76.46 76.3 76.21 76.144 76.103 75.63 75.463 75.165 74.988 74.928 74.987 74.729 76 78.722 78.752 78.338 74.708 74.568 74.202 74.281 74.289 74.227 74.179 74.249 74.224 74.199 74.142 73.897 73.737 73.577 73.429 73.402 73.107 72.889 72.657 72.387 72.227 72.224 72.127 71.912 71.884 71.694 71.572 71.492 71.429 71.089 70.804 73.464 70.784 78.654 76.729 69.654 69.534 69.149 73.644 69.109 68.634 69.019 73.924 70.289 68.049 68.564 68.197 67.644 67.094 66.354 65.482 65.209 64.659 63.599 62.784 60.884 60.792 60.749 60.714 60.664 60.817 61.642 72.272 72.679 73.102 73.517 73.459 73.039 72.624 69.627 58.859 58.294 58.389 58.429 58.494 58.504 58.494 58.424 58.384 58.247 58.09 58.074 58.085 58.303 57.389 57.256 57.132 57.154 57.147 57.134 93.161 106.545 106.492 106.641 108.733 110.402 110.7 110.76 110.694 107.414 106.506 95.326 57.734 56.015 55.97 55.918 55.878 55.823 55.791 55.742 55.713 55.778 55.762 55.769 55.864 55.767 55.589 55.327 55.097 55.017 54.992 54.944 54.884 54.864 54.787 54.724 54.674 54.637 54.569 54.524 54.474 54.437 54.389 54.407 54.389 54.352 54.319 54.289 54.177 54.037 53.409 52.482 51.932 51.907 51.884 52.949 51.912 51.942 50.254 50.174 69.322 68.419 69.357 69.372 62.572 50.699 50.464 50.357 50.239 50.132 50.064 50.052 50.024 49.987 49.959 49.929 49.899 49.904 49.884 49.872 49.844 49.824 49.782 49.744 49.722 49.702 49.714 49.482 54.502 51.077 69.247 69.724 69.184 69.404 69.387 69.422 69.432 69.462 69.474 69.477 69.517 69.729 70.182 64.392 49.842 49.894 48.627 47.652 47.789 47.587 47.61 47.69 48.422 48.41 48.322 48.152 46.742 46.705 46.475 46.795 47.622 48.067 47.94 47.895 47.982 48.09 47.787 47.62 47.642 47.79 47.89 47.992 48.09 48.215 48.335 48.432 48.512
90.441 90.449 90.454 90.389 90.376 90.366 90.326 90.291 90.246 90.209 90.191 90.186 90.174 90.136 90.139 90.104 90.069 90.049 90.021 89.974 89.919 89.949 89.916 89.901 89.906 89.869 89.861 89.871 89.894 90.059 90.541 94.076 95.861 94.684 91.569 89.866 89.851 89.916 92.086 89.619 89.606 89.634 89.721 89.686 89.644 89.669 89.606 89.499 89.281 89.169 89.129 89.206 89.264 89.301 89.401 89.329 89.284 89.249 89.189 89.171 89.484 89.589 89.596 89.459 89.441 89.474 89.186 88.686 88.239 87.741 87.409 87.329 87.304 87.314 87.334 87.324 87.309 87.291 87.346 87.389 87.266 87.219 87.224 87.331 87.391 87.416 87.396 87.434 87.401 87.381 87.406 87.426 87.426 87.384 87.236 86.906 86.384 87.014 86.301 85.896 85.109 85.074 85.054 85.101 85.141 85.189 85.231 85.241 85.276 85.284 85.271 85.364 85.184 85.136 85.096 85.054 85.009 84.949 84.879 84.739 84.484 84.534 84.434 85.024 85.484 97.851 99.529 99.499 99.571 99.619 94.871 85.049 84.924 84.646 84.426 84.041 83.681 83.374 83.031 82.716 82.306 81.934 81.726 81.606 81.564 80.381 78.889 81.746 90.531 90.494 90.386 90.489 90.529 90.596 79.221 78.819 78.814 78.816 78.886 80.804 81.644 81.654 86.799 87.729 87.706 87.704 87.689 87.674 87.661 78.391 78.261 77.969 77.804 77.649 82.344 83.739 77.171 77.036 76.889 76.813 76.765 76.667 76.577 76.464 76.352 76.238 76.124 76.2 76.802 75.603 75.129 74.99 74.903 74.881 74.892 77.278 77.212 75.189 74.736 74.365 74.282 74.34 74.362 74.129 74.079 74.339 73.999 73.927 73.824 73.697 73.602 73.504 73.314 73.292 73.092 72.837 72.684 72.537 72.254 72.147 72.009 71.874 71.812 71.757 71.722 71.662 71.617 71.222 70.937 70.657 74.239 77.062 76.814 70.389 79.249 81.149 75.137 69.092 68.952 68.667 70.567 68.842 68.349 68.677 68.242 67.919 67.344 66.719 65.704 65.569 65.409 64.202 62.969 61.607 60.749 60.689 60.692 60.739 62.622 72.334 72.752 73.172 73.549 73.382 72.964 72.557 70.157 58.337 58.339 58.389 58.459 58.507 58.562 58.624 58.619 58.602 58.499 58.319 58.239 58.165 58.261 58.217 57.436 57.29 57.212 57.188 57.186 62.158 100.483 105.73 106.455 106.416 107.733 108.973 109.109 109.963 108.382 106.536 100.767 74.808 56.327 56.029 55.977 55.956 55.897 55.881 55.842 55.814 55.768 55.793 55.789 55.949 55.857 55.767 55.572 55.302 55.157 55.109 55.072 54.997 54.969 54.934 54.892 54.809 54.747 54.704 54.639 54.597 54.509 54.499 54.489 54.442 54.472 54.467 54.452 54.397 54.284 54.024 53.227 52.307 52.014 52.029 51.989 51.977 52.032 51.844 50.814 52.397 51.787 51.829 50.794 50.937 50.857 50.754 50.629 50.554 50.427 50.299 50.257 50.207 50.149 50.122 50.099 50.077 50.047 50.044 50.012 49.989 49.957 49.942 49.879 49.829 49.827 49.797 49.784 49.719 49.477 49.317 59.757 62.557 62.432 69.742 69.717 69.707 69.672 69.669 70.819 70.284 69.482 69.634 70.079 70.539 49.077 49.034 48.909 47.962 48.042 47.715 47.672 47.775 48.702 48.675 48.415 48.45 48.13 47.635 47.047 47.982 48.087 48.03 48.46 47.93 47.987 47.777 47.695 47.707 47.752 47.832 47.947 48.055 48.157 48.29 48.41 48.542 48.642
90.481 90.474 90.449 90.429 90.381 90.354 90.334 90.314 90.259 90.246 90.229 90.211 90.209 90.174 90.176 90.144 90.114 90.074 90.056 90.026 89.969 92.334 89.959 89.929 89.891 89.986 89.949 89.899 89.931 89.941 89.969 93.826 95.629 94.904 92.036 89.914 89.894 92.174 90.709 89.669 89.649 89.629 89.676 89.736 89.669 89.654 89.671 89.629 89.474 89.289 89.151 89.186 89.241 89.304 89.341 89.426 89.336 89.296 89.259 89.201 89.224 89.524 89.601 89.571 89.436 89.469 89.434 89.144 88.609 88.164 87.669 87.389 87.334 87.334 87.354 87.349 87.346 87.374 87.391 87.431 87.396 87.251 87.241 87.219 87.321 87.414 87.444 87.459 87.441 87.404 87.471 87.494 87.491 87.461 87.364 87.134 86.684 85.854 88.721 85.074 85.126 85.139 85.146 85.299 85.634 85.359 85.361 85.351 85.319 85.324 85.314 85.289 85.259 85.224 85.181 85.101 85.069 85.041 85.046 84.789 84.609 84.871 84.901 85.169 89.221 99.564 99.494 99.529 99.574 99.626 93.579 85.099 85.016 84.984 84.934 84.774 84.404 84.084 83.784 83.396 82.949 82.479 82.076 81.856 81.594 78.909 78.979 87.296 90.524 90.471 90.429 90.506 90.569 84.834 78.936 78.839 79.104 78.786 78.811 78.844 78.961 80.456 78.916 82.314 85.869 87.744 87.729 87.721 85.786 78.634 78.846 78.174 78.039 77.994 85.024 85.376 82.866 78.411 77.019 76.864 76.743 76.703 76.632 76.542 76.452 76.354 76.242 76.104 76.116 76.091 75.929 75.101 74.919 74.932 74.725 74.734 74.737 74.625 74.498 74.372 74.22 74.589 74.117 74.199 74.149 74.189 74.147 73.844 73.669 73.669 73.569 73.402 73.462 73.292 73.127 72.809 72.687 72.594 72.439 72.332 72.137 72.057 71.937 71.699 71.637 72.044 71.502 71.237 71.037 71.309 70.594 72.402 70.182 69.824 70.149 77.554 76.427 69.427 68.992 68.792 68.499 68.464 68.334 68.202 67.929 67.824 67.449 66.839 65.967 65.959 65.927 64.922 63.549 62.727 60.782 60.732 60.744 67.092 72.404 72.807 73.232 73.607 73.309 72.887 72.482 70.307 59.982 58.374 58.409 58.477 58.534 58.579 58.874 58.894 58.772 58.732 58.612 58.419 58.421 58.682 58.036 57.762 57.402 57.299 57.272 57.244 57.187 83.348 106.173 106.466 106.461 106.375 101.126 101.391 107.13 106.507 106.514 106.55 94.551 63.971 56.096 56.092 56.01 55.972 55.938 55.881 55.857 55.851 55.845 55.877 55.854 56.054 55.882 55.732 55.479 55.309 55.222 55.194 55.104 55.039 55.057 54.987 54.949 54.877 54.819 54.757 54.724 54.674 54.607 54.567 54.564 54.514 54.482 54.514 54.544 54.502 54.359 54.009 53.037 52.229 52.132 52.152 52.232 52.197 52.177 51.717 52.292 54.592 54.589 54.597 52.197 51.139 51.074 50.957 54.492 53.017 51.219 50.317 50.249 50.249 50.219 50.132 50.197 51.194 50.867 50.914 50.697 50.799 49.999 50.024 49.977 50.644 50.632 50.949 50.727 50.189 49.609 49.459 52.124 52.212 55.362 70.214 70.172 70.167 70.157 70.114 70.172 70.032 69.554 69.537 69.982 70.434 49.109 49.004 48.944 49.082 47.827 47.805 47.905 47.872 48.15 48.34 48.605 48.965 48.535 48.132 48.06 48.147 47.98 48.12 48.44 48.047 48.117 47.702 47.697 47.772 47.825 47.882 47.992 48.087 48.212 48.352 48.492 48.62 48.765
90.556 90.519 90.466 90.451 90.416 90.351 90.339 90.316 90.329 90.291 90.251 90.236 90.241 90.209 90.186 90.164 90.141 90.124 90.091 90.061 90.029 90.021 90.001 89.959 89.934 89.944 89.956 89.976 89.959 89.939 89.924 93.629 94.244 94.059 92.841 90.009 89.956 89.896 89.824 89.726 89.679 89.644 89.661 89.701 89.744 89.661 97.369 89.614 89.596 89.414 89.299 89.166 89.239 89.286 89.336 89.359 89.426 89.346 89.301 89.254 89.191 89.284 89.556 89.604 89.564 89.441 89.474 89.429 89.079 88.624 88.024 87.514 87.399 87.371 87.384 87.389 87.421 87.439 87.476 87.466 87.449 87.374 87.259 87.249 87.259 87.394 87.451 87.511 87.511 87.479 87.504 87.526 87.524 87.531 87.464 87.349 86.899 86.111 85.266 85.329 85.216 85.209 85.209 85.339 85.419 85.446 85.531 85.681 85.561 85.486 85.429 85.289 85.256 85.224 85.201 85.199 85.161 85.154 85.221 84.839 84.736 84.961 85.054 85.196 89.961 95.026 99.454 99.531 99.589 99.644 89.636 85.109 85.081 85.051 85.011 85.021 84.896 84.691 84.429 84.049 83.524 82.924 82.371 81.924 81.704 79.104 85.681 91.924 90.489 90.386 90.481 90.524 90.586 79.029 78.789 79.139 79.031 78.791 78.754 78.771 78.801 78.811 78.841 78.931 78.939 79.076 84.239 82.719 79.751 78.684 78.479 78.401 78.296 79.839 85.614 84.766 83.681 83.784 82.559 76.976 76.859 76.674 76.644 76.608 76.523 76.424 76.331 76.223 76.074 75.952 75.946 75.905 75.19 75.059 74.926 74.712 74.8 74.774 74.657 74.487 74.447 74.254 74.159 74.122 74.139 74.037 73.919 73.769 73.809 73.544 73.477 73.367 73.214 73.164 73.119 72.957 72.827 72.704 72.534 72.384 72.214 72.177 72.822 71.779 71.549 71.492 71.327 71.197 71.259 70.952 71.324 79.534 75.699 77.919 69.834 69.562 76.277 72.319 69.459 69.084 68.942 68.717 68.317 67.849 67.774 67.782 67.717 66.992 66.277 66.744 66.169 65.854 63.947 62.984 60.844 60.804 65.732 72.489 72.884 73.309 73.567 73.229 72.827 72.414 63.699 60.707 60.662 58.922 58.444 58.512 58.602 59.202 59.237 59.077 58.944 58.867 58.717 58.639 58.597 58.228 57.821 57.517 57.413 57.336 57.318 57.273 57.219 81.995 94.165 101.684 107.032 106.471 77.129 90.367 106.509 106.483 106.491 106.583 93.981 56.827 56.352 56.122 56.074 56.016 55.989 55.937 55.919 55.889 56.818 56.984 56.077 56.077 55.892 55.712 55.487 55.367 55.292 55.249 55.154 55.119 55.137 55.059 55.032 54.934 54.872 54.827 54.787 54.724 54.677 54.654 54.637 54.584 54.469 54.504 54.594 54.592 54.449 53.894 52.902 52.217 52.249 52.227 52.594 52.232 52.899 53.437 53.147 53.087 52.829 53.542 51.382 51.382 51.372 51.247 66.684 66.559 66.502 66.429 66.392 66.329 66.274 66.222 66.179 66.134 66.084 65.774 65.454 64.927 63.469 63.092 55.349 56.219 54.539 55.444 53.342 51.447 50.822 49.842 49.617 49.449 49.469 57.644 54.472 65.997 55.557 60.987 70.564 70.124 69.667 69.434 69.887 70.337 51.824 49.044 49.002 49.127 49.044 48.085 48.107 48.095 48.217 48.35 48.807 49.007 48.56 48.282 48.157 48.802 48.077 48.222 48.065 48.37 47.765 47.75 47.765 47.845 47.867 47.92 48.15 49.435 49.72 48.545 48.657 48.695 48.842
90.604 90.531 90.496 90.471 90.444 90.424 90.376 90.339 90.361 90.336 90.289 90.264 90.244 90.206 90.196 90.151 90.166 90.156 90.131 90.091 90.071 90.036 91.299 89.999 89.996 90.004 89.996 89.984 89.961 89.929 89.911 93.001 93.451 93.521 92.989 90.079 90.006 89.956 89.884 89.814 89.739 89.691 89.679 89.659 89.734 89.746 89.701 89.711 89.671 89.554 89.376 89.299 89.206 89.261 89.309 89.726 89.389 89.396 89.349 89.301 89.261 89.196 89.391 89.601 89.676 89.614 89.464 89.496 89.399 89.026 88.476 87.889 87.496 87.421 87.431 87.486 87.469 87.474 87.489 87.486 87.441 87.461 87.361 87.266 87.281 87.294 87.451 87.511 87.529 87.506 87.491 87.511 87.531 87.536 87.521 87.461 87.106 86.359 85.426 85.214 85.431 85.266 85.284 85.349 85.574 85.564 85.671 85.754 85.724 85.674 85.691 85.391 85.286 85.276 85.276 85.269 85.346 85.391 85.219 84.874 84.864 84.976 85.116 85.186 97.844 99.561 99.421 99.549 99.586 99.646 85.544 85.084 85.046 84.984 85.219 84.921 84.866 84.869 84.766 84.421 83.756 83.151 82.611 82.086 78.861 79.034 89.071 93.694 93.099 92.074 90.491 90.562 88.731 78.961 78.796 79.091 78.809 78.776 78.771 78.761 78.769 78.779 78.791 79.629 79.729 78.869 78.814 78.836 78.889 78.881 78.659 78.604 78.614 84.826 85.559 81.166 82.064 83.596 83.594 84.509 84.096 76.841 76.669 76.677 76.614 76.518 76.394 76.283 76.17 76.024 75.869 75.794 75.756 75.763 75.053 74.942 74.836 74.69 74.639 74.619 74.424 74.404 74.262 74.187 74.097 74.067 73.912 74.007 73.667 73.589 73.442 73.399 73.312 73.214 73.152 72.974 72.837 72.772 72.629 73.249 72.329 72.137 72.014 71.817 71.692 71.569 71.409 71.249 71.184 71.032 70.907 70.634 70.454 70.094 69.864 69.807 70.232 69.444 69.234 69.047 68.889 68.749 68.449 68.164 67.942 68.027 67.797 66.879 66.549 66.524 66.434 66.047 64.514 63.387 61.152 63.792 72.449 72.869 73.332 73.587 73.164 72.762 72.119 66.144 60.702 60.757 60.692 60.667 58.547 58.599 59.429 59.529 59.447 59.209 59.119 59.009 58.824 58.834 60.56 58.13 57.721 57.542 57.466 57.359 60.074 59.505 57.538 57.449 60.562 92.941 88.284 71.116 88.14 104.283 106.531 106.516 106.534 107.216 63.773 56.596 56.285 56.128 56.587 56.084 56.035 56.012 55.997 56.448 57.272 55.962 56.174 56.072 55.899 55.727 55.532 55.424 55.367 55.309 55.219 55.219 55.204 55.139 55.077 55.009 54.939 54.894 54.852 54.782 54.737 54.732 54.732 54.694 54.547 54.399 54.512 54.594 54.484 53.752 52.687 52.332 52.352 52.334 52.247 52.332 54.387 55.104 54.877 54.317 52.462 53.014 51.594 51.647 51.662 51.402 67.774 64.599 67.289 67.632 67.549 67.502 67.459 67.392 67.337 66.952 67.242 67.184 67.037 66.702 67.022 67.122 59.239 59.134 59.097 58.982 58.804 52.732 50.324 51.034 50.582 49.749 50.182 50.292 50.242 49.622 49.419 49.414 58.297 70.212 69.764 69.319 69.789 70.239 55.289 49.159 49.079 49.819 50.514 48.692 48.665 48.39 48.412 48.417 48.482 48.707 48.452 48.285 48.182 48.11 48.152 48.435 48 47.857 47.805 47.805 48.675 48.452 47.972 48.07 48.262 48.43 48.587 48.737 48.85 48.94 48.937
92.476 90.566 90.564 90.524 90.501 90.476 90.461 90.414 90.394 90.346 90.324 90.281 90.236 90.211 90.199 90.189 90.166 90.151 90.136 90.141 90.109 90.096 90.094 90.034 90.036 90.034 90.011 90.016 90.064 89.956 89.946 92.891 94.729 95.779 93.401 90.179 90.051 90.011 89.946 89.874 89.786 89.709 89.686 89.676 89.679 89.751 89.736 89.754 89.741 89.654 89.596 89.361 89.304 89.219 89.294 89.596 90.269 89.431 89.391 89.359 89.299 89.254 89.204 89.414 89.666 89.706 89.556 89.499 89.491 89.391 88.929 88.424 87.861 87.504 87.489 87.486 87.496 87.504 87.494 87.494 87.486 87.506 87.494 87.326 87.306 87.304 87.451 87.534 87.564 87.534 87.516 87.541 87.554 87.596 87.586 87.534 87.224 86.614 85.594 85.301 85.259 85.309 85.341 85.371 85.661 85.626 85.784 85.839 85.849 85.811 85.751 85.519 85.379 85.364 85.369 85.441 85.469 85.411 85.239 84.946 84.876 84.896 85.111 85.224 99.594 99.544 99.401 99.539 99.596 99.831 87.069 85.129 85.021 84.936 84.879 84.791 84.731 84.731 84.756 84.491 83.811 83.224 82.626 82.074 81.634 90.499 96.036 95.954 95.536 93.669 93.269 93.111 83.196 78.779 78.999 79.181 78.794 78.791 78.779 78.779 78.799 78.789 78.786 78.774 78.786 78.801 78.819 78.836 78.869 78.811 78.754 78.689 78.659 79.109 84.146 79.101 78.064 78.461 83.674 85.006 83.951 76.979 76.794 76.761 76.654 76.528 76.433 76.317 76.216 76.108 75.985 75.848 75.674 75.619 75.586 75.437 75.009 75.309 74.784 74.774 74.549 74.437 74.427 74.302 74.142 74.034 73.952 73.854 73.782 73.729 73.599 73.462 73.662 73.302 73.172 73.074 72.772 72.702 73.127 72.377 72.367 73.199 72.077 71.849 71.904 71.514 71.509 71.297 71.334 71.019 70.877 70.737 70.632 70.397 70.067 69.817 69.852 70.422 69.532 69.202 69.084 68.657 68.417 68.157 67.962 67.924 67.804 66.992 66.849 66.717 66.632 66.349 65.209 64.004 62.177 60.854 67.672 72.497 72.959 73.104 72.684 71.197 60.757 60.754 60.724 60.747 60.762 60.689 60.502 60.047 59.904 59.792 59.559 59.362 59.269 59.132 58.972 59.037 59.464 58.677 57.701 57.589 57.52 57.763 60.573 60.595 60.594 59.949 58.036 57.238 57.034 56.992 75.285 101.519 101.939 98.867 106.527 91.509 58.734 56.494 56.342 56.383 56.27 56.114 56.056 56.033 56.02 56.028 56.122 56.257 56.239 56.084 55.944 55.774 55.604 55.499 55.444 55.372 55.297 55.309 55.269 55.212 55.144 55.109 55.054 55.007 54.929 54.872 54.842 54.814 54.824 54.782 54.692 54.362 54.279 54.422 54.379 53.544 52.592 52.469 52.479 54.059 53.229 52.434 52.864 53.949 53.157 53.639 52.432 52.639 51.822 51.867 51.877 52.439 69.109 69.014 68.919 68.874 68.827 68.742 68.704 68.642 68.569 68.542 68.472 68.407 68.349 68.257 66.302 68.219 60.554 60.464 60.362 60.169 58.852 52.924 50.172 50.347 49.932 49.862 49.814 49.744 49.744 49.602 49.437 49.594 52.719 70.299 69.839 69.309 69.702 70.147 64.309 49.169 49.127 49.797 51.417 49.732 48.722 48.742 48.595 48.512 48.49 48.437 48.377 48.25 48.152 48.117 48.12 48.015 47.937 47.902 47.852 48.532 48.535 48.027 48.057 48.125 48.337 48.542 48.687 48.835 48.982 49.125 49.202
90.679 90.649 90.636 90.601 90.594 90.609 90.556 90.509 90.446 90.409 90.351 90.279 90.239 90.216 90.189 90.184 90.144 90.119 90.129 90.134 90.116 90.079 90.056 90.969 90.089 90.059 90.014 90.031 90.026 89.999 89.956 91.296 93.901 94.959 93.451 90.229 90.131 90.076 89.974 89.886 89.786 89.719 89.716 89.721 89.666 89.704 89.786 89.749 89.781 89.694 89.661 89.564 89.361 89.269 89.256 89.331 89.381 89.394 89.474 89.384 89.371 89.304 89.251 89.229 89.569 92.061 95.296 93.586 89.466 89.496 89.374 88.876 88.314 87.724 87.536 87.501 87.504 87.506 87.539 87.524 87.516 87.529 87.524 87.466 87.349 87.381 87.419 87.561 87.586 87.569 87.569 87.554 87.586 87.591 87.634 87.606 87.346 86.721 85.751 85.401 85.949 85.379 85.409 85.396 85.619 85.691 85.879 85.926 85.939 85.864 85.746 85.761 85.464 85.454 85.449 85.569 85.444 85.359 85.349 85.116 84.974 85.026 85.196 85.186 96.856 99.534 99.446 99.566 99.616 99.704 86.801 85.114 85.016 84.951 84.851 84.716 84.729 84.694 84.734 84.504 83.836 83.181 82.546 82.004 81.616 89.011 96.004 95.929 95.936 95.979 96.021 94.519 81.299 78.809 79.189 78.889 78.809 78.784 78.794 78.801 78.811 78.819 78.821 78.811 78.796 78.806 78.824 78.866 78.869 78.801 78.749 78.699 78.651 78.576 78.481 78.419 78.334 79.101 84.231 84.786 79.929 77.061 76.956 76.871 76.696 76.529 76.356 76.294 76.231 76.141 76.051 75.919 75.774 75.624 75.459 75.409 75.434 75.417 74.997 74.614 74.612 74.522 74.442 74.312 74.194 74.182 73.977 73.937 73.757 73.779 73.609 73.507 73.429 73.342 73.122 73.539 72.709 72.659 72.632 72.474 72.302 72.359 72.202 72.004 71.809 71.622 71.492 71.344 71.399 71.242 70.949 71.974 70.619 71.499 71.489 70.032 69.997 69.767 69.482 69.342 68.959 68.719 68.729 68.414 68.112 67.894 67.867 67.754 67.094 66.912 66.809 66.617 66.049 64.649 63.669 61.512 60.864 69.014 72.569 72.609 71.504 62.149 60.772 60.779 61.039 60.772 60.774 60.734 60.567 60.494 60.134 60.022 59.702 59.842 59.429 59.244 59.217 59.204 58.915 58.525 57.844 57.628 57.595 58.856 60.605 60.566 60.542 60.544 60.516 59.935 59.274 57.523 59.52 72.728 79.88 90.41 96.674 80.105 56.871 56.593 56.498 56.36 56.165 56.157 56.086 56.067 56.064 56.077 56.072 56.309 56.309 56.139 56.017 55.889 55.724 55.587 55.519 55.422 55.397 55.404 55.347 55.302 55.244 55.207 55.182 55.112 55.027 54.987 54.932 54.894 54.892 54.874 54.809 54.472 54.034 54.029 54.044 53.349 52.592 52.609 52.597 55.019 52.579 52.564 52.542 53.244 53.147 52.384 52.484 52.147 52.024 52.097 52.027 52.772 69.462 69.494 69.549 69.599 69.592 69.647 69.704 69.672 69.674 69.687 69.627 69.664 69.587 69.547 69.479 68.952 61.884 61.789 61.722 61.634 61.649 53.237 50.657 51.059 49.997 49.922 49.854 49.824 49.814 49.707 49.639 49.562 49.489 70.394 69.937 69.484 69.604 70.047 70.482 49.117 49.199 49.274 49.474 49.312 49.407 49.087 48.772 48.647 48.632 48.465 48.36 48.222 48.125 48.055 48.015 48.02 47.987 47.965 48.692 48.38 48.122 48.157 48.342 48.885 48.492 48.882 49.355 49.305 49.357 49.325 49.367
90.816 90.734 90.671 90.679 90.656 91.111 90.636 90.586 90.514 90.469 90.411 90.321 90.284 90.226 90.196 90.171 90.139 90.129 90.121 90.119 90.099 90.071 90.079 90.084 90.081 90.106 90.066 90.044 90.044 90.014 89.989 89.976 92.981 92.779 91.021 90.266 90.169 90.104 91.091 89.866 90.736 89.719 89.716 89.734 89.726 89.681 89.746 89.784 89.744 89.701 89.679 89.684 89.526 89.369 89.236 89.289 89.374 89.404 89.409 89.496 89.381 89.359 89.299 89.251 89.294 92.276 91.049 90.064 89.471 89.459 89.499 89.306 88.734 88.024 87.599 87.541 87.524 87.509 87.539 87.536 87.546 87.531 87.559 87.536 87.401 87.416 87.419 87.596 87.624 87.626 87.626 87.621 87.626 87.669 87.676 87.619 87.434 86.764 85.929 85.466 85.809 85.469 85.474 85.469 85.596 85.724 85.901 85.964 85.966 85.901 85.799 85.804 85.616 85.504 85.516 85.839 85.739 85.821 85.806 85.589 85.056 85.239 85.241 85.219 99.584 99.536 99.504 100.501 100.336 99.361 85.346 85.251 85.096 84.946 84.874 84.766 84.734 84.716 84.716 84.476 83.776 82.994 82.394 81.886 81.609 95.606 95.974 95.836 95.971 96.014 96.054 93.329 78.806 78.869 79.189 78.821 78.814 78.824 78.819 78.829 78.834 78.856 78.844 78.864 78.869 78.881 78.961 79.191 79.451 79.181 78.786 78.709 78.634 78.549 78.444 78.309 78.154 78.004 82.619 84.139 77.354 77.151 77.111 76.991 76.789 76.596 76.416 76.261 76.191 76.114 76.046 75.946 75.834 75.706 75.544 75.376 75.251 75.227 75.354 75.802 74.807 74.494 74.427 74.409 74.357 74.179 74.074 73.977 73.922 73.857 73.767 73.499 73.492 73.439 73.062 73.134 72.867 72.799 72.692 73.114 72.439 72.449 72.454 72.122 71.927 71.874 71.997 71.382 71.302 71.219 71.784 70.894 70.619 70.567 76.367 70.837 70.082 70.137 69.707 69.342 69.054 68.809 68.664 68.344 68.232 67.992 67.847 67.244 67.249 67.042 66.947 66.727 66.389 65.502 64.499 63.822 61.069 60.852 69.362 69.337 60.789 60.804 60.774 60.787 60.787 60.802 60.819 60.827 60.739 60.507 60.304 60.067 60.659 59.712 59.577 59.352 59.412 59.579 59.274 59.029 58.754 58.565 57.934 57.678 57.923 59.089 60.561 60.571 60.59 60.61 58.188 57.383 57.145 57.064 56.905 56.921 56.83 56.751 56.774 56.749 56.659 56.525 56.503 56.82 56.146 56.141 56.721 57.458 56.182 56.409 56.392 56.227 56.124 56.009 55.864 55.709 55.619 55.529 55.504 55.502 55.454 55.422 55.387 55.334 55.289 55.217 55.112 55.059 55.007 54.987 54.942 54.967 54.924 54.709 53.969 53.707 53.644 53.092 52.717 52.737 52.687 54.682 52.692 52.682 55.577 55.922 55.249 54.889 52.407 52.329 52.252 52.279 52.197 52.957 68.252 68.239 68.257 68.312 68.384 68.424 68.457 68.582 68.544 68.567 68.669 68.694 68.777 68.862 68.942 66.489 61.449 61.477 61.477 61.537 61.677 52.137 50.292 50.124 50.052 49.989 49.942 49.882 49.912 49.849 49.732 49.652 49.574 70.487 70.039 69.594 69.517 69.949 70.399 49.242 49.284 49.364 49.437 49.182 50.26 49.31 49.1 48.985 48.81 48.902 48.427 48.292 48.14 48.067 48.062 48.067 48.072 48.102 48.18 48.232 48.247 48.862 48.297 48.295 48.447 49.007 49.82 50.162 50.285 50.112 49.607
90.816 90.779 90.781 90.764 90.751 90.694 90.711 90.644 90.579 90.534 90.471 90.396 90.354 90.284 90.259 90.211 90.146 90.109 90.119 90.126 90.091 90.089 90.059 90.049 90.051 92.076 90.116 90.094 90.054 89.994 89.966 89.996 90.104 90.219 90.339 90.336 90.211 90.106 89.964 89.886 90.221 89.769 89.711 89.726 89.731 89.739 89.726 89.754 89.776 89.724 94.131 89.734 89.676 89.459 89.361 89.244 89.331 89.389 89.416 89.426 89.481 89.386 89.356 89.291 89.259 89.349 89.604 89.646 89.594 89.446 89.464 89.484 89.174 88.441 87.789 87.616 87.591 87.566 87.576 87.589 87.581 87.596 87.594 87.621 87.541 87.469 87.511 87.621 87.669 87.664 87.649 87.709 87.704 87.741 87.731 87.656 87.514 87.049 86.201 85.594 85.461 85.511 85.534 85.526 85.651 85.729 85.929 86.024 86.024 85.959 85.906 85.834 85.631 85.564 85.566 85.596 85.889 85.814 85.804 85.729 85.174 85.211 85.261 86.744 99.591 99.516 99.531 99.591 99.634 99.656 98.941 91.026 85.699 85.314 85.136 84.961 84.774 84.766 84.884 84.409 83.644 82.849 82.046 81.724 84.809 96.001 95.956 95.909 95.996 96.039 95.961 84.676 78.786 78.851 78.896 78.831 78.829 78.831 78.854 78.854 78.874 78.889 78.901 78.931 78.946 78.974 79.161 79.299 79.259 79.351 82.121 81.329 78.636 78.536 78.416 78.281 78.126 77.921 77.729 77.506 77.389 77.336 77.274 77.106 76.936 76.756 76.631 76.476 76.266 76.059 75.971 75.899 75.826 75.716 75.596 75.456 75.299 75.122 75.062 75.042 79.649 74.712 74.714 74.454 74.422 74.284 74.217 74.149 73.927 73.842 73.784 73.749 73.437 73.307 73.202 73.059 72.967 72.904 72.709 72.687 72.532 72.429 72.249 72.174 72.102 71.902 71.649 71.479 71.264 71.177 71.037 70.782 70.712 70.704 70.482 70.389 70.374 70.092 69.754 69.502 69.149 69.024 68.912 68.677 68.649 68.234 67.609 67.357 67.212 67.119 66.979 66.787 66.434 66.079 65.642 64.894 64.109 60.864 60.807 60.782 60.792 60.769 61.514 61.627 61.677 60.914 60.894 60.882 60.827 60.657 60.504 60.194 60.049 59.874 59.729 59.489 59.569 59.734 59.745 59.628 59.376 59.109 58.856 58.67 58.435 57.745 58.015 58.031 60.466 60.396 57.378 57.366 57.273 57.255 57.126 57.01 56.93 56.9 56.955 56.907 56.831 56.644 56.5 56.189 56.204 56.198 56.222 56.233 56.367 56.464 56.424 56.334 56.229 56.122 55.984 55.817 55.722 55.654 55.627 55.597 55.557 55.527 55.509 55.459 55.387 55.309 55.229 55.174 55.104 55.064 55.032 55.044 55.034 54.867 54.234 53.559 53.324 52.967 52.882 52.877 52.822 52.802 52.797 52.839 55.794 55.914 55.154 54.897 52.599 52.457 52.429 52.439 52.582 53.277 67.019 67.027 66.664 67.149 66.659 67.207 67.187 68.414 67.477 67.169 67.454 67.222 67.597 67.647 67.202 66.669 60.077 60.129 60.164 59.949 58.682 52.454 50.349 50.199 50.132 50.064 50.012 49.967 50.732 50.947 49.939 49.819 49.564 64.917 70.134 64.974 64.637 59.354 50.154 49.287 49.394 49.529 50.832 49.297 49.152 49.26 48.93 49.767 50.145 48.815 49.267 48.43 48.252 48.162 48.145 48.165 48.185 48.227 48.325 48.365 48.46 48.39 48.425 48.472 48.64 49.327 49.837 50.227 50.44 50.605 50.307
90.804 90.834 90.821 90.884 90.861 90.841 90.791 90.726 90.639 90.586 90.534 90.471 90.421 90.371 90.321 90.279 90.261 90.216 90.174 90.156 90.134 90.131 90.091 90.061 90.051 90.904 90.034 92.974 90.121 90.071 90.039 90.039 90.034 90.214 90.369 90.424 90.276 90.131 90.009 89.901 89.864 89.806 89.726 89.711 89.704 89.716 89.726 89.749 89.786 89.766 89.721 89.699 89.716 89.686 89.441 89.379 89.261 89.346 89.424 89.429 89.464 89.441 89.389 89.341 89.299 89.251 89.461 89.619 89.631 89.539 89.441 89.451 89.461 88.994 88.264 87.786 87.676 87.626 87.646 87.651 87.656 87.646 87.644 87.684 87.664 87.511 87.556 87.591 87.681 87.729 87.739 87.786 87.806 87.809 87.791 87.701 87.614 87.311 86.516 85.704 86.366 86.051 85.601 86.901 85.681 85.809 85.981 86.094 86.099 86.066 85.919 85.739 85.654 85.611 85.631 85.654 85.826 85.819 85.866 85.911 85.386 85.299 85.396 92.834 96.481 99.474 99.529 99.629 99.611 99.596 99.614 98.114 99.671 96.891 85.979 85.151 85.074 84.831 84.901 84.309 83.451 82.651 81.704 81.631 89.046 95.984 95.859 95.959 96.009 96.056 87.986 80.064 79.226 80.291 79.326 79.171 79.066 78.966 78.904 78.909 78.937 78.954 78.974 78.989 79.011 79.046 79.209 79.316 79.239 79.386 82.144 82.154 86.371 88.194 81.001 78.281 78.099 77.964 77.806 77.641 77.549 77.524 77.411 77.244 77.196 77.114 77.099 76.904 76.554 76.186 75.984 75.824 76.559 75.679 75.611 75.494 75.366 75.222 75.032 82.317 74.874 74.827 75.037 74.494 74.342 74.372 74.302 74.227 74.179 74.017 73.912 73.774 73.574 73.404 73.327 73.304 73.132 72.934 72.809 72.742 72.709 72.482 72.277 72.237 72.022 71.884 71.847 71.569 71.309 71.169 71.122 71.067 70.824 71.429 72.149 70.424 70.297 70.027 69.789 69.647 69.434 69.327 69.032 68.842 68.979 69.662 67.542 67.374 67.249 67.057 66.844 66.649 66.364 65.959 65.612 65.292 64.854 64.104 60.832 60.877 60.797 60.962 60.939 61.502 61.559 61.187 61.014 60.959 60.927 60.839 60.587 60.317 60.764 60.032 59.869 59.662 59.759 63.319 60.104 60.062 59.98 59.863 59.562 59.161 59.924 60.071 59.963 59.859 58.922 58.639 57.534 57.502 57.593 57.695 57.665 57.405 57.244 57.11 56.994 56.977 56.943 56.822 56.585 56.454 56.366 56.436 56.644 57.194 56.487 56.534 56.497 56.449 56.362 56.232 56.102 55.957 55.849 55.784 55.752 55.702 55.682 55.639 55.609 55.579 55.499 55.409 55.334 55.282 55.207 55.159 55.144 55.147 55.144 54.999 54.607 53.817 53.257 53.014 53.032 53.017 52.922 52.899 52.877 52.874 52.857 52.827 52.772 52.744 52.687 52.642 52.589 52.547 53.317 52.104 59.504 62.437 61.052 64.362 63.657 65.859 66.279 67.407 67.079 66.284 66.312 66.377 66.444 66.494 66.582 61.452 58.739 58.814 58.857 58.909 58.654 50.519 50.879 51.617 50.714 50.142 50.087 50.057 50.912 51.627 50.472 51.057 50.599 49.424 49.392 49.434 49.397 49.439 49.429 49.382 49.454 49.537 51.144 51.927 49.19 49.125 49.035 49.317 49.76 48.717 48.66 48.545 48.435 48.26 48.277 48.21 48.4 48.462 48.4 48.425 48.467 48.51 48.6 48.687 48.782 49.15 49.567 50.095 50.43 50.647 50.762
90.844 90.856 90.904 91.014 91.076 91.039 90.916 90.796 90.674 90.596 90.549 90.486 90.446 90.396 90.361 90.334 90.314 90.286 90.256 90.211 90.211 90.184 90.149 90.109 90.064 90.024 90.001 90.016 90.031 91.774 90.074 90.041 90.041 90.089 90.214 90.366 90.349 90.199 90.059 89.981 89.931 89.881 89.764 89.699 89.711 89.751 89.729 89.726 89.716 89.806 89.751 89.744 91.939 89.724 89.671 89.446 89.376 89.301 89.379 89.421 89.436 89.506 89.429 89.384 89.339 89.301 89.264 89.514 89.594 89.566 89.479 89.419 89.444 89.391 88.899 88.269 87.786 87.714 87.716 87.721 87.721 87.706 87.706 87.726 87.721 87.609 87.611 87.626 87.729 87.801 87.849 87.884 87.886 87.891 87.861 87.786 87.674 87.404 86.826 85.859 85.691 85.966 85.664 86.441 85.779 85.919 85.964 86.111 86.151 86.139 85.959 85.764 85.731 85.714 85.706 85.749 85.809 85.854 86.144 86.044 85.484 85.344 85.386 97.609 99.566 99.539 99.454 99.414 99.526 99.539 99.556 99.579 99.621 96.716 97.861 86.786 85.214 84.906 84.839 84.111 83.246 82.461 81.601 81.821 95.751 96.036 95.876 95.976 96.029 96.089 82.296 80.236 81.426 81.291 80.419 80.299 80.189 80.126 80.011 79.934 79.849 79.724 79.609 79.544 79.461 79.824 79.809 79.209 79.426 79.606 82.509 82.139 88.129 88.189 88.244 89.151 86.144 78.071 77.924 77.796 77.734 77.686 77.539 77.461 77.499 77.764 77.849 77.694 77.221 76.756 76.264 75.906 75.866 77.064 75.536 75.469 75.351 75.247 75.102 75.112 75.852 74.669 74.652 74.722 74.634 74.424 74.282 74.229 74.147 73.994 73.919 73.834 73.619 73.657 73.434 73.482 73.259 73.057 73.107 72.822 72.704 72.524 72.402 72.319 72.162 71.904 71.794 71.657 71.474 71.242 71.324 71.034 70.924 70.757 70.592 70.429 70.312 70.267 69.987 70.124 69.594 69.394 69.094 69.012 69.117 69.787 67.664 67.402 67.159 66.859 66.577 65.907 65.704 65.497 65.407 65.172 64.992 64.779 63.492 60.812 61.304 60.959 61.964 62.334 61.952 61.559 61.252 61.159 60.997 62.409 60.654 61.469 60.342 60.627 59.999 59.894 59.897 60.177 60.297 60.259 60.946 60.086 60.034 59.936 60.036 60.098 60.132 60.047 59.985 59.893 57.858 57.78 58.257 58.655 58.612 58.176 57.854 57.549 57.356 57.188 57.071 56.966 56.75 56.652 56.58 56.682 56.656 56.579 56.609 56.597 56.584 56.564 56.487 56.369 56.212 56.074 55.967 55.957 55.899 55.864 55.807 55.752 55.714 55.662 55.594 55.529 55.442 55.392 55.307 55.257 55.214 55.222 55.219 55.132 54.824 54.167 53.432 53.159 53.177 53.139 53.052 52.989 52.967 52.962 52.959 52.917 52.874 52.844 52.802 52.759 52.704 52.644 52.637 53.134 52.999 52.889 52.534 52.424 52.322 51.544 51.489 51.202 51.124 51.074 51.147 51.052 51.044 51.069 51.012 57.594 51.284 53.249 53.312 52.529 53.314 50.594 50.474 50.384 50.294 50.204 50.172 50.142 50.292 51.122 50.467 51.234 53.067 53.072 50.112 50.259 50.347 50.364 50.402 50.389 50.399 51.582 49.564 49.367 49.412 49.157 49.097 49.07 48.895 48.805 48.692 48.615 48.557 48.34 48.272 48.302 48.455 49.162 48.57 48.585 48.687 48.685 48.78 48.892 48.915 49.087 49.59 50.085 50.23 50.527 50.632
90.831 90.894 90.996 91.294 91.264 92.544 90.956 90.799 90.689 90.646 90.579 90.499 90.481 90.449 90.399 90.374 90.324 90.306 90.271 90.231 90.206 90.194 90.174 90.131 90.104 90.081 90.051 90.054 90.069 93.674 90.039 90.094 90.074 90.071 90.081 90.124 90.256 90.259 90.156 90.061 90.006 89.946 89.859 89.754 89.729 89.764 89.789 89.761 89.729 89.781 89.826 90.109 92.529 89.741 89.754 89.636 89.456 89.341 89.329 89.396 89.441 89.451 89.521 89.421 89.389 89.339 89.301 89.264 89.511 89.586 89.564 89.434 89.424 89.469 89.294 88.706 88.154 87.869 87.821 87.821 87.796 87.809 87.786 87.766 87.781 87.746 87.654 87.676 87.766 87.856 87.886 87.936 87.961 87.939 87.916 87.846 87.781 87.881 87.059 86.089 85.701 85.689 85.756 85.756 85.761 85.964 85.964 86.164 86.211 86.199 86.074 85.839 85.814 85.786 85.776 85.814 85.821 85.891 86.964 85.904 85.841 85.506 85.539 88.891 95.616 99.594 99.569 99.544 99.491 99.391 99.486 99.546 99.571 99.586 99.604 97.821 85.204 84.966 84.716 83.909 83.114 81.864 81.606 93.136 99.044 98.729 98.434 96.589 96.056 90.761 81.629 81.236 82.026 81.701 81.486 81.396 81.256 81.166 81.081 81.029 80.904 80.781 80.686 80.584 80.516 81.174 80.146 79.269 79.501 79.429 85.994 88.256 88.091 88.341 88.284 88.431 80.714 78.379 78.104 77.954 77.921 77.826 77.664 77.674 77.899 78.241 78.311 78.131 77.704 77.344 76.951 76.444 75.906 75.649 75.651 82.116 75.576 75.224 75.109 74.989 74.862 74.717 74.532 74.469 74.439 74.572 74.519 74.242 74.147 74.097 74.092 73.952 73.847 73.742 73.592 73.414 73.269 73.092 72.967 72.924 72.644 72.622 72.599 72.522 72.262 71.939 71.784 71.717 71.594 71.392 71.314 71.149 71.137 70.854 70.667 70.519 70.384 70.137 70.309 69.852 69.624 69.487 69.387 69.147 68.989 69.642 67.734 67.362 66.729 66.137 65.652 65.024 71.734 78.094 73.424 71.937 65.289 64.769 64.477 63.547 63.312 63.372 63.072 62.734 62.334 61.922 61.562 61.337 61.342 61.029 60.802 60.644 60.502 60.369 60.152 60.052 60.097 60.149 60.289 60.347 61.652 60.277 60.213 60.417 60.19 60.196 60.193 60.129 60.115 60.095 59.896 60.054 59.051 59.549 60.085 58.962 58.74 58.375 58.05 57.733 57.552 57.359 57.058 56.875 56.865 56.957 56.832 56.734 58.997 57.579 56.679 56.664 56.599 56.477 56.292 56.157 56.102 56.094 56.044 56.014 55.929 55.894 55.819 55.742 55.699 55.627 55.534 55.464 55.397 55.327 55.302 55.307 55.319 55.212 54.912 54.227 53.499 53.324 53.327 53.262 53.179 53.219 53.107 53.214 53.097 53.059 53.002 52.972 52.929 52.882 52.809 52.742 52.642 52.587 52.947 56.669 53.219 52.154 52.409 52.137 51.827 51.792 51.664 51.504 51.927 51.952 52.022 52.674 51.279 51.212 51.097 50.954 50.872 50.794 50.692 50.612 50.532 50.437 50.357 50.299 50.259 50.212 50.264 50.617 50.444 51.049 52.829 53.232 51.654 59.222 55.164 69.124 67.942 66.627 65.284 51.109 51.554 51.977 52.872 53.945 49.222 49.65 49.555 48.877 48.785 48.722 48.652 48.467 48.407 48.477 48.59 48.647 48.965 49.08 49.052 48.867 48.96 49.065 49.1 49.242 49.702 50.862 50.237 50.317 50.422
90.851 90.899 92.369 91.736 91.051 90.971 90.896 90.829 90.766 90.749 90.594 90.526 90.494 90.731 90.476 90.439 90.406 90.329 90.291 90.254 90.261 90.269 90.236 90.194 90.181 90.181 90.151 90.131 90.126 90.104 90.049 90.046 90.409 90.059 90.051 90.084 90.094 90.209 90.216 90.131 91.414 93.329 90.116 89.816 89.741 89.781 89.766 89.736 89.739 89.771 89.799 89.844 89.776 89.771 89.749 89.754 89.604 89.451 89.306 89.361 89.421 89.451 89.451 89.514 89.424 89.386 89.354 89.301 89.324 89.566 89.604 89.566 89.439 89.436 89.444 89.146 88.564 88.084 87.891 87.849 87.856 87.866 87.839 87.834 87.864 87.841 87.714 87.734 87.771 87.784 87.859 87.944 87.939 87.909 87.879 87.841 87.771 87.621 89.186 86.214 85.784 85.749 85.801 85.816 85.804 85.936 86.029 86.159 86.259 86.209 86.139 86.176 86.769 86.021 85.859 85.896 85.909 85.939 86.046 85.974 86.104 85.856 85.596 85.616 85.454 85.654 95.806 94.966 99.564 99.546 99.521 99.416 99.474 99.524 99.551 94.444 85.161 85.036 84.566 83.639 82.899 81.631 81.611 98.849 98.794 98.759 98.671 98.844 89.856 83.062 81.586 82.099 82.049 81.819 81.786 81.781 81.774 81.761 81.744 81.881 81.711 81.861 81.699 81.851 81.961 82.039 79.231 79.481 79.441 81.889 88.214 88.144 88.159 88.209 88.276 88.421 78.624 78.559 78.294 78.121 78.106 77.959 77.871 78.119 78.301 78.544 78.609 78.544 78.046 77.606 77.391 77.091 76.656 75.999 75.581 75.399 75.226 75.609 75.069 74.969 74.867 74.752 74.602 74.489 75.682 74.284 74.204 74.622 74.382 74.152 74.104 74.019 73.929 73.834 73.679 73.497 73.317 73.077 72.979 72.947 72.864 72.797 72.622 72.582 72.299 72.059 71.934 71.764 71.629 71.614 71.409 71.392 71.212 70.932 70.912 70.887 70.554 70.404 70.327 70.109 69.904 69.629 69.524 69.292 69.657 68.242 67.777 67.084 65.869 65.117 64.884 65.234 78.572 78.634 78.697 78.687 78.624 69.889 64.427 64.304 64.029 63.764 63.504 63.094 62.644 65.972 63.422 62.317 61.492 61.147 61.164 60.829 60.667 60.474 60.292 60.224 60.224 60.272 60.352 60.339 60.349 60.397 60.399 61.373 60.435 60.766 60.242 60.21 61 60.419 60.22 60.016 59.865 68.766 68.07 63.709 61.66 59.03 58.819 58.617 58.316 58.011 57.698 57.389 57.269 57.129 57.019 56.912 57.092 56.697 56.779 56.764 56.707 56.552 56.377 56.247 56.219 56.194 56.154 56.129 56.074 55.997 55.919 55.859 55.792 55.692 55.622 55.554 55.474 55.427 55.424 55.442 55.407 55.279 54.857 54.147 53.509 53.457 53.454 53.359 53.394 53.442 53.667 53.839 53.784 53.727 53.722 53.549 53.387 53.197 52.992 52.832 52.727 52.624 52.554 58.039 52.744 52.134 52.552 51.922 52.754 51.852 52.284 51.567 51.484 52.132 51.314 56.907 54.264 51.134 51.107 51.077 50.992 50.887 50.794 50.704 50.632 50.554 50.479 50.414 50.359 50.307 50.364 50.434 50.539 50.637 50.727 50.829 52.162 73.114 72.387 71.654 70.927 70.214 69.494 51.189 51.147 54.102 54.43 54.1 49.885 49.215 49.125 48.97 48.845 48.785 49.18 48.715 48.762 48.652 48.677 48.772 49.705 49.947 48.957 49.045 49.075 49.16 49.247 49.327 49.627 50.37 50.312 50.577 50.565
90.841 90.849 90.816 90.871 90.936 90.881 90.874 90.854 90.841 91.141 90.691 90.579 90.569 90.526 90.489 90.471 90.441 90.366 90.336 90.324 90.319 90.299 90.274 90.246 90.224 90.214 90.231 90.196 90.189 90.166 90.114 90.084 90.076 90.036 90.016 90.051 90.079 90.079 90.101 90.161 90.146 90.004 89.966 89.904 89.834 89.776 89.726 89.696 89.704 89.724 89.786 89.809 89.841 89.789 89.794 89.781 89.771 89.554 89.439 89.309 89.384 89.439 89.441 89.464 89.496 89.434 89.404 89.354 89.299 89.414 89.596 89.644 89.586 89.416 89.444 89.426 89.076 88.361 88.006 87.914 87.901 87.926 87.944 87.949 87.931 87.869 87.774 87.821 87.939 87.841 87.796 87.849 87.806 87.721 87.711 87.691 87.664 87.661 87.791 86.266 85.886 85.791 85.861 85.879 85.864 86.039 86.076 86.154 86.246 86.196 86.146 86.094 86.184 86.189 86.024 85.954 85.964 85.996 86.021 86.036 86.166 86.044 85.686 85.694 85.656 85.746 85.566 85.669 93.389 99.619 99.576 99.564 99.531 99.451 99.419 87.934 85.149 85.099 84.374 83.474 82.291 81.656 87.094 98.819 98.766 98.714 98.591 85.396 84.394 84.436 81.584 82.126 82.014 81.856 81.851 81.866 81.859 81.834 81.834 81.829 81.819 81.786 81.796 81.786 82.059 81.654 79.281 79.569 79.411 88.006 88.189 88.026 88.169 88.231 88.294 82.731 78.826 78.676 78.416 78.331 78.256 78.099 78.131 79.476 78.924 78.726 78.734 78.721 78.539 82.424 85.594 79.796 77.041 76.716 76.881 75.651 75.269 75.117 75.982 74.984 74.842 74.737 74.639 74.497 74.364 74.432 74.067 74.027 73.964 74.192 74.327 74.127 74.024 73.932 73.747 73.647 73.354 73.227 73.069 72.992 73.019 72.814 72.672 72.679 72.509 72.242 72.087 71.937 71.719 71.614 71.414 71.389 71.339 71.142 70.949 70.917 70.977 70.439 70.412 70.267 70.119 69.809 69.542 69.469 69.792 68.124 67.764 66.617 65.347 64.369 64.354 73.894 78.587 78.644 78.702 78.657 78.612 77.737 66.049 65.484 64.357 64.107 63.779 63.359 62.927 62.457 62.027 61.724 61.542 61.317 62.659 61.002 60.817 60.589 60.427 60.369 60.342 60.399 60.419 60.409 60.402 60.39 60.395 60.424 60.376 60.337 60.317 60.433 60.533 60.319 60.357 60.041 62.789 70.571 69.995 69.546 68.57 66.294 62.653 59.368 58.998 58.713 58.346 57.989 57.676 57.487 57.454 57.112 56.942 56.897 56.879 56.839 56.752 56.579 56.432 56.342 56.307 56.264 56.244 56.199 56.149 56.087 55.989 55.949 55.879 55.812 55.709 55.647 55.562 55.519 55.532 55.544 55.487 55.372 54.872 54.062 53.609 53.607 53.584 53.502 53.562 53.997 53.607 67.724 64.789 62.999 57.587 56.679 56.052 53.854 53.834 53.167 52.832 52.692 52.592 52.502 52.359 52.234 52.119 52.004 52.072 51.919 52.072 51.639 51.542 52.289 51.384 51.899 51.282 51.252 51.227 51.182 51.224 51.272 51.124 50.962 50.797 50.739 50.622 50.582 50.499 50.402 50.444 50.534 50.624 50.717 51.297 51.139 51.889 73.092 72.352 71.624 70.904 70.174 69.469 51.224 51.229 51.935 52.147 52.032 52.315 49.33 49.202 48.997 48.895 48.797 48.792 48.82 48.877 48.762 48.782 48.832 49.107 49.352 49.03 49.082 49.132 49.247 49.305 49.395 49.61 50.432 50.457 50.605 50.792
