ncols 466
nrows 28
xllcorner    429014
yllcorner    438026
cellsize     2
NODATA_value -9999
120.597 120.632 120.66 120.625 120.542 120.43 120.312 120.177 120.002 119.71 119.39 119.047 118.675 118.362 118.015 117.72 117.437 117.27 117.172 117.127 117.112 117.1 117.162 117.532 117.987 118.255 118.28 118.217 118.137 118.1 117.985 117.857 117.752 117.647 117.55 117.435 117.3 117.182 117.065 116.955 116.83 116.662 116.545 116.415 116.277 116.197 116.115 116.165 117.007 118.132 123.878 122.774 121.262 119.055 116.353 115.47 115.416 116.379 116.467 115.677 115.188 115.182 117.747 121.314 122.233 122.218 121.094 116.623 114.886 114.656 114.519 114.432 114.38 114.48 114.473 114.438 114.583 114.759 114.569 114.404 118.473 120.23 122.47 121.643 120.306 114.845 113.848 113.782 113.821 115.862 122.313 128.29 130.777 132.135 131.863 130.892 129.514 126.078 116.907 114.918 115.51 115.513 114.108 119.074 119.094 119.913 119.248 113.973 113.287 113.284 113.955 113.279 112.932 112.905 112.861 112.895 112.779 112.732 112.89 112.963 112.984 112.994 112.921 112.896 112.48 112.535 114.709 114.966 112.782 112.556 112.639 112.202 112.245 112.362 113.289 113.21 112.409 116.891 118.393 119.55 118.474 116.619 112.221 113.728 112.263 111.886 112.766 112.282 112.136 112.581 115.834 115.147 114.977 115.201 116.198 116.048 112.114 111.907 111.97 112.372 111.965 112.679 112.682 116.816 116.589 112.964 111.958 112.693 113.303 112.112 111.898 112.063 112.011 111.891 111.991 112.173 111.917 111.845 111.928 111.969 111.978 112.597 117.82 119.257 119.929 118.834 117.389 112.366 112.227 112.241 116.893 116.454 116.59 117.192 117.12 112.962 112.218 112.225 112.683 114.019 116.699 117.205 117.836 118.322 115.136 112.813 112.654 112.54 112.837 115.071 115.042 113.773 112.553 113.529 118.35 118.783 118.113 115.292 114.577 113.852 112.591 112.543 112.612 113.167 112.615 112.557 112.58 112.479 112.273 112.346 112.361 112.4 112.445 112.468 112.501 112.637 112.685 112.722 112.819 112.763 112.745 112.72 112.8 112.948 113.083 113.211 113.289 113.274 113.265 113.235 113.385 113.416 113.432 113.437 113.723 113.87 114.045 114.472 114.894 114.983 115.958 119.753 117.395 115.148 115.53 115.577 116.707 115.687 116.2 116.538 117.331 118.029 117.937 118.244 118.144 121.211 123.657 122.804 118.746 119.133 119.203 120.603 121.597 120.381 -9999 -9999 -9999 -9999 -9999 -9999 -9999 -9999 -9999 -9999 -9999 -9999 -9999 -9999 -9999 -9999 -9999 -9999 -9999 -9999 -9999 -9999 -9999 -9999 -9999 -9999 -9999 -9999 -9999 -9999 -9999 -9999 -9999 -9999 -9999 -9999 -9999 -9999 -9999 -9999 -9999 -9999 -9999 -9999 -9999 -9999 -9999 -9999 -9999 -9999 -9999 -9999 -9999 -9999 -9999 -9999 -9999 -9999 -9999 -9999 -9999 -9999 -9999 -9999 -9999 -9999 -9999 -9999 -9999 -9999 -9999 -9999 -9999 -9999 -9999 -9999 -9999 -9999 -9999 -9999 -9999 -9999 -9999 -9999 -9999 -9999 -9999 -9999 -9999 -9999 -9999 -9999 -9999 -9999 -9999 -9999 -9999 -9999 -9999 -9999 -9999 -9999 -9999 -9999 -9999 -9999 -9999 -9999 -9999 -9999 -9999 -9999 -9999 -9999 -9999 -9999 -9999 -9999 -9999 -9999 -9999 -9999 -9999 -9999 -9999 -9999 -9999 -9999 -9999 -9999 -9999 -9999 -9999 -9999 -9999 -9999 -9999 -9999 -9999 -9999 -9999 -9999 -9999 -9999 -9999 -9999 -9999 -9999 -9999 -9999 -9999 -9999 -9999 -9999 -9999 -9999 -9999 -9999 -9999 -9999 -9999 -9999 -9999 -9999 -9999 -9999 -9999 -9999 -9999 -9999 -9999 -9999 -9999 -9999 -9999 -9999 -9999 -9999 -9999 -9999 -9999 -9999
120.62 120.605 120.51 120.407 120.267 120.105 119.995 119.787 119.48 119.165 118.79 118.425 118.102 117.787 117.512 117.295 117.14 117.085 117.07 117.032 117.007 117.02 117.037 117.187 117.637 118 118.11 118.062 117.99 117.927 117.8 117.68 117.56 117.457 117.36 117.227 117.107 117.007 116.887 116.787 116.63 116.485 116.36 116.232 116.107 116.097 115.887 115.837 116.441 119.226 118.973 122.089 128.284 120.744 118.298 115.057 115.024 116.088 117.013 116.221 115.335 115.377 119.452 121.576 123.321 122.271 120.708 115.891 114.904 114.835 114.619 114.382 114.341 114.412 114.373 114.423 114.487 114.431 114.384 114.892 119.617 121.219 122.035 120.929 116.915 114.027 114.186 114.746 113.804 113.761 119.893 127.372 129.523 130.479 131.109 131.159 129.061 119.235 119.102 114.779 113.954 113.469 113.443 118.347 120.405 120.97 119.829 115.416 113.275 113.243 113.219 113.81 112.909 112.784 112.806 112.824 112.813 112.688 112.608 112.636 112.627 112.631 112.643 112.418 112.38 112.32 114.908 115.855 115.74 113.148 112.261 112.217 112.186 112.253 113.111 112.25 112.095 112.967 118.221 118.774 119.033 118.629 117.435 115.535 114.344 112.24 112.458 112.877 112.999 112.864 113.734 114.63 114.846 113.592 117.948 118.549 113.425 111.705 111.84 112.033 112.406 112.845 112.157 113.143 111.878 112.314 115.15 116.761 113.537 111.769 111.8 112.126 112.009 111.852 111.817 111.693 111.711 111.783 112.175 114.415 112.582 112.501 116.712 118.788 120.542 119.549 118.234 113.763 114.044 117.615 118.335 118.671 117.594 116.092 114.201 112.735 112.103 112.317 115.496 116.95 117.407 117.773 118.525 119.066 116.592 112.844 113.061 113.374 114.464 114.505 113.035 112.566 112.58 112.375 116.074 113.561 116.099 115.705 114.695 112.532 112.833 112.469 112.483 113.263 113.361 112.485 112.531 112.459 112.298 112.247 112.306 112.338 112.35 112.381 112.518 112.594 112.631 112.674 112.678 112.729 112.634 112.669 112.776 112.92 113.136 113.661 113.305 113.387 113.36 113.315 113.339 113.371 113.452 113.473 113.524 113.703 113.945 114.153 114.963 114.568 114.56 115.427 115.057 115.409 117.772 119.522 121.092 115.934 115.645 117.235 117.378 117.704 117.519 117.915 117.838 119.372 121.274 119.773 118.647 118.518 119.78 120.933 121.61 119.971 120.572 122.119 -9999 -9999 -9999 -9999 -9999 -9999 -9999 -9999 -9999 -9999 -9999 -9999 -9999 -9999 -9999 -9999 -9999 -9999 -9999 -9999 -9999 -9999 -9999 -9999 -9999 -9999 -9999 -9999 -9999 -9999 -9999 -9999 -9999 -9999 -9999 -9999 -9999 -9999 -9999 -9999 -9999 -9999 -9999 -9999 -9999 -9999 -9999 -9999 -9999 -9999 -9999 -9999 -9999 -9999 -9999 -9999 -9999 -9999 -9999 -9999 -9999 -9999 -9999 -9999 -9999 -9999 -9999 -9999 -9999 -9999 -9999 -9999 -9999 -9999 -9999 -9999 -9999 -9999 -9999 -9999 -9999 -9999 -9999 -9999 -9999 -9999 -9999 -9999 -9999 -9999 -9999 -9999 -9999 -9999 -9999 -9999 -9999 -9999 -9999 -9999 -9999 -9999 -9999 -9999 -9999 -9999 -9999 -9999 -9999 -9999 -9999 -9999 -9999 -9999 -9999 -9999 -9999 -9999 -9999 -9999 -9999 -9999 -9999 -9999 -9999 -9999 -9999 -9999 -9999 -9999 -9999 -9999 -9999 -9999 -9999 -9999 -9999 -9999 -9999 -9999 -9999 -9999 -9999 -9999 -9999 -9999 -9999 -9999 -9999 -9999 -9999 -9999 -9999 -9999 -9999 -9999 -9999 -9999 -9999 -9999 -9999 -9999 -9999 -9999 -9999 -9999 -9999 -9999 -9999 -9999 -9999 -9999 -9999 -9999 -9999 -9999 -9999 -9999 -9999 -9999
120.527 120.38 120.242 120.077 119.947 119.81 119.567 119.237 118.902 118.525 118.19 117.852 117.552 117.335 117.14 117.052 117.05 117.032 117.012 116.965 116.922 116.925 116.94 116.987 117.282 117.697 117.905 117.922 117.845 117.747 117.612 117.47 117.36 117.267 117.157 117.017 116.892 116.81 116.687 116.582 116.447 116.302 116.167 116.015 115.905 115.827 115.72 118.747 116.252 116.388 119.612 121.091 119.925 116.713 115.697 114.939 114.938 115.21 115.509 115.139 115.087 115.125 119.654 122.209 124.386 121.708 117.671 114.963 114.9 114.709 114.437 114.296 114.241 114.295 114.281 114.373 115.827 115.495 114.304 115.875 118.713 120.61 121.024 120.281 118.186 116.705 115.874 116.809 115.759 115.054 113.776 115.752 126.61 130.304 131.343 131.669 128.676 119.175 114.228 113.26 113.254 113.223 113.259 117.24 120.063 121.407 120.254 116.603 113.243 113.173 113.122 113.124 114.04 112.704 112.627 112.723 112.742 112.654 112.64 112.583 112.535 113.577 112.748 112.36 112.257 112.495 117.731 114.266 114.808 112.977 113.454 114.217 112.413 112.45 112.598 112.076 112.102 112.067 113.688 117.885 118.706 120.023 119.087 117.635 113.761 112.227 113.668 112.678 113.213 112.015 112.532 112.311 112.379 111.847 115.602 114.316 112.12 111.723 111.77 112.266 113.538 113.81 112.089 111.851 113.01 116.796 118.145 118.29 116.712 111.965 111.917 112.625 111.932 111.757 111.731 111.684 111.67 111.716 113.725 115.592 115.107 112.952 112.729 117.946 119.421 120.026 118.572 116.945 118.23 118.696 118.282 117.727 118.021 117.098 115.783 115.058 112.946 112.016 113.951 117.599 117.914 118.758 118.856 118.761 118.144 116.499 116.418 112.745 112.844 112.378 112.352 113.357 115.666 114.183 112.431 112.276 113.315 113.258 115.434 114.234 115.001 112.514 112.357 112.884 112.724 112.405 112.428 112.415 112.351 112.253 112.245 112.266 112.276 112.387 112.417 112.492 112.534 112.55 112.567 112.515 112.562 112.733 112.944 113.26 114.124 115.368 113.628 113.324 113.402 113.418 113.424 113.432 113.368 113.437 113.505 113.519 113.699 113.876 113.976 114.19 114.353 114.778 115.039 117.678 121.429 122.387 121.91 118.802 115.665 116.769 116.951 117.371 117.433 117.614 117.666 117.645 118.557 118.596 118.797 118.942 120.666 120.808 120.125 119.811 120.248 122.079 124.54 125.109 122.208 120.404 119.885 120.159 -9999 -9999 -9999 -9999 -9999 -9999 -9999 -9999 -9999 -9999 -9999 -9999 -9999 -9999 -9999 -9999 -9999 -9999 -9999 -9999 -9999 -9999 -9999 -9999 -9999 -9999 -9999 -9999 -9999 -9999 -9999 -9999 -9999 -9999 -9999 -9999 -9999 -9999 -9999 -9999 -9999 -9999 -9999 -9999 -9999 -9999 -9999 -9999 -9999 -9999 -9999 -9999 -9999 -9999 -9999 -9999 -9999 -9999 -9999 -9999 -9999 -9999 -9999 -9999 -9999 -9999 -9999 -9999 -9999 -9999 -9999 -9999 -9999 -9999 -9999 -9999 -9999 -9999 -9999 -9999 -9999 -9999 -9999 -9999 -9999 -9999 -9999 -9999 -9999 -9999 -9999 -9999 -9999 -9999 -9999 -9999 -9999 -9999 -9999 -9999 -9999 -9999 -9999 -9999 -9999 -9999 -9999 -9999 -9999 -9999 -9999 -9999 -9999 -9999 -9999 -9999 -9999 -9999 -9999 -9999 -9999 -9999 -9999 -9999 -9999 -9999 -9999 -9999 -9999 -9999 -9999 -9999 -9999 -9999 -9999 -9999 -9999 -9999 -9999 -9999 -9999 -9999 -9999 -9999 -9999 -9999 -9999 -9999 -9999 -9999 -9999 -9999 -9999 -9999 -9999 -9999 -9999 -9999 -9999 -9999 -9999 -9999 -9999 -9999 -9999 -9999 -9999 -9999 -9999 -9999 -9999 -9999 -9999 -9999
120.297 120.08 119.89 119.775 119.605 119.307 118.987 118.652 118.277 117.907 117.605 117.327 117.155 117.042 116.997 116.99 116.977 116.975 116.96 116.935 116.895 116.887 116.86 116.872 116.99 117.34 117.672 117.762 117.695 117.56 117.412 117.272 117.145 117.057 116.935 116.802 116.692 116.595 116.487 116.385 116.247 116.117 115.965 115.812 115.675 115.555 115.415 115.445 115.895 117.295 123.795 116.852 117.491 116.049 115.122 115.095 114.894 114.925 115.076 115.064 115.112 115.727 121.143 122.364 122.904 121.322 117.845 115.023 114.947 116.671 118.354 117.949 114.236 114.183 114.212 114.301 114.648 114.831 114.256 114.192 114.265 117.159 119.569 118.52 116.884 114.719 114.141 114.508 116.492 116.619 116.223 116.035 127.203 129.448 126.334 135.077 120.271 114.626 113.253 113.258 113.195 113.172 113.201 114.904 119.781 121.567 120.543 118.913 114.008 113.143 113.088 113.043 112.804 112.636 112.58 112.645 112.632 117.941 119.344 112.986 112.5 112.47 112.381 112.361 116.805 122.777 123.001 121.893 112.515 112.037 112.112 113.847 112.334 112.434 112.019 112.011 111.981 112.031 113.553 114.119 118.375 117.542 118.909 118.378 112.621 112.27 112.988 113.514 113.615 114.215 112.089 111.577 111.576 111.519 111.687 111.984 111.995 111.825 111.703 112.486 113.703 113.659 113.563 112.403 117.334 118.414 119.252 118.921 117.81 113.279 112.711 112.578 112.114 111.788 111.648 111.641 111.616 111.502 112.127 115.459 114.954 111.879 111.978 116.057 118.55 116.377 114.495 113.478 116.28 117.277 116.932 118.112 118.586 118.216 117.699 115.565 114.644 112.114 112.833 118.212 118.892 119.476 118.182 117.835 118.265 120.169 121.301 116.502 112.58 112.351 112.462 113.627 113.361 113.355 113.13 111.932 116.426 117.528 118.127 116.989 112.415 112.074 112.104 112.363 112.879 112.307 112.351 112.32 112.329 112.26 112.187 112.168 112.268 112.295 112.377 112.416 112.483 112.486 112.462 112.451 112.513 112.982 113.242 113.657 113.139 115.526 114.355 113.22 113.595 113.772 113.703 113.582 113.515 113.528 113.494 113.532 113.552 113.643 113.896 113.964 114.25 114.702 115.046 121.062 122.396 123.221 122.704 121.512 117.126 116.133 116.524 116.882 117.085 117.299 117.397 118.238 118.302 120.257 121.718 123.822 124.508 119.142 118.358 118.962 119.953 120.729 123.71 125.428 124.471 120.023 119.899 119.966 121.219 -9999 -9999 -9999 -9999 -9999 -9999 -9999 -9999 -9999 -9999 -9999 -9999 -9999 -9999 -9999 -9999 -9999 -9999 -9999 -9999 -9999 -9999 -9999 -9999 -9999 -9999 -9999 -9999 -9999 -9999 -9999 -9999 -9999 -9999 -9999 -9999 -9999 -9999 -9999 -9999 -9999 -9999 -9999 -9999 -9999 -9999 -9999 -9999 -9999 -9999 -9999 -9999 -9999 -9999 -9999 -9999 -9999 -9999 -9999 -9999 -9999 -9999 -9999 -9999 -9999 -9999 -9999 -9999 -9999 -9999 -9999 -9999 -9999 -9999 -9999 -9999 -9999 -9999 -9999 -9999 -9999 -9999 -9999 -9999 -9999 -9999 -9999 -9999 -9999 -9999 -9999 -9999 -9999 -9999 -9999 -9999 -9999 -9999 -9999 -9999 -9999 -9999 -9999 -9999 -9999 -9999 -9999 -9999 -9999 -9999 -9999 -9999 -9999 -9999 -9999 -9999 -9999 -9999 -9999 -9999 -9999 -9999 -9999 -9999 -9999 -9999 -9999 -9999 -9999 -9999 -9999 -9999 -9999 -9999 -9999 -9999 -9999 -9999 -9999 -9999 -9999 -9999 -9999 -9999 -9999 -9999 -9999 -9999 -9999 -9999 -9999 -9999 -9999 -9999 -9999 -9999 -9999 -9999 -9999 -9999 -9999 -9999 -9999 -9999 -9999 -9999 -9999 -9999 -9999 -9999 -9999 -9999 -9999
119.972 119.75 119.592 119.35 119.042 118.7 118.357 117.99 117.655 117.387 117.172 117.06 117 116.972 116.935 116.907 116.937 116.925 116.92 116.922 116.887 116.86 116.81 116.807 116.82 116.992 117.307 117.545 117.517 117.385 117.205 117.05 116.91 116.817 116.702 116.575 116.46 116.375 116.285 116.175 116.042 115.882 115.75 115.6 115.465 115.302 115.202 115.33 115.39 115.03 115.096 115.916 115.298 115.014 115.318 115.641 115.645 116.65 116.92 116.769 115.041 116.967 121.108 121.626 121.979 120.906 116.486 114.779 114.566 114.99 120.267 116.003 114.099 114.045 114.099 114.131 114.06 113.979 113.885 113.91 114.051 114.667 114.054 115.65 114.778 114.073 113.835 113.678 113.501 113.491 115.876 116.406 120.996 122.252 132.93 125.11 113.675 113.657 113.262 113.314 113.132 113.148 113.151 114.333 119.486 120.746 120.524 119.478 114.84 113.105 113.076 112.999 113.869 112.893 112.486 116.595 120.038 123.126 123.196 118.919 114.46 112.575 112.584 114.038 117.013 123.739 123.789 124.006 121.189 116.597 116.5 112.065 112.227 111.997 112.086 111.949 111.904 112.529 112.274 112.251 114.606 115.987 116.69 113.454 112.003 111.533 111.85 113.284 113.881 114.984 114.735 111.58 111.517 111.534 111.551 112.66 112.535 112.238 112.185 112.038 113.465 113.198 111.941 111.7 115.72 117.983 119.152 119.688 118.576 113.438 112.301 111.825 113.288 111.711 111.518 111.562 111.524 111.421 111.646 112.86 113.174 111.737 113.078 113.57 114.443 115.394 112.486 112.361 114.37 114.213 116.864 118.398 118.962 119.091 117.819 116.856 115.984 114.813 112.34 114.457 118.946 117.98 113.232 113.032 118.269 121.31 121.487 119.89 117.125 113.219 112.344 112.238 112.229 112.209 112.158 112.004 115.977 118.729 118.674 117.421 112.201 112.155 113.287 114.423 114.335 112.267 112.16 112.256 112.252 112.155 112.089 112.079 112.179 112.228 112.321 112.388 112.324 112.362 112.357 112.386 112.495 113.127 112.895 112.847 114.887 118.901 119.071 117.547 115.102 113.913 113.409 115.188 113.579 113.628 113.431 113.503 113.56 113.612 113.655 113.92 114.159 114.743 115.011 118.774 121.829 123.593 122.972 121.978 120.57 115.978 116.159 116.472 117.507 117.774 117.531 117.722 117.588 118.384 123.034 123.272 120.089 118.56 118.301 118.78 119.563 120.523 122.701 123.347 121.46 119.922 120.046 120.806 121.456 122.649 -9999 -9999 -9999 -9999 -9999 -9999 -9999 -9999 -9999 -9999 -9999 -9999 -9999 -9999 -9999 -9999 -9999 -9999 -9999 -9999 -9999 -9999 -9999 -9999 -9999 -9999 -9999 -9999 -9999 -9999 -9999 -9999 -9999 -9999 -9999 -9999 -9999 -9999 -9999 -9999 -9999 -9999 -9999 -9999 -9999 -9999 -9999 -9999 -9999 -9999 -9999 -9999 -9999 -9999 -9999 -9999 -9999 -9999 -9999 -9999 -9999 -9999 -9999 -9999 -9999 -9999 -9999 -9999 -9999 -9999 -9999 -9999 -9999 -9999 -9999 -9999 -9999 -9999 -9999 -9999 -9999 -9999 -9999 -9999 -9999 -9999 -9999 -9999 -9999 -9999 -9999 -9999 -9999 -9999 -9999 -9999 -9999 -9999 -9999 -9999 -9999 -9999 -9999 -9999 -9999 -9999 -9999 -9999 -9999 -9999 -9999 -9999 -9999 -9999 -9999 -9999 -9999 -9999 -9999 -9999 -9999 -9999 -9999 -9999 -9999 -9999 -9999 -9999 -9999 -9999 -9999 -9999 -9999 -9999 -9999 -9999 -9999 -9999 -9999 -9999 -9999 -9999 -9999 -9999 -9999 -9999 -9999 -9999 -9999 -9999 -9999 -9999 -9999 -9999 -9999 -9999 -9999 -9999 -9999 -9999 -9999 -9999 -9999 -9999 -9999 -9999 -9999 -9999 -9999 -9999 -9999 -9999
119.625 119.36 119.08 118.74 118.392 118.06 117.715 117.392 117.177 117.037 117.002 116.952 116.922 116.89 116.887 116.872 116.905 116.91 116.915 116.91 116.857 116.85 116.78 116.762 116.76 116.797 116.987 117.277 117.335 117.187 117.027 116.84 116.692 116.565 116.425 116.31 116.225 116.15 116.057 115.942 115.805 115.635 115.472 115.33 115.222 115.052 115.007 115.68 115.37 114.842 114.568 114.572 114.782 114.952 115.012 115.616 116.722 115.731 117.452 117.146 115.29 116.178 116.081 118.777 119.562 117.477 114.9 115.058 114.617 114.133 115.096 113.948 113.984 113.924 113.99 114.155 114.872 114.562 114.475 113.86 113.786 113.835 114.032 115.069 115.157 116.773 119.077 118.796 116.993 114.413 113.408 123.477 123.541 124.382 132.448 128.246 113.203 113.225 113.144 113.138 113.13 113.136 113.133 113.511 118.814 119.485 119.131 118.991 114.763 113.127 113.029 112.916 113.807 112.625 112.464 120.789 119.786 123.305 123.642 121.869 115.176 112.764 112.824 116.673 115.589 123.168 123.562 124.351 123.016 122.909 122.139 119.439 112.623 111.846 112.234 111.924 112.495 112.306 111.812 112.111 111.992 112.371 112.337 111.608 111.494 113.468 111.912 111.428 111.34 111.878 113.283 111.615 112.085 112.55 111.771 112.898 113.222 111.683 111.851 111.596 111.599 111.616 111.617 111.745 112.107 116.979 118.811 119.755 119.079 117.587 112.92 113.895 114.761 112.709 111.477 111.452 111.435 111.466 111.782 111.481 111.91 113.175 114.358 114.948 115.965 116.487 116.327 112.487 113.318 113.438 114.279 116.675 117.967 118.266 118.422 118.544 116.132 115.957 112.779 114.21 117.969 113.715 111.967 111.924 116.655 121.957 122.516 120.965 116.846 114.47 112.3 112.254 112.202 112.181 112.177 111.866 116.842 118.281 119.028 117.656 113.341 112.093 112.532 114.875 112.665 112.038 112.073 112.075 112.089 112.02 111.96 112.009 112.109 112.208 112.237 112.279 112.289 112.25 112.247 112.339 113.257 113.005 112.829 113.284 118.583 119.767 119.977 119.38 118.505 117.551 114.284 114.366 113.707 113.602 113.57 113.53 113.59 113.62 113.633 113.778 114.031 114.565 114.731 115.599 120.824 122.735 123.491 122.759 121.447 117.961 115.771 117.543 117.617 117.183 117.37 117.391 117.294 118.633 122.28 123.639 122.934 121.768 118.376 118.369 118.829 121.483 120.49 120.735 119.885 120.888 122.567 122.639 122.616 124.523 126.624 -9999 -9999 -9999 120.825 120.68 -9999 -9999 -9999 -9999 -9999 -9999 -9999 -9999 -9999 -9999 -9999 -9999 -9999 -9999 -9999 -9999 -9999 -9999 -9999 -9999 -9999 -9999 -9999 -9999 -9999 -9999 -9999 -9999 -9999 -9999 -9999 -9999 -9999 -9999 -9999 -9999 -9999 -9999 -9999 -9999 -9999 -9999 -9999 -9999 -9999 -9999 -9999 -9999 -9999 -9999 -9999 -9999 -9999 -9999 -9999 -9999 -9999 -9999 -9999 -9999 -9999 -9999 -9999 -9999 -9999 -9999 -9999 -9999 -9999 -9999 -9999 -9999 -9999 -9999 -9999 -9999 -9999 -9999 -9999 -9999 -9999 -9999 -9999 -9999 -9999 -9999 -9999 -9999 -9999 -9999 -9999 -9999 -9999 -9999 -9999 -9999 -9999 -9999 -9999 -9999 -9999 -9999 -9999 -9999 -9999 -9999 -9999 -9999 -9999 -9999 -9999 -9999 -9999 -9999 -9999 -9999 -9999 -9999 -9999 -9999 -9999 -9999 -9999 -9999 -9999 -9999 -9999 -9999 -9999 -9999 -9999 -9999 -9999 -9999 -9999 -9999 -9999 -9999 -9999 -9999 -9999 -9999 -9999 -9999 -9999 -9999 -9999 -9999 -9999 -9999 -9999 -9999 -9999 -9999 -9999 -9999 -9999 -9999 -9999 -9999 -9999 -9999 -9999 -9999 -9999 -9999
119.112 118.802 118.46 118.11 117.76 117.467 117.172 117.005 116.922 116.89 116.88 116.855 116.82 116.835 116.825 116.835 116.872 116.875 116.892 116.87 116.827 116.8 116.762 116.75 116.72 116.735 116.795 117.035 117.17 117.025 116.82 116.657 116.455 116.3 116.172 116.037 115.937 115.875 115.807 115.697 115.512 115.337 115.19 115.07 114.935 114.86 114.865 115.337 114.915 117.91 116.015 114.31 114.309 114.345 114.629 115.775 117.033 117.503 117.77 116.663 114.506 114.36 114.282 114.503 114.729 115.053 114.398 114.229 114.109 113.999 113.794 113.875 113.893 113.888 113.965 114.996 114.379 114.08 119.231 119.58 119.448 119.393 114.516 115.861 116.14 118.182 119.495 119.344 120.455 120.964 125.321 125.191 123.693 128.468 126.189 124.117 115.228 113.081 112.962 113.054 113.083 113.099 113.12 113.189 114.376 113.799 113.748 113.231 113.052 113.031 112.923 112.672 112.695 112.388 112.46 119.084 122.345 123.697 123.3 121.499 120.496 115.024 113.643 121.267 120.371 120.68 121.424 124.679 125.361 124.859 123.101 118.681 115.482 111.694 111.778 112.094 112.22 111.758 111.819 111.772 112.259 112.734 111.752 112.625 117.741 117.291 116.392 112.381 111.323 111.318 112.165 114.84 113.317 112.133 111.34 112.817 113.504 113.401 111.648 111.538 111.551 111.562 112.881 113.443 113.168 114.622 118.029 119.243 118.906 118.172 116.438 112.367 112.227 111.548 111.4 111.35 111.374 111.39 112.393 111.47 112.94 114.14 111.525 114.756 116.725 116.854 116.741 112.437 112.514 113.228 114.823 114.491 115.331 120.721 123.324 122.252 119.457 116.282 115.357 111.936 112.602 111.981 112.079 112.141 117.227 119.925 121.435 120.7 118.591 116.745 112.639 112.232 112.157 112.189 112.507 113.366 115.577 118.338 118.905 117.04 111.991 111.834 111.892 112.795 113.274 112.022 111.928 111.972 111.94 111.881 111.867 112.005 112.046 112.137 112.132 112.192 112.161 112.218 112.352 112.365 112.881 113.266 113.317 117.979 119.015 120.401 120.998 120.533 119.837 119.213 118.183 116.188 113.346 113.984 113.601 113.624 113.596 113.624 113.696 113.636 113.944 114.086 114.546 114.922 118.575 121.735 122.725 121.842 118.243 117.917 115.575 116.524 117.774 117.995 117.376 117.207 117.164 117.995 123.652 124.307 120.481 118.956 118.294 118.301 118.685 119.694 118.841 119.396 119.733 120.532 122.545 122.598 121.695 123.185 126.755 129.588 129.776 122.413 121.383 120.526 120.789 -9999 -9999 -9999 -9999 -9999 -9999 -9999 -9999 -9999 -9999 -9999 -9999 -9999 -9999 -9999 -9999 -9999 -9999 -9999 -9999 -9999 -9999 -9999 -9999 -9999 -9999 -9999 -9999 -9999 -9999 -9999 -9999 -9999 -9999 -9999 -9999 -9999 -9999 -9999 -9999 -9999 -9999 -9999 -9999 -9999 -9999 -9999 -9999 -9999 -9999 -9999 -9999 -9999 -9999 -9999 -9999 -9999 -9999 -9999 -9999 -9999 -9999 -9999 -9999 -9999 -9999 -9999 -9999 -9999 -9999 -9999 -9999 -9999 -9999 -9999 -9999 -9999 -9999 -9999 -9999 -9999 -9999 -9999 -9999 -9999 -9999 -9999 -9999 -9999 -9999 -9999 -9999 -9999 -9999 -9999 -9999 -9999 -9999 -9999 -9999 -9999 -9999 -9999 -9999 -9999 -9999 -9999 -9999 -9999 -9999 -9999 -9999 -9999 -9999 -9999 -9999 -9999 -9999 -9999 -9999 -9999 -9999 -9999 -9999 -9999 -9999 -9999 -9999 -9999 -9999 -9999 -9999 -9999 -9999 -9999 -9999 -9999 -9999 -9999 -9999 -9999 -9999 -9999 -9999 -9999 -9999 -9999 -9999 -9999 -9999 -9999 -9999 -9999 -9999 -9999 -9999 -9999 -9999 -9999 -9999 -9999 -9999 -9999 -9999 -9999
118.532 118.207 117.85 117.522 117.22 117.005 116.887 116.815 116.805 116.792 116.797 116.785 116.78 116.782 116.77 116.795 116.822 116.812 116.832 116.817 116.785 116.78 116.735 116.732 116.69 116.687 116.682 116.802 116.975 116.915 116.627 116.43 116.227 116.032 115.892 115.76 115.655 115.6 115.515 115.385 115.232 115.087 114.912 114.815 114.735 114.657 116.61 115.255 114.982 114.582 114.71 114.305 114.239 114.206 114.293 114.346 114.972 116.286 115.408 114.781 114.635 115.403 117.734 115.694 115.183 114.644 114.044 113.983 113.872 113.773 113.728 113.804 113.772 113.812 113.872 113.934 113.836 115.13 119.411 120.938 121.078 119.588 115.077 113.882 113.922 116.524 117.806 118.75 121.133 121.935 120.628 127.51 129.312 130.306 128.958 126.39 124.135 118.099 113.899 112.944 112.966 113.006 113.038 113.1 113.091 113.644 113.866 113.628 113.735 113.558 112.823 112.52 112.342 112.32 112.423 116.902 121.019 122.615 122.363 121.926 117.164 121.575 115.815 122.45 120.975 116.875 121.5 125.653 125.621 126.02 125.705 123.868 119.451 111.835 111.946 111.896 112.796 112.009 111.72 112.627 111.906 112.252 112.253 116.861 118.285 117.98 116.768 112.053 111.344 111.607 112.174 113.915 112.246 112.355 111.358 111.372 113.17 112.579 112.48 111.449 112.715 113.144 112.933 111.553 111.419 112.075 117.033 117.924 117.794 113.965 112.053 112.395 111.948 111.605 111.411 111.337 111.257 111.317 111.468 111.447 111.343 111.569 111.574 113.787 116.796 117.103 117.187 115.66 114.313 116.239 115.184 117.996 115.358 121.835 123.833 124.928 123.063 117.952 113.251 111.887 111.79 111.785 111.759 111.754 111.959 115.992 119.701 116.655 115.602 112.724 112.643 112.65 112.926 112.176 111.874 113.747 114.856 117.932 120.156 118.02 114.828 111.87 111.834 111.892 113.316 112.419 111.806 111.786 111.763 111.785 111.779 111.862 111.967 112.019 112.048 112.006 112.047 112.051 112.659 113.538 113.144 114.209 113.433 114.45 117.439 118.663 120.107 120.934 121.435 121.038 119.492 118.693 116.876 113.563 114.571 114.444 113.708 113.608 113.635 113.662 113.811 114.034 114.146 114.918 115.248 119.927 121.096 118.081 115.49 115.495 115.361 115.384 117.276 116.893 116.87 117.286 117.644 119 118.898 122.023 119.98 118.165 118.173 118.221 118.151 118.238 118.868 119.199 119.421 120.512 120.073 120.975 120.554 120.943 128.768 132.336 132.628 125.768 120.1 120.19 121.904 122.695 121.893 120.842 -9999 -9999 -9999 -9999 -9999 -9999 -9999 -9999 -9999 -9999 -9999 -9999 -9999 -9999 -9999 -9999 -9999 -9999 -9999 -9999 -9999 -9999 -9999 -9999 -9999 -9999 -9999 -9999 -9999 -9999 -9999 -9999 -9999 -9999 -9999 -9999 -9999 -9999 -9999 -9999 -9999 -9999 -9999 -9999 -9999 -9999 -9999 -9999 -9999 -9999 -9999 -9999 -9999 -9999 -9999 -9999 -9999 -9999 -9999 -9999 -9999 -9999 -9999 -9999 -9999 -9999 -9999 -9999 -9999 -9999 -9999 -9999 -9999 -9999 -9999 -9999 -9999 -9999 -9999 -9999 -9999 -9999 -9999 -9999 -9999 -9999 -9999 -9999 -9999 -9999 -9999 -9999 -9999 -9999 -9999 -9999 -9999 -9999 -9999 -9999 -9999 -9999 -9999 -9999 -9999 -9999 -9999 -9999 -9999 -9999 -9999 -9999 -9999 -9999 -9999 -9999 -9999 -9999 -9999 -9999 -9999 -9999 -9999 -9999 -9999 -9999 -9999 -9999 -9999 -9999 -9999 -9999 -9999 -9999 -9999 -9999 -9999 -9999 -9999 -9999 -9999 -9999 -9999 -9999 -9999 -9999 -9999 -9999 -9999 -9999 -9999 -9999 -9999 -9999 -9999 -9999 -9999 -9999 -9999 -9999 -9999 -9999
117.915 117.622 117.295 117.03 116.862 116.792 116.76 116.732 116.745 116.752 116.73 116.735 116.707 116.72 116.712 116.745 116.765 116.76 116.772 116.75 116.73 116.73 116.712 116.72 116.68 116.677 116.647 116.67 116.83 116.875 116.605 116.247 116.025 115.802 115.617 115.48 115.362 115.297 115.232 115.065 114.922 114.797 114.657 114.567 114.477 115.95 117.895 115.04 115.11 116.642 114.492 114.252 114.234 114.185 114.365 114.393 114.294 114.534 114.379 114.236 114.164 118.069 120.749 120.654 120.402 118.945 114.086 113.969 113.942 113.687 114.092 113.751 113.677 113.901 113.913 114.764 115.09 114.148 119.568 121.244 121.348 119.435 113.602 113.463 113.419 113.334 113.758 115.466 119.712 121.805 126.751 128.519 130.07 130.505 130.157 127.315 123.067 119.576 117.41 113.101 116.569 114.228 113.018 112.69 112.833 113.681 114.204 113.903 114.141 113.992 114.977 113.27 112.262 112.309 112.372 116.527 119.953 119.735 120.637 123.098 122.503 120.882 117.917 119.848 114.612 113.441 120.763 124.741 125.043 125.94 125.49 122.297 121.765 115.546 112.273 112.181 111.554 112.084 112.103 111.902 112.24 111.793 111.356 112.399 117.354 118.712 117.275 112.479 112.892 111.75 111.932 113.307 111.408 111.678 111.452 111.306 112.863 113.079 112.809 112.894 111.998 112.247 111.913 111.211 111.238 111.651 113.826 113.177 112.169 111.6 111.565 112.488 111.272 111.388 112.143 111.373 111.219 111.21 111.236 111.07 111.122 111.383 112.124 111.973 116.872 118.114 118.434 117.034 114.822 114.977 114.265 117.172 119.493 123.498 125.165 125.027 124.449 123.536 120.228 113.163 111.84 111.77 112.826 117.557 116.961 112.764 114.466 115.776 113.47 112.319 112.524 112.297 111.99 111.895 113.316 112.4 112.928 117.81 117.533 117.097 114.129 111.702 111.778 111.886 113.375 111.734 111.635 111.656 111.666 111.63 111.725 111.812 111.897 111.87 111.998 111.91 111.773 111.981 112.265 114.553 112.844 112.564 112.523 112.618 113.711 115.087 118.238 119.86 120.647 121.034 120.275 118.857 115.059 113.799 115.074 115.342 113.757 113.676 113.6 113.621 113.653 114.012 114.079 114.659 114.952 116.188 116.026 115.361 115.273 116.948 117.878 117.168 115.789 116.499 116.646 118.224 117.637 117.715 117.872 117.697 118.499 118.079 122.126 118.814 126.176 120.409 120.51 118.922 118.886 119.886 120.687 120.426 121.203 120.07 123.521 130.441 127.237 125.131 122.337 120.192 122.208 122.665 121.406 120.547 120.957 -9999 -9999 -9999 -9999 -9999 -9999 -9999 -9999 -9999 -9999 -9999 -9999 -9999 -9999 -9999 -9999 -9999 -9999 -9999 -9999 -9999 -9999 -9999 -9999 -9999 -9999 -9999 -9999 -9999 -9999 -9999 -9999 -9999 -9999 -9999 -9999 -9999 -9999 -9999 -9999 -9999 -9999 -9999 -9999 -9999 -9999 -9999 -9999 -9999 -9999 -9999 -9999 -9999 -9999 -9999 -9999 -9999 -9999 -9999 -9999 -9999 -9999 -9999 -9999 -9999 -9999 -9999 -9999 -9999 -9999 -9999 -9999 -9999 -9999 -9999 -9999 -9999 -9999 -9999 -9999 -9999 -9999 -9999 -9999 -9999 -9999 -9999 -9999 -9999 -9999 -9999 -9999 -9999 -9999 -9999 -9999 -9999 -9999 -9999 -9999 -9999 -9999 -9999 -9999 -9999 -9999 -9999 -9999 -9999 -9999 -9999 -9999 -9999 -9999 -9999 -9999 -9999 -9999 -9999 -9999 -9999 -9999 -9999 -9999 -9999 -9999 -9999 -9999 -9999 -9999 -9999 -9999 -9999 -9999 -9999 -9999 -9999 -9999 -9999 -9999 -9999 -9999 -9999 -9999 -9999 -9999 -9999 -9999 -9999 -9999 -9999 -9999 -9999 -9999 -9999 -9999 -9999 -9999 -9999 -9999 -9999
117.347 117.087 116.86 116.752 116.717 116.687 116.697 116.7 116.71 116.715 116.697 116.687 116.662 116.675 116.65 116.687 116.7 116.682 116.707 116.702 116.697 116.685 116.697 116.707 116.702 116.685 116.627 116.612 116.71 116.825 116.655 116.237 115.872 115.625 115.38 115.212 115.1 114.987 114.917 114.805 114.64 114.515 114.432 116.875 114.3 114.392 114.812 115.715 121.647 114.435 114.452 114.147 114.145 114.328 114.349 114.896 114.377 114.234 114.46 114.184 114.117 118.252 121.228 122.022 120.879 117.404 114.019 113.932 113.661 113.767 114.76 114.827 113.637 114.579 115.353 114.103 115.251 115.135 119.444 121.506 121.278 119.303 116.213 114.104 113.466 113.346 117.289 113.616 113.012 122.021 127.742 128.752 129.708 130.121 128.788 126.805 121.215 119.529 119.313 118.51 116.035 114.669 112.593 112.476 112.438 113.666 112.831 113.022 113.664 114.319 114.944 112.669 112.25 112.272 112.315 113.135 114.696 119.772 120.334 122.479 122.773 119.283 116.967 115.124 113.929 117.172 120.291 122.019 124.996 124.876 124.628 123.65 122.79 116.294 112.34 111.459 111.446 111.456 111.529 112.405 111.692 111.308 111.297 111.995 116.717 118.193 118.081 116.875 113.943 112.004 111.243 111.738 114.034 115.802 115.125 111.31 112.24 113.788 112.157 111.455 112.357 113.939 111.752 111.149 111.193 111.33 111.671 112.328 111.566 111.728 116.135 116.549 111.902 111.218 111.401 111.808 111.234 111.088 111.105 111.051 110.994 111.171 112.174 111.392 115.619 117.919 119.038 117.907 116.179 113.985 111.969 113.943 124.644 125.346 126.06 124.474 126.701 127.515 127.246 116.419 112.928 112.078 116.387 117.588 119.637 113.744 112.297 115.257 115.064 116.266 117.889 117.075 112.226 112.044 113.708 113.5 112.407 113.616 114.199 111.755 112.239 111.987 111.742 111.714 111.775 112.233 111.54 111.538 111.516 111.593 111.707 111.764 111.797 111.846 111.809 111.73 111.787 111.906 111.784 112.977 113.009 112.501 112.457 112.568 112.961 115.204 115.65 117.161 118.958 120.041 119.857 117.641 114.33 114.904 115.457 115.23 113.628 113.65 113.533 113.567 113.661 113.729 113.96 114.082 114.569 114.849 115.006 115.165 118.533 120.871 121.586 117.531 117.223 117.333 117.89 117.291 116.84 117.014 117.055 117.247 118.149 119.994 124.318 122.935 128.553 120.725 119.447 119.229 118.683 118.793 120.666 120.86 121.443 119.994 120.108 123.175 123.393 120.203 119.906 121.176 121.306 120.844 121.293 121.45 124.056 -9999 -9999 -9999 -9999 -9999 -9999 -9999 -9999 -9999 -9999 -9999 -9999 -9999 -9999 -9999 -9999 -9999 -9999 -9999 -9999 -9999 -9999 -9999 -9999 -9999 -9999 -9999 -9999 -9999 -9999 -9999 -9999 -9999 -9999 -9999 -9999 -9999 -9999 -9999 -9999 -9999 -9999 -9999 -9999 -9999 -9999 -9999 -9999 -9999 -9999 -9999 -9999 -9999 -9999 -9999 -9999 -9999 -9999 -9999 -9999 -9999 -9999 -9999 -9999 -9999 -9999 -9999 -9999 -9999 -9999 -9999 -9999 -9999 -9999 -9999 -9999 -9999 -9999 -9999 -9999 -9999 -9999 -9999 -9999 -9999 -9999 -9999 -9999 -9999 -9999 -9999 -9999 -9999 -9999 -9999 -9999 -9999 -9999 -9999 -9999 -9999 -9999 -9999 -9999 -9999 -9999 -9999 -9999 -9999 -9999 -9999 -9999 -9999 -9999 -9999 -9999 -9999 -9999 -9999 -9999 -9999 -9999 -9999 -9999 -9999 -9999 -9999 -9999 -9999 -9999 -9999 -9999 -9999 -9999 -9999 -9999 -9999 -9999 -9999 -9999 -9999 -9999 -9999 -9999 -9999 -9999 -9999 -9999 -9999 -9999 -9999 -9999 -9999 -9999 -9999 -9999 -9999 -9999 -9999 -9999 -9999
116.867 116.7 116.66 116.64 116.627 116.655 116.667 116.68 116.675 116.682 116.677 116.642 116.62 116.602 116.6 116.64 116.642 116.64 116.637 116.625 116.647 116.632 116.667 116.667 116.667 116.647 116.625 116.582 116.595 116.687 116.662 116.262 115.807 115.475 115.157 114.967 114.84 114.737 114.672 114.527 114.407 114.29 114.342 115.38 114.122 116.902 116.82 116.43 114.585 114.285 114.107 114.037 113.93 113.892 113.942 114.943 114.234 114.128 114.827 114.633 114.581 119.269 121.419 122.184 120.747 116.984 114.174 114.391 113.74 119.95 120.445 114.781 116.276 117.437 115.54 114.926 113.869 116.122 119.654 121.14 120.736 119.375 115.165 113.779 113.57 120.38 121.25 121.93 114.27 117.931 126.944 128.152 128.326 129.112 127.531 124.202 119.828 115.694 117.088 115.223 115.266 114.176 112.521 112.58 115.246 116.187 115.19 112.505 112.307 112.268 112.237 112.118 112.176 112.179 112.357 112.504 113.928 120.549 122.128 121.253 122.155 120.337 118.33 117.241 117.192 115.408 118.736 120.72 123.172 123.256 124.157 125.02 126.722 123.6 120.366 112.001 111.421 111.326 111.375 111.942 111.676 111.355 111.297 111.672 114.197 117.184 118.45 117.5 116.15 112.066 117.117 116.475 116.203 116.582 115.314 111.432 111.231 113.32 111.847 111.13 111.086 111.705 111.092 111.334 111.684 112.589 111.466 112.178 115.592 117.079 117.613 117.435 114.355 111.269 111.202 112.205 111.155 111.068 111.063 111.052 111.191 111.42 111.397 111.396 113.005 117.267 118.981 118.999 117.114 114.13 113.429 122.273 124.961 124.235 124.38 124.305 126.691 127.88 126.918 117.84 113.472 115.305 117.521 117.399 118.42 117.818 111.949 114.24 115.738 114.067 117.326 112.615 111.859 111.809 113.451 112.105 111.325 111.688 112.295 112.2 112.205 112.307 111.762 111.619 111.53 111.487 111.42 111.398 111.395 111.556 111.665 111.695 111.689 111.69 111.644 111.63 111.795 111.736 111.869 113.088 113.062 113.146 112.48 112.52 112.783 114.105 115.096 113.167 113.635 117.571 118.52 113.57 114.072 114.052 114.151 113.338 113.71 114.803 114.431 113.507 113.653 113.654 113.706 113.958 114.28 114.505 115.135 119.695 121.377 122.474 122.341 121.151 117.264 116.243 116.896 116.621 116.8 117.161 117.017 120.451 121.301 120.189 124.525 124.37 121.426 118.761 118.798 118.683 118.65 118.669 120.408 120.825 119.89 119.442 120.194 119.795 120.594 120.128 121.087 121.693 121.261 121.014 125.894 127.064 127.192 128.215 -9999 -9999 -9999 -9999 -9999 -9999 -9999 -9999 -9999 -9999 -9999 -9999 -9999 -9999 -9999 -9999 -9999 -9999 -9999 -9999 -9999 -9999 -9999 -9999 -9999 -9999 -9999 -9999 -9999 -9999 -9999 -9999 -9999 -9999 -9999 -9999 -9999 -9999 -9999 -9999 -9999 -9999 -9999 -9999 -9999 -9999 -9999 -9999 -9999 -9999 -9999 -9999 -9999 -9999 -9999 -9999 -9999 -9999 -9999 -9999 -9999 -9999 -9999 -9999 -9999 -9999 -9999 -9999 -9999 -9999 -9999 -9999 -9999 -9999 -9999 -9999 -9999 -9999 -9999 -9999 -9999 -9999 -9999 -9999 -9999 -9999 -9999 -9999 -9999 -9999 -9999 -9999 -9999 -9999 -9999 -9999 -9999 -9999 -9999 -9999 -9999 -9999 -9999 -9999 -9999 -9999 -9999 -9999 -9999 -9999 -9999 -9999 -9999 -9999 -9999 -9999 -9999 -9999 -9999 -9999 -9999 -9999 -9999 -9999 -9999 -9999 -9999 -9999 -9999 -9999 -9999 -9999 -9999 -9999 -9999 -9999 -9999 -9999 -9999 -9999 -9999 -9999 -9999 -9999 -9999 -9999 -9999 -9999 -9999 -9999 -9999 -9999 -9999 -9999 -9999 -9999 -9999 -9999 -9999 -9999
116.61 116.582 116.575 116.597 116.592 116.637 116.632 116.632 116.647 116.632 116.622 116.617 116.582 116.575 116.57 116.592 116.6 116.602 116.585 116.56 116.605 116.595 116.6 116.612 116.585 116.582 116.597 116.565 116.532 116.565 116.582 116.317 115.835 115.427 115.01 114.722 114.592 114.512 114.405 114.292 114.205 114.112 114.055 114.007 114.055 114.702 114.625 114.515 114.277 114.12 114.042 113.962 113.857 113.862 113.838 113.882 113.887 113.906 113.938 113.978 114.216 118.847 121.635 122.257 120.618 116.552 114.156 114.907 118.667 120.103 119.467 114.235 113.354 113.827 114.003 113.766 113.444 116.585 119.446 120.05 119.996 119.254 114.391 113.337 113.079 118.688 120.704 119.765 114.075 115.274 121.558 125.531 126.036 123.658 118.729 115.664 113.801 113.528 113.401 112.851 112.531 112.52 112.573 117.506 119 118.682 118.437 117.113 112.747 112.714 112.427 112.055 112.117 112.096 112.279 112.417 115.309 119.166 120.478 120.109 115.532 117.113 116.079 114.582 117.577 117.822 119.012 119.547 120.409 122.506 125.077 126.844 127.093 127.042 123.124 113.42 111.342 111.314 111.239 111.346 112.798 111.535 112.694 114.247 114.166 116.691 118.049 118.616 117.035 115.422 118.499 119.652 114.332 114.471 113.009 112.439 111.754 111.532 113.484 112.718 113.015 111.241 112.709 112.526 113.269 113.203 111.519 113.551 117.014 117.93 118.343 117.868 116.642 112.351 112.047 112.103 111.222 111.634 110.991 110.986 111.143 112.057 111.171 112.315 112.361 115.663 118.037 118.779 117.585 115.128 113.105 121.219 123.034 124.406 124.184 123.526 121.734 121.576 117.871 114.25 113.582 115.051 117.769 118.875 119.727 118.748 111.585 112.757 115.04 112.199 112.856 111.81 111.788 111.701 111.682 111.505 111.171 114.291 114.321 111.489 111.433 111.607 111.608 111.461 116.355 114.831 111.408 111.252 111.338 111.469 111.567 111.62 111.589 111.604 111.487 111.667 111.66 111.451 111.354 111.465 112.121 114.765 112.608 112.512 112.59 113.59 112.73 112.617 112.434 113.656 113.283 112.767 113.099 114.311 115.945 113.603 115.803 116.531 114.05 113.652 113.616 113.651 113.623 113.865 114.122 115.261 114.904 119.173 121.723 122.895 123.23 122.075 120.409 116.198 116.446 118.423 118.487 118.799 119.441 120.748 120.88 120.214 119.828 120.604 118.594 118.443 118.408 118.883 118.603 118.648 119.687 119.008 119.087 119.847 123.067 123.728 124.756 125.411 125.665 125.133 120.467 121.366 125.86 127.676 128.472 129.251 128.949 128.012 -9999 121.766 -9999 -9999 -9999 -9999 -9999 -9999 -9999 -9999 -9999 -9999 -9999 -9999 -9999 -9999 -9999 -9999 -9999 -9999 -9999 -9999 -9999 -9999 -9999 -9999 -9999 -9999 -9999 -9999 -9999 -9999 -9999 -9999 -9999 -9999 -9999 -9999 -9999 -9999 -9999 -9999 -9999 -9999 -9999 -9999 -9999 -9999 -9999 -9999 -9999 -9999 -9999 -9999 -9999 -9999 -9999 -9999 -9999 -9999 -9999 -9999 -9999 -9999 -9999 -9999 -9999 -9999 -9999 -9999 -9999 -9999 -9999 -9999 -9999 -9999 -9999 -9999 -9999 -9999 -9999 -9999 -9999 -9999 -9999 -9999 -9999 -9999 -9999 -9999 -9999 -9999 -9999 -9999 -9999 -9999 -9999 -9999 -9999 -9999 -9999 -9999 -9999 -9999 -9999 -9999 -9999 -9999 -9999 -9999 -9999 -9999 -9999 -9999 -9999 -9999 -9999 -9999 -9999 -9999 -9999 -9999 -9999 -9999 -9999 -9999 -9999 -9999 -9999 -9999 -9999 -9999 -9999 -9999 -9999 -9999 -9999 -9999 -9999 -9999 -9999 -9999 -9999 -9999 -9999 -9999 -9999 -9999 -9999 -9999 -9999 -9999 -9999 -9999 -9999 -9999 -9999 -9999
116.527 116.512 116.545 116.562 116.567 116.582 116.58 116.602 116.607 116.582 116.58 116.557 116.55 116.547 116.542 116.555 116.542 116.552 116.54 116.53 116.545 116.527 116.515 116.545 116.515 116.537 116.54 116.552 116.495 116.505 116.517 116.385 115.955 115.472 115.002 114.6 114.387 114.247 114.157 114.085 114 113.95 113.96 113.907 113.992 114.657 114.302 114.11 113.997 114.027 113.907 113.837 113.755 113.797 113.757 113.785 113.806 113.809 113.851 114.201 118.525 120.121 121.531 121.769 120.299 115.257 113.927 113.774 115.11 120.258 117.669 113.289 113.193 113.234 113.335 113.479 114.455 114.216 115.415 115.138 118.447 115.998 113.457 113.92 113.042 113.94 113.82 114.257 112.823 113.077 117.448 120.344 118.532 122.255 113.927 113.095 113.496 113.62 113.452 112.633 112.507 112.539 112.891 117.887 119.517 120.228 118.782 117.032 112.51 112.445 112.239 112.04 112.097 112.158 112.257 112.27 112.956 114.968 112.367 117.531 113.5 117.771 120.286 118.429 117.522 119.332 118.321 118.429 123.778 125.206 126.341 125.742 126.654 126.09 122.213 112.188 111.363 111.237 111.241 112.184 111.583 113.059 111.917 111.724 111.576 112.849 117.167 118.557 115.98 112.746 115.386 114.34 115.194 113.39 113.239 111.485 110.971 111.334 113.725 113.126 113.113 113.525 113.139 112.981 112.932 112.242 111.29 112.384 114.237 117.572 118.591 118.496 117.084 115.102 111.461 111 111.542 111.648 111.337 110.943 110.862 110.786 110.785 111.769 111.294 113.892 117.525 117.426 113.526 113.059 111.518 113.374 113.089 121.111 119.162 117.369 119.874 119.667 115.758 113.68 115.426 112.356 117.519 120.091 120.803 118.317 116.134 111.512 114.705 114.9 113.699 111.847 111.644 111.635 111.469 111.381 114.116 117.583 117.19 116.134 111.513 111.342 111.412 111.284 112.856 113.466 111.486 111.268 111.33 111.438 111.485 111.489 111.482 111.43 111.506 111.619 112.726 111.364 111.359 111.48 111.199 112.432 112.414 112.514 114.468 112.862 112.368 112.373 112.593 113.318 113.006 113.634 117.614 117.228 118.647 118.232 114.366 116.52 114.231 113.729 113.56 113.595 113.669 113.855 113.983 115.735 115.095 115.603 120.868 123.207 123.204 122.609 121.403 116.303 115.614 118.81 119.037 119.377 120.258 119.57 117.947 119.524 119.423 120.129 119.429 118.303 118.351 118.742 119.096 118.655 120.251 119.39 118.797 119.382 125.832 126.547 126.177 126.9 126.802 125.906 121.43 121.015 124.46 127.562 128.446 128.267 127.836 127.348 125.313 121.232 121.333 -9999 -9999 -9999 -9999 -9999 -9999 -9999 -9999 -9999 -9999 -9999 -9999 -9999 -9999 -9999 -9999 -9999 -9999 -9999 -9999 -9999 -9999 -9999 -9999 -9999 -9999 -9999 -9999 -9999 -9999 -9999 -9999 -9999 -9999 -9999 -9999 -9999 -9999 -9999 -9999 -9999 -9999 -9999 -9999 -9999 -9999 -9999 -9999 -9999 -9999 -9999 -9999 -9999 -9999 -9999 -9999 -9999 -9999 -9999 -9999 -9999 -9999 -9999 -9999 -9999 -9999 -9999 -9999 -9999 -9999 -9999 -9999 -9999 -9999 -9999 -9999 -9999 -9999 -9999 -9999 -9999 -9999 -9999 -9999 -9999 -9999 -9999 -9999 -9999 -9999 -9999 -9999 -9999 -9999 -9999 -9999 -9999 -9999 -9999 -9999 -9999 -9999 -9999 -9999 -9999 -9999 -9999 -9999 -9999 -9999 -9999 -9999 -9999 -9999 -9999 -9999 -9999 -9999 -9999 -9999 -9999 -9999 -9999 -9999 -9999 -9999 -9999 -9999 -9999 -9999 -9999 -9999 -9999 -9999 -9999 -9999 -9999 -9999 -9999 -9999 -9999 -9999 -9999 -9999 -9999 -9999 -9999 -9999 -9999 -9999 -9999 -9999 -9999 -9999 -9999
116.485 116.487 116.515 116.525 116.525 116.532 116.527 116.552 116.565 116.56 116.547 116.535 116.525 116.51 116.487 116.51 116.48 116.505 116.505 116.482 116.465 116.455 116.44 116.445 116.467 116.515 116.535 116.505 116.455 116.46 116.475 116.39 116.105 115.585 115.092 114.58 114.26 114.072 113.99 113.912 113.825 113.787 113.802 113.825 113.995 114.29 115.805 115.825 114.04 113.94 113.895 113.8 113.66 115.6 115.717 115.867 115.577 115.959 115.921 114.341 119.228 119.918 120.136 120.354 120.193 116.145 113.849 113.924 113.8 114.758 114.619 113.195 113.124 113.183 113.209 113.391 113.499 113.059 113.059 113.109 113.164 113.503 113.57 114.645 114.955 114.21 113.656 114.919 114.608 118.037 119.022 119.265 124.286 122.914 118.912 113.972 113.63 113.671 114.105 113.747 112.727 114.743 113.713 118.159 120.825 120.272 118.804 115.375 113.327 112.762 112.184 111.943 112.007 112.349 112.963 112.432 113.724 116.171 115.135 114.154 116.391 118.374 120.452 119.048 118.486 118.865 119.51 118.73 123.032 124.525 125.722 125.332 125.207 122.512 116.698 113.085 111.544 112.042 113.149 111.507 111.722 111.551 112.505 111.263 111.473 111.75 114.249 112.473 111.889 111.043 111.109 112.549 112.381 111.49 110.807 110.852 110.931 111.338 111.586 114.88 112.538 111.777 111.481 111.729 110.935 110.995 112.471 113.025 113.484 116.796 118.006 118.696 117.663 115.731 111.304 110.884 111.064 110.761 110.745 110.797 110.816 110.743 110.645 110.807 111.558 111.602 115.19 113.003 112.212 111.667 115.947 112.896 111.001 111.289 111.974 116.341 118.894 118.769 118.445 115.371 115.919 111.202 111.774 118.025 119.905 116.662 115.11 111.816 112.647 115.089 112.177 111.437 111.424 111.53 111.232 112.049 117.112 118.196 117.87 115.561 111.634 111.128 111.159 111.181 111.117 111.122 111.121 111.149 111.296 111.325 111.379 111.394 111.267 111.331 111.561 111.868 111.231 111.14 112.046 111.011 111.137 111.96 112.456 114.243 114.994 115.518 112.962 114.288 114.47 114.482 113.77 117.944 118.541 119.373 119.894 118.53 116.557 114.597 113.842 113.768 113.645 113.61 113.636 113.741 113.997 114.094 114.954 115.059 117.643 121.112 122.398 122.183 121.537 117.543 115.253 117.699 120.172 119.375 118.684 118.487 117.241 118.687 119.77 119.537 118.119 118.09 118.277 121.058 123.222 124.069 124.506 123.067 118.571 119.6 124.623 127.062 128.033 128.095 127.35 126.097 123.615 120.743 123.822 126.918 126.967 126.669 126.484 123.672 122.865 120.983 121.504 121.8 -9999 -9999 -9999 -9999 -9999 -9999 -9999 -9999 -9999 -9999 -9999 -9999 -9999 -9999 -9999 -9999 -9999 -9999 -9999 -9999 -9999 -9999 -9999 -9999 -9999 -9999 -9999 -9999 -9999 -9999 -9999 -9999 -9999 -9999 -9999 -9999 -9999 -9999 -9999 -9999 -9999 -9999 -9999 -9999 -9999 -9999 -9999 -9999 -9999 -9999 -9999 -9999 -9999 -9999 -9999 -9999 -9999 -9999 -9999 -9999 -9999 -9999 -9999 -9999 -9999 -9999 -9999 -9999 -9999 -9999 -9999 -9999 -9999 -9999 -9999 -9999 -9999 -9999 -9999 -9999 -9999 -9999 -9999 -9999 -9999 -9999 -9999 -9999 -9999 -9999 -9999 -9999 -9999 -9999 -9999 -9999 -9999 -9999 -9999 -9999 -9999 -9999 -9999 -9999 -9999 -9999 -9999 -9999 -9999 -9999 -9999 -9999 -9999 -9999 -9999 -9999 -9999 -9999 -9999 -9999 -9999 -9999 -9999 -9999 -9999 -9999 -9999 -9999 -9999 -9999 -9999 -9999 -9999 -9999 -9999 -9999 -9999 -9999 -9999 -9999 -9999 -9999 -9999 -9999 -9999 -9999 -9999 -9999 -9999 -9999 -9999 -9999 -9999 -9999
116.447 116.455 116.475 116.487 116.507 116.507 116.495 116.53 116.535 116.515 116.51 116.505 116.49 116.487 116.452 116.455 116.462 116.475 116.455 116.437 116.415 116.402 116.415 116.405 116.455 116.462 116.462 116.46 116.41 116.412 116.412 116.392 116.175 115.717 115.197 114.652 114.192 113.965 113.837 113.782 113.7 113.747 113.737 113.787 114.045 113.862 114.037 115.122 114.282 113.775 113.77 113.802 113.602 114.597 114.707 115.207 115.85 116.093 116.229 114.363 113.92 114.25 114.25 114.335 113.932 113.846 113.42 113.324 113.209 113.076 113.114 113.102 114.254 114.236 114.375 113.304 113.281 113.276 115.568 116.602 113.942 116.25 114.382 113.673 113.102 113.549 113.417 115.917 116.497 119.495 119.128 115.26 121.1 121.215 115.32 112.956 113.014 113.774 112.805 112.641 112.911 112.535 112.914 118.167 120.296 120.817 118.778 114.368 112.564 112.572 112.177 111.951 111.948 111.93 112.298 112.336 112.227 112.918 112.724 112.098 113.841 115.728 119.574 122.639 122.144 116.235 117.199 117.567 121.375 124.2 124.999 124.718 124.324 123.651 121.507 118.467 117.34 113.333 116.626 113.26 111.273 111.102 111.698 111.585 111.275 112.174 111.741 111.246 111.519 116.261 115.878 113.933 111.664 110.836 110.837 110.854 110.91 112.418 113.026 114.277 111.98 111.244 111.043 110.969 110.977 112.078 112.479 112.905 112.984 113.196 117.327 118.088 117.527 116.786 113.058 110.846 110.857 110.692 110.608 110.67 110.723 110.643 110.559 110.672 111.912 110.967 110.931 111.152 116.934 117.121 117.279 115.999 111.147 111.005 111.086 114.174 116.312 117.511 120.744 120.955 113.558 114.003 117.983 121.673 121.002 113.492 113.925 113.661 111.403 114.687 114.767 111.525 112.985 113.202 112.146 116.952 117.769 118.321 117.119 111.843 111.076 111.097 111.076 111.042 110.929 110.928 111.011 111.12 111.192 111.215 111.23 111.198 111.219 111.317 112.408 111.667 111.044 110.907 112.164 112.123 110.908 111.49 113.484 114.168 115.134 113.337 112.97 114.437 114.459 114.5 113.113 114.134 118.824 120.555 120.765 119.597 118.433 113.583 113.28 114.024 113.76 113.617 113.628 113.683 113.856 114.031 114.269 114.727 115.169 119.53 121.482 120.878 119.42 116.327 115.397 118.33 121.47 118.266 118.584 120.57 117.969 118.116 119.235 117.643 117.835 119.775 123.34 124.576 125.118 125.519 125.483 123.965 118.836 119.014 123.937 126.586 126.794 126.5 126.156 125.865 123.112 121.034 121.732 122.954 124.3 122.769 122.543 121.119 121.603 120.954 121.721 121.527 121.496 -9999 -9999 -9999 -9999 -9999 -9999 -9999 -9999 -9999 -9999 -9999 -9999 -9999 -9999 -9999 -9999 -9999 -9999 -9999 -9999 -9999 -9999 -9999 -9999 -9999 -9999 -9999 -9999 -9999 -9999 -9999 -9999 -9999 -9999 -9999 -9999 -9999 -9999 -9999 -9999 -9999 -9999 -9999 -9999 -9999 -9999 -9999 -9999 -9999 -9999 -9999 -9999 -9999 -9999 -9999 -9999 -9999 -9999 -9999 -9999 -9999 -9999 -9999 -9999 -9999 -9999 -9999 -9999 -9999 -9999 -9999 -9999 -9999 -9999 -9999 -9999 -9999 -9999 -9999 -9999 -9999 -9999 -9999 -9999 -9999 -9999 -9999 -9999 -9999 -9999 -9999 -9999 -9999 -9999 -9999 -9999 -9999 -9999 -9999 -9999 -9999 -9999 -9999 -9999 -9999 -9999 -9999 -9999 -9999 -9999 -9999 -9999 -9999 -9999 -9999 -9999 -9999 -9999 -9999 -9999 -9999 -9999 -9999 -9999 -9999 -9999 -9999 -9999 -9999 -9999 -9999 -9999 -9999 -9999 -9999 -9999 -9999 -9999 -9999 -9999 -9999 -9999 -9999 -9999 -9999 -9999 -9999 -9999 -9999 -9999 -9999 -9999 -9999
116.412 116.42 116.427 116.43 116.45 116.452 116.452 116.49 116.49 116.487 116.492 116.467 116.48 116.447 116.437 116.457 116.45 116.44 116.415 116.407 116.402 116.405 116.402 116.397 116.395 116.387 116.4 116.4 116.355 116.362 116.355 116.367 116.275 115.897 115.352 114.752 114.222 113.87 113.7 113.635 113.58 113.627 113.735 113.73 114.207 113.717 115.577 114.695 114.07 114.705 113.63 113.507 113.482 113.48 113.435 113.33 113.31 113.597 115.619 115.217 113.128 113.129 113.167 113.158 113.375 113.3 113.2 113.147 113.147 113.329 113.178 112.98 114.032 113.928 115.309 114.29 112.871 116.835 118.898 119.341 119.076 118.243 115.794 113.701 112.845 113.124 115.538 113.717 114.211 112.98 113.242 114.351 115.261 116.428 112.879 112.586 113.94 112.446 112.599 112.394 112.374 112.341 112.417 118.37 119.789 120.019 118.504 113.904 112.371 115.807 115.081 111.899 113.86 111.871 111.842 111.915 112.097 112.071 112.057 112.248 114.428 114.421 116.299 120.255 121.451 114.517 113.196 112.625 115.778 124.082 124.655 123.055 122.96 123.178 123.476 124.329 124.643 121.545 121.104 117.463 117.039 111.395 111.302 111.221 111.403 111.025 110.894 113.273 116.325 117.963 116.623 114.414 113.148 110.867 110.84 111.513 112.559 113.671 112.218 112.66 111.395 110.97 111.037 110.971 111.646 113.478 111.979 111.21 110.901 113.346 116.909 114.356 116.232 112.012 111.031 111.196 111.214 110.824 110.631 110.524 110.582 110.588 110.437 110.47 111.5 112.256 111.251 116.164 117.627 118.881 118.465 116.804 111.193 110.9 111.027 111.122 114.494 116.699 120.527 120.972 117.854 115.37 119.506 121.928 121.636 118.865 119.015 119.037 118.342 112.748 114.907 112.866 111.947 112.834 115.805 117.39 118.589 117.267 113.71 111.059 110.994 111.068 111.066 111.003 110.894 110.874 111.003 111.086 111.257 111.132 111.15 111.08 111.123 112.388 112.287 111.103 111.087 111.124 111.581 111.633 111.158 111.948 113.114 116.478 113.694 115.045 113.839 114.044 114.453 114.092 112.701 115.346 118.348 119.705 120.929 120.416 119.232 114.771 113.366 113.69 113.735 113.636 113.604 113.702 113.719 113.971 114.013 114.602 114.828 115.065 118.999 117.334 116.043 116.797 118.129 118.735 117.749 116.597 121.51 123.822 119.591 117.151 119.168 116.966 117.557 120.361 124.728 125.868 126.621 126.655 125.8 124.595 120.117 119.048 120.763 125.535 125.614 122.645 122.232 121.742 120.705 120.517 120.674 120.455 121.934 120.673 122.427 121.328 121.616 121 121.28 121.388 121.459 121.586 121.57 -9999 -9999 -9999 -9999 -9999 -9999 -9999 -9999 -9999 -9999 -9999 -9999 -9999 -9999 -9999 -9999 -9999 -9999 -9999 -9999 -9999 -9999 -9999 -9999 -9999 -9999 -9999 -9999 -9999 -9999 -9999 -9999 -9999 -9999 -9999 -9999 -9999 -9999 -9999 -9999 -9999 -9999 -9999 -9999 -9999 -9999 -9999 -9999 -9999 -9999 -9999 -9999 -9999 -9999 -9999 -9999 -9999 -9999 -9999 -9999 -9999 -9999 -9999 -9999 -9999 -9999 -9999 -9999 -9999 -9999 -9999 -9999 -9999 -9999 -9999 -9999 -9999 -9999 -9999 -9999 -9999 -9999 -9999 -9999 -9999 -9999 -9999 -9999 -9999 -9999 -9999 -9999 -9999 -9999 -9999 -9999 -9999 -9999 -9999 -9999 -9999 -9999 -9999 -9999 -9999 -9999 -9999 -9999 -9999 -9999 -9999 -9999 -9999 -9999 -9999 -9999 -9999 -9999 -9999 -9999 -9999 -9999 -9999 -9999 -9999 -9999 -9999 -9999 -9999 -9999 -9999 -9999 -9999 -9999 -9999 -9999 -9999 -9999 -9999 -9999 -9999 -9999 -9999 -9999 -9999 -9999 -9999 -9999 -9999 -9999 -9999
116.392 116.37 116.38 116.375 116.405 116.412 116.415 116.457 116.45 116.445 116.45 116.437 116.43 116.44 116.435 116.397 116.375 116.385 116.39 116.372 116.375 116.365 116.357 116.345 116.332 116.322 116.337 116.34 116.312 116.322 116.325 116.32 116.272 116.032 115.517 114.912 114.295 113.837 113.595 113.507 113.757 113.527 113.555 113.725 114.355 113.652 113.507 113.517 115.18 114.742 113.452 114.88 113.425 113.395 113.3 113.24 113.292 113.307 113.882 113.924 114.596 118.623 118.768 118.755 118.276 113.434 113.584 113.417 113.108 113.373 113.099 112.893 113.449 113.407 113.665 113.658 112.857 117.567 119.324 120.636 119.915 117.915 115.817 114.756 113.24 115.985 116.429 114.682 114.821 113.964 112.859 113.178 114.834 113.894 112.528 112.425 112.409 112.399 112.378 112.478 112.391 112.364 112.431 118.202 118.463 118.527 118.231 113.554 112.089 115.588 114.541 111.817 113.871 116.833 112.916 113.192 112.054 112.014 114.675 115.133 116.076 114.022 115.871 116.822 114.342 113.02 112.919 112.282 114.498 116.412 124.516 123.34 124.632 125.255 124.579 125.325 125.255 123.696 124.091 124.277 121.203 119.758 111.113 110.88 110.927 110.843 110.813 111.558 115.486 118.601 117.61 115.422 113.675 111.53 112.26 112.116 112.032 111.237 110.91 113.142 111.652 111.008 110.982 111.466 110.796 110.896 110.891 112.197 111.917 112.155 114.131 111.753 110.819 110.577 111.278 111.238 110.721 110.871 110.822 110.524 110.505 110.491 110.418 110.379 110.55 111.086 111.066 114.396 117.276 117.955 117.406 116.271 111.366 110.801 111.056 112.366 113.375 115.115 118.799 116.389 118.549 116.087 120.269 120.782 120.211 119.349 119.839 118.822 115.895 112.195 113.471 114.83 111.131 111.244 115.825 116.807 117.858 116.818 111.348 110.881 110.79 111.057 111.262 110.956 110.774 110.831 110.947 111.031 111.027 110.999 110.952 111.029 111.389 111.939 111.294 111.027 110.955 111.033 110.772 110.958 111.289 112.124 112.593 114.086 115.241 114.877 112.91 112.229 113.868 112.512 112.76 114.285 116.27 118.554 119.967 120.361 119.644 118.144 114.158 113.612 113.691 113.682 113.611 113.681 113.713 113.714 114.001 114.255 114.816 115.557 114.905 116.82 117.229 117.25 117.154 118.417 118.505 117.134 118.475 119.756 121.218 122.391 122.707 119.44 117.331 118.036 122.949 125.795 126.083 125.631 124.8 124.674 120.246 118.592 119.977 120.193 120.191 121.479 120.177 119.812 120.149 119.687 120.068 121.451 120.651 121.102 123.817 121.802 121.11 120.935 121.134 121.181 121.274 121.483 121.547 121.637 -9999 -9999 -9999 -9999 -9999 -9999 -9999 -9999 -9999 -9999 -9999 -9999 -9999 -9999 -9999 -9999 -9999 -9999 -9999 -9999 -9999 -9999 -9999 -9999 -9999 -9999 -9999 -9999 -9999 -9999 -9999 -9999 -9999 -9999 -9999 -9999 -9999 -9999 -9999 -9999 -9999 -9999 -9999 -9999 -9999 -9999 -9999 -9999 -9999 -9999 -9999 -9999 -9999 -9999 -9999 -9999 -9999 -9999 -9999 -9999 -9999 -9999 -9999 -9999 -9999 -9999 -9999 -9999 -9999 -9999 -9999 -9999 -9999 -9999 -9999 -9999 -9999 -9999 -9999 -9999 -9999 -9999 -9999 -9999 -9999 -9999 -9999 -9999 -9999 -9999 -9999 -9999 -9999 -9999 -9999 -9999 -9999 -9999 -9999 -9999 -9999 -9999 -9999 -9999 -9999 -9999 -9999 -9999 -9999 -9999 -9999 -9999 -9999 -9999 -9999 -9999 -9999 -9999 -9999 -9999 -9999 -9999 -9999 -9999 -9999 -9999 -9999 -9999 -9999 -9999 -9999 -9999 -9999 -9999 -9999 -9999 -9999 -9999 -9999 -9999 -9999 -9999 -9999 -9999 -9999 -9999 -9999 -9999 -9999 -9999
116.33 116.33 116.327 116.32 116.36 116.365 116.385 116.395 116.39 116.397 116.407 116.4 116.415 116.395 116.392 116.367 116.365 116.387 116.35 116.355 116.335 116.327 116.332 116.307 116.317 116.272 116.282 116.28 116.26 116.267 116.247 116.267 116.242 116.112 115.657 115.047 114.385 113.865 113.53 113.407 113.44 113.415 113.47 113.662 114.06 113.542 113.65 113.4 113.432 113.412 113.395 113.392 113.38 113.635 113.13 113.105 113.105 113.112 113.115 113.22 114.489 119.63 120.448 120.162 118.813 113.71 113.323 114.135 114.607 115.291 113.703 112.808 112.663 112.734 114.08 113.154 112.918 116.111 119.527 120.836 120.635 115.853 115.209 115.352 114.834 115.699 115.59 113.927 114.101 113.307 112.737 114.243 113.935 113.535 112.758 112.434 112.364 112.425 112.445 113.55 113.915 114.1 112.638 114.916 113.261 113.233 113.171 112.048 111.951 112.5 111.95 111.622 111.717 115.483 116.759 113.438 111.954 111.916 112.392 112.576 117.857 116.981 114.067 114.894 112.843 115.319 112.936 112.473 112.944 120.942 120.945 124.101 125.44 127.198 127.184 126.342 125.642 126.12 126.751 126.772 123.838 119.738 111.302 110.825 110.844 110.928 110.814 111.2 113.852 117.551 118.026 116.71 113.943 112.6 110.892 110.581 110.501 110.528 112.058 113.553 114.065 112.742 110.957 110.604 111.978 113.757 114.69 113.219 113.226 111.968 111.417 110.537 112.296 114.706 115.867 114.909 110.608 110.492 111.054 110.519 110.364 110.392 110.408 110.248 110.484 110.828 110.868 111.275 116.258 116.219 114.204 112.479 110.768 110.997 112.379 113.415 113.742 113.566 113.177 111.72 114.804 117.429 118.52 120.986 122.238 119.079 118.892 117.778 111.524 111.43 111.448 114.936 112.569 110.819 110.978 112.031 115.155 113.316 110.93 110.858 110.847 111.461 110.731 111.546 110.713 110.849 110.892 111.082 110.884 110.881 110.843 110.899 112.112 111.596 111.138 110.88 110.877 110.758 110.721 110.659 110.662 111.308 112.117 112.114 112.043 113.708 111.524 111.763 112.193 113.11 114.243 112.852 112.639 115.87 119.306 118.768 116.155 113.902 113.093 113.326 113.601 113.709 113.681 113.615 113.659 113.735 113.854 113.943 114.121 114.692 114.838 116.08 117.02 116.777 115.605 116.829 116.624 117.28 118.529 122.451 122.916 123.508 123.723 121.007 117.012 117.681 119.852 124.613 124.741 123.481 120.899 122.044 118.658 118.733 119.226 119.234 119.197 119.613 120.771 119.788 119.606 119.607 119.804 121.071 120.797 121.671 122.875 122.641 120.762 120.763 120.953 121.092 121.251 121.464 121.616 121.684 121.803 -9999 -9999 -9999 -9999 -9999 -9999 -9999 -9999 -9999 -9999 -9999 -9999 -9999 -9999 -9999 -9999 -9999 -9999 -9999 -9999 -9999 -9999 -9999 -9999 -9999 -9999 -9999 -9999 -9999 -9999 -9999 -9999 -9999 -9999 -9999 -9999 -9999 -9999 -9999 -9999 -9999 -9999 -9999 -9999 -9999 -9999 -9999 -9999 -9999 -9999 -9999 -9999 -9999 -9999 -9999 -9999 -9999 -9999 -9999 -9999 -9999 -9999 -9999 -9999 -9999 -9999 -9999 -9999 -9999 -9999 -9999 -9999 -9999 -9999 -9999 -9999 -9999 -9999 -9999 -9999 -9999 -9999 -9999 -9999 -9999 -9999 -9999 -9999 -9999 -9999 -9999 -9999 -9999 -9999 -9999 -9999 -9999 -9999 -9999 -9999 -9999 -9999 -9999 -9999 -9999 -9999 -9999 -9999 -9999 -9999 -9999 -9999 -9999 -9999 -9999 -9999 -9999 -9999 -9999 -9999 -9999 -9999 -9999 -9999 -9999 -9999 -9999 -9999 -9999 -9999 -9999 -9999 -9999 -9999 -9999 -9999 -9999 -9999 -9999 -9999 -9999 -9999 -9999 -9999 -9999 -9999 -9999 -9999 -9999
116.297 116.297 116.302 116.282 116.312 116.32 116.355 116.357 116.347 116.367 116.352 116.367 116.37 116.345 116.345 116.345 116.335 116.337 116.315 116.312 116.29 116.305 116.287 116.27 116.272 116.235 116.227 116.222 116.237 116.222 116.197 116.207 116.175 116.132 115.747 115.137 114.515 113.895 113.465 113.317 113.3 113.37 114.417 113.837 113.76 113.447 113.402 113.365 113.395 113.375 113.347 113.352 113.332 113.595 113.035 113.022 113.025 113.057 113.07 113.345 114.944 119.643 121.193 120.378 118.803 113.286 113.41 113.816 113.959 116.371 112.906 112.728 112.597 112.691 114.84 117.03 113.977 115.312 119.009 121.06 120.265 118.241 115.639 115.633 114.058 115.347 114.445 115.518 113.444 112.564 112.692 114.101 114.594 113.962 116.643 115.135 112.521 112.459 112.697 114.515 114.519 114.519 112.617 112.317 112.089 112.378 111.767 111.921 112.849 112.212 111.704 111.596 111.615 114.828 112.871 112.16 111.784 111.716 111.759 115.824 118.156 118.8 117.012 116.559 113.307 117.574 115.923 112.064 117.512 115.849 112.686 113.704 124.332 127.142 126.459 126.717 125.813 126.962 127 127.084 124.962 115.584 110.83 110.786 110.769 111.229 110.852 110.771 112.352 116.933 117.757 117.516 115.786 113.806 110.951 111.139 110.685 111.675 112.619 112.354 113.044 112.684 111.026 111.07 116.469 117.05 117.431 116.825 111.821 110.932 112.465 114.437 115.829 116.697 117.262 116.348 111.717 110.446 110.519 110.801 110.421 110.27 110.339 110.307 110.29 110.493 111.983 112.279 111.715 113.43 111.733 111.923 111.794 111.278 113.227 114.31 114.799 115.703 112.238 111.701 114.152 116.817 118.079 121.403 120.507 113.66 116.598 113.771 110.686 110.913 112.302 115.022 114.849 110.937 110.881 110.883 110.904 110.835 110.886 110.753 111.033 110.82 110.589 110.555 110.658 110.745 110.804 110.771 110.762 110.745 110.728 111.091 111.645 111.143 110.777 110.754 110.781 110.705 110.599 110.925 111.433 110.527 110.946 111.015 113.675 113.183 111.443 111.91 112.085 113.176 112.236 112.26 112.474 112.978 118.04 113.768 112.64 112.755 113.254 113.501 113.458 113.795 113.74 113.667 113.607 113.758 113.769 113.834 113.966 114.233 114.655 117.319 115.423 115.374 115.136 116.609 116.719 120.096 122.839 123.853 124.434 124.494 124.52 123.004 120.645 117.477 118.742 122.36 120.705 118.258 118.99 118.577 118.518 118.325 118.92 118.751 120.183 122.433 121.52 120.398 119.877 119.512 119.673 119.826 119.927 120.055 120.343 120.84 120.595 120.75 120.878 121.034 121.289 121.433 121.558 121.747 121.912 122.199 -9999 -9999 -9999 -9999 -9999 -9999 -9999 -9999 -9999 -9999 -9999 -9999 -9999 -9999 -9999 -9999 -9999 -9999 -9999 -9999 -9999 -9999 -9999 -9999 -9999 -9999 -9999 -9999 -9999 -9999 -9999 -9999 -9999 -9999 -9999 -9999 -9999 -9999 -9999 -9999 -9999 -9999 -9999 -9999 -9999 -9999 -9999 -9999 -9999 -9999 -9999 -9999 -9999 -9999 -9999 -9999 -9999 -9999 -9999 -9999 -9999 -9999 -9999 -9999 -9999 -9999 -9999 -9999 -9999 -9999 -9999 -9999 -9999 -9999 -9999 -9999 -9999 -9999 -9999 -9999 -9999 -9999 -9999 -9999 -9999 -9999 -9999 -9999 -9999 -9999 -9999 -9999 -9999 -9999 -9999 -9999 -9999 -9999 -9999 -9999 -9999 -9999 -9999 -9999 -9999 -9999 -9999 -9999 -9999 -9999 -9999 -9999 -9999 -9999 -9999 -9999 -9999 -9999 -9999 -9999 -9999 -9999 -9999 -9999 -9999 -9999 -9999 -9999 -9999 -9999 -9999 -9999 -9999 -9999 -9999 -9999 -9999 -9999 -9999 -9999 -9999 -9999 -9999 -9999 -9999 -9999 -9999 -9999
116.27 116.282 116.265 116.25 116.27 116.28 116.292 116.307 116.3 116.307 116.3 116.3 116.31 116.302 116.31 116.292 116.302 116.295 116.267 116.272 116.235 116.245 116.247 116.247 116.24 116.207 116.21 116.207 116.185 116.177 116.155 116.165 116.112 116.055 115.745 115.16 114.577 113.925 113.442 113.26 113.217 116.54 124.375 123.982 117.725 113.55 113.685 113.54 113.452 113.52 113.475 113.525 113.377 114.62 114.57 113.1 113.142 113.09 113.065 113.145 114.992 119.624 121.678 120.423 118.812 114.617 114.619 114.852 115.612 116.975 115.739 112.669 112.471 112.7 114.201 113.512 112.734 115.493 119.142 120.4 120.02 118.39 115.666 115.405 113.049 112.46 113.12 115.641 113.402 112.48 112.473 115.675 114.69 114.073 115.805 115.74 112.801 113.729 115.845 118.032 115.7 113.645 111.853 111.669 111.854 115.479 116.58 115.091 112.537 112.136 111.801 111.523 111.574 111.487 112.419 112.292 111.756 112.367 113.335 117.155 116.306 120.065 120.928 116.514 112.678 116.481 120.387 119.953 117.692 114.93 124.27 117.783 122.742 127.569 129.664 128.931 126.581 125.352 126.585 125.685 123.327 112.956 110.797 110.786 110.674 110.731 113.425 113.171 112.64 116.111 117.421 117.919 116.873 115.86 114.917 112.243 111.835 112.631 112.569 112.123 112.508 113.698 111.261 111.459 116.842 112.453 116.804 114.035 111.29 110.507 113.24 114.177 116.742 117.814 117.77 116.582 113.899 110.593 111.19 110.664 110.323 110.203 110.217 110.268 110.13 110.278 110.342 111.6 111.061 112.182 110.975 111.056 111.489 112.306 112.016 112.43 113.745 113.511 110.963 111.87 111.283 116.642 121.919 122.763 114.087 110.533 110.584 110.462 110.501 110.976 110.693 111.548 114.52 112.549 110.681 110.643 110.714 110.805 110.786 111.124 110.861 110.448 110.399 110.497 110.622 110.673 110.691 110.703 110.635 110.628 110.706 111.32 111.91 110.974 110.791 110.717 110.641 110.584 110.497 111.596 112.482 110.714 110.893 110.562 112.364 112.061 111.64 111.711 111.533 111.888 112.11 112.402 113.022 112.359 113.609 112.419 113.041 114.223 118.364 117.762 114.739 113.397 113.604 113.802 113.607 113.705 113.751 113.744 113.9 114.106 114.908 115.4 115.955 117.678 116.177 120.353 118.281 117.172 121.996 124.221 124.923 124.607 124.021 123.03 122.011 118.346 117.617 117.806 117.865 117.879 118.228 118.254 118.312 118.259 118.413 118.526 119.245 120.253 120.48 119.331 120.472 119.968 119.599 119.788 119.9 120.076 120.202 120.391 120.546 120.703 120.869 121.069 121.583 121.985 121.87 122.388 121.96 122.248 122.023 -9999 -9999 -9999 -9999 -9999 -9999 -9999 -9999 -9999 -9999 -9999 -9999 -9999 -9999 -9999 -9999 -9999 -9999 -9999 -9999 -9999 -9999 -9999 -9999 -9999 -9999 -9999 -9999 -9999 -9999 -9999 -9999 -9999 -9999 -9999 -9999 -9999 -9999 -9999 -9999 -9999 -9999 -9999 -9999 -9999 -9999 -9999 -9999 -9999 -9999 -9999 -9999 -9999 -9999 -9999 -9999 -9999 -9999 -9999 -9999 -9999 -9999 -9999 -9999 -9999 -9999 -9999 -9999 -9999 -9999 -9999 -9999 -9999 -9999 -9999 -9999 -9999 -9999 -9999 -9999 -9999 -9999 -9999 -9999 -9999 -9999 -9999 -9999 -9999 -9999 -9999 -9999 -9999 -9999 -9999 -9999 -9999 -9999 -9999 -9999 -9999 -9999 -9999 -9999 -9999 -9999 -9999 -9999 -9999 -9999 -9999 -9999 -9999 -9999 -9999 -9999 -9999 -9999 -9999 -9999 -9999 -9999 -9999 -9999 -9999 -9999 -9999 -9999 -9999 -9999 -9999 -9999 -9999 -9999 -9999 -9999 -9999 -9999 -9999 -9999 -9999 -9999 -9999 -9999 -9999 -9999 -9999
116.225 116.24 116.225 116.215 116.215 116.225 116.24 116.247 116.245 116.255 116.24 116.24 116.26 116.257 116.28 116.252 116.26 116.25 116.235 116.235 116.195 116.21 116.21 116.215 116.21 116.182 116.185 116.177 116.142 116.125 116.135 116.122 116.075 115.947 115.645 115.12 114.54 113.94 113.427 113.267 113.397 121.302 126.305 128.835 123.665 113.852 112.942 112.892 112.94 112.805 112.78 112.695 112.83 112.91 112.697 112.682 112.675 112.78 112.837 113.587 115.535 119.565 121.136 120.343 118.815 113.034 112.821 113.268 113.484 113.503 115.388 112.596 112.381 113.044 114.37 112.894 112.691 115.186 118.814 118.871 119.177 118.424 113.301 112.882 112.545 112.637 114.573 114.848 115.432 114.685 115.462 118.741 116.378 115.059 113.971 114.361 113.893 112.516 112.802 115.652 114.073 113.683 112.18 115.404 117.572 118.078 118.008 117.058 112.341 111.652 111.905 111.472 111.466 111.454 111.976 111.936 112.428 111.548 111.522 113.168 121.149 119.478 118.334 113.166 115.418 122.302 119.939 124.907 122.119 121.475 118.685 123.94 127.561 128.222 128.793 128.65 127.606 124.247 124.453 123.046 116.07 110.92 110.966 110.735 110.662 110.652 114.487 115.046 114.242 115.119 116.332 117.294 117.533 116.443 115.531 110.852 111.145 110.843 111.985 110.867 112.56 115.572 115.022 111.681 114.94 116.841 115.753 116.873 111.765 110.461 111.021 113.514 115.712 116.709 116.099 112.808 111.689 110.609 111.371 111.15 110.348 110.19 110.168 110.175 110.127 110.104 110.187 111.089 111.054 111.129 111.289 112.339 115.104 116.472 115.471 110.877 111.248 110.913 111.058 111.143 113.81 122.106 123.601 124.303 122.33 110.771 110.693 110.901 113.167 112.772 111.503 111.39 112.788 115.353 112.717 110.575 110.629 111.155 110.604 110.798 110.382 110.296 110.358 110.503 110.596 110.615 110.573 110.604 110.495 110.556 111.489 110.808 110.874 110.831 110.645 110.574 110.741 110.596 110.385 110.361 110.327 110.956 110.66 110.397 111.276 112.758 113.541 112.765 111.229 111.732 111.994 114.156 114.259 112.24 112.434 112.336 117.962 118.743 119.302 118.707 116.906 113.427 113.905 113.774 113.758 113.681 113.717 113.77 113.896 114.034 115.357 116.168 115.153 120.089 121.828 121.896 120.094 116.852 120.918 123.663 124.103 123.303 122.305 119.478 117.476 117.668 117.471 117.472 120.084 118.565 118.124 118.104 118.174 118.098 118.177 118.34 118.494 118.75 119.192 119.033 119.349 119.388 119.557 119.676 119.854 120.026 120.264 120.444 120.607 120.777 120.912 121.19 121.513 121.844 121.818 122.177 122.444 121.818 121.891 121.93 -9999 -9999 -9999 -9999 -9999 -9999 -9999 -9999 -9999 -9999 -9999 -9999 -9999 -9999 -9999 -9999 -9999 -9999 -9999 -9999 -9999 -9999 -9999 -9999 -9999 -9999 -9999 -9999 -9999 -9999 -9999 -9999 -9999 -9999 -9999 -9999 -9999 -9999 -9999 -9999 -9999 -9999 -9999 -9999 -9999 -9999 -9999 -9999 -9999 -9999 -9999 -9999 -9999 -9999 -9999 -9999 -9999 -9999 -9999 -9999 -9999 -9999 -9999 -9999 -9999 -9999 -9999 -9999 -9999 -9999 -9999 -9999 -9999 -9999 -9999 -9999 -9999 -9999 -9999 -9999 -9999 -9999 -9999 -9999 -9999 -9999 -9999 -9999 -9999 -9999 -9999 -9999 -9999 -9999 -9999 -9999 -9999 -9999 -9999 -9999 -9999 -9999 -9999 -9999 -9999 -9999 -9999 -9999 -9999 -9999 -9999 -9999 -9999 -9999 -9999 -9999 -9999 -9999 -9999 -9999 -9999 -9999 -9999 -9999 -9999 -9999 -9999 -9999 -9999 -9999 -9999 -9999 -9999 -9999 -9999 -9999 -9999 -9999 -9999 -9999 -9999 -9999 -9999 -9999 -9999 -9999
116.185 116.187 116.157 116.145 116.162 116.167 116.182 116.147 116.175 116.197 116.177 116.195 116.207 116.225 116.24 116.21 116.202 116.202 116.192 116.187 116.165 116.192 116.182 116.197 116.185 116.14 116.127 116.112 116.092 116.097 116.095 116.055 115.997 115.83 115.455 114.985 114.43 113.847 113.397 113.175 113.317 124.875 127.587 127.337 120.022 112.792 112.782 112.762 112.742 112.687 112.68 112.642 112.655 112.652 112.617 112.59 112.59 112.72 112.805 112.952 113.885 119.545 119.963 119.98 118.815 113.099 112.804 112.807 112.648 113.072 112.702 112.461 112.389 113.019 112.595 112.509 112.524 112.673 114.984 114.617 114.2 113.28 112.644 112.677 112.842 113.312 114.74 114.259 115.025 114.752 114.401 116.91 115.209 114.996 113.958 112.757 112.06 112.173 112.061 112.46 111.811 111.757 111.95 112.849 117.74 119.107 119.03 117.603 112.749 112.437 112.175 111.605 111.42 111.398 111.872 111.52 111.52 111.513 111.529 114.925 119.565 114.973 113.71 113.159 114.304 124.543 126.235 126.539 125.502 125.281 124.364 121.71 127.146 128.448 128.787 128.131 126.805 122.088 115.349 111.086 111.058 111.083 111.296 112.366 111.084 110.644 116.414 116.755 114.862 110.952 113.878 116.815 117.25 112.328 110.821 111.396 110.894 111.885 112.397 112.403 112.894 114.991 113.441 110.818 113.15 113.546 113.29 111.576 110.405 110.347 110.459 112.472 114.107 113.125 111.422 113.244 115.136 113.264 110.4 110.312 110.512 110.243 110.114 110.096 110.06 109.935 110.058 110.085 110.106 110.447 114.855 116.789 117.014 117.445 117.324 111.256 110.81 111.109 116.272 119.449 118.61 122.384 124.479 125.049 125.69 121.573 111.018 114.061 115.001 113.933 111.792 110.208 113.229 116.119 115.163 111.437 110.419 111.339 111.126 110.429 110.241 110.25 110.362 110.457 110.513 110.496 110.454 110.445 110.411 110.562 110.511 110.504 110.665 110.706 110.595 110.615 110.52 110.356 110.3 110.303 110.473 111.224 110.641 110.401 111.157 112.042 111.846 111.397 111.115 112.081 113.841 114.251 114.345 112.346 113.449 113.176 118.758 120.163 120.743 119.559 118.187 115.01 113.359 113.648 113.812 113.714 113.783 113.729 113.831 114.073 114.675 115.002 115.082 116.026 121.985 122.933 121.476 117.716 117.305 122.538 122.234 118.058 119.426 117.665 116.994 116.88 117.191 117.269 118.959 119.428 117.607 117.701 117.83 117.998 118.109 118.35 118.489 118.595 118.837 119.009 119.163 119.309 119.5 119.693 119.882 120.037 120.308 120.737 120.413 120.457 120.664 121.842 121.268 121.621 121.732 121.847 123.037 123.449 123.191 122.644 122.474 122.551 -9999 -9999 -9999 -9999 -9999 -9999 -9999 -9999 -9999 -9999 -9999 -9999 -9999 -9999 -9999 -9999 -9999 -9999 -9999 -9999 -9999 -9999 -9999 -9999 -9999 -9999 -9999 -9999 -9999 -9999 -9999 -9999 -9999 -9999 -9999 -9999 -9999 -9999 -9999 -9999 -9999 -9999 -9999 -9999 -9999 -9999 -9999 -9999 -9999 -9999 -9999 -9999 -9999 -9999 -9999 -9999 -9999 -9999 -9999 -9999 -9999 -9999 -9999 -9999 -9999 -9999 -9999 -9999 -9999 -9999 -9999 -9999 -9999 -9999 -9999 -9999 -9999 -9999 -9999 -9999 -9999 -9999 -9999 -9999 -9999 -9999 -9999 -9999 -9999 -9999 -9999 -9999 -9999 -9999 -9999 -9999 -9999 -9999 -9999 -9999 -9999 -9999 -9999 -9999 -9999 -9999 -9999 -9999 -9999 -9999 -9999 -9999 -9999 -9999 -9999 -9999 -9999 -9999 -9999 -9999 -9999 -9999 -9999 -9999 -9999 -9999 -9999 -9999 -9999 -9999 -9999 -9999 -9999 -9999 -9999 -9999 -9999 -9999 -9999 -9999 -9999 -9999 -9999 -9999
116.122 116.122 116.105 116.112 116.127 116.127 116.135 116.125 116.145 116.155 116.13 116.157 116.162 116.19 116.185 116.162 116.17 116.137 116.162 116.145 116.14 116.14 116.15 116.177 116.162 116.115 116.095 116.07 116.082 116.052 116.01 115.972 115.847 115.58 115.212 114.762 114.215 113.702 113.427 113.307 117.465 127.39 127.617 123.942 112.885 112.765 112.755 112.735 112.725 112.655 112.62 112.575 112.56 112.537 112.597 113.027 113.535 114.65 113.99 112.962 114.255 115.395 116.465 116.656 115.699 113.01 112.794 112.666 112.526 112.409 112.381 112.375 112.31 112.757 112.796 112.915 112.656 114.587 115.178 113.494 113.433 112.565 112.619 114.089 114.355 114.23 113.056 112.79 112.705 112.648 112.081 112.109 113.308 113.006 112.585 112.375 111.95 112.076 112.313 112.622 111.84 111.816 111.899 111.853 117.211 118.937 119.831 117.93 114.168 111.835 111.65 111.481 111.313 111.343 111.385 111.685 111.49 111.485 111.463 112.426 116.444 118.986 120.714 121.999 121.826 124.867 125.969 126.224 123.697 118.273 123.357 122.358 125.163 127.074 128.719 123.285 126.517 115.154 117.659 112.489 112.025 111.849 111.884 113.826 113.053 110.666 114.972 116.406 115.741 111.231 111.991 112.386 110.794 110.859 110.727 110.824 110.353 110.657 110.719 110.561 112.053 113.618 111.774 110.275 110.344 110.986 110.426 110.181 110.553 111.366 110.437 111.167 110.702 111.069 115.09 116.373 116.808 115.888 110.352 110.241 111.515 110.289 110.148 109.92 110.044 109.936 109.911 109.999 110.247 110.267 112.466 117.183 117.291 116.895 116.332 113.931 112.765 112.066 113.732 117.736 113.247 120.835 123.25 124.891 124.546 115.156 113.223 114.224 115.053 114.392 113.396 111.15 110.207 114.443 114.823 112.35 110.895 111.395 110.739 110.114 110.088 110.211 110.307 110.406 110.418 110.389 110.389 110.288 110.379 110.411 110.491 110.463 110.422 110.354 110.588 110.592 110.334 110.315 110.236 110.228 110.078 110.497 110.67 110.193 110.863 111.351 112.991 111.142 110.939 111.701 113.149 114.248 114.346 112.575 112.576 112.634 116.528 119.733 120.709 121.191 119.058 115.975 113.056 114.111 113.817 113.681 113.631 113.657 113.719 113.938 113.989 115.497 115.071 116.196 121.213 122.976 121.99 120.396 116.705 116.736 117.534 116.464 116.671 118.679 117.933 117.417 116.785 116.936 117.093 117.473 117.4 117.603 117.7 117.885 118.146 118.216 118.428 118.66 118.818 119.088 119.924 119.474 119.668 119.996 120.424 119.97 120.13 120.597 120.278 120.36 120.391 120.712 121.307 121.839 125.994 125.697 126.921 127.203 127.468 122.633 122.396 122.697 -9999 -9999 -9999 -9999 -9999 -9999 -9999 -9999 -9999 -9999 -9999 -9999 -9999 -9999 -9999 -9999 -9999 -9999 -9999 -9999 -9999 -9999 -9999 -9999 -9999 -9999 -9999 -9999 -9999 -9999 -9999 -9999 -9999 -9999 -9999 -9999 -9999 -9999 -9999 -9999 -9999 -9999 -9999 -9999 -9999 -9999 -9999 -9999 -9999 -9999 -9999 -9999 -9999 -9999 -9999 -9999 -9999 -9999 -9999 -9999 -9999 -9999 -9999 -9999 -9999 -9999 -9999 -9999 -9999 -9999 -9999 -9999 -9999 -9999 -9999 -9999 -9999 -9999 -9999 -9999 -9999 -9999 -9999 -9999 -9999 -9999 -9999 -9999 -9999 -9999 -9999 -9999 -9999 -9999 -9999 -9999 -9999 -9999 -9999 -9999 -9999 -9999 -9999 -9999 -9999 -9999 -9999 -9999 -9999 -9999 -9999 -9999 -9999 -9999 -9999 -9999 -9999 -9999 -9999 -9999 -9999 -9999 -9999 -9999 -9999 -9999 -9999 -9999 -9999 -9999 -9999 -9999 -9999 -9999 -9999 -9999 -9999 -9999 -9999 -9999 -9999 -9999 -9999 -9999
116.072 116.087 116.062 116.082 116.1 116.095 116.112 116.095 116.112 116.117 116.09 116.115 116.107 116.14 116.147 116.135 116.122 116.087 116.11 116.125 116.11 116.117 116.127 116.14 116.12 116.08 116.052 116.032 116.01 115.985 115.912 115.762 115.552 115.267 114.902 114.437 113.955 113.535 113.405 113.127 114.097 119.99 125.485 120.192 118.212 113.755 112.705 112.682 112.655 112.595 112.54 112.522 112.642 112.467 114.69 114.985 115.392 115.38 115.312 113.357 112.747 112.587 112.692 112.755 114.103 114.177 113.159 112.29 112.407 112.331 112.281 112.304 112.216 112.14 112.332 112.978 112.425 112.729 113.018 113.027 115.251 116.481 113.534 112.625 112.96 112.327 112.148 112.109 112.1 112.031 112.065 112.184 113.469 112.934 112.132 112.35 112.067 112.221 112.333 112.374 111.82 111.799 112.101 113.907 116.333 118.601 119.95 118.65 116.582 111.622 111.506 111.673 111.23 111.22 111.215 111.513 111.574 111.453 111.334 111.972 111.49 112.508 118.976 112.802 113.61 123.836 124.234 125.578 125.54 124.082 126.459 126.041 124.831 112.981 117.645 120.346 118.452 120.222 122.317 123.376 114.518 111.961 111.864 112.028 111.3 110.586 113.961 116.218 114.667 112.305 110.7 110.831 110.382 113.068 114.936 113.642 110.828 110.141 110.095 110.166 110.231 113.009 111.898 110.164 110.181 110.178 110.251 110.409 113.531 114.548 112.168 112.589 111.86 114.854 116.876 117.658 117.74 116.765 111.653 111.019 110.285 110.341 110.063 109.895 109.966 109.877 109.82 109.947 110.021 110.589 110.937 116.107 116.038 115.477 113.845 112.569 110.448 110.091 110.185 110.832 115.02 120.499 121.7 122.368 122.764 119.953 114.32 113.658 114.599 115.123 113.913 113.04 110.547 111.469 114.6 113.683 110.59 111.161 110.064 109.926 110.043 110.175 110.258 110.31 110.339 110.32 110.229 110.345 110.494 110.504 110.37 110.426 110.638 110.337 110.203 110.456 110.263 110.183 110.128 110.166 110.022 110.05 109.873 110.619 110.562 110.12 111.124 111.519 111.206 112.271 112.55 112.62 112.761 112.116 112.079 111.999 112.92 117.829 120.278 120.745 119.758 118.263 113.359 114.075 113.755 113.789 113.665 113.678 113.714 113.722 114.094 114.129 114.728 115.176 117.576 121.497 118.103 118.09 116.498 117.113 117.223 116.959 116.407 118.925 117.467 116.727 116.639 116.829 116.998 117.145 117.27 117.54 117.956 118.657 119.621 118.422 118.548 118.886 118.87 119.147 119.229 119.464 119.886 119.72 120.968 119.957 121.026 121.159 121.945 122.938 122.705 120.464 122.666 125.578 127.585 128.162 128.267 128.566 128.3 125.977 123.379 122.707 123.258 -9999 -9999 -9999 -9999 -9999 -9999 -9999 -9999 -9999 -9999 -9999 -9999 -9999 -9999 -9999 -9999 -9999 -9999 -9999 -9999 -9999 -9999 -9999 -9999 -9999 -9999 -9999 -9999 -9999 -9999 -9999 -9999 -9999 -9999 -9999 -9999 -9999 -9999 -9999 -9999 -9999 -9999 -9999 -9999 -9999 -9999 -9999 -9999 -9999 -9999 -9999 -9999 -9999 -9999 -9999 -9999 -9999 -9999 -9999 -9999 -9999 -9999 -9999 -9999 -9999 -9999 -9999 -9999 -9999 -9999 -9999 -9999 -9999 -9999 -9999 -9999 -9999 -9999 -9999 -9999 -9999 -9999 -9999 -9999 -9999 -9999 -9999 -9999 -9999 -9999 -9999 -9999 -9999 -9999 -9999 -9999 -9999 -9999 -9999 -9999 -9999 -9999 -9999 -9999 -9999 -9999 -9999 -9999 -9999 -9999 -9999 -9999 -9999 -9999 -9999 -9999 -9999 -9999 -9999 -9999 -9999 -9999 -9999 -9999 -9999 -9999 -9999 -9999 -9999 -9999 -9999 -9999 -9999 -9999 -9999 -9999 -9999 -9999 -9999 -9999 -9999 -9999 -9999
116.037 116.05 116.027 116.055 116.052 116.05 116.057 116.037 116.067 116.077 116.055 116.072 116.057 116.1 116.102 116.092 116.077 116.035 116.067 116.077 116.075 116.075 116.072 116.102 116.062 116.042 116.03 115.975 115.957 115.852 115.607 115.392 115.127 114.822 114.477 114.075 113.622 113.322 113.385 113.09 113.112 114.64 113.642 116.31 117.24 113.312 112.517 112.72 112.442 112.727 112.655 112.867 112.73 114.322 114.757 114.68 114.847 114.812 114.832 113.227 113.207 113.82 114.507 116.535 117.167 114.063 112.132 112.254 112.482 113.02 112.615 112.7 112.125 112.06 112.121 112.175 112.142 112.565 117.285 118.25 118.569 118.401 114.628 112.167 112.126 112.123 112.152 112.126 112.599 113.008 111.952 112.011 112.287 112.873 112.428 112.046 112.055 113.613 112.847 113.084 112.943 112.184 112.187 113.35 114.678 117.882 119.229 118.713 117.301 112.781 111.425 111.335 111.213 111.159 111.143 111.288 111.356 111.123 111.044 111.079 111.057 111.946 118.568 116.252 114.553 120.445 123.419 125.374 126.392 128.339 127.775 126.392 126.245 122.165 122.461 124.596 124.354 117.465 124.488 124.678 122.934 119.957 112.13 111.642 113.126 114.199 110.569 111.122 110.396 110.847 111.13 110.422 115.774 117.361 116.227 115.111 110.496 110.45 110.546 111.212 111.024 112.175 112.166 110.248 110.186 110.406 111.979 112.5 113.888 114.904 112.74 111.5 110.561 112.431 116.145 117.541 118.243 118.264 115.148 110.713 110.226 110.372 109.994 109.932 109.808 109.87 109.776 110.848 110.028 111.614 111.329 113.962 114.422 113.815 111.867 110.157 110.276 111.395 112.148 115.303 118.115 118.923 120.329 120.147 118.767 115.07 115.204 112.656 113.877 114.839 114.579 113.295 110.723 113.934 115.972 119.109 111.088 110.063 109.882 109.915 110.042 110.153 110.194 110.245 110.226 110.147 110.165 110.341 111.371 110.63 110.29 110.268 110.511 110.802 110.182 110.346 110.337 110.172 110.059 109.973 109.899 109.867 109.759 109.86 109.952 109.614 109.97 111.71 111.787 111.884 111.963 112.018 112.039 112.073 112.05 112.106 112.469 114.263 119.263 120.161 119.251 118.127 113.262 113.465 113.802 113.779 113.745 113.716 113.708 113.706 113.938 114.096 115.193 115.064 115.409 116.857 116.067 116.416 116.124 117.148 120.16 120.207 116.875 116.325 116.306 116.366 116.571 116.689 116.842 117.397 119.63 120.509 120.624 118.899 120.906 119.121 118.548 118.858 118.864 119.221 119.214 119.635 120.034 119.576 119.785 121.181 125.196 125.499 125.725 125.846 125.735 121.136 120.928 125.092 128.64 129.113 129.722 129.645 128.365 126.891 123.964 123.005 125.247 125.058 123.54 -9999 -9999 -9999 -9999 -9999 -9999 -9999 -9999 -9999 -9999 -9999 -9999 -9999 -9999 -9999 -9999 -9999 -9999 -9999 -9999 -9999 -9999 -9999 -9999 -9999 -9999 -9999 -9999 -9999 -9999 -9999 -9999 -9999 -9999 -9999 -9999 -9999 -9999 -9999 -9999 -9999 -9999 -9999 -9999 -9999 -9999 -9999 -9999 -9999 -9999 -9999 -9999 -9999 -9999 -9999 -9999 -9999 -9999 -9999 -9999 -9999 -9999 -9999 -9999 -9999 -9999 -9999 -9999 -9999 -9999 -9999 -9999 -9999 -9999 -9999 -9999 -9999 -9999 -9999 -9999 -9999 -9999 -9999 -9999 -9999 -9999 -9999 -9999 -9999 -9999 -9999 -9999 -9999 -9999 -9999 -9999 -9999 -9999 -9999 -9999 -9999 -9999 -9999 -9999 -9999 -9999 -9999 -9999 -9999 -9999 -9999 -9999 -9999 -9999 -9999 -9999 -9999 -9999 -9999 -9999 -9999 -9999 -9999 -9999 -9999 -9999 -9999 -9999 -9999 -9999 -9999 -9999 -9999 -9999 -9999 -9999 -9999 -9999 -9999 -9999 -9999
116.012 116.012 115.985 116.012 116.01 116.01 116.012 115.995 116.022 116.02 116.017 116.02 116.025 116.06 116.047 116.052 116.035 116.027 116.022 116.03 116.05 116.055 116.032 116.052 116.025 116 115.965 115.915 115.79 115.49 115.27 115.012 114.697 114.36 114.027 113.65 113.33 113.102 113.22 112.755 113.045 113.1 113.447 116.515 115.905 114.33 113.142 112.812 112.62 113.072 113.14 112.915 113.082 114.555 114.587 114.607 114.575 113.917 113.157 112.15 113.612 116.95 118.555 118.8 118.595 116.288 112.164 112.289 112.589 112.909 113.137 112.466 112.072 112.263 112.031 112.375 112.17 112.167 117.296 118.996 120.207 119.141 116.539 112.315 112.393 113.002 113.988 113.975 114.957 112.188 111.8 112.889 113.734 113.301 112.656 113.116 115.135 116.047 114.246 111.847 111.66 111.66 111.895 111.595 114.721 117.61 117.36 117.243 116.743 111.789 111.546 111.554 111.372 111.103 111.077 111.284 111.479 111.077 111.055 111.061 111.046 113.315 117.931 117.733 116.181 118.17 124.248 126.524 127.759 128.69 127.852 127.051 127.225 123.201 121.876 126.388 126.161 127.467 126.964 125.657 124.505 120.455 118.034 111.46 115.387 116.63 111.971 110.312 110.283 110.568 111.18 110.63 115.951 118.016 117.324 114.607 110.783 111.619 112.479 111.949 110.953 114.807 120.629 114.941 112.683 112.249 112.054 110.953 112.828 116.441 111.575 110.204 110.263 112.484 114.254 116.845 118.057 118.056 116.601 113.069 110.257 110.259 110.052 109.867 109.717 109.779 109.787 109.783 109.857 111.611 112.236 111.64 112.242 112.559 112.38 114.476 115.101 115.236 113.428 119.461 118.817 117.829 119.261 118.856 116.952 113.089 115.904 110.584 113.14 114.323 115.41 110.665 110.288 113.933 119.117 117.31 117.833 112.221 109.796 109.923 110.023 110.113 110.162 110.121 110.12 110.033 110.228 111.045 110.926 110.1 110.15 110.104 110.104 110.284 110.198 110.207 110.228 109.99 109.966 109.824 109.924 110.503 109.781 109.742 109.656 109.549 109.602 110.844 111.745 111.82 111.848 111.924 112.031 112.1 112.214 112.085 112.146 111.994 117.417 118.273 116.994 113.416 113.148 113.233 113.496 113.905 113.838 113.833 113.674 113.757 113.753 114.029 114.187 115.148 115.114 115.036 115.347 115.39 115.502 116.188 119.789 119.646 117.129 115.974 116.148 116.348 116.474 116.759 116.97 117.295 118.056 118.407 118.469 118.147 118.559 118.338 118.533 119.575 120.369 120.91 123.446 124.371 123.109 119.426 119.946 125.327 126.446 127.248 127.738 127.248 126.191 121.159 121.134 123.042 127.833 128.952 128.48 128.389 128.129 125.988 124.05 123.306 125.206 124.623 122.787 122.714 -9999 -9999 -9999 -9999 -9999 -9999 -9999 -9999 -9999 -9999 -9999 -9999 -9999 -9999 -9999 -9999 -9999 -9999 -9999 -9999 -9999 -9999 -9999 -9999 -9999 -9999 -9999 -9999 -9999 -9999 -9999 -9999 -9999 -9999 -9999 -9999 -9999 -9999 -9999 -9999 -9999 -9999 -9999 -9999 -9999 -9999 -9999 -9999 -9999 -9999 -9999 -9999 -9999 -9999 -9999 -9999 -9999 -9999 -9999 -9999 -9999 -9999 -9999 -9999 -9999 -9999 -9999 -9999 -9999 -9999 -9999 -9999 -9999 -9999 -9999 -9999 -9999 -9999 -9999 -9999 -9999 -9999 -9999 -9999 -9999 -9999 -9999 -9999 -9999 -9999 -9999 -9999 -9999 -9999 -9999 -9999 -9999 -9999 -9999 -9999 -9999 -9999 -9999 -9999 -9999 -9999 -9999 -9999 -9999 -9999 -9999 -9999 -9999 -9999 -9999 -9999 -9999 -9999 -9999 -9999 -9999 -9999 -9999 -9999 -9999 -9999 -9999 -9999 -9999 -9999 -9999 -9999 -9999 -9999 -9999 -9999 -9999 -9999 -9999 -9999
115.972 115.967 115.947 115.97 115.95 115.962 115.962 115.957 115.982 115.98 115.975 115.985 115.995 116.01 115.99 116.022 116.015 115.997 116.002 115.995 116.02 116.012 115.987 115.992 115.945 115.907 115.84 115.655 115.36 115.132 114.897 114.605 114.26 113.92 113.627 113.267 113.037 112.81 112.827 112.737 112.992 113.025 113.062 113.002 118.817 113.39 112.702 112.502 112.232 111.99 111.86 111.787 111.775 111.74 111.725 111.705 111.69 111.745 111.847 112.94 114.84 116.57 118.847 120.177 118.832 116.905 112.158 112.368 112.375 112.74 112.206 112.006 112.034 112.408 111.98 113.086 112.523 112.062 114.654 118.653 120.487 119.462 117.935 113.203 112.044 112.188 112.015 111.747 111.944 111.643 111.637 113.044 112.301 112.024 112.355 111.927 114.048 115.317 111.916 111.67 111.678 111.682 111.759 111.837 113.784 113.191 111.536 112.131 111.391 111.288 111.213 112.284 111.19 111.042 111.029 110.994 111.883 112.552 113.265 111.675 111.169 111.732 111.833 111.136 116.075 119.792 124.789 124.948 127.177 128.23 127.348 124.023 126.82 125.802 125.164 125.664 126.013 127.097 126.901 126.327 125.271 123.16 125.033 124.655 118.385 117.141 110.976 110.278 110.218 110.603 110.27 110.168 114.601 116.834 117.575 112.92 111.79 111.475 110.514 110.467 111.025 123.085 124.094 124.758 116.773 119.789 113.085 110.007 110.649 111.276 110.305 110.195 110.548 111.076 112.823 116.164 117.435 117.806 117.134 115.662 110.234 110.083 109.982 109.818 109.749 109.687 109.712 109.64 109.88 112.119 112.253 110.458 111.751 115.02 115.91 116.326 116.288 115.602 116.203 120.15 119.871 117.691 112.092 112.851 112.935 115.72 112.773 110.714 111.899 113.571 112.121 110.342 110.057 114.299 117.748 118.382 118.083 110.687 109.796 109.879 109.987 110.01 110.082 110.01 109.979 110.083 110.389 110.534 109.932 109.949 109.981 110.002 110.04 110.341 110.108 110.006 109.989 110.113 109.826 109.779 109.7 110.541 109.886 109.534 109.495 109.56 109.611 110.242 111.417 111.755 111.807 111.977 112.139 112.107 112.127 112.125 112.978 112.344 116.645 113.044 112.537 112.616 112.987 113.259 113.623 114.352 115.564 114.005 113.704 113.71 113.701 113.822 114.067 114.228 115.581 115.041 115.447 115.444 116.134 116.034 116.467 115.713 115.755 115.897 116.044 116.251 116.514 117.423 117.483 117.431 117.866 117.749 117.913 118.207 118.552 118.433 121.584 124.353 124.651 124.627 125.12 125.548 124.912 119.466 120.017 124.467 126.881 128.22 128.131 127.722 126.738 123.733 120.617 121.504 127.811 127.549 125.479 125.598 125.462 123.306 124.442 122.933 122.623 122.584 122.715 122.755 -9999 -9999 -9999 -9999 -9999 -9999 -9999 -9999 -9999 -9999 -9999 -9999 -9999 -9999 -9999 -9999 -9999 -9999 -9999 -9999 -9999 -9999 -9999 -9999 -9999 -9999 -9999 -9999 -9999 -9999 -9999 -9999 -9999 -9999 -9999 -9999 -9999 -9999 -9999 -9999 -9999 -9999 -9999 -9999 -9999 -9999 -9999 -9999 -9999 -9999 -9999 -9999 -9999 -9999 -9999 -9999 -9999 -9999 -9999 -9999 -9999 -9999 -9999 -9999 -9999 -9999 -9999 -9999 -9999 -9999 -9999 -9999 -9999 -9999 -9999 -9999 -9999 -9999 -9999 -9999 -9999 -9999 -9999 -9999 -9999 -9999 -9999 -9999 -9999 -9999 -9999 -9999 -9999 -9999 -9999 -9999 -9999 -9999 -9999 -9999 -9999 -9999 -9999 -9999 -9999 -9999 -9999 -9999 -9999 -9999 -9999 -9999 -9999 -9999 -9999 -9999 -9999 -9999 -9999 -9999 -9999 -9999 -9999 -9999 -9999 -9999 -9999 -9999 -9999 -9999 -9999 -9999 -9999 -9999 -9999 -9999 -9999 -9999 -9999 -9999
115.93 115.915 115.902 115.915 115.905 115.917 115.907 115.915 115.94 115.942 115.952 115.945 115.96 115.97 115.955 115.977 115.967 115.962 115.985 115.957 115.975 115.98 115.93 115.91 115.857 115.757 115.472 115.24 115.007 114.767 114.49 114.162 113.85 113.515 113.225 112.915 112.697 112.537 112.54 112.81 112.955 112.947 112.867 112.592 114.932 113.455 114.035 111.917 111.8 111.767 111.747 111.707 111.66 111.612 111.63 111.67 111.7 111.707 111.805 112.907 113.962 115.842 118.64 120.46 119.115 117.477 114.54 114.608 113.954 113.155 112.222 111.897 111.92 111.89 111.932 112.878 113.239 112.172 112.769 118.269 119.854 120.039 118.223 112.759 112.034 111.942 111.824 111.776 111.709 111.649 111.634 111.709 113.299 113.657 114.973 112.628 111.61 111.595 111.599 111.657 112.726 113.129 113.633 113.941 112.599 111.931 111.462 111.269 114.619 114.939 111.736 111.411 111.074 111.06 110.919 110.986 113.824 116.265 116.281 116.069 114.041 110.755 110.769 112.558 120.189 118.647 116.758 124.71 126.946 127.421 127.671 127.242 124.794 124.216 124.981 126.028 125.544 126.134 127.526 126.652 126.144 123.009 126.11 125.787 118.654 113.375 110.266 110.253 110.167 112.966 111.209 110.136 111.079 116.033 117.391 116.404 114.14 112.999 110.401 110.321 118.579 124.114 124.188 125.067 124.894 124.179 115.54 110 109.933 110.573 110.462 110.607 110.709 110.267 111.772 115.129 116.95 116.483 113.153 113.383 110.089 110.039 110.096 110.024 109.721 109.588 109.61 109.625 109.558 109.671 112.105 112.757 113.092 115.924 117.033 117.694 116.187 112.323 115.026 118.874 119.929 118.233 109.838 109.848 112.193 112.46 112.216 111.905 110.817 110.475 111.858 110.274 110.406 115.062 116.485 114.541 112.628 109.612 109.755 109.88 109.926 109.932 109.923 109.886 109.989 110.225 110.589 109.919 110.517 109.849 109.815 109.819 109.822 109.87 109.941 109.812 109.835 109.755 109.667 110.193 109.652 109.737 109.603 109.557 109.512 109.367 109.596 115.539 112.545 112.803 112.557 112.922 112.033 112.044 112.064 112.617 114.118 114.011 112.335 112.41 112.648 113.054 117.631 118.73 117.601 113.544 115.363 113.854 113.852 113.692 113.738 113.739 113.939 114.155 114.382 114.718 115.579 115.521 115.154 115.211 115.363 115.53 115.656 115.869 116.039 116.285 116.8 117.532 117.711 118.485 118.886 119.064 119.009 122.356 121.911 118.508 118.514 123.653 125.999 126.333 126.665 126.191 125.424 121.383 119.391 123.828 127.027 127.181 127.328 125.907 126.259 124.699 120.289 121.277 125.627 126.691 121.823 121.715 121.72 122.894 123.878 123.918 124.784 122.743 122.53 122.679 122.868 123.098 -9999 -9999 -9999 -9999 -9999 -9999 -9999 -9999 -9999 -9999 -9999 -9999 -9999 -9999 -9999 -9999 -9999 -9999 -9999 -9999 -9999 -9999 -9999 -9999 -9999 -9999 -9999 -9999 -9999 -9999 -9999 -9999 -9999 -9999 -9999 -9999 -9999 -9999 -9999 -9999 -9999 -9999 -9999 -9999 -9999 -9999 -9999 -9999 -9999 -9999 -9999 -9999 -9999 -9999 -9999 -9999 -9999 -9999 -9999 -9999 -9999 -9999 -9999 -9999 -9999 -9999 -9999 -9999 -9999 -9999 -9999 -9999 -9999 -9999 -9999 -9999 -9999 -9999 -9999 -9999 -9999 -9999 -9999 -9999 -9999 -9999 -9999 -9999 -9999 -9999 -9999 -9999 -9999 -9999 -9999 -9999 -9999 -9999 -9999 -9999 -9999 -9999 -9999 -9999 -9999 -9999 -9999 -9999 -9999 -9999 -9999 -9999 -9999 -9999 -9999 -9999 -9999 -9999 -9999 -9999 -9999 -9999 -9999 -9999 -9999 -9999 -9999 -9999 -9999 -9999 -9999 -9999 -9999 -9999 -9999 -9999 -9999 -9999
