ncols 433
nrows 32
xllcorner    429080
yllcorner    431904
cellsize     2
NODATA_value -9999
43.206 43.222 43.088 43.029 43.055 43.045 42.983 42.894 42.851 42.8 42.74 42.678 42.629 42.606 42.516 42.464 42.467 42.333 42.325 42.289 42.195 42.202 42.148 42.164 42.058 42.277 41.994 42.112 45.732 43.558 45.066 41.912 41.827 41.847 41.927 42.05 42.258 42.154 42.213 42.247 42.202 42.352 42.78 43.041 42.46 41.829 41.937 41.97 42.005 41.887 41.97 41.882 41.802 43.383 51.484 52.275 49.371 44.905 41.461 41.337 41.271 41.113 41.09 40.962 40.907 40.846 40.736 40.641 40.512 40.473 40.397 40.272 40.271 40.291 44.748 44.557 45.759 44.949 45.362 46.605 45.401 45.178 46.325 46.557 46.174 45.864 44.384 45.338 42.559 48.96 48.799 45.546 46.82 46.053 47.589 47.55 44.954 43.82 43.609 42.983 42.292 42.177 42.074 42.04 41.947 41.862 41.84 41.721 41.759 41.817 41.731 42.725 42.596 43.484 43.343 44.644 43.807 43.682 43.344 42.629 40.69 40.238 39.839 39.742 39.699 39.622 39.597 39.598 39.518 39.504 39.488 39.478 39.471 39.404 39.595 39.501 39.571 39.402 39.385 39.282 39.294 39.262 39.224 39.223 39.175 39.169 39.148 39.108 39.086 39.038 39.019 38.939 38.91 38.841 38.814 41.6 44.672 40.8 37.812 37.643 37.691 37.564 37.995 38.673 38.21 38.125 37.018 36.834 36.8 36.833 36.873 36.867 36.933 36.873 36.94 36.879 36.935 36.96 36.896 36.949 36.907 36.868 36.853 36.824 36.803 36.753 36.671 38.82 39.524 44.136 42.692 40.705 36.549 35.977 35.906 35.897 35.939 35.939 35.984 35.923 36.358 36.372 44.134 43.915 44.137 45.097 47.589 47.252 36.613 36.374 36.699 41.412 42.269 38.812 36.909 36.898 40.742 41.715 42.986 43.719 42.496 38.759 36.601 36.488 36.506 36.524 36.517 36.498 36.461 36.445 36.458 36.459 36.45 36.383 36.391 36.345 36.386 36.377 36.407 36.428 36.406 36.415 36.374 36.341 36.346 36.284 36.307 36.226 36.1 36.111 36.104 36.13 35.983 35.799 35.554 38.153 39.32 38.5 37.171 35.379 35.253 35.223 35.23 35.19 35.211 35.178 35.223 35.171 35.206 35.14 35.078 34.876 34.643 34.523 34.573 34.658 34.617 34.533 34.543 34.695 36.586 36.094 35.413 35.265 35.122 35.284 36.236 36.379 36.141 34.947 35.47 35.267 38.574 41.129 41.332 41.357 41.288 41.187 40.971 40.093 40.535 39.248 36.994 37.813 35.319 36.001 35.333 35.621 35.11 35.095 35.081 35.592 35.229 35.073 35.135 35.163 35.365 34.975 35.038 35 35.068 35.167 37.238 38.471 34.964 34.844 34.945 34.949 34.947 35.009 35.012 34.994 35.02 35.072 35.084 35.129 35.159 35.163 35.112 35.205 35.201 35.217 35.254 35.254 35.256 35.265 35.259 35.289 35.343 35.457 35.393 35.389 35.354 35.379 35.396 35.37 35.387 35.377 35.369 35.342 35.334 35.311 35.298 35.25 35.289 35.257 35.238 35.287 35.288 35.332 35.231 35.243 35.291 35.304 35.35 35.336 35.359 35.298 35.315 35.267 35.281 35.301 35.322 35.378 35.376 35.353 35.379 35.397 35.451 35.481 35.507 35.521 35.591 35.594 35.597 35.59 35.584 35.572 35.561 35.562 35.603 35.591 35.58 35.571 35.567 35.651 35.668 35.646 35.636 35.642 35.685 35.716 35.774 35.8 35.783 35.804 35.829 35.838 35.873 35.924 35.935 35.951 35.928 36 36.016 36.004 36.034 36.036 36.051 36.046 36.051 36.07 36.072
43.184 43.16 43.07 43.081 43.017 42.923 42.86 42.801 42.746 42.756 42.747 42.607 42.633 42.573 42.69 42.555 43.073 42.536 42.734 47.153 45.985 43.817 44.997 48.281 48.847 49.007 48.329 48.286 49.934 49.854 46.77 42.657 41.756 41.904 41.948 41.982 42.33 42.331 42.345 42.303 42.397 42.447 43.124 43.154 42.922 41.751 41.817 41.956 41.985 41.956 42.014 41.875 41.884 41.732 42.493 46.624 43.904 42.656 41.458 41.393 41.236 41.108 41.042 40.935 40.895 40.809 40.776 40.707 40.577 40.547 40.405 40.536 42.126 43.437 47.35 47.292 45.102 46.511 47.419 47.286 46.804 45.64 44.577 45.113 45.019 45.144 43.409 42.848 44.08 49.559 50.122 45.596 44.244 43.453 43.208 42.761 42.617 42.528 42.461 42.376 42.265 42.201 42.093 42.16 42.174 42.019 42.078 40.731 41.203 41.253 42.419 42.6 44.466 43.648 43.941 44.259 43.772 43.057 41.207 40.125 39.804 39.779 39.705 39.635 39.663 39.578 39.534 39.545 39.497 39.495 39.449 39.441 39.578 39.594 39.505 39.4 39.353 39.283 39.275 39.27 39.234 39.188 39.198 39.18 39.121 39.181 39.05 39.006 39.008 39.015 38.945 38.944 38.87 38.89 40.157 43.102 41.045 43.505 38.142 37.655 37.639 37.688 37.664 37.568 38.691 38.436 37.219 36.735 36.814 36.84 36.847 36.889 36.898 36.899 36.92 36.942 36.97 36.96 36.99 36.918 36.921 36.906 36.868 36.815 36.832 36.777 36.741 36.747 39.558 41.615 42.99 42.811 39.549 36.085 35.957 35.897 35.909 35.994 35.956 35.948 36.415 36.597 40.78 45.254 39.697 46.977 49.023 46.532 40.152 36.43 36.62 36.68 36.755 36.765 36.729 38.815 41.038 39.593 39.839 43.096 42.604 37.344 36.571 36.573 36.52 36.524 36.513 36.487 36.531 36.56 36.515 36.5 36.407 36.418 36.378 36.384 36.433 36.384 36.399 36.369 36.37 36.414 36.373 36.411 36.298 36.3 36.292 36.266 36.16 36.13 36.106 36.124 36.028 35.863 35.595 36.199 37.329 38.88 38.622 35.682 35.293 35.196 35.28 35.198 35.193 35.241 35.204 35.233 35.226 35.185 35.055 34.895 34.762 34.559 34.607 34.614 34.666 34.638 34.575 34.805 35.738 34.921 35.043 35.235 35.645 39.177 39.793 37.038 35.221 35.381 34.924 35.085 35.285 39.496 40.433 40.697 40.74 40.985 41.164 41.299 41.451 41.299 41.164 41.01 40.867 39.645 39.905 39.052 35.44 37.666 37.852 35.268 35.254 35.166 35.106 35.214 35.185 35.027 35.115 35.128 35.279 40.93 41.872 41.599 36.94 34.768 34.819 34.784 34.784 34.808 34.78 34.814 34.85 34.828 34.923 34.912 34.932 34.984 34.989 35.012 35.017 35.072 35.095 35.128 35.108 35.139 35.153 35.164 35.231 35.266 35.259 35.297 35.299 35.302 35.327 35.305 35.328 35.39 35.358 35.36 35.341 35.351 35.337 35.291 35.297 35.238 35.234 35.246 35.254 35.272 35.271 35.25 35.256 35.264 35.285 35.29 35.304 35.309 35.29 35.306 35.316 35.308 35.285 35.326 35.362 35.365 35.349 35.414 35.428 35.463 35.475 35.607 35.526 35.545 35.572 35.604 35.558 35.584 35.566 35.57 35.584 35.604 35.585 35.583 35.553 35.588 35.616 35.62 35.621 35.633 35.682 35.694 35.719 35.749 35.8 35.763 35.831 35.831 35.828 35.888 35.92 35.949 35.925 35.971 36.001 36.008 35.978 35.99 36.031 36.053 36.021 36.027 36.059
43.114 43.058 43.043 43.033 43.131 43.092 42.947 43.173 43.04 43.96 43.306 46.317 46.418 47.661 49.715 44.663 43.158 47.979 49.98 50.164 50.064 50.125 50.349 51.86 50.584 50.85 50.693 50.859 51.098 51.108 46.587 43.476 41.885 41.785 41.961 42.137 42.938 42.478 42.472 42.468 42.513 42.562 42.992 43.349 43.42 42.167 41.698 41.955 41.963 41.932 41.997 41.918 41.863 41.785 41.712 42.894 41.988 41.544 41.507 41.44 41.273 41.237 41.074 40.918 40.879 40.735 40.653 40.653 40.54 40.669 43.965 42.721 44.069 44.069 46.012 45.67 44.649 45.508 46.317 45.935 46.139 46.213 46.323 44.459 44.271 43.334 43.529 43.576 43.665 44.534 43.801 43.561 42.969 42.884 42.761 42.73 42.62 42.548 42.439 42.352 42.51 42.655 43.114 45.054 46.933 43.988 42.832 40.677 41.93 42.965 44.47 44.115 43.761 44.557 43.063 43.262 43.17 40.761 39.831 39.794 39.765 39.707 39.656 39.669 39.631 39.573 39.547 39.479 39.478 39.441 39.506 39.556 39.622 39.44 39.37 39.347 39.319 39.224 39.271 39.228 39.205 39.205 39.11 39.112 39.075 39.104 39.039 39.016 38.979 38.987 38.933 39.071 39.296 38.357 37.959 38.868 43.678 38.806 37.621 37.681 37.649 37.656 37.716 37.55 37.824 37.909 37.657 36.762 36.778 36.832 36.838 36.906 36.864 36.915 36.921 36.95 36.995 36.971 37.02 36.95 36.952 36.922 36.881 36.876 36.832 36.784 36.793 36.749 38.967 40.989 42.337 43.202 43.324 40.237 36.035 35.938 35.972 35.998 35.957 35.933 36.825 35.945 41.139 39.48 37.404 46.743 46.358 47.364 37.695 36.374 36.445 36.526 36.62 36.577 36.638 39.671 41.07 39.203 42.448 41.782 40.969 36.994 36.572 36.534 36.555 36.527 36.511 36.533 36.534 36.544 36.5 36.454 36.487 36.49 36.368 36.38 36.418 36.438 36.435 36.393 36.422 36.373 36.406 36.388 36.291 36.311 36.222 36.185 36.202 36.149 36.1 36.116 36.07 35.789 35.681 35.65 35.585 36.203 37.321 35.558 35.268 35.229 35.248 35.235 35.272 35.188 35.178 35.124 35.17 35.18 35.059 34.846 34.669 34.664 34.676 34.647 34.721 34.58 34.607 34.698 35.676 35.167 35.336 36.028 36.732 40.554 40.961 40.427 35.678 35.627 34.953 35.013 35.164 35.119 35.176 37.863 36.738 36.589 36.846 40.392 40.301 40.79 40.93 41.066 41.213 41.212 41.363 41.292 41.079 40.283 40.753 39.489 37.819 38.934 35.443 36.203 35.157 35.143 35.194 35.279 37.349 40.651 42.041 41.958 36.62 34.797 34.712 34.705 34.646 34.645 34.945 34.704 34.642 34.678 34.736 34.678 34.711 34.779 34.769 34.799 34.855 34.874 34.905 34.918 34.938 34.989 34.978 35.017 35.086 35.096 35.101 35.096 35.139 35.199 35.244 35.264 35.249 35.312 35.31 35.328 35.329 35.321 35.371 35.315 35.319 35.267 35.275 35.264 35.327 35.254 35.218 35.272 35.254 35.261 35.258 35.285 35.27 35.259 35.261 35.311 35.313 35.337 35.301 35.302 35.323 35.318 35.379 35.352 35.41 35.468 35.48 35.534 35.52 35.599 35.542 35.621 35.578 35.573 35.556 35.572 35.588 35.549 35.566 35.552 35.584 35.59 35.59 35.604 35.579 35.639 35.637 35.658 35.669 35.722 35.764 35.773 35.748 35.725 35.807 35.886 35.884 35.929 35.91 35.949 35.964 35.962 35.964 35.969 36.022 35.967 35.993 36.021 36.038
45.479 48.259 48.002 48.662 49.4 50.071 45.178 44.766 43.889 49.33 50.495 50.627 50.472 50.512 50.707 44.003 42.71 48.87 50.831 51.063 51.378 51.49 51.495 51.851 51.57 51.698 51.665 51.521 51.358 52.456 47.069 44.312 41.971 41.925 42.012 42.061 42.877 42.755 42.628 42.611 42.596 42.625 42.708 43.479 43.306 43.343 42.258 41.824 41.86 41.996 41.987 41.979 41.943 41.92 42.343 41.705 41.698 41.54 42.787 41.48 41.199 41.12 40.935 40.873 40.811 40.769 40.764 40.659 40.726 41.089 45.428 46.521 45.792 44.446 44.416 45.097 45.331 45.813 45.051 44.435 45.426 44.734 44.578 44.02 43.995 43.972 43.671 43.462 43.342 43.265 43.172 43.088 43.019 42.857 42.757 42.719 42.835 42.851 43.779 44.054 44.27 45.111 44.722 45.595 47.301 47.625 45.577 42.198 43.475 43.924 44.05 43.154 41.79 41.939 40.71 41.068 40.104 39.843 39.736 39.75 39.664 39.692 39.585 39.624 39.527 39.557 39.549 39.575 39.569 39.572 39.583 39.439 39.426 39.376 39.272 39.291 39.313 39.231 39.223 39.167 39.202 39.133 39.142 39.117 39.072 39.008 38.993 38.981 39.035 42.804 43.172 39.691 37.99 37.779 37.675 37.673 37.744 38.017 37.68 37.746 37.713 37.773 37.689 37.655 37.562 38.478 37.838 37.859 36.731 36.807 36.839 36.87 36.893 36.924 36.883 36.991 36.985 37.003 37.013 36.952 36.995 36.889 36.908 36.882 36.805 36.837 36.763 36.757 36.687 41.408 43.623 44.411 43.357 37.808 35.99 35.972 36.008 36.054 35.987 36.048 36.082 35.975 38.475 42.911 40.99 43.029 47.094 40.295 36.16 36.276 36.341 40.624 40.221 44.182 36.655 43.392 40.898 42.163 42.594 42.766 40.836 36.623 36.573 36.585 36.458 36.56 36.556 36.532 36.57 36.547 36.53 36.474 36.434 36.492 36.467 36.499 36.433 36.536 36.447 36.42 36.441 36.376 36.408 36.31 36.224 36.282 36.237 36.17 36.177 36.201 36.139 36.177 36.012 35.818 35.667 35.625 35.62 35.551 35.486 35.474 35.539 35.656 35.301 35.241 35.226 35.141 35.132 35.126 35.174 35.162 35.156 34.923 34.683 34.683 34.736 34.731 34.713 34.652 34.707 35.982 36.409 35.626 34.927 35.489 39.378 40.898 41.023 39.066 37.256 35.158 35.28 35.038 35.018 35.23 35.041 35.321 35.458 36.41 35.199 36.498 38.2 35.207 36.799 39.865 37.195 40.51 40.674 40.867 41 41.156 41.272 41.319 41.278 41.273 41.003 39.87 35.307 35.083 35.326 35.44 38.413 41.066 39.539 38.677 34.901 34.793 34.722 34.694 34.697 34.73 34.689 35.111 35.063 34.638 34.597 34.782 34.61 34.623 34.669 34.677 34.644 34.691 34.691 34.731 34.735 34.738 34.789 34.854 34.935 34.9 34.955 34.962 35.019 35.12 35.038 35.111 35.133 35.121 35.162 35.19 35.199 35.243 35.254 35.3 35.321 35.302 35.292 35.214 35.24 35.28 35.251 35.24 35.22 35.242 35.269 35.283 35.268 35.26 35.313 35.346 35.374 35.371 35.31 35.313 35.372 35.37 35.371 35.373 35.492 35.392 35.428 35.471 35.497 35.502 35.535 35.55 35.526 35.548 35.539 35.562 35.525 35.542 35.521 35.546 35.555 35.555 35.578 35.566 35.594 35.592 35.563 35.617 35.626 35.661 35.723 35.771 35.793 35.708 35.822 35.837 35.861 35.859 35.909 35.893 35.933 35.928 35.929 35.939 35.937 35.952 35.969 36.004 35.984
51.188 51.521 51.712 51.466 51.718 51.763 50.775 44.612 43.297 49.138 51.556 51.542 51.853 51.965 51.841 47.937 43.565 43.303 51.46 51.427 51.178 51.088 51.202 51.633 52.088 50.77 50.543 50.62 50.338 50.462 46.782 43.071 41.909 41.907 41.975 41.998 42.515 42.977 42.763 42.759 42.757 42.77 42.808 43.034 43.397 43.563 43.127 41.963 41.708 41.865 41.966 42.018 41.93 41.916 43.18 44.179 43.335 41.477 41.646 41.195 40.979 40.892 40.831 40.867 40.857 40.941 41.855 42.099 41.713 43.446 44.117 44.762 45.305 44.848 44.459 45.825 46.632 46.438 45.853 43.822 44.174 44.031 44.094 43.868 43.752 43.62 43.488 43.413 43.324 43.232 43.156 43.042 42.973 43.039 42.928 42.961 43.48 44.539 45.951 46.358 46.439 46.557 47.748 47.051 45.751 46.992 44.909 44.13 44.386 44.052 44.709 42.303 40.134 40.049 39.896 39.811 39.843 39.758 39.708 39.699 39.604 39.621 39.593 39.54 39.48 39.527 39.56 39.863 39.595 39.42 39.457 39.404 39.359 39.296 39.308 39.27 39.216 39.217 39.233 39.204 39.111 39.087 39.035 39.044 39.035 38.959 38.933 38.994 42.133 44.686 44.926 38.078 38.41 37.699 37.701 37.752 37.752 37.812 37.775 37.698 37.72 37.758 37.725 37.719 37.546 39.439 40.735 39.916 36.947 36.797 36.868 36.875 36.883 36.932 36.903 36.928 36.923 37 36.986 36.949 36.967 36.886 36.907 36.87 36.845 36.829 36.773 36.806 36.751 37.756 41.208 45.437 44.269 38.786 36.862 36.026 36.096 36.057 36.11 36.246 36.209 36.028 35.852 36.021 42.92 38.666 38.694 36.13 36.11 36.169 36.278 39.989 47.138 46.142 47.21 48.017 42.31 41.047 43.213 42.726 38.052 36.542 36.566 36.48 36.475 36.513 36.507 36.53 36.536 36.534 36.515 36.458 36.47 36.456 36.484 36.521 36.473 36.505 36.392 36.376 36.325 36.308 36.337 36.282 36.308 36.226 36.274 36.227 36.212 36.218 36.204 36.109 36.003 35.827 35.714 35.652 35.676 35.608 35.585 35.424 35.342 37.193 36.192 35.272 35.163 35.201 35.158 35.178 35.35 36.95 36.791 34.93 34.716 34.661 34.773 34.731 34.688 34.665 34.699 36.157 36.948 35.462 35.935 35.327 39.273 41.175 40.679 36.016 35.649 34.998 35.536 35.365 35.049 35.204 34.974 35.188 41.471 41.607 38.288 41.055 35.101 34.984 35.622 36.766 35.12 35.141 36.066 37.719 38.79 39.417 40.468 40.137 40.731 40.906 41.117 41.071 35.215 35.163 35.288 35.364 36.139 36.934 35.04 34.881 34.882 36.266 34.911 34.753 35.12 34.69 34.764 36.595 35.26 34.703 34.62 34.658 34.874 34.589 34.633 34.701 34.739 34.669 34.583 34.565 34.599 34.644 34.632 34.617 34.676 34.714 34.754 34.754 34.82 34.877 34.9 34.926 34.895 34.987 34.972 35.035 35.036 35.112 35.114 35.156 35.218 35.267 35.256 35.317 35.236 35.2 35.245 35.23 35.244 35.24 35.28 35.279 35.291 35.26 35.301 35.339 35.362 35.378 35.386 35.346 35.361 35.372 35.433 35.406 35.412 35.431 35.401 35.434 35.564 35.451 35.447 35.52 35.485 35.493 35.499 35.528 35.499 35.534 35.512 35.494 35.516 35.553 35.57 35.54 35.544 35.528 35.521 35.511 35.586 35.632 35.656 35.702 35.744 35.777 35.797 35.744 35.813 35.828 35.863 35.86 35.875 35.866 35.891 35.914 35.938 35.93 35.925 35.963 35.944
52.104 52.498 52.543 52.543 52.634 52.595 46.24 43.803 43.965 49.458 51.55 51.358 51.308 51.205 51.221 50.06 42.977 43.44 50.233 50.121 50.163 49.945 49.982 49.783 49.922 49.713 49.464 46.277 44.369 45.464 44.185 43.91 42.063 42.02 42.003 42.058 42.301 43.174 42.947 42.901 42.932 43.005 42.95 42.976 43.629 45.446 43.793 43.003 41.594 41.672 41.804 41.975 41.934 42.004 42.577 44.315 45.202 44.27 41.14 40.921 40.959 40.926 40.896 41.353 42.667 43.414 42.244 43.863 43.163 45.356 45.069 44.861 44.994 46.075 45.937 45.757 46.586 44.07 44.096 44.131 44.073 44.069 43.896 43.731 43.625 43.564 43.407 43.431 43.288 43.3 43.245 43.301 44.509 46.418 45.005 45.463 45.685 46.79 48.313 47.601 46.704 45.715 47.665 47.764 45.85 46.409 44.704 44.404 44.808 42.047 41.597 40.058 39.936 39.854 39.833 39.861 39.766 39.716 39.684 39.624 39.627 39.585 39.58 39.512 39.652 39.8 39.589 39.544 39.395 39.357 39.364 39.291 39.337 39.278 39.268 39.248 39.159 39.213 39.135 39.121 39.063 39.043 39.052 38.954 39.1 40.507 40.668 39.004 38.984 42.359 44.515 41.902 37.789 37.696 37.754 37.757 37.822 37.81 37.838 37.683 37.752 37.658 37.756 37.668 37.632 38.826 42.09 40.153 37.736 36.77 36.832 36.849 36.909 36.877 36.896 36.885 36.909 36.97 36.922 36.957 36.903 36.891 36.898 36.848 36.849 36.8 36.792 37.13 38.68 37.105 45.823 47.336 48.338 43.29 38.366 36.026 36.342 36.127 36.324 36.387 36.044 36.027 35.922 36.156 35.957 36.095 36.111 36.284 36.16 36.153 36.236 47.351 48.699 50.58 50.55 45.919 42.258 37.063 36.823 37.992 36.555 36.576 36.572 36.509 36.557 36.55 36.531 36.602 36.527 36.583 36.459 36.462 36.424 36.478 36.528 36.497 36.519 36.402 36.373 36.357 36.394 36.329 36.336 36.329 36.339 36.318 36.301 36.196 36.21 37.221 36.184 36.174 35.991 35.867 35.734 35.774 35.738 35.693 35.591 35.488 35.452 37.089 36.338 35.297 35.246 35.306 35.253 35.241 35.65 37.377 36.837 34.927 34.743 34.746 34.815 34.794 34.744 34.791 34.8 36.637 36.769 36.728 36.403 38.933 40.722 41.085 37.646 35.057 34.984 35.279 35.295 35.493 35.1 35.872 35.182 44.341 43.734 44.987 45.182 36.313 36.392 34.812 34.862 34.852 34.972 34.986 35.066 35.514 35.757 35.148 35.142 35.196 38.093 38.54 36.812 37.603 35.13 35.163 35.163 39.818 41.06 35.402 35.639 34.839 35.016 40.434 40.31 38.705 37.037 38.581 35.209 35.841 34.848 34.913 34.98 34.87 34.714 34.722 34.649 34.617 34.622 34.543 34.552 34.601 34.512 34.529 34.556 34.491 34.524 34.557 34.584 34.622 34.68 34.692 34.7 34.697 34.741 34.738 34.743 34.811 35.257 36.905 35.243 35.005 35.01 35.135 35.126 35.131 35.139 35.178 35.118 35.146 35.184 35.213 35.258 35.296 35.314 35.295 35.325 35.319 35.338 35.354 35.373 35.407 35.416 35.436 35.45 35.49 35.398 35.426 35.398 35.404 35.421 35.435 35.471 35.502 35.551 35.444 35.47 35.473 35.449 35.491 35.459 35.469 35.497 35.48 35.486 35.513 35.502 35.45 35.476 35.44 35.498 35.572 35.649 35.682 35.727 35.768 35.76 35.789 35.747 35.774 35.817 35.839 35.831 35.834 35.869 35.881 35.926 35.929 35.909 35.895 35.912
52.335 52.605 52.171 52.108 51.821 51.691 52.676 43.304 43.377 49.105 50.335 50.342 50.248 49.727 49.785 45.185 42.784 45.014 45.727 44.515 44.574 43.844 44.363 44.524 43.562 42.325 42.256 42.409 42.226 42.135 42.158 42.084 42.049 42.031 42.072 42.087 42.256 43.064 43.254 43.006 43.01 43.105 43.058 43.13 46.421 47.447 45.851 43.977 42.419 41.458 41.559 41.705 41.662 41.841 41.725 41.49 41.225 41.032 40.975 40.889 41.007 42.738 43.231 44.383 44.525 45.598 44.476 45.485 45.953 45.571 46.23 46.927 47.193 46.522 46.068 44.699 44.981 44.367 44.243 44.114 44.005 43.925 43.818 43.726 43.672 43.542 43.438 43.498 43.576 43.595 44.763 45.22 46.889 47.446 47.26 47.887 48.697 49.35 48.661 48.088 46.539 46.524 46.105 45.492 46.045 41.96 44.315 44.286 41.245 40.371 40.011 39.904 39.85 39.809 39.784 39.782 39.659 39.718 39.635 39.577 39.586 39.453 39.572 39.747 39.625 39.467 39.454 39.458 39.385 39.374 39.324 39.327 39.319 39.243 39.212 39.21 39.117 39.142 39.069 39.068 39.034 39.035 38.987 40.072 46.717 46.1 44.73 38.623 37.788 37.707 39.373 39.152 37.791 37.816 37.813 37.83 37.842 37.784 37.839 37.857 37.806 37.723 37.695 37.643 37.712 37.616 37.81 38.689 37.85 36.775 36.767 36.825 36.866 36.84 36.915 36.92 36.928 36.873 36.914 36.914 36.881 36.906 36.853 36.859 36.858 36.761 43.801 40.002 43.691 48.308 48.408 48.8 50.082 48.009 40.751 45.585 41.498 42.472 37.223 36.359 36.074 36.09 35.985 35.99 36.022 36.1 36.17 36.21 36.208 36.228 36.484 45.246 50.805 52.866 48.885 47.794 39.324 36.402 36.458 36.584 36.531 36.551 36.544 36.53 36.534 36.49 36.495 36.587 36.531 36.547 36.494 36.478 36.476 36.487 36.507 36.478 36.482 36.426 36.443 36.409 36.417 36.366 36.4 36.381 36.334 36.305 36.292 36.217 36.217 36.168 36.122 36.097 35.956 35.76 35.787 35.808 35.707 35.669 35.587 35.492 35.515 35.456 35.376 35.396 35.355 35.357 35.238 35.317 36.162 38.019 38.737 41.511 34.902 34.774 34.817 34.795 34.771 34.831 34.895 36.593 35.256 36.064 35.903 39.811 41.024 40.743 36.524 35.088 35.057 34.973 35.008 34.998 35.457 38.13 38.965 46.444 45.985 46.248 46.107 43.336 37.262 34.919 35.123 34.936 34.933 34.829 34.914 34.964 34.993 35.084 35.11 35.178 35.764 35.172 35.18 35.562 35.157 35.143 35.246 41.752 42.279 40.84 39.432 34.963 38.483 40.838 40.844 40.781 40.806 40.867 40.585 39.625 40.207 39.059 36.507 38.399 34.881 34.824 34.815 34.638 34.681 34.644 34.643 34.593 34.551 34.607 34.608 34.535 34.481 34.489 34.499 34.486 34.512 34.596 34.534 34.537 34.576 34.541 35.011 42.361 42.309 41.904 36.14 35.492 34.877 34.884 34.958 34.942 34.955 35.059 35.024 35.101 35.119 35.164 35.193 35.173 35.229 35.234 35.254 35.27 35.319 35.315 35.361 35.321 35.347 35.361 35.39 35.442 35.449 35.438 35.437 35.467 35.436 35.42 35.423 35.413 35.438 35.443 35.459 35.435 35.409 35.439 35.427 35.454 35.44 35.457 35.443 35.459 35.433 35.432 35.451 35.449 35.523 35.536 35.595 35.652 35.686 35.693 35.746 35.786 35.752 35.784 35.781 35.784 35.806 35.81 35.848 35.818 35.861 35.886 35.873 35.865 35.89
51.301 51.32 51.628 51.417 50.676 50.632 49.065 44.655 44.528 44.497 44.707 44.714 43.768 43.946 42.779 42.786 42.655 42.603 42.532 42.476 42.475 42.93 43.231 42.759 42.349 42.372 42.335 42.315 42.252 42.235 42.171 42.109 42.075 42.077 42.081 42.133 42.253 42.654 43.568 43.239 43.127 43.201 43.194 43.213 46.587 47.29 44.745 42.831 42.131 41.576 41.427 41.343 41.307 41.421 41.242 41.037 41.035 41.099 41.033 41.01 43.416 45.711 45.84 45.786 46.413 45.386 45.932 47.089 46.224 46.171 46.544 46.327 46.643 45.529 44.641 44.438 44.314 44.262 44.113 44.087 44.053 43.916 43.809 43.716 43.692 44.534 43.804 46.022 44.108 46.905 47.516 44.88 46.036 48.471 47.897 48.188 47.611 48.324 48.201 47.878 48.263 48.695 46.546 44.688 45.212 45.018 41.874 40.527 40.188 39.937 39.877 39.831 39.835 39.801 39.706 39.697 39.611 39.652 39.6 39.583 39.671 39.784 39.673 39.595 39.491 39.435 39.448 39.401 39.341 39.323 39.298 39.338 39.299 39.168 39.199 39.124 39.109 39.082 39.059 39.017 38.939 38.957 40.964 40.628 46.651 41.803 45.275 37.907 37.726 37.74 37.763 37.773 37.831 37.815 37.833 37.864 37.855 37.866 37.864 37.864 37.867 37.847 37.744 37.685 37.732 37.635 37.572 38.033 39.1 37.025 36.775 36.821 36.806 36.84 36.911 36.84 36.873 36.882 36.908 36.862 36.835 36.856 36.863 36.819 36.78 37.222 48.994 49.361 49.212 48.459 43.015 47.423 49.541 40.8 50.616 49.331 50.264 46.751 37.244 36.396 36.129 39.05 40.634 37.619 37.6 36.256 36.221 36.16 36.214 36.199 36.18 37.302 37.627 43.05 42.985 38.999 38.809 36.343 36.531 36.542 36.604 36.586 36.56 36.498 36.5 36.53 36.521 36.494 36.568 36.494 36.495 36.47 36.486 36.52 36.486 36.482 36.531 36.476 36.517 36.473 36.496 36.428 36.439 36.442 36.388 36.343 36.286 36.272 36.203 36.199 36.225 36.135 35.995 35.792 35.797 35.751 35.763 35.733 35.608 35.637 35.548 35.524 35.502 35.344 37.579 36.943 36.015 39.718 37.202 37.297 39.21 43.505 35.97 34.899 34.915 34.791 34.768 34.808 35.918 36.575 35.122 34.961 35.135 40.717 41.117 40.481 35.313 37.702 35.747 34.995 36.287 35.471 34.959 40.59 40.342 43.624 44.553 44.99 45.168 44.195 39.952 36.246 35.146 35.879 34.84 34.816 34.801 34.807 35.437 35.027 35.058 35.177 35.169 35.41 35.269 35.236 35.126 35.085 35.025 35.753 36.999 39.762 40.481 36.024 35.796 38.974 37.431 40.158 40.363 40.474 40.57 40.756 41.012 40.867 40.877 40.634 40.414 39.523 40.197 38.801 35.996 35.968 34.825 34.652 34.746 34.641 34.696 34.671 34.556 34.552 34.673 34.631 34.583 34.515 34.527 34.463 34.394 35.131 40.826 45.378 45.578 44.155 37.417 35.444 34.588 34.61 34.67 34.733 34.778 34.794 34.899 34.909 34.913 35.021 35.038 35.08 35.129 35.104 35.141 35.153 35.217 35.215 35.282 35.265 35.271 35.285 35.348 35.321 35.337 35.36 35.367 35.371 35.391 35.374 35.341 35.372 35.402 35.404 35.408 35.4 35.425 35.411 35.416 35.423 35.413 35.438 35.454 35.464 35.464 35.456 35.455 35.491 35.504 35.503 35.55 35.604 35.65 35.703 35.689 35.714 35.724 35.747 35.704 35.738 35.742 35.747 35.796 35.792 35.835 35.83 35.843 35.848 35.846
46.682 45.212 45.14 45.146 43.957 43.109 42.992 43.077 42.971 42.872 42.9 42.849 42.809 43.738 43.821 42.808 42.713 42.646 42.639 42.624 42.592 42.679 42.805 42.469 42.433 42.433 42.407 42.379 42.317 42.288 42.238 42.16 42.098 42.086 42.129 42.163 42.274 42.556 43.403 43.681 43.285 43.314 43.35 43.38 43.343 43.769 44.729 43.584 42.22 41.678 41.342 41.164 41.14 41.138 40.975 41.039 44.005 44.441 44.386 43.31 45.681 47.721 46.764 48.108 47.068 48.01 47.296 47.471 48.147 48.283 47.067 45.303 44.812 44.697 44.474 44.269 44.33 44.216 44.108 44.06 43.948 43.962 43.96 44.009 45.309 46.287 46.684 48.793 46.836 47.31 49.725 48.658 47.404 47.503 50.402 49.358 47.767 47.422 46.17 46.646 46.826 47.31 45.174 44.097 43.665 40.644 40.038 39.915 39.944 39.871 39.842 39.726 39.79 39.682 39.667 39.667 39.613 39.628 39.697 39.968 39.675 39.611 39.525 39.477 39.46 39.396 39.382 39.322 39.346 39.332 39.283 39.282 39.223 39.193 39.149 39.14 39.066 39.012 39.005 40.906 39.143 43.009 44.567 40.152 44.322 46.144 40.615 38.151 37.753 37.803 37.836 37.837 37.835 37.853 37.81 37.852 37.879 37.865 37.86 37.887 37.821 37.863 37.811 37.781 37.681 37.687 37.598 38.288 39.475 38.22 37.026 36.809 36.862 36.783 36.832 36.908 36.847 36.845 36.866 36.821 36.848 36.781 36.828 36.781 36.94 45.841 49.218 50.306 53.317 47.98 42.263 47.331 49.814 49.236 51.712 52.855 52.432 46.034 38.977 36.256 36.306 42.036 45.134 44.547 41.443 37.471 36.251 36.199 36.222 36.148 36.209 36.234 36.233 36.247 36.833 36.289 36.359 36.333 36.503 36.532 36.586 36.518 36.543 36.512 36.471 36.513 36.563 36.52 36.548 36.468 36.532 36.488 36.484 36.485 36.493 36.51 36.451 36.513 36.502 36.484 36.45 36.468 36.445 36.385 36.401 36.33 36.317 36.29 36.217 36.218 36.221 36.157 35.924 35.849 35.761 35.724 35.73 35.715 35.631 35.653 35.62 35.516 35.424 35.357 36.426 41.379 38.924 41.296 37.962 35.812 45.704 39.927 38.227 34.967 34.869 34.833 34.899 34.944 35.207 35.361 35.485 35.279 39.7 40.689 40.911 41.04 40.746 40.453 38.115 36.097 36.797 37.398 35.023 37.094 41.864 41.347 45.028 43.674 45.269 42.198 35.433 34.819 34.808 35.099 34.851 34.851 34.794 34.92 35.713 35.036 35.492 38.775 37.622 36.655 35.643 35.415 35.253 35.103 35.068 35.14 35.346 35.009 35.297 34.813 34.778 34.763 34.764 34.861 37.657 36.714 36.284 39.024 39.727 40.203 40.526 40.621 40.691 40.81 40.947 40.837 40.697 40.54 40.39 38.89 37.036 38.477 34.744 34.614 34.56 34.592 34.699 34.774 34.724 34.679 34.608 34.511 37.309 41.621 45.158 45.418 45.19 45.6 38.818 39.277 34.553 34.496 34.551 34.563 34.63 34.669 34.686 34.727 34.753 34.805 34.76 34.879 34.87 34.929 34.957 35.056 35.097 35.117 35.123 35.139 35.212 35.188 35.183 35.201 35.274 35.277 35.301 35.272 35.289 35.28 35.274 35.324 35.284 35.337 35.32 35.33 35.387 35.399 35.409 35.374 35.404 35.431 35.397 35.415 35.425 35.458 35.474 35.448 35.46 35.492 35.538 35.579 35.591 35.675 35.656 35.676 35.726 35.73 35.771 35.725 35.726 35.78 35.731 35.779 35.8 35.807 35.802 35.809 35.842
43.323 43.222 43.266 43.191 43.101 43.13 43.064 43.018 43.046 42.978 42.943 42.919 42.872 42.891 42.842 42.735 42.739 42.714 42.723 42.627 42.609 42.527 42.721 42.7 42.412 42.407 42.396 42.342 42.316 42.314 42.323 42.237 42.112 42.108 42.235 42.192 42.283 42.479 43.115 44.558 44.866 43.589 43.469 43.558 43.55 43.67 44.693 44.285 42.04 41.467 41.171 41.124 41.057 44.321 45.871 47.607 46.303 43.969 48.513 47.597 47.999 49.163 48.507 48.566 49.195 49.095 48.893 49.443 49.948 47.692 45.46 44.848 44.561 44.44 44.401 44.337 44.297 44.216 44.099 44.125 44.125 44.211 45.22 46.893 47.328 48.142 48.822 47.754 45.925 48.013 49.381 47.823 46.456 43.573 47.646 49.491 46.173 47.066 48.267 47.478 46.402 44.339 44.183 41.757 40.198 39.959 39.926 39.933 39.888 39.802 39.783 39.73 39.753 39.678 39.647 39.637 39.567 39.838 39.694 39.622 39.579 39.529 39.461 39.471 39.396 39.356 39.373 39.3 39.279 39.243 39.234 39.247 39.152 39.108 39.074 38.999 39.048 42.797 42.43 45.202 41.247 42.84 45.866 43.092 41.692 40.037 38.242 37.731 37.837 37.801 37.826 37.8 37.818 37.845 37.856 37.859 37.852 37.905 37.912 37.866 37.87 37.87 37.839 37.756 37.688 37.676 37.626 37.531 38.952 38.527 39.14 36.815 36.802 36.857 36.816 36.852 36.852 36.84 36.809 36.805 36.824 36.816 36.805 36.678 38.183 48.15 43.283 50.779 52.896 49.807 49.519 48.236 48.174 48.253 50.241 51.236 51.254 42.551 36.843 36.201 37.272 44.151 44.916 45.746 43.154 40.803 36.439 36.456 36.445 36.39 36.394 36.447 36.272 36.598 36.308 36.242 36.29 36.395 36.545 36.579 36.586 36.56 36.551 36.528 36.506 36.52 36.483 36.478 36.481 36.479 36.471 36.489 36.543 36.48 36.449 36.455 36.496 36.524 36.482 36.495 36.431 36.466 36.383 36.377 36.37 36.323 36.278 36.267 36.251 36.275 36.237 36.15 35.96 35.886 35.829 35.801 35.803 35.756 35.685 35.636 35.62 35.606 35.425 35.348 35.334 35.55 37.448 41.368 42.554 46.21 46.509 36.877 34.913 34.961 34.884 34.848 34.893 35.029 36.555 35.223 35.782 37.697 36.491 36.233 39.737 40.499 40.978 41.169 40.789 40.05 39.783 36.525 35.75 35.048 39.005 40.229 44.642 43.267 44.49 40.164 34.919 34.876 34.86 34.95 34.887 34.896 34.963 34.948 35.199 35.477 36.36 40.706 41.065 40.939 40.552 39.937 39.581 38.556 37.434 36.657 35.225 35.126 34.957 34.995 34.975 34.811 34.694 34.689 35.33 34.671 34.685 36.562 37.415 35.382 37.322 38.855 36.338 39.963 40.312 40.484 40.488 40.589 40.827 40.83 40.904 40.655 34.821 34.663 34.553 34.654 34.733 34.781 34.809 34.83 34.703 34.555 35.882 40.565 43.001 46.059 45.542 44.925 43.306 36.369 35.255 34.947 34.795 34.564 34.491 34.541 34.517 34.527 34.573 34.601 34.593 34.61 34.678 34.71 34.733 34.874 34.867 34.918 34.941 35.02 35.062 35.057 35.091 35.095 35.133 35.138 35.173 35.134 35.184 35.187 35.215 35.213 35.204 35.2 35.231 35.321 35.308 35.334 35.321 35.337 35.387 35.355 35.404 35.394 35.446 35.438 35.434 35.505 35.445 35.48 35.516 35.543 35.573 35.607 35.627 35.684 35.657 35.702 35.731 35.733 35.674 35.724 35.696 35.692 35.692 35.761 35.782 35.799 35.78
43.344 43.278 43.269 43.24 43.194 43.185 43.185 43.084 43.043 43.054 42.958 42.957 42.922 42.833 42.843 42.779 42.787 42.718 42.678 42.573 42.604 43.33 43.019 42.639 42.48 42.61 42.666 42.693 43.042 45.247 45.885 42.39 42.299 42.124 42.232 42.186 42.328 42.994 49.261 52.647 52.654 44.77 43.573 43.63 43.749 43.787 43.932 44.064 41.848 41.21 41.184 41.167 41.142 45.827 48.865 49.196 48.946 48.544 47.215 49.198 49.477 46.192 49.132 47.483 49.514 49.535 50.033 48.987 49.263 46.515 44.799 44.551 44.488 44.468 44.414 44.327 44.247 44.155 44.298 45.189 45.511 46.211 46.783 47.303 47.78 48.512 47.736 48.055 48.693 48.502 46.61 48.708 48.306 42.936 43.202 44.605 46.016 45.508 47.151 48.386 46.332 43.849 43.709 40.109 40.026 39.964 39.881 39.861 39.799 39.779 39.687 39.664 39.738 39.646 39.622 39.854 39.831 39.756 39.57 39.527 39.506 39.483 39.408 39.453 39.431 39.356 39.334 39.302 39.312 39.223 39.123 39.146 39.124 39.107 39.068 39.024 39.225 46.686 48.36 49.203 42.217 40.281 48.338 45.681 45.703 39.15 39.462 37.788 37.761 37.853 37.844 37.866 37.829 37.88 37.879 37.881 37.851 37.898 37.925 37.918 37.899 37.871 37.843 37.842 37.807 37.736 37.643 37.669 37.601 39.239 39.351 37.176 36.745 36.791 36.859 36.822 36.801 37.047 36.818 36.792 36.769 36.771 39.526 41.728 43.512 43.625 50.168 49.767 45.095 51.717 51.927 47.1 44.849 40.298 43.672 45.339 48.913 40.15 36.783 36.236 36.421 46.049 45.773 46.768 45.802 41.596 36.807 36.731 36.646 36.669 36.608 45.22 47.15 41.162 38.939 36.552 36.288 36.375 36.517 36.538 36.557 36.621 36.574 36.479 36.548 36.514 36.463 36.529 36.502 36.464 36.425 36.498 36.437 36.415 36.439 36.457 36.495 36.508 36.518 36.536 36.471 36.445 36.42 36.424 36.312 36.359 36.402 36.334 36.356 36.252 36.275 36.143 35.998 35.947 35.868 35.828 35.83 35.759 35.749 35.688 35.706 35.562 35.471 35.567 36.061 36.134 37.547 38.583 39.508 38.455 41.762 37.527 34.907 34.969 34.981 34.975 34.863 35.078 36.591 35.223 36.853 35.762 35.07 35.179 35.768 35.738 39.467 40.544 41.669 41.347 41.032 39.946 39.238 37.796 37.485 36.736 41.503 43.911 39.244 35.646 34.923 34.975 34.951 34.959 34.941 34.966 34.959 35.001 34.966 35.627 38.647 40.997 41.241 41.369 41.309 41.35 41.293 41.227 41.141 40.973 39.335 39.743 39.001 35.144 37.282 36.069 34.727 34.725 34.884 34.604 34.594 34.631 34.592 34.637 35.085 34.692 34.769 37.179 36.711 34.74 37.86 39.964 39.678 40.174 40.319 39.414 34.821 34.695 34.532 34.65 34.756 34.901 34.873 34.843 34.74 34.605 35.535 35.881 44.323 44.745 44.637 43.791 37.404 34.591 35.251 34.578 34.534 34.467 35.574 35.913 34.715 34.719 34.767 35.201 34.523 35.003 34.551 34.522 34.538 34.579 34.768 34.683 34.716 34.806 34.832 34.823 34.926 34.956 34.961 35.007 35.042 35.03 35.133 35.086 35.09 35.101 35.123 35.155 35.475 35.171 35.175 35.185 35.22 35.277 35.276 35.297 35.328 35.36 35.36 35.369 35.378 35.418 35.381 35.421 35.489 35.528 35.521 35.538 35.569 35.62 35.661 35.658 35.66 35.702 35.715 35.682 35.669 35.693 35.71 35.716 35.759 35.764 35.757
43.371 43.319 43.277 43.211 43.182 43.103 43.094 43.145 43.029 42.932 42.944 42.952 42.843 42.838 42.839 42.761 42.821 42.738 42.864 42.969 44.644 47.833 46.305 46.859 44.64 48.584 48.568 49.438 49.976 50.779 50.374 44.148 42.31 42.16 42.222 42.268 42.295 45.542 50.648 52.994 52.515 47.1 43.667 43.738 43.77 43.957 43.94 44.105 41.33 41.147 41.182 41.365 47.37 43.969 49.748 48.474 45.152 46.291 43.1 47.046 49.714 46.309 48.862 47.821 49.421 49.743 47.582 45.698 44.894 44.689 44.619 44.58 44.48 44.438 44.31 44.376 44.452 44.335 44.43 45.296 47.215 48.949 48.755 47.665 48.919 49.235 48.135 48.48 45.134 47.301 46.579 47.722 46.767 47.185 47.24 44.633 44.743 44.282 45.737 46.74 44.57 40.858 40.026 39.926 39.954 39.852 39.865 39.806 39.782 39.729 39.697 39.706 39.654 39.682 39.755 39.641 39.607 39.558 39.59 39.525 39.472 39.49 39.38 39.446 39.327 39.364 39.356 39.246 39.219 39.157 39.137 39.089 39.112 39.07 38.949 41.331 44.677 47.338 49.811 49.398 41.838 40.53 47.116 44.849 42.691 45.163 39.038 39.637 37.724 37.83 37.85 37.858 37.876 37.849 37.887 37.903 37.916 37.908 37.943 37.919 37.889 37.905 37.877 37.857 37.84 37.787 37.663 37.661 37.577 37.993 40.339 37.911 36.802 36.788 36.799 36.78 42.44 40.059 36.787 43.651 38.697 41.035 42.028 43.744 43.852 44.476 47.823 51.3 44.141 52.126 48.423 48.356 40.532 37.42 38.51 40.675 37.677 36.533 36.391 36.315 36.453 45.776 45.256 41.373 46.059 39.6 37.383 37.028 37.032 37.581 37.273 46.965 51.582 43.731 46.521 40.731 36.257 36.382 36.37 36.508 36.551 36.613 36.535 36.506 36.551 36.474 36.493 36.431 36.449 36.422 36.395 36.401 36.3 36.322 36.363 36.438 36.482 36.447 36.418 36.468 36.454 36.396 36.364 36.403 36.328 36.341 36.41 36.401 36.36 36.31 36.26 36.145 36.038 36.028 35.954 35.92 35.829 35.811 35.748 35.714 35.675 35.573 35.484 35.509 35.396 35.32 35.161 41.857 39.025 42.453 43.621 36.975 35.193 34.956 35.018 34.964 35.017 35.123 36.644 36.768 37.809 35.867 35.144 35.125 35.407 36.38 36.963 41.664 42.35 41.972 41.749 41.364 40.987 40.7 38.676 36.051 35.136 37.383 36.953 35.339 35.146 34.965 34.98 34.993 35.009 34.985 35.02 34.999 34.977 35.096 35.388 35.968 39.34 39.644 40.216 40.803 40.84 41.233 41.221 41.32 41.334 41.406 40.986 40.585 39.907 40.228 39.389 38.959 36.833 36.343 35.232 34.279 34.305 34.429 34.509 34.557 34.61 34.827 34.666 34.697 36.637 35.993 34.721 34.791 37.645 35.94 34.735 34.659 34.55 34.632 34.717 34.81 34.867 34.854 34.691 34.559 34.552 34.481 36.048 41.965 41.73 42.009 35.835 35.94 35.703 34.831 34.658 34.479 34.569 35.359 34.629 34.619 34.549 34.653 36.829 36.985 34.629 34.728 34.951 37.996 35.671 34.501 34.581 34.521 34.569 34.625 34.663 34.712 34.709 34.743 34.839 34.909 34.914 34.934 34.9 34.907 34.929 34.93 35.007 35.009 35.027 35.07 35.075 35.135 35.107 35.174 35.204 35.25 35.261 35.264 35.251 35.292 35.293 35.342 35.418 35.431 35.51 35.49 35.537 35.591 35.597 35.641 35.656 35.655 35.689 35.666 35.62 35.61 35.679 35.7 35.679 35.669 35.693
43.328 43.299 43.195 43.2 43.233 43.187 43.172 43.113 43.441 43.149 43.598 43.384 47.803 46.625 46.878 47.877 44.716 43.304 44.765 50.048 50.159 50.188 50.398 50.655 52.127 50.728 50.803 50.967 51.332 51.375 51.32 46.081 42.353 42.197 42.18 42.253 42.3 42.632 45.043 49.93 47.038 44.554 43.875 43.88 43.932 43.927 44.09 44.205 42.283 42.252 43.286 41.546 43.769 44.226 44.786 46.295 45.093 47.431 45.033 48.794 47.377 43.813 47.422 47.839 46.909 46.524 45.195 44.755 44.795 44.654 44.572 44.574 44.507 44.51 44.515 44.518 44.435 45.58 49.74 47.488 48.853 49.175 49.782 45.263 43.983 44.732 47.319 44.763 49.846 46.467 45.331 47.661 48.402 42.977 45.102 44.278 45.381 44.068 43.535 40.871 40.044 39.968 39.906 39.873 39.892 39.812 39.792 39.739 39.774 39.732 39.65 39.753 39.798 39.759 39.612 39.585 39.568 39.514 39.506 39.433 39.452 39.46 39.387 39.361 39.324 39.324 39.278 39.24 39.136 39.184 39.084 39.054 39.053 39.075 39.614 42.827 46.639 46.918 48.773 49.185 45.03 39.315 43.114 44.368 49.522 50.068 47.689 40.467 37.961 37.804 37.795 37.872 37.869 37.871 37.878 37.864 37.932 37.94 37.967 37.947 37.88 37.897 37.864 37.852 37.817 37.809 37.79 37.754 37.589 37.58 38.616 41.118 37.291 36.701 36.994 44.807 49.134 43.526 47.661 43.925 44.177 44.215 42.575 43.271 41.968 40.408 41.851 47.885 51.103 50.334 48.983 48.951 43.1 37.477 37.291 37.162 36.754 36.732 36.437 36.358 37.681 43.299 45.482 44.488 42.782 37.053 37.151 37.784 40.81 42.477 48.399 46.291 49.476 51.72 42.829 40.777 36.392 36.367 36.323 36.382 36.421 36.521 36.501 36.537 36.463 36.49 36.519 36.512 36.469 36.336 36.433 36.156 36.028 36.028 36.079 36.232 36.32 36.38 36.451 36.444 36.472 36.403 36.437 36.341 36.337 36.364 36.333 36.413 36.363 36.325 36.302 36.173 36.053 35.981 35.979 35.978 35.889 35.84 35.768 35.743 35.701 35.638 35.491 35.497 35.446 35.617 37.808 46.057 48.186 47.925 46.778 39.483 35.74 34.999 35.077 35.028 34.981 35.123 35.563 35.472 37.339 36.826 36.703 35.338 35.366 35.374 36.782 41.296 41.884 42.453 42.354 42.164 41.77 41.361 41.106 40.591 37.446 39.128 37.113 35.04 35.145 35.834 35.187 35.12 35.033 35.005 35.047 35.036 35.083 35.083 35.147 35.176 35.274 35.254 35.29 36.173 35.26 36.897 37.766 37.729 40.628 40.72 40.399 40.505 40.728 40.82 40.673 38.714 36.845 36.789 35.404 34.253 34.171 34.206 34.331 34.481 34.821 34.5 34.611 34.956 34.585 34.579 34.611 34.616 35.132 35.056 34.728 34.655 34.534 34.647 34.705 34.778 34.809 34.772 34.715 34.533 34.598 34.596 38.793 40.611 40.749 40.789 40.42 40.404 39.792 39.517 38.344 37.675 37.44 35.328 37.744 34.647 34.565 34.675 34.749 35.242 34.534 34.65 35.89 35.501 38.016 36.079 35.143 36.351 34.539 34.45 34.437 34.477 34.513 34.533 34.58 34.658 34.641 34.706 34.777 34.718 34.81 34.79 34.819 34.834 34.877 34.882 34.879 34.956 34.983 35.052 35.042 35.104 35.118 35.118 35.17 35.201 35.181 35.264 35.284 35.345 35.38 35.415 35.47 35.482 35.539 35.571 35.56 35.59 35.601 35.63 35.644 35.612 35.633 35.648 35.632 35.674 35.644
43.478 47.995 43.891 48.722 48.407 48.77 48.88 46.501 44.924 44.067 50.153 50.614 50.652 50.696 50.853 51.026 44.358 42.972 48.842 51.157 51.565 51.504 51.744 51.777 51.867 51.81 51.802 51.794 51.868 51.632 51.658 45.114 42.295 42.233 42.221 42.255 42.296 42.359 42.344 42.554 42.698 43.489 44.164 43.924 44.034 44.106 44.183 44.301 44.389 46.225 46.273 47.051 48.281 43.492 45.698 44.169 45.851 44.39 47.029 50.279 49.791 46.055 47.665 46.258 45.354 44.946 44.847 44.775 44.751 44.667 44.612 44.632 44.769 45.379 46.31 46.13 46.43 48.11 49.897 46.663 46.007 47.61 48.266 47.54 43.37 43.664 45.255 49.194 47.262 46.71 45.348 44.744 45.137 43.608 44.676 44.15 43.713 41.397 40.345 40.004 39.969 39.961 39.863 39.87 39.816 39.784 39.759 39.714 39.724 39.798 40.015 39.861 39.645 39.622 39.597 39.541 39.493 39.541 39.449 39.436 39.454 39.35 39.417 39.331 39.312 39.275 39.18 39.215 39.146 39.085 39.071 38.966 39.187 39.132 45.855 47.191 45.505 44.307 44.733 45.868 40.881 43.911 45.584 39.496 50.286 51.014 50.272 46.582 39.008 37.74 37.831 37.825 37.808 37.859 37.849 37.931 37.915 37.944 37.966 37.933 37.905 37.87 37.869 37.858 37.816 37.819 37.799 37.805 37.71 37.499 38.548 40.566 37.605 36.759 43.108 49.946 50.054 52.598 51.957 52.412 49.574 45.766 39.529 40.687 39.716 39.476 40.627 37.979 41.358 45.439 46.918 44.792 44.073 38.489 37.333 37.076 36.703 37.059 36.43 36.349 36.369 37.475 40.242 37.282 36.783 37.02 37.185 37.375 42.891 46.315 49.649 48.936 47.456 47.011 49.096 42.39 36.858 36.354 36.358 36.268 36.309 36.363 36.49 36.48 36.476 36.41 36.477 36.436 36.463 36.634 37.205 36.104 35.9 35.947 35.964 35.991 35.996 36.244 36.359 36.364 36.392 36.367 36.503 37.166 37.945 36.32 36.351 36.385 36.329 36.296 36.232 36.18 36.082 36.073 36.015 35.923 35.837 35.843 35.789 35.758 35.659 35.682 35.48 35.53 35.516 35.351 43.853 36.386 47.223 45.507 44.094 40.533 35.215 35.081 35.142 35.091 35.018 35.115 36.032 35.89 35.325 35.505 35.454 35.391 36.125 35.343 38.361 40.775 41.112 41.406 41.79 42.24 42.314 42.277 41.941 41.466 41.089 40.764 39.536 36.401 35.16 37.148 35.772 35.305 35.156 35.2 35.085 35.093 35.077 35.108 35.043 35.067 35.155 35.214 35.344 35.259 35.276 35.401 35.451 35.238 35.13 35.447 35.704 36.264 39.858 39.91 40.238 37.911 36.854 36.795 34.464 34.193 34.185 34.218 34.814 34.508 34.76 34.383 34.632 34.527 34.563 34.545 34.596 34.554 34.594 34.564 34.645 34.57 34.565 34.646 34.667 34.676 34.718 34.728 34.667 34.579 34.628 34.608 38.99 40.045 40.138 40.257 40.477 40.581 40.685 40.69 40.665 40.575 40.312 39.894 39.415 39.314 38.004 35.877 37.293 35.443 34.647 34.809 35.704 34.585 34.504 34.505 34.523 35.148 34.517 34.539 34.534 34.774 34.534 34.755 34.488 34.471 34.522 34.587 34.583 34.594 34.556 34.577 34.636 34.628 34.68 34.683 34.728 34.772 34.783 34.807 34.863 34.855 34.943 34.956 34.987 35.023 35.065 35.103 35.168 35.218 35.216 35.256 35.309 35.373 35.4 35.449 35.476 35.475 35.459 35.508 35.569 35.592 35.592 35.572 35.605 35.617 35.625
51.137 51.205 51.871 51.581 52.343 52.021 52.095 46.784 43.596 43.239 49.798 51.689 51.615 51.803 52.025 51.993 45.364 44.064 44.986 51.73 51.629 51.584 51.369 51.234 51.167 51.42 51.374 51.667 50.946 50.606 50.577 44.165 42.342 42.243 42.244 42.319 42.339 42.347 42.195 41.993 42.137 43.06 44.06 44.068 44.106 44.186 44.288 44.362 44.454 44.958 46.172 47.256 47.399 50.03 49.179 46.573 46.848 48.343 51.418 49.759 48.527 50.452 45.424 45.064 44.93 44.924 44.819 44.816 44.74 44.681 44.904 46.997 47.9 48.942 49.063 47.244 46.714 46.879 48.49 46.372 47.481 48.33 48.679 45.903 48.341 46.114 47.895 48.078 47.343 45.394 45.766 44.699 45.387 45.063 44.314 42.749 40.299 40.034 40.005 39.94 39.888 39.903 39.852 39.84 39.783 39.713 39.734 39.722 39.917 39.875 39.755 39.677 39.633 39.578 39.528 39.503 39.489 39.497 39.421 39.46 39.403 39.403 39.318 39.289 39.277 39.203 39.129 39.11 39.114 39.083 39.373 39.283 40.26 40.426 40.08 40.686 43.692 43.223 40.647 40.836 41.992 43.427 43.398 41.567 50.233 51.127 50.848 48.801 39.897 37.658 37.776 37.835 37.813 37.852 37.819 37.889 37.91 37.938 37.952 37.932 37.919 37.832 37.865 37.854 37.849 37.846 37.822 37.804 37.736 37.624 37.57 39.46 40.488 36.99 46.442 51.799 53.095 54.19 53.061 53.243 49.891 45.506 37.471 37.021 39.147 39.509 38.252 37.348 38.65 42.719 40.979 42.82 40.355 37.546 37.427 37.04 36.697 36.483 36.676 38.657 42.966 41.255 39.705 39.179 36.84 37.119 37.305 40.944 40.153 43.099 48.458 42.16 45.471 46.706 44.785 44.897 36.497 36.4 36.356 36.34 36.34 36.31 36.44 36.415 36.477 36.527 36.438 36.446 36.408 37.16 36.198 35.954 35.941 35.941 35.952 35.924 35.946 35.993 36.288 36.412 36.346 36.368 39.574 41.307 40.889 38.893 37.003 36.365 36.416 36.398 36.309 36.271 36.186 36.083 36.064 35.96 35.891 35.792 35.791 35.777 35.685 35.658 35.53 35.503 35.515 38.463 40.99 48.27 47.23 40.964 44.362 36.131 35.114 35.145 35.125 35.161 35.102 35.133 35.267 36.757 35.87 35.342 36.261 35.497 35.379 35.46 35.281 36.611 40.242 40.702 41.217 41.421 41.913 42.015 42.35 42.123 41.872 41.642 41.107 40.894 40.129 38.949 35.25 35.321 35.41 35.866 35.36 35.232 35.104 35.07 35.084 35.11 35.061 35.067 35.156 35.196 35.307 35.224 35.245 35.21 35.191 35.102 34.844 34.784 34.664 34.646 35.091 36.994 36.958 36.93 34.65 34.266 34.233 34.272 35.151 35.513 34.729 34.33 34.373 34.747 36.232 34.567 34.528 34.539 34.553 34.522 34.549 34.503 34.554 34.561 34.598 34.628 34.627 34.667 34.657 34.62 34.621 34.591 36.247 35.643 36.234 35.954 38.235 39.646 39.068 40.005 40.206 40.376 40.66 40.521 40.764 40.712 40.531 40.426 39.995 40.103 38.758 35.927 38.633 34.977 35.528 34.708 35.61 35.435 34.537 34.541 34.512 34.747 34.592 34.523 34.514 34.514 34.549 34.47 34.491 34.453 34.497 34.51 34.471 36.219 34.609 34.565 34.561 34.551 34.649 34.639 34.655 34.691 34.706 34.739 34.795 34.783 34.869 34.913 34.969 35.028 35.069 35.121 35.15 35.161 35.307 35.323 35.322 35.382 35.4 35.409 35.462 35.524 35.563 35.593 35.536 35.558 35.583
52.27 52.397 52.481 52.557 53.14 52.58 52.851 49.213 43.95 44.319 45.81 51.737 51.739 51.59 51.481 51.547 45.647 43.358 49.692 51.557 51.309 50.879 50.375 50.343 50.311 49.976 49.779 46.678 49.53 48.512 49.63 44.487 42.29 42.298 42.29 42.318 42.313 42.223 42.078 41.966 41.701 41.521 41.306 43.525 44.265 44.293 44.379 44.466 44.524 44.738 45.597 46.422 47.982 50.112 50.091 51.068 48.774 50.769 51.218 50.473 46.625 46.187 45.054 44.968 44.925 44.898 44.783 44.761 44.941 45.05 47.945 49.28 48.449 47.302 47.691 48.751 46.13 50.083 47.243 42.66 48.119 47.396 47.275 44.702 43.733 45.519 46.471 45.139 45.695 45.73 44.897 45.808 44.302 42.688 42.309 40.323 40.038 39.973 39.975 39.902 39.825 39.876 39.807 39.795 39.717 39.735 39.852 39.908 39.75 39.67 39.679 39.597 39.59 39.56 39.576 39.508 39.455 39.446 39.397 39.387 39.427 39.285 39.271 39.227 39.195 39.088 39.146 39.069 39.002 39.183 43.94 43.553 40.437 42.559 40.745 39.532 39.145 38.809 39.544 39.218 40.824 41.404 39.686 46.846 49.242 50.482 49.928 46.521 39.463 37.762 37.717 37.815 37.847 37.843 37.799 37.891 37.903 37.899 37.861 37.859 37.885 37.831 37.859 37.836 37.803 37.822 37.832 37.827 37.772 37.738 37.619 40.005 40.007 37.51 47.286 52.158 52.727 53.523 50.841 48.508 46.489 38.068 36.931 37.016 37.308 37.784 37.268 37.046 38.764 39.399 40 39.13 38.479 38.019 37.35 37.03 37.038 36.98 43.044 44.499 47.784 40.318 42.616 41.036 38.669 37.202 37.375 37.296 41.695 39.79 39.821 44.885 43.498 42.639 45.37 43.561 37.184 36.385 36.312 36.378 36.321 36.362 36.365 36.475 36.497 36.434 36.433 36.437 36.391 37.06 35.982 35.93 35.974 35.93 35.942 35.912 35.905 35.914 36.102 36.353 36.355 36.368 38.063 42.947 42.051 42.129 37.848 36.427 36.498 36.383 36.296 36.258 36.166 36.11 35.994 35.919 35.868 35.864 35.835 35.802 35.721 35.668 35.662 35.626 35.534 38.787 49.07 50.42 47.473 44.064 38.049 36.231 35.183 35.191 35.108 35.161 35.173 35.217 35.245 35.3 36.653 36.386 35.879 35.77 35.647 35.706 35.202 35.071 35.113 36.662 40.249 40.761 40.881 41.327 41.705 42.063 42.178 42.12 41.966 41.598 41.214 40.939 39.913 35.932 37.785 37.555 35.802 35.465 35.302 35.249 35.183 35.2 35.119 35.066 35.02 35.04 35.089 35.131 35.17 35.108 35.14 35.077 34.905 34.788 34.896 34.725 34.758 37.018 36.993 36.518 34.508 34.291 34.304 34.293 34.326 34.33 34.303 34.363 35.173 34.664 36.603 34.559 34.572 35.85 35.212 34.547 34.606 34.61 34.885 34.523 34.557 34.601 34.565 34.547 34.564 34.55 34.628 34.651 34.899 34.805 34.894 34.671 35.731 34.633 34.71 35.134 36.843 38.207 38.776 37.318 39.898 40.009 40.395 40.414 40.63 40.648 40.722 40.635 40.478 40.271 39.486 39.664 38.449 35.31 35.678 34.694 34.591 34.93 35.239 34.548 34.503 34.526 34.576 34.584 34.688 34.596 34.503 34.539 38.813 39.784 39.003 38.023 35.181 34.411 34.46 34.461 34.458 34.525 34.51 34.542 34.611 34.592 34.662 34.652 34.775 34.833 34.87 34.931 34.973 35.034 35.088 35.141 35.123 35.211 35.256 35.29 35.348 35.407 35.468 35.485 35.5 35.445 35.477
52.563 52.503 52.555 52.446 52.374 52.112 51.937 47.816 43.602 43.792 48.363 50.637 50.491 50.517 50.428 50.205 45.385 43.419 43.721 47.082 48.556 46.046 44.777 44.734 43.627 43.525 42.849 42.705 42.574 42.585 42.43 42.461 42.3 42.289 42.303 42.319 42.351 42.258 41.975 41.903 41.655 41.501 41.393 41.447 44.697 44.35 44.436 44.528 45.154 45.703 45.055 45.038 47.39 47.225 47.899 48.922 48.017 48.496 48.837 46.721 45.779 45.046 45.063 44.999 44.978 44.906 44.796 45.01 44.95 45.521 47.844 47.909 48.576 48.393 48.333 46.535 49.363 48.823 48.06 44.099 48.912 48.362 46.664 46.045 43.887 45.298 44.748 44.299 45.131 44.94 44.104 44.517 41.379 40.361 40.079 40.029 39.997 39.891 39.932 39.86 39.877 39.78 39.762 39.717 39.698 39.904 39.881 39.734 39.659 39.627 39.628 39.574 39.562 39.493 39.512 39.484 39.369 39.396 39.336 39.357 39.319 39.247 39.182 39.154 39.124 39.068 39.093 40.511 42.649 43.883 44.038 43.637 40.3 41.355 42.882 38.658 38.495 38.335 38.349 38.297 41.209 44.784 45.704 43.906 47.914 48.947 47.393 42.205 38.821 38.979 37.699 37.767 37.841 37.829 37.853 37.867 37.906 37.897 37.879 37.877 37.855 37.82 37.794 37.833 37.827 37.799 37.822 37.789 37.754 37.717 37.63 37.856 37.674 40.767 46.53 51.217 52.333 48.298 46.783 51.279 46.94 38.291 37.004 37.006 37.073 37.088 37.051 37.049 37.436 39.058 39.335 37.427 38.82 37.761 37.244 36.932 37.055 36.555 42.755 48.235 46.457 48.838 46.514 43.576 37.174 37.333 37.428 37.503 37.307 37.02 36.666 39.643 41.983 41.559 41.739 41.053 37.919 36.483 36.396 36.501 36.339 36.394 36.33 36.487 36.56 36.431 36.494 36.404 36.406 37.006 36.024 35.966 35.939 35.945 35.912 35.88 35.924 35.878 35.96 36.031 36.086 36.215 36.183 37.285 37.515 37.912 37.723 36.451 36.445 36.325 36.232 36.187 36.21 36.163 36.005 35.908 35.886 35.86 35.833 35.839 35.823 35.774 35.772 35.683 35.632 36.417 45.149 48.815 48.128 37.689 35.217 36.168 35.226 35.204 35.189 35.149 35.246 35.247 35.29 35.288 35.386 35.94 35.702 35.913 35.558 35.521 35.248 35.558 35.239 35.44 35.529 36.884 39.636 39.736 40.943 41.229 41.699 42.132 42.254 42.245 41.972 41.561 41.239 38.182 38.564 37.279 35.858 36.777 36.311 35.497 35.297 35.21 35.198 35.1 35.067 35.091 34.978 34.969 35.125 35.437 35.484 35.245 35.016 34.886 34.845 35.017 35.191 36.979 36.946 35.784 34.414 34.348 34.31 34.314 34.374 34.367 34.39 34.432 34.45 34.62 38.158 38.282 37.415 36.862 36.603 34.642 34.807 36.78 36.529 34.529 34.639 36.532 36.236 34.525 34.67 34.652 34.517 34.581 34.562 34.566 34.555 34.521 34.537 34.535 34.584 34.531 34.999 35.105 34.54 34.542 34.625 37.516 35.412 36.197 38.773 39.905 40.085 40.316 40.448 40.584 40.758 40.729 40.666 40.486 40.345 40.151 38.984 37.33 38.818 34.585 34.53 34.542 34.585 34.687 34.883 34.828 36.492 39.557 40.572 37.278 38.537 39.312 37.604 34.62 34.65 36.072 34.348 34.349 34.344 34.391 34.384 34.391 34.429 34.51 34.531 34.624 34.636 34.758 34.72 34.771 34.775 34.885 34.903 34.917 35.01 35.16 35.163 35.266 35.289 35.337 35.375 35.332 35.377
51.715 51.462 51.305 51.901 51.572 50.485 51.026 50.337 44.04 45.341 46.801 47.58 45.113 45.82 46.281 44.955 43.819 43.485 43.148 42.989 42.86 42.832 42.764 42.649 42.681 42.615 42.537 42.511 42.505 42.422 42.395 42.376 42.327 42.302 42.349 42.379 42.43 42.264 42.085 41.891 41.758 41.629 41.508 42.947 45.206 44.863 44.526 44.614 44.694 44.984 44.79 44.86 44.908 45.278 45.622 45.736 45.988 45.543 45.286 45.127 45.066 45.002 45.077 45.005 44.936 45.123 45.117 45.503 45.157 46.94 47.394 46.011 48.463 45.424 47.546 46.346 49.157 49.32 50.081 50.099 45.861 49.165 47.519 46.72 45.396 44.993 44.546 44.826 44.212 43.933 42.455 40.679 40.277 40.059 40.027 40.015 40.003 39.952 39.914 39.85 39.814 39.813 39.808 40.008 39.991 39.774 39.681 39.651 39.664 39.627 39.526 39.532 39.505 39.454 39.5 39.393 39.383 39.439 39.301 39.277 39.216 39.209 39.15 39.16 39.075 41.65 43.523 42.611 40.844 42.686 41.132 39.934 38.815 38.785 38.635 38.623 38.585 38.473 38.416 41.495 47.646 50.333 50.376 48.035 47.343 49.545 49.483 40.785 38.177 38.928 37.74 37.716 37.805 37.838 37.847 37.863 37.82 37.878 37.823 37.857 37.803 37.84 37.807 37.84 37.81 37.794 37.795 37.719 37.61 37.642 37.586 37.62 37.581 42.383 43.647 48.651 49.413 51.365 51.759 51.204 46.874 37.27 37.031 37.04 37.056 37.071 37.036 37.085 37.033 37.073 39.026 37.415 39.272 37.673 37.326 36.935 36.999 36.574 41.242 48.191 48.639 48.265 43.125 41.25 37.432 37.383 37.546 37.508 37.339 37.077 38.805 39.969 40.893 42.417 40.803 41.379 40.873 40.962 40.814 38.64 36.372 36.378 36.348 36.471 36.486 36.48 36.496 36.421 36.511 36.373 35.982 36.006 35.941 35.918 35.879 35.874 35.917 35.928 35.916 35.975 35.908 35.861 35.978 36.053 36.686 36.301 36.236 36.288 36.159 35.974 36.09 36.062 36.124 36.039 36.021 35.98 35.95 35.968 35.882 35.864 35.817 35.728 35.725 35.629 35.581 35.901 48.232 46.188 38.268 35.217 35.202 35.179 35.294 35.238 35.28 35.218 35.341 35.324 35.333 35.426 35.409 35.457 35.483 35.618 35.918 35.861 35.342 35.401 35.418 35.363 35.208 35.104 35.061 36.908 39.627 40.436 41.051 41.256 41.722 41.862 42.155 42.259 42.045 41.508 41.27 38.68 36.63 36.067 37.962 35.938 35.64 35.5 35.367 35.266 35.106 35.077 34.987 34.968 34.988 35.094 35.136 35.391 35.38 35.211 35.117 34.929 35.382 34.973 35.234 35.187 34.422 34.377 34.354 34.335 34.359 34.453 34.472 34.488 34.513 34.705 40.522 40.545 40.217 39.752 38.893 38.423 37.812 37.627 35.378 34.742 34.674 36.934 35.348 34.776 34.61 37.031 35.098 34.655 34.61 35.018 34.574 34.533 34.476 34.451 35.683 37.134 34.539 34.437 34.468 34.476 34.614 35.194 34.569 34.6 36.682 35.453 34.746 37.133 36.186 38.324 39.868 39.901 40.284 40.377 40.528 40.66 40.638 40.613 40.526 34.614 34.584 34.608 34.532 34.847 34.99 35.027 34.956 39.072 39.104 35.427 38.76 40.137 36.61 34.749 35.854 35.368 34.315 34.276 34.504 34.802 34.413 34.33 34.366 34.344 34.442 34.422 34.421 34.507 34.518 34.586 34.594 34.651 34.683 34.731 34.752 34.797 34.907 34.927 35.096 35.089 35.116 35.168 35.186
50.428 46.926 45.533 44.789 45.373 43.48 43.48 43.407 43.398 43.308 43.29 43.199 43.186 43.145 43.028 43.058 42.935 42.87 42.828 42.783 43.776 43.385 42.762 42.708 42.628 42.596 42.658 42.648 42.621 42.541 42.369 42.404 42.325 42.283 42.343 42.327 42.388 42.378 42.109 41.897 41.793 41.74 41.682 45.705 47.514 45.628 44.579 44.674 44.779 44.864 44.898 44.986 45.014 45.002 45.067 45.075 45.128 45.166 45.171 45.169 45.119 45.116 45.01 44.958 45.135 45.308 49.081 48.527 49.425 47.056 47.384 46.229 48.503 48.18 46.999 43.235 44.64 47.764 47.017 47.943 43.771 47.694 46.705 45.925 45.049 45.168 42.6 43.415 41.753 40.936 40.352 40.114 40.121 40.041 39.93 39.992 39.91 39.939 39.773 39.857 39.865 39.824 39.941 39.84 39.741 39.719 39.697 39.583 39.556 39.553 39.54 39.528 39.443 39.477 39.451 39.448 39.535 39.421 39.293 39.233 39.241 39.178 39.12 39.11 40.877 40.179 43.417 43.156 41.417 42.689 39.476 39.001 38.925 38.884 38.75 38.666 38.542 38.541 38.45 45.572 49.784 50.553 50.187 49.259 44.692 45.564 44.112 38.896 38.09 38.29 38.779 37.638 37.759 37.78 37.824 37.795 37.826 37.802 37.861 37.821 37.788 37.808 37.813 37.81 37.787 37.699 37.687 37.688 37.74 37.631 37.662 37.749 37.711 42.39 43.102 45.321 42.534 48.144 43.76 46.829 45.628 37.224 37.056 37.048 37.119 37.045 37.096 37.075 37.042 37.094 37.079 37.673 39.16 37.467 37.294 37.007 37.01 36.68 36.607 40.239 47.622 49.057 48.768 42.451 38.136 37.53 37.627 37.47 37.302 36.995 39.222 41.635 39.142 38.48 40.605 41.483 43.145 44.156 43.221 41.064 40.345 36.533 36.418 36.574 36.506 36.533 36.469 36.45 36.759 36.398 36.042 35.956 36 35.941 35.927 35.983 35.96 35.979 35.9 35.966 36.023 35.93 35.957 35.902 36.185 35.934 35.954 35.921 35.911 35.911 35.924 35.913 35.917 35.92 36.011 35.929 35.958 35.926 35.947 35.887 35.726 35.741 35.686 35.703 43.871 51.514 51.925 50.36 42.194 35.401 35.255 35.315 35.268 35.259 35.257 35.312 35.292 35.384 35.412 35.392 35.411 35.419 35.527 35.514 35.514 35.66 35.696 35.865 36.011 35.544 35.338 35.217 35.738 36.285 35.755 36.254 39.102 39.611 40.949 41.31 41.621 42.935 42.629 42.406 41.942 41.664 40.868 40.549 37.034 35.75 35.573 37.547 37.261 35.823 35.272 35.18 35.046 35.011 34.992 34.911 34.834 34.997 34.985 35.173 35.285 35.098 35.176 34.522 34.415 34.479 34.434 34.36 34.387 34.414 34.576 34.452 34.461 34.534 34.55 36.849 41.304 41.452 41.101 41.001 40.735 40.619 40.473 40.514 40.136 38.776 39.436 38.994 37.457 35.631 35.099 37.022 35.3 34.572 35.846 36.992 34.766 34.961 36.231 35.846 35.475 34.778 35.123 34.919 34.844 35.065 34.784 34.408 34.521 34.577 34.543 34.502 36.874 34.59 34.569 36.997 34.598 35.523 35.696 37.559 39.382 39.948 40.095 40.154 36.49 34.552 34.595 34.61 34.668 34.904 35.119 35.127 35.124 36.036 38.657 39.275 36.494 37.205 38.127 34.986 35.506 34.461 34.321 34.268 34.265 34.376 34.352 34.68 34.633 34.355 35.555 34.343 34.404 34.375 34.382 34.384 34.429 34.465 34.538 34.679 34.63 34.66 34.694 34.729 34.769 34.798 34.836 34.859 34.886
43.641 43.598 43.567 43.503 43.443 43.337 43.329 43.283 43.288 43.217 43.198 43.18 43.036 43.049 43.042 42.959 43.014 42.944 42.92 42.904 42.931 42.735 42.76 42.722 42.706 42.7 42.659 42.611 42.584 42.556 42.524 42.408 42.33 42.303 42.33 42.357 42.433 42.416 42.205 42.008 41.947 41.889 41.792 43.529 44.638 48.282 45.545 44.687 44.825 44.903 44.971 45.027 45.076 45.086 45.118 45.107 45.192 45.212 45.194 45.29 45.157 45.072 45.033 45.207 45.402 46.246 46.967 48.694 48.149 47.347 48.03 45.256 47.259 48.576 46.546 45.938 49.15 48.307 46.942 46.985 46.845 47.115 46.735 44.605 42.996 41.511 41.225 41.648 40.295 40.115 40.117 40.075 40.031 39.992 40.009 39.909 39.831 39.881 39.788 39.88 40.056 39.879 39.761 39.692 39.695 39.657 39.635 39.522 39.601 39.564 39.464 39.494 39.451 39.432 39.54 39.568 39.407 39.248 39.24 39.188 39.172 39.092 41.435 43.864 45.952 41.473 43.816 41.483 39.875 39.123 39.123 39.051 39.009 38.873 38.755 38.629 38.472 38.487 38.501 42.512 48.244 50.314 50.491 45.23 44.891 44.729 45.54 41.044 38.267 42.641 42.133 37.794 37.7 37.766 37.785 37.792 37.825 37.8 37.813 37.797 37.781 37.788 37.815 37.784 37.769 37.647 37.654 37.694 37.673 37.726 37.801 37.803 37.772 38.844 42.14 44.983 42.327 45.287 47.871 47.138 40.971 43.06 37.242 37.118 37.101 37.082 37.112 37.057 37.03 37.109 37.345 38.84 37.906 37.456 37.169 37.26 36.629 36.638 36.587 36.585 39.077 47.389 41.633 37.341 37.547 37.705 37.699 37.568 37.412 38.925 41.629 43.773 42.911 41.058 41.454 43.601 44.262 44.729 43.519 42.63 43.452 40.234 36.642 36.517 36.549 36.531 36.457 36.481 36.501 36.076 36.05 35.983 35.977 35.944 35.95 35.978 36.009 36.043 35.97 35.984 35.935 36.032 35.98 35.971 35.986 35.921 35.883 35.935 35.877 35.935 35.887 35.921 35.867 35.882 36.048 38.786 38.922 36.508 35.936 35.803 35.705 35.732 35.723 43.325 42.913 54.312 54.195 53.394 52.593 39.386 35.278 35.261 35.314 35.343 35.264 35.265 35.325 35.379 35.454 35.485 35.471 35.492 35.538 35.476 35.555 36.259 36.387 35.799 36.334 36.256 35.395 35.397 35.672 35.745 35.286 35.164 35.556 35.733 39.397 39.532 41.16 42.382 42.72 43.051 42.775 42.392 41.898 41.662 41.373 40.346 36.915 37.771 36.754 35.649 35.626 35.266 35.126 35.089 35.058 34.97 34.897 34.858 34.764 34.746 34.833 34.899 34.588 34.469 34.451 34.511 34.49 34.385 34.499 36.716 36.568 36.706 35.885 35.099 34.615 39.655 41.954 42.013 41.967 41.889 41.64 41.485 41.304 41.189 41.119 41.06 40.745 40.678 40.56 40.326 39.857 39.138 38.04 36.203 37.728 37.07 34.788 34.693 35.825 35.108 34.037 34.07 34.107 34.281 34.257 34.6 35.254 34.385 35.865 35.927 36.169 34.454 35.102 34.538 34.474 35.418 35.975 34.665 34.548 35.182 35.757 34.602 34.589 35.007 35.044 34.588 34.66 34.621 34.686 34.949 35.116 35.187 35.18 35.482 38.621 40.384 40.168 38.855 35.443 35.907 34.672 37.086 34.522 34.474 34.43 34.406 34.381 35.262 34.433 34.388 34.359 34.414 34.782 34.451 34.349 34.447 34.495 34.459 34.35 34.391 34.371 34.42 34.442 34.496 34.513 34.523 34.591 34.652 34.704
43.514 43.505 43.451 43.449 43.397 43.465 43.402 43.293 43.272 43.278 43.155 43.247 43.162 43.111 43.092 43.049 43.055 42.988 42.888 42.898 42.896 42.776 42.831 42.756 42.724 42.647 42.636 42.655 42.565 42.562 42.485 42.447 42.287 42.292 42.308 42.39 42.437 42.483 42.205 42.037 42.023 41.999 41.974 43.505 44.962 48.593 46.352 44.825 44.893 45.011 45.129 45.106 45.115 45.159 45.273 45.28 45.271 45.266 45.409 45.224 45.14 45.061 45.17 45.644 47.848 47.156 46.3 49.349 48.211 47.665 49.111 48.765 46.629 45.412 41.37 46.218 45.755 45.005 45.207 46.529 45.758 45.737 45.168 44.354 42.455 40.888 40.77 40.397 40.159 40.15 40.062 40.09 40.03 39.92 39.91 39.872 39.896 39.767 39.972 39.914 39.816 39.779 39.749 39.719 39.675 39.594 39.621 39.569 39.522 39.5 39.415 39.476 39.551 39.595 39.47 39.381 39.239 39.236 39.22 42.988 39.211 42.139 43.043 46.286 46.455 40.938 39.897 39.514 39.167 39.188 39.165 39.103 39.065 38.934 38.87 38.736 38.493 38.447 38.461 38.586 39.269 47.707 42.849 39.689 44.491 44.196 42.177 42.037 38.874 44.49 44.522 40.843 37.732 37.757 37.773 37.783 37.8 37.747 37.791 37.795 37.799 37.745 37.788 37.664 37.671 37.661 37.724 37.602 37.752 37.814 37.817 37.842 37.804 37.807 38.1 41.862 40.028 38.993 44.6 46.124 39.913 37.104 37.073 37.105 37.117 37.092 37.135 37.117 37.117 37.124 37.395 38.972 37.76 37.34 37.067 37.433 36.75 36.666 36.59 36.548 36.855 38.391 38.526 37.552 37.711 37.78 37.678 37.518 37.342 39.952 42.988 43.456 42.025 41.424 42.185 44.351 45.01 44.374 43.903 43.602 44.622 44.322 41.19 36.661 36.575 36.508 36.478 36.516 36.893 36.099 36.041 36.007 36.029 35.994 36.039 35.986 36.069 36.083 36.689 36.148 36.059 36.089 36.004 36.016 35.981 36.017 35.996 35.907 35.925 35.923 35.919 35.929 35.919 35.945 38.478 43.05 43.568 37.188 35.918 35.845 35.762 35.712 35.84 39.495 43.913 54.113 52.896 53.587 53.492 45.758 35.474 35.282 35.42 35.363 35.334 35.486 35.292 35.351 35.482 35.507 35.513 35.542 35.573 35.612 35.585 35.566 36.127 35.839 35.648 35.752 35.666 35.989 35.939 36.141 35.439 35.282 35.262 35.133 35.133 36.008 39.914 41.657 42.004 42.381 42.81 42.897 42.829 42.553 41.959 41.715 41.236 40.854 36.784 35.862 35.4 35.257 35.191 35.132 35.115 35.02 35.021 34.945 38.005 34.852 36.885 34.81 34.614 34.715 34.567 34.541 34.576 34.497 34.498 36.6 37.029 36.979 36.982 37.03 36.373 39.212 41.014 41.347 41.478 41.73 41.684 41.872 41.831 41.835 41.865 41.623 41.65 41.309 41.227 41.103 40.783 40.775 40.689 40.485 40.286 39.867 39.075 38.934 38.133 35.322 34.122 34.11 34.168 34.162 34.197 34.181 34.227 34.213 34.25 34.657 35.388 34.561 40.128 38.106 34.836 40.278 41.54 36.057 34.513 34.616 34.604 34.68 34.661 34.76 34.657 34.684 34.72 34.683 34.726 34.955 35.121 35.158 35.171 35.236 37.2 38.098 36.54 35.098 35.661 35.715 34.587 39.224 40.082 39.208 39.406 39.189 37.547 35 37.379 34.582 34.407 34.378 35.355 34.432 34.362 34.386 34.397 34.42 34.737 34.354 34.392 34.39 34.618 34.436 34.344 34.386 34.41 34.445 34.463
43.599 43.501 43.493 43.475 43.451 43.326 43.37 43.361 43.262 43.293 43.251 43.158 43.105 43.066 43.08 43.053 43.08 43.085 42.905 42.837 42.875 42.776 42.787 42.712 42.698 42.635 42.619 42.612 42.634 42.575 42.539 42.479 42.446 42.292 42.363 42.455 42.455 42.429 42.244 42.118 42.156 42.125 42.112 43.131 45.439 47.839 48.163 45.764 44.881 45.057 45.286 45.184 45.182 45.212 45.29 45.379 45.405 45.331 45.217 45.172 45.065 45.286 45.156 45.493 48.749 49.838 47.513 48.005 46.749 47.188 49.355 49.864 49.127 48.201 43.616 44.717 44.559 44.684 45.754 45.599 44.562 43.898 44.774 41.514 40.443 40.284 40.164 40.148 40.12 40.083 40.044 40.017 39.954 39.856 39.931 39.844 39.931 39.933 39.809 39.76 39.728 39.722 39.703 39.694 39.644 39.635 39.606 39.496 39.48 39.468 39.632 39.681 39.631 39.454 39.333 39.301 39.286 39.183 39.283 47.204 47.81 46.388 43.676 44.264 43.95 41.014 39.175 39.222 39.193 39.228 39.234 39.202 39.066 39.003 38.94 38.761 38.643 38.502 38.453 38.492 38.544 38.475 38.356 38.339 41.137 42.743 39.757 38.404 41.339 43.735 43.534 42.097 38.09 37.718 37.769 37.782 37.763 37.804 37.77 37.733 37.664 37.717 37.717 37.685 37.672 37.764 37.628 37.769 37.841 37.816 37.86 37.877 37.865 37.881 37.781 37.694 37.58 37.561 40.104 37.5 37.175 37.132 37.137 37.091 37.085 37.197 37.126 37.135 37.174 37.237 37.579 39.266 37.479 37.253 37.034 37.084 36.797 36.734 36.557 36.721 36.883 37.16 37.422 37.608 37.776 37.867 37.747 37.585 37.276 40.528 42.226 41.966 41.848 41.284 42.804 43.37 44.339 44.291 43.176 44.067 44.095 43.309 39.664 36.986 36.542 36.557 36.511 36.517 36.578 36.125 36.062 36.07 36.035 36.112 36.007 36.046 36.069 38.258 38.753 39.533 38.69 38.223 36.553 36.287 36.086 36.136 36.018 35.977 35.997 35.974 35.89 35.92 35.903 35.953 36.084 42.388 43.018 41.094 36.049 35.907 35.857 35.772 35.843 41.62 50.913 42.848 52.216 52.559 49.913 47.229 35.58 35.41 35.4 35.331 38.636 47.092 44.332 35.515 35.452 42.046 37.81 39.233 35.792 35.673 35.638 35.62 35.656 35.609 35.955 36.392 36.127 35.804 35.739 35.953 35.491 35.891 35.47 35.315 36.141 35.574 37.352 38.772 41.171 41.637 41.934 42.284 42.792 42.919 42.85 42.403 42.103 41.627 41.21 35.803 35.427 35.507 35.21 35.196 35.228 35.265 34.933 37.732 40.251 37.969 40.202 35.712 34.698 34.679 34.609 34.584 34.574 34.542 34.566 36.996 37.508 37.874 37.01 37.012 35.279 39.113 40.354 40.351 40.676 40.732 40.997 41.106 41.401 41.374 41.399 41.699 41.699 41.855 41.918 41.929 41.755 41.609 41.388 41.266 41.051 41.021 40.993 40.691 40.469 34.382 34.196 34.212 34.211 34.247 34.225 34.247 34.259 34.308 34.274 34.249 34.325 34.331 37.567 40.232 37.157 37.254 42.63 35.672 34.661 34.648 34.648 34.65 34.708 34.718 34.75 34.754 34.73 34.678 34.86 34.97 35.034 35.109 35.082 35.128 35.074 35.057 34.687 36.617 35.319 35.176 34.723 40.246 40.606 40.511 40.542 40.564 40.392 40.249 40.151 39.292 38.613 37.39 35.749 35.455 34.561 34.43 34.777 34.429 34.391 34.352 34.41 34.355 34.43 34.599 34.668 34.555 34.408 34.387 34.391
43.56 43.616 43.519 43.484 43.387 43.404 43.408 43.353 43.305 43.197 43.17 43.153 43.121 43.106 43.019 43.835 44.28 43.178 42.9 42.949 42.906 42.826 42.838 42.818 42.763 42.877 42.89 42.895 44.79 43.712 47.656 46.347 42.596 42.42 42.366 42.441 42.413 42.441 42.268 42.292 42.337 42.327 42.403 42.434 47.326 49.679 48.28 45.861 44.927 45.058 45.225 45.341 45.263 45.25 45.27 46.837 45.338 45.173 45.189 45.229 45.537 46.518 47.752 50.058 50.867 48.29 48.36 50.41 50.1 49.183 48.547 49.972 49.402 52.515 46.735 45.292 44.767 44.83 44.224 42.814 41.36 41.94 41.192 40.306 40.226 40.15 40.15 40.01 40.108 40.032 39.996 39.971 39.961 39.877 39.949 40.241 39.981 39.787 39.806 39.759 39.681 39.703 39.653 39.645 39.55 39.528 39.478 39.508 39.63 39.643 39.732 39.555 39.451 39.35 39.323 39.251 39.169 39.233 39.324 46.572 48.343 48.277 45.37 39.794 39.737 39.159 39.267 39.28 39.276 39.309 39.268 39.235 39.156 39.05 38.9 38.788 38.547 38.565 38.495 38.435 38.487 38.549 38.45 38.399 38.823 40.744 40.032 43.133 42.521 45.427 43.513 44.636 39.423 37.631 37.681 37.762 37.734 37.737 37.72 37.648 37.727 37.668 37.817 37.743 37.741 37.683 37.768 37.841 37.84 37.877 37.837 37.863 37.885 37.855 37.874 37.853 37.748 37.607 37.811 38.684 38.103 37.146 37.093 37.087 37.128 37.145 37.104 37.136 37.098 37.285 38.666 38.033 37.449 37.148 37.383 36.835 36.776 36.743 37.302 39.462 37.181 37.257 37.521 37.709 37.864 37.854 37.766 37.692 38.069 44.066 41.975 42.453 44.593 44.576 44.15 42.512 43.3 42.856 39.39 42.436 42.46 42.13 41.739 39.919 36.617 36.591 36.62 36.602 37.011 36.175 36.142 36.146 36.074 36.133 36.087 36.051 36.109 38.387 39.439 39.563 39.762 39.995 40.405 39.249 39.297 38.869 36.796 36.696 36.036 35.986 36.005 36.017 35.956 35.923 36.018 37.469 37.872 36.426 35.953 35.999 35.961 35.885 35.9 35.947 48.467 52.229 52.272 52.439 44.921 39.997 35.451 35.43 35.378 35.378 39.863 40.76 37.008 35.469 35.72 38.645 44.981 40.45 36.455 38.419 36.249 35.657 35.592 35.693 35.671 35.625 36.393 36.284 35.619 35.674 36.044 37.873 35.549 35.428 35.726 36.301 35.739 36.765 38.908 40.473 40.574 41.608 41.877 42.3 42.691 42.913 42.882 42.463 38.707 35.829 35.51 36.14 35.39 35.18 35.441 35.204 35.85 40.088 35.523 41.632 35.349 37.471 34.826 34.747 34.683 34.693 34.628 34.625 34.747 37.033 39.787 38.644 36.142 37.052 36.213 36.496 37.975 37.173 38.698 38.916 39.988 40.212 40.354 40.58 40.667 40.883 40.957 41.273 41.269 41.45 41.623 41.668 41.816 41.852 41.844 41.813 41.676 41.52 37.647 34.289 34.235 34.324 34.311 34.311 34.311 34.352 34.44 34.334 34.363 34.342 34.431 34.389 34.432 36.066 34.874 36.442 38.335 36.188 35.718 35.106 35.092 35.4 35.27 34.732 34.765 34.77 34.726 34.702 34.723 34.806 34.901 34.914 34.909 34.946 34.978 34.924 34.647 34.737 34.867 34.83 34.658 35.999 38.698 39.848 39.951 40.158 40.178 40.539 40.45 40.604 40.642 40.468 40.314 39.716 40.101 39.336 38.427 35.297 35.455 34.475 35.053 34.406 34.472 34.622 34.692 34.632 34.397 34.565 34.842
43.536 43.475 43.496 43.473 43.446 43.39 43.397 43.33 43.299 44.301 43.283 43.191 43.214 43.134 43.129 43.157 43.095 43.179 43.128 42.997 46.748 43.645 47.826 48.293 49.417 48.188 49.357 50.063 49.902 50.499 50.686 48.581 42.566 42.43 42.39 42.468 42.523 42.536 42.47 42.389 42.43 42.518 42.54 42.737 47.014 48.357 48.454 46.414 45.031 45.09 45.284 45.372 45.41 45.288 45.288 45.292 45.219 45.172 45.214 46.937 47.592 46.034 49.35 48.984 46.848 45.144 48.059 49.719 47.517 46.357 47.88 51.49 55.033 54.594 52.523 45.039 44.32 44.528 45.867 42.028 40.678 40.466 40.322 40.148 40.226 40.145 40.146 40.049 40.094 39.992 39.923 39.928 39.98 40.161 40.02 39.906 39.838 39.725 39.749 39.694 39.711 39.701 39.604 39.599 39.534 39.556 39.597 39.918 39.743 39.683 39.591 39.466 39.395 39.377 39.273 39.228 39.3 39.364 42.587 46.804 47.731 45.704 43.824 39.268 39.287 39.265 39.344 39.29 39.366 39.402 39.356 39.3 39.185 38.969 38.815 38.584 38.599 38.759 38.774 38.568 38.51 38.556 38.594 38.497 38.401 38.341 43.841 45.929 42.659 48.062 48.415 46.695 40.962 38.279 37.654 37.73 37.644 37.651 39.124 39.596 39.513 37.728 37.803 37.678 37.689 37.782 37.827 37.875 37.853 37.895 37.865 37.869 37.917 37.896 37.878 37.837 37.823 37.753 37.628 37.849 38.113 37.207 37.136 37.091 37.134 37.145 37.114 37.17 37.209 37.174 39.258 39.137 37.584 37.12 37.428 36.878 41.174 41.418 44.029 41.465 39.655 41.005 37.671 37.826 37.969 37.908 37.841 37.626 41.637 42.701 41.037 43.07 40.508 45.779 44.295 43.67 38.272 38.263 37.194 41.616 44.313 44.162 42.452 42.526 37.888 36.69 36.511 37.005 36.327 36.332 36.185 36.118 36.172 36.084 36.143 36.081 36.289 39.192 39.427 39.601 39.82 40.349 40.389 39.771 39.614 39.432 39.262 36.495 36.048 36.044 36.046 36.029 36.047 36.034 36.073 36.058 36.028 36.069 36.047 36.042 35.985 35.937 35.826 35.632 43.32 43.985 42.862 43.613 48.938 36.091 35.52 35.464 35.444 35.779 41.273 45.791 47.527 39.225 37.069 49.065 36.466 36.114 46.147 45.46 42.627 35.982 35.913 35.652 35.691 35.678 35.613 35.667 35.638 35.569 35.597 35.661 35.738 35.727 35.707 35.768 35.634 35.594 35.638 35.761 36.557 39.886 41.475 41.52 41.781 42.262 42.673 43.051 37.971 35.836 35.475 35.583 35.404 35.925 35.746 35.222 35.923 36.151 38.16 40.519 39.031 38.125 34.902 34.838 34.7 34.669 34.653 34.678 35.445 39.928 37.429 37.114 36.85 36.698 36.062 34.691 35.22 34.686 34.645 34.844 36.144 36.037 36.152 37.17 39.857 40.083 40.016 40.244 40.616 40.649 40.898 40.979 41.029 41.335 41.336 41.609 41.682 41.868 38.006 34.244 34.307 34.337 34.331 34.39 34.429 34.415 34.416 34.403 34.434 34.477 34.531 34.463 34.464 34.704 34.485 35.412 34.511 36.493 35.325 34.995 35.041 37.367 35.665 35.239 36.303 36.477 35.433 34.816 34.803 34.807 34.762 34.74 35.004 34.73 34.766 34.778 34.648 34.734 34.841 34.876 34.773 34.656 34.553 34.514 36.448 36.543 35.428 38.698 38.869 39.875 40.103 40.224 40.404 40.531 40.647 40.557 40.607 40.349 40.198 39.155 39.9 38.436 35.83 34.687 34.797 34.709 34.417 35.31 36.41
43.634 43.629 43.57 43.531 43.569 43.807 43.469 43.549 43.515 43.422 43.39 46.509 46.848 44.233 48.519 49.057 49.505 49.525 43.289 46.237 50.89 50.653 50.884 50.837 51.173 51.659 51.567 51.396 51.523 51.458 51.467 51.515 42.9 42.574 42.441 42.457 42.507 42.536 42.592 43.144 42.882 42.802 42.863 42.839 43.848 45.369 50.813 50.06 45.294 45.125 45.309 45.424 45.443 45.636 45.617 45.224 45.134 45.106 45.378 47.256 48.347 50.501 47.675 47.126 45.489 47.56 47.512 49.538 45.908 45.397 45.365 47.23 50.382 54.153 51.61 46.118 45.409 45.231 41.586 40.639 40.321 40.273 40.162 40.211 40.195 40.082 40.067 40.011 40.051 39.996 39.966 40.073 40.075 39.947 39.858 39.817 39.808 39.811 39.721 39.625 39.635 39.611 39.585 39.622 39.706 39.871 39.902 39.955 39.67 39.583 39.487 39.443 39.373 39.27 39.324 41.286 40.688 40.52 43.054 42.051 45.696 41.881 39.256 39.338 39.362 39.338 39.381 39.331 39.419 39.414 39.397 39.239 39.085 38.801 38.745 38.672 39.608 39.694 39.392 39.616 38.783 38.495 38.587 38.567 38.483 39.389 45.308 46.312 51.835 51.304 50.136 50.213 45.283 42.731 37.724 37.599 37.681 40.135 40.883 41.193 40.232 38.322 37.658 37.651 37.824 37.848 37.867 37.862 37.921 37.919 37.919 37.88 37.873 37.875 37.896 37.898 37.864 37.843 37.814 37.602 37.631 37.996 38.427 37.131 37.116 37.097 37.168 37.443 44.071 40.571 40.626 43.721 38.523 37.163 37.636 36.865 36.974 44.319 43.604 44.018 41.262 40.33 38.801 37.974 37.926 37.928 37.819 39.908 43.666 42.29 42.515 44.044 45.577 41.149 43.647 38.209 36.542 36.552 36.577 42.407 45.7 46.682 41.909 41.944 40.336 36.973 36.461 36.665 36.221 36.176 36.205 36.158 36.194 36.178 36.142 36.163 37.771 39.288 39.476 39.631 39.8 40.369 40.328 39.743 39.572 39.413 39.128 36.148 36.089 36.102 36.071 36.041 36.016 36.067 36.065 36.068 36.058 36.019 36.07 36.121 36.069 35.991 35.914 41.641 39.903 46.104 46.33 44.533 42.294 35.641 35.531 35.502 35.49 35.536 37.739 47.095 41.288 41.074 40.627 42.474 44.924 50.247 47.709 46.859 46.18 37.7 39.199 35.997 35.717 35.679 35.754 35.731 35.653 35.644 35.678 35.599 35.586 35.659 35.754 35.775 35.637 35.638 35.593 35.693 35.68 35.771 37.063 37.719 41.116 41.528 41.706 38.686 35.547 39.033 35.939 35.982 35.554 35.387 35.667 35.985 35.88 37.388 39.109 36.922 39.59 36.611 34.981 34.827 34.755 34.735 34.75 34.742 34.744 35.847 36.121 36.138 36.189 37.6 35.53 34.72 34.832 34.748 34.66 34.674 35.248 34.646 34.6 34.634 36.697 36.34 36.153 36.3 37.672 36.159 39.912 39.942 40.248 40.551 40.656 40.651 40.838 41.111 36.426 34.252 34.291 34.409 34.445 34.451 34.43 34.418 34.486 34.545 34.487 34.482 34.558 34.493 34.521 34.593 34.543 34.537 34.587 38.539 40.178 38.92 38.908 39.783 35.181 35.177 36.658 37.386 35.047 34.965 35.268 35.762 34.846 34.829 35.615 35.06 34.739 34.704 34.636 34.692 34.642 34.67 34.686 34.663 34.586 34.509 34.542 34.753 34.523 34.513 34.515 36.511 36.435 35.428 38.594 39.375 39.894 39.987 40.296 40.435 40.363 40.5 40.627 40.51 37.266 34.772 34.816 34.673 34.478 34.847 34.96
44.05 48.575 47.581 48.789 49.574 49.953 50.356 51.345 51.231 44.334 43.799 48.543 50.726 50.789 51.078 51.136 51.199 46.13 43.178 43.237 51.727 51.644 51.865 51.996 52.025 52.087 52.258 51.952 51.921 52.058 51.99 50.598 45.42 42.501 42.372 42.483 42.542 42.641 42.737 42.845 43.175 43.115 43.655 43.145 48.733 50.787 51.733 50.616 45.255 45.16 45.359 45.498 45.454 45.477 46.051 45.167 45.168 45.311 46.327 48.735 48.483 47.096 46.15 48.294 45.585 46.947 45.263 46.81 46.627 45.392 45.888 50.182 53.722 52.418 49.003 43.729 42.845 40.854 40.643 40.343 40.288 40.198 40.158 40.156 40.104 40.124 40.037 40.03 39.959 39.941 40.136 40.107 39.971 39.839 39.813 39.825 39.774 39.763 39.699 39.707 39.623 39.565 39.751 39.74 39.995 40.117 40.003 39.739 39.559 39.584 39.495 39.434 39.36 39.324 39.471 39.566 43.785 43.351 39.964 39.719 39.438 39.43 39.32 39.372 39.325 39.366 39.35 39.423 39.441 39.42 39.307 39.01 38.86 39.342 38.71 39.668 46.822 42.246 38.893 40.979 40.758 38.503 38.552 38.598 38.52 38.381 43.562 47.961 51.1 53.06 49.284 50.074 49.337 42.015 38.429 39.019 40.249 40.954 41.482 41.466 40.835 38.221 37.744 37.782 37.85 37.846 37.9 37.893 37.864 37.899 37.967 37.956 37.926 37.89 37.925 37.923 37.904 37.851 37.821 37.819 37.615 37.587 38.512 37.872 37.187 37.139 37.13 44.852 46.668 46.148 47.297 44.134 39.228 37.096 36.992 36.845 36.994 43.366 44.043 45.818 46.409 43.582 39.068 38.053 37.962 37.969 37.785 41.645 43.772 44.158 43.859 46.315 45.847 38.65 39.402 36.548 36.506 36.625 41.64 44.936 46.211 46.231 45.095 38.204 36.525 36.518 36.353 36.218 36.802 36.403 36.173 36.249 36.266 36.218 36.208 36.199 36.296 39.267 39.5 39.702 39.869 40.527 39.971 39.675 39.582 39.393 37.165 36.175 36.178 36.087 36.107 36.081 36.1 36.143 36.07 36.128 36.042 36.026 36.07 36.037 36.024 35.973 35.871 35.928 37.748 48.417 47.319 42.751 35.621 35.485 35.553 35.523 35.57 35.443 42.082 46.393 45.676 49.984 52.889 47.117 46.494 50.573 41.093 52.696 51.85 50.206 41.194 37.266 35.74 35.778 35.787 35.778 35.765 35.7 35.708 35.634 35.624 35.613 35.603 35.648 35.598 35.644 35.645 35.812 35.614 35.821 35.665 35.64 37.013 39.775 40.763 36.429 35.618 41.619 41.195 39.495 36.434 37.274 35.56 35.425 35.473 36.134 36.031 36.599 37.421 36.557 35.804 35.013 34.911 34.806 34.721 34.69 34.699 34.7 34.624 34.681 39.544 37.808 35.217 34.775 34.937 34.8 34.739 35.799 35.184 34.719 34.653 34.669 34.726 34.65 34.59 34.757 34.958 34.702 34.601 35.508 35.183 35.602 39.73 39.819 40.041 40.11 34.924 34.339 34.33 34.817 36.667 36.425 36.238 35.765 34.722 34.612 34.58 34.63 34.589 34.559 34.675 34.604 34.602 34.57 34.671 40.501 41.296 41.12 40.892 40.879 40.587 39.16 39.58 36.816 38.032 35.31 37.071 37.367 34.993 34.928 35.821 35.609 34.954 35.252 34.747 34.71 34.724 34.698 34.71 34.65 34.707 34.584 35.433 34.558 34.51 34.488 34.492 34.715 34.432 34.448 36.189 35.73 34.465 35.567 37.448 39.287 39.755 39.871 39.972 39.96 35.256 34.724 34.826 34.524 34.54 34.864 35.107
51.351 52.196 52.691 53.108 52.272 51.943 52.314 52.406 50.785 43.86 44.188 49.54 51.739 52.089 52.179 52.008 52.113 51.392 43.592 43.963 50.358 51.813 51.568 51.461 51.69 51.443 51.652 52.267 51.614 51.484 51.447 51.289 43.759 42.569 42.445 42.438 42.564 42.802 47.562 50.389 49.242 44.541 43.921 43.404 49.765 48.69 49.976 47.852 45.137 45.221 45.345 45.777 45.426 45.327 45.383 45.073 45.243 45.46 48.952 49.174 46.839 49.482 49.487 49.229 49.802 45.034 47.287 48.08 45.036 46.259 47.979 49.718 52.119 51.584 45.385 42.022 40.82 40.525 40.323 40.212 40.272 40.232 40.115 40.163 40.143 40.058 39.981 39.999 40.203 40.111 39.924 39.845 39.909 39.791 39.822 39.76 39.703 39.687 39.692 39.672 39.688 39.837 40.02 40.163 40.153 40.021 39.774 39.615 39.52 39.523 39.415 39.401 39.512 39.576 39.578 39.5 40.021 39.407 39.457 39.477 39.491 39.418 39.442 39.411 39.376 39.386 39.335 39.349 39.411 39.273 39.022 38.851 39.749 41.107 40.423 48.352 48.691 48.218 45.557 42.249 41.604 39.816 38.569 38.57 38.571 38.527 38.57 50.938 50.172 52.932 50.018 52.392 46.269 41.854 40.076 41.73 41.072 41.823 41.405 40.845 40.422 38.076 37.757 37.848 37.855 37.843 37.916 37.927 37.916 37.948 37.902 37.96 37.952 37.904 37.882 37.915 37.915 37.898 37.868 37.85 37.849 37.713 37.592 37.968 38.523 37.559 37.172 42.214 46.277 46.425 46.933 41.735 37.76 37.4 37.015 36.919 36.824 41.728 40.757 41.084 38.974 39.8 40.561 38.401 38.037 37.964 39.356 43.379 45.768 41.342 44.996 47.269 46.985 43.313 39.69 37.347 36.622 36.956 42.786 45.262 45.737 45.002 43.513 42.326 39.867 36.447 36.362 37.049 36.194 36.2 36.2 36.281 36.222 36.26 36.171 36.331 38.373 39.386 39.484 39.749 40.058 40.508 39.946 39.73 39.477 39.317 37.218 36.217 36.148 36.088 36.102 36.12 36.119 36.157 36.175 36.125 36.005 35.992 36.079 36.05 36.079 36.027 35.939 36.345 39.843 42.127 42.796 35.593 35.534 35.553 35.592 35.53 35.564 36.71 41.407 46.624 45.978 48.248 40.951 47.361 53.426 49.356 51.332 44.837 50.825 46.782 42.458 35.846 35.739 35.794 35.792 35.825 35.833 35.705 35.706 35.693 35.684 35.653 35.738 36.524 39.958 35.78 35.694 35.693 35.678 35.631 35.961 35.687 35.624 35.67 35.602 35.578 38.424 41.3 41.706 41.709 41.172 39.903 37.215 35.57 35.395 35.299 35.236 35.31 39.032 37.535 36.626 35.338 35.293 34.965 34.872 34.812 34.791 34.77 34.755 34.64 34.646 34.693 34.749 34.871 34.798 34.784 34.838 35.729 35.095 34.845 34.681 34.71 34.708 34.668 34.691 34.752 34.851 34.658 34.601 34.586 34.651 34.595 34.541 34.583 35.479 35.338 34.927 34.394 34.402 35.757 36.967 36.941 36.92 36.958 36.981 36.588 36.434 36.622 35.179 34.742 34.733 34.703 34.713 34.594 34.903 41.924 42.07 41.873 41.771 41.627 41.31 41.324 41.13 41.034 40.819 37.255 39.032 36.416 35.254 35.119 37.379 36.108 34.951 35.124 35.338 34.922 34.878 34.844 36.18 35.11 34.764 34.749 34.651 34.647 34.61 34.592 34.552 34.497 34.495 34.441 34.416 34.476 34.477 34.465 34.488 36.404 34.493 34.475 34.452 35.924 34.615 34.705 34.746 34.486 34.683 34.957 35.172
52.579 53.021 52.884 53.005 52.972 52.953 52.969 52.851 51.819 43.864 44.638 49.261 51.567 51.519 51.744 51.503 51.11 52.117 44.62 43.524 50.49 50.613 50.506 50.363 50.712 50.231 50.383 49.829 50.257 47.224 45.081 44.021 42.819 42.508 42.419 42.555 42.543 46.126 45.809 51.147 44.974 43.502 43.867 43.51 44.801 48.781 48.427 45.607 46.534 45.366 45.68 46.317 45.25 45.21 45.122 45.071 45.198 46.06 48.884 48.757 48.206 46.031 49.073 48.924 48.839 49.324 47.985 45.692 45.713 46.477 46.204 48.131 46.864 44.673 42.254 40.942 40.374 40.319 40.259 40.18 40.152 40.085 40.105 40.021 40.048 40.019 39.945 40.282 40.199 39.992 39.91 39.86 39.825 39.782 39.823 39.771 39.75 39.683 39.611 39.948 39.979 40.178 40.293 40.339 39.96 39.741 39.718 39.614 39.573 39.505 39.471 39.53 39.601 39.627 39.674 39.512 39.548 39.595 39.624 39.54 39.479 39.39 39.458 39.497 39.424 39.451 39.401 39.367 39.258 39.057 38.988 38.984 39.105 46.74 48.268 49.428 49.309 48.443 47.389 40.914 39.427 40.215 39.334 38.521 38.544 38.495 38.547 43.996 50.76 51.492 47.808 45.469 45.077 42.549 42.494 44.23 43.616 43.556 40.836 39.074 37.735 37.735 37.842 37.868 37.896 37.902 37.911 37.869 37.917 37.928 37.962 37.96 37.957 37.961 37.933 37.881 37.898 37.893 37.918 37.892 37.863 37.816 37.695 37.525 37.926 37.84 37.024 37.087 44.53 46.316 41.579 39.641 40.641 37.941 37.022 36.959 36.849 36.996 38.596 39.291 37.557 37.887 38.05 38.075 38.087 38.003 41.709 44.646 46.69 46.249 46.059 47.771 45.878 44.232 41.492 37.611 36.921 43.271 45.36 44.625 44.355 42.256 42.137 41.559 37.855 36.079 36.154 36.529 36.221 36.205 36.287 36.302 36.276 36.263 36.267 36.318 38.409 39.416 39.619 39.746 40.244 40.619 39.821 39.692 39.449 39.361 37.049 36.232 36.118 36.117 36.182 36.163 36.196 36.173 36.176 36.099 36.042 36.06 36.018 36.101 36.034 36.049 41.497 37.935 39.937 44.946 44.505 35.659 35.592 35.637 35.656 35.621 35.58 42.002 42.428 40.402 49.356 36.316 38.239 45.344 49.477 46.635 50.992 51.43 39.095 48.789 37.718 38.531 35.873 35.798 35.713 35.803 35.75 35.783 35.765 35.706 35.688 35.721 35.724 35.683 35.845 35.766 36.572 35.824 35.639 36.025 35.844 35.797 35.648 35.902 36.146 35.605 35.723 36.265 39.916 41.423 41.704 41.692 41.157 39.5 36.596 36.589 35.277 36.668 40.61 41.051 40.052 38.976 36.022 35.284 35.002 34.998 34.924 34.791 34.716 34.753 34.712 34.689 35.465 35.938 35.236 34.754 34.696 34.891 34.958 34.767 35.002 34.815 34.769 35.074 34.723 34.788 34.946 34.642 34.631 34.655 34.662 34.599 34.603 34.552 34.594 34.555 34.435 34.376 34.437 35.432 36.953 37 36.955 37.068 37.012 37.027 37.129 37.147 37.1 37.015 35.806 34.738 34.73 34.706 39.084 41.259 42.294 42.263 42.342 42.335 42.175 42.135 41.862 41.829 41.749 40.915 40.688 40.559 39.079 38.571 38.053 38.866 35.381 34.991 36.989 35.292 34.979 35.026 36.524 35.301 34.858 34.879 34.783 34.703 34.648 34.65 34.588 34.584 34.514 34.546 34.503 34.554 34.492 34.477 34.464 34.432 34.489 34.472 34.442 34.439 34.434 34.559 34.544 34.471 34.744 34.997 35.133
52.572 52.588 52.556 52.499 52.435 52.201 52.024 52.398 52.788 45.656 43.272 43.105 50.487 50.369 50.336 50.309 50.096 49.699 44.595 43.284 44.549 44.734 44.707 43.462 44.605 43.443 42.856 42.624 42.638 42.651 42.564 42.521 42.5 42.512 42.503 42.553 46.529 47.241 44.831 46.274 49.86 46.017 48.383 46.867 49.487 51.95 50.683 46.449 46.718 45.375 45.393 45.301 45.26 45.164 45.1 44.971 45.271 46.137 49.638 50.233 49.198 47.633 48.179 47.417 46.647 48.607 48.843 45.496 44.661 45.049 44.87 44.526 43.922 41.624 40.427 40.367 40.22 40.285 40.137 40.14 40.154 40.087 40.09 40.017 40.034 40.281 40.428 40.017 39.886 39.891 39.853 39.898 39.831 39.738 39.754 39.657 39.717 39.778 40.569 40.625 40.298 40.422 40.271 39.983 39.799 39.713 39.642 39.584 39.565 39.505 39.732 39.665 40.045 39.773 39.603 39.657 39.668 39.751 39.665 39.653 39.505 39.45 39.46 39.441 39.512 39.437 39.384 39.183 39.022 39.087 40.383 40.709 40.181 42.295 47.597 48.737 49.64 49.411 48.702 47.33 41.683 39.075 39.082 38.911 38.594 38.58 38.618 38.58 47.943 41.534 41.175 42.157 43.677 45.646 44.514 44.954 45.063 43.072 38.555 37.658 37.759 37.795 37.781 37.882 37.889 37.912 37.926 37.909 37.911 37.965 37.952 37.947 37.908 37.965 37.946 37.947 37.924 37.905 37.911 37.926 37.842 37.843 37.817 37.754 37.568 37.688 37.272 37.172 38.827 38.24 37.327 42.683 43.322 40.419 38.092 37.075 43.169 41.594 37.3 37.545 37.809 37.994 38.074 38.142 38.1 37.9 42.991 45.886 45.282 47.872 47.908 47.55 43.434 41.713 44.046 42.724 41.612 45.008 46.737 38.824 38.802 36.512 38.636 36.394 36.058 36.153 36.122 36.204 36.255 36.235 36.344 36.307 36.288 36.292 36.295 36.372 39.227 39.479 39.606 39.765 40.419 40.229 39.859 39.609 39.436 39.258 36.305 36.223 36.174 36.195 36.201 36.208 36.214 36.192 36.232 36.112 36.079 36.082 36.036 36.078 36.035 36.173 36.734 43.673 45.461 44.21 39.658 35.811 35.835 35.717 35.676 35.671 36.893 45.058 48.919 49.467 41.931 39.235 43.793 50.562 40.527 47.847 38.332 37.578 38.743 45.219 36.52 37.633 36.206 36.025 35.852 35.768 35.695 35.732 35.733 35.777 35.755 35.767 35.712 35.753 35.753 35.682 35.783 35.777 35.567 35.552 35.631 35.65 35.67 35.644 35.607 35.886 35.53 35.535 35.471 36.807 40.934 41.204 41.414 41.326 41.088 40.218 38.201 39.972 41.08 41.323 41.382 40.349 40.582 38.586 35.323 35.171 35.136 34.89 34.826 34.696 34.685 34.694 34.645 34.681 34.826 34.667 34.662 34.653 34.612 34.611 34.598 34.946 34.692 34.615 34.642 34.7 35.084 35.025 34.617 34.62 34.646 34.605 34.639 34.618 34.727 34.71 34.447 34.466 34.527 34.804 35.161 35.806 35.936 36.198 36.516 37.078 37.172 37.17 37.157 37.212 37.528 34.856 34.793 34.704 36.094 41.075 41.414 41.568 41.638 41.84 41.917 42.044 42.276 42.202 42.309 41.715 41.664 41.357 41.269 40.938 40.885 40.865 38.599 36.059 37.457 35.696 35.035 36.937 37.451 35.557 35.625 36.594 35.234 35.872 34.588 35.329 35.22 34.494 34.541 34.506 34.486 34.458 34.477 34.503 34.53 35.777 34.566 34.597 35.577 34.578 34.458 34.442 34.422 34.462 34.543 34.788 34.891
51.98 52.122 52.221 51.282 51.044 50.894 46.941 46.996 46.854 45.397 43.606 44.362 43.591 44.805 44.301 43.558 42.898 42.824 42.778 42.785 42.695 42.788 42.738 43.097 43.698 43.571 42.725 42.694 42.688 42.597 42.649 42.604 42.656 42.486 42.509 42.667 47.226 47.177 45.118 47.201 53.486 52.176 47.901 50.362 47.953 52.82 50.523 45.409 45.277 45.411 45.357 45.222 45.225 45.14 45.026 45.05 45.281 48.865 49.508 49.097 48.657 48.464 50.974 50.376 47.286 45.486 44.659 45.148 44.706 44.5 43.447 42.545 40.723 40.428 40.251 40.315 40.188 40.212 40.142 40.129 40.142 40.018 40.03 40.126 40.438 40.098 39.972 39.91 39.938 39.891 39.808 39.842 39.729 39.783 39.78 39.769 40.066 40.136 40.273 40.413 40.401 40.19 39.939 39.887 39.733 39.755 39.666 39.826 42.909 44.399 39.784 41.157 42.303 40.402 39.824 39.813 39.828 39.773 39.637 39.532 39.481 39.454 39.492 39.516 39.503 39.489 39.235 39.122 39.129 41.742 41.986 39.846 39.526 39.92 46.528 49.212 49.52 49.72 49.325 48.399 45.732 41.217 38.879 41.215 38.798 38.559 38.625 38.596 38.571 38.524 41.617 42.049 43.997 45.905 45.868 45.307 44.981 40.972 37.628 37.67 37.812 37.808 37.798 37.874 37.85 37.899 37.928 37.903 37.926 37.927 37.969 37.937 37.979 37.952 37.968 37.962 37.915 37.859 37.88 37.849 37.888 37.809 37.794 37.755 37.604 37.47 38.277 37.115 37.577 37.371 42.448 46.599 46.48 45.631 41.713 38.798 46.023 42.518 43.275 37.692 37.927 38.099 38.176 38.194 38.116 37.976 43.232 45.75 46.331 47.411 47.896 41.587 44.925 44.495 44.672 44.659 43.238 45.644 44.951 39.69 40.669 36.543 36.067 36.071 36.116 36.167 36.196 36.205 36.237 36.349 36.305 36.355 38.156 36.967 36.48 36.982 39.123 39.493 39.639 39.826 40.449 40.089 39.768 39.569 39.467 38.631 36.605 36.252 36.236 36.227 36.23 36.183 36.218 36.24 36.25 36.148 36.116 36.02 36.075 36.065 36.091 36.227 36.765 46.798 41.722 48.046 44.165 41.434 37.002 35.659 35.692 35.712 35.597 38.114 49.747 49.741 52.244 44.342 39.654 38.341 36.264 38.632 39.269 36.787 41.059 39.491 38.695 36.233 36.215 36.1 36.002 35.779 36.605 35.793 35.809 35.715 35.727 35.719 35.717 35.804 35.705 35.716 35.617 35.663 35.686 35.559 35.498 35.519 35.564 35.631 35.642 35.714 35.586 35.537 35.447 35.535 36.904 40.387 41.087 40.99 41.178 41.284 41.193 40.757 41.399 40.982 40.852 41.126 41.418 40.673 40.668 39.361 35.657 35.378 34.96 34.938 34.817 34.759 34.679 34.629 34.592 34.683 34.601 34.67 34.63 34.6 34.57 34.921 35.732 34.8 34.51 34.512 34.586 35.073 34.568 34.611 34.742 34.598 34.642 36.376 35.794 34.642 34.454 34.497 34.5 34.551 34.564 34.548 34.92 34.963 34.855 35.203 35.774 36.417 36.498 37.186 36.15 35.227 34.785 34.858 38.741 40.234 40.496 40.728 40.988 41.054 41.209 41.282 41.454 41.692 42.225 42.255 42.256 42.194 42.145 41.869 41.821 41.645 41.785 40.282 40.098 39.923 39.018 38.672 37.542 36.297 35.281 36.722 35.579 34.993 34.629 35.461 35.74 35.387 34.818 34.402 34.337 34.326 34.523 34.275 36.239 35.556 34.704 34.655 37.175 35.049 34.672 34.579 34.527 34.478 34.577 34.618 34.71
46.726 45.417 45.78 44.06 43.445 44.003 43.206 43.161 43.134 43.021 42.989 42.926 42.888 42.9 42.912 42.809 42.872 42.818 42.847 42.84 42.804 42.79 42.826 42.865 42.805 42.677 42.718 42.669 42.679 42.709 42.725 42.644 42.631 42.563 42.563 42.557 43.678 43.961 43.545 45.554 47.944 49.277 45.316 49.913 52.414 52.737 52.314 46.02 45.266 45.286 45.248 45.246 45.252 45.153 45.054 45.097 46.041 48.53 50.042 50.081 47.771 48.346 48.145 48.946 48.063 45.932 45.125 45.286 44.937 45.13 41.207 40.678 40.377 40.26 40.321 40.22 40.173 40.184 40.131 40.083 40.022 40.085 40.294 40.279 40.079 40.009 39.965 39.858 39.904 39.764 39.778 39.806 39.738 39.849 40.027 40.152 40.207 40.325 40.414 40.416 40.159 40.024 39.898 39.889 43.728 41.162 43.725 46.787 49.587 48.461 41.002 39.828 39.93 39.884 39.995 39.995 39.871 39.747 39.508 39.501 39.476 39.48 39.472 39.482 39.397 39.325 39.273 40.143 40.95 41.955 40.367 39.944 39.762 41.193 41.961 46.904 48.113 48.75 49.631 49.355 48.708 47.226 42.902 39.795 39.257 38.82 38.615 38.595 38.671 38.55 38.84 39.012 42.726 45.4 46.293 45.541 45.44 39.956 37.648 37.738 37.763 37.769 37.844 37.871 37.835 37.887 37.948 37.939 37.911 37.923 37.956 37.958 37.966 37.952 37.919 37.953 37.918 37.873 37.911 37.903 37.866 37.816 37.786 37.746 37.582 39.085 40.092 37.826 37.183 37.829 39.123 41.561 40.705 44.102 38.44 41.509 47.972 49.965 47.324 37.998 38.202 38.17 38.211 38.167 38.063 38.026 41.353 46.088 47.03 43.148 45.712 41.533 43.709 45.806 46.113 45.399 45.75 44.838 45.237 42.857 43.381 38.091 36.091 36.095 36.208 36.131 36.249 36.274 36.233 36.312 36.491 37.274 39.602 39.356 39.092 39.565 38.82 39.123 39.212 39.391 39.552 39.471 39.694 39.535 39.361 37.176 36.302 36.241 36.251 36.275 36.281 36.29 36.223 36.223 36.187 36.134 36.111 36.019 36.044 36.086 36.122 38.595 36.203 43.879 41.254 50.303 50.05 49.529 43.126 35.737 35.796 35.717 35.79 43.558 50.116 49.207 51.004 48.847 46.63 38.494 36.341 39.304 39.696 39.708 38.621 36.889 37.101 36.25 36.165 36.177 35.882 35.794 35.931 35.981 35.895 35.87 35.804 35.666 35.776 35.729 35.763 35.755 35.681 35.725 35.702 35.653 35.647 35.557 35.483 35.508 35.53 35.562 35.621 35.541 35.668 41.477 45.117 43.633 36.15 36.071 38.554 40.948 41.165 41.342 41.385 40.629 36.836 40.491 40.664 41.069 41.415 41.165 40.652 38.954 36.658 35.351 35.021 35.502 35.068 34.804 34.75 34.623 34.597 34.572 34.575 34.602 34.533 34.573 34.554 34.549 34.537 34.474 34.491 34.956 35.103 34.866 35.147 34.477 34.547 34.539 34.78 34.548 34.508 34.511 34.526 34.578 34.556 34.615 34.657 34.699 34.689 34.724 34.663 34.749 35.947 35.415 35.37 34.935 34.832 34.838 34.975 35.028 35.386 36.462 36.84 39.962 40.369 40.475 40.634 41.022 41.63 41.744 41.895 41.982 42.127 42.367 42.265 42.288 41.768 41.535 41.343 41.192 41.013 40.943 40.782 39.669 40.362 39.892 35.071 34.634 34.596 34.551 35.676 35.322 34.613 34.415 34.36 34.322 35.174 34.4 34.954 35.333 34.998 34.818 35.594 34.688 34.798 34.608 34.653 34.635 34.684 34.732 34.73
43.494 43.376 43.382 43.374 43.282 43.246 43.199 43.157 43.093 43.097 42.992 43.034 42.999 42.946 42.884 42.888 42.906 42.835 42.9 42.818 42.796 42.861 42.806 42.731 42.724 42.707 43.322 43.424 42.815 42.651 42.634 42.638 42.654 42.526 42.576 42.574 42.546 47.224 44.605 45.151 48.727 48.152 46.8 45.757 49.224 47.443 46.963 45.281 45.314 45.278 45.26 45.297 45.197 45.015 45.019 45.048 45.672 48.06 48.942 50.915 48.639 48.374 47.856 46.414 45.859 45.992 45.582 45.012 43.965 41.663 40.55 40.321 40.341 40.267 40.294 40.205 40.198 40.099 40.18 40.085 40.061 40.419 40.22 40.053 39.934 39.932 39.922 39.857 39.852 39.8 39.816 39.834 39.939 39.99 40.14 40.261 40.323 40.568 40.51 40.174 40.11 39.938 39.946 39.882 45.158 43.063 47.047 46.052 47.109 42.301 40.012 39.974 40.079 40.142 40.119 40.065 39.966 39.685 39.553 39.59 39.556 39.467 39.463 39.454 39.283 39.301 41.501 41.615 41.882 42.353 39.612 39.636 40.483 41.809 40.805 42.263 45.792 48.157 49.921 49.727 49.278 48.251 46.965 41.314 39.089 39.826 38.778 38.599 38.681 38.683 38.623 38.534 41.756 43.911 44.557 43.952 42.626 40.653 39.089 37.654 37.717 37.741 37.832 37.898 37.881 37.897 37.893 37.913 37.933 37.923 37.937 37.958 37.95 37.941 37.955 37.942 37.925 37.902 37.86 37.845 37.849 37.839 37.722 37.993 39.691 42.139 41.694 44.115 41.917 37.843 39.112 42.518 44.84 45.601 40.763 42.112 44.438 47.738 46.473 42.83 39.19 38.182 38.203 38.162 38.041 40.477 42.596 46.332 47.251 47.944 47.93 41.686 44.057 45.768 46.24 45.912 44.385 42.783 43.246 44.098 44.202 36.244 36.133 36.163 36.201 36.19 36.286 36.26 36.309 36.373 37.242 37.972 39.659 39.693 39.718 39.662 39.756 39.164 39.152 39.223 39.302 39.244 39.116 39.145 39.023 37.127 36.318 36.281 36.293 36.241 36.334 36.303 36.282 36.296 36.226 36.213 36.133 36.088 36.12 36.076 41.568 38.215 40.367 49.764 51.22 52.231 43.202 49.923 39.244 35.829 35.797 35.764 37.942 47.655 51.02 50.303 48.723 40.051 49.063 42.153 40.338 39.73 39.764 39.784 39.749 39.353 36.758 36.171 36.085 36.008 35.925 35.883 36.036 36.169 36.125 36.667 36.9 35.895 35.807 35.742 35.705 35.717 35.657 35.769 35.659 35.683 35.628 35.583 35.627 35.588 35.594 35.495 35.551 36.515 39.817 43.507 43.723 43.121 35.848 35.323 35.367 36.006 39.53 40.69 41.025 36.707 35.247 35.207 36.149 39.494 40.835 41.147 41.074 40.884 40.423 36.828 37.49 35.554 36.069 36.512 35.334 34.686 34.657 34.637 34.577 34.597 34.549 34.541 34.488 34.49 34.491 34.489 34.503 34.479 34.475 34.431 34.63 34.39 35.219 34.889 34.395 34.373 34.418 34.467 34.502 34.522 34.554 34.631 34.679 34.698 34.712 34.74 34.784 34.803 34.796 34.841 34.842 34.856 34.86 34.898 35.035 35.06 35.123 35.039 35.156 35.917 35.013 35.487 36.406 36.854 40.699 40.914 41 41.215 41.47 41.47 41.697 41.722 42.3 42.338 42.078 42.058 41.837 41.728 41.636 41.473 41.211 40.695 34.843 34.697 34.659 34.561 34.505 34.539 34.468 34.426 34.374 34.338 34.651 34.315 36.446 34.792 34.826 36.111 37.244 34.845 35.187 34.743 34.76 34.74 34.782 34.782 34.833
