ncols 405
nrows 32
xllcorner    429040
yllcorner    437120
cellsize     2
NODATA_value -9999
87.484 86.464 87.336 87.564 85.116 84.634 91.211 91.644 91.096 90.479 89.834 84.756 84.761 84.899 85.119 85.074 85.009 85.234 86.541 86.434 85.511 85.574 86.151 86.589 89.589 92.219 93.099 92.594 89.961 88.676 85.364 84.511 84.611 84.629 84.601 84.921 84.901 84.851 84.809 84.741 84.694 84.639 84.739 84.931 84.631 84.554 84.564 85.051 84.894 88.816 90.201 90.739 91.329 91.531 90.824 89.334 86.331 84.759 84.526 84.249 83.399 83.589 84.631 85.301 85.531 84.426 83.464 82.966 82.994 82.891 82.791 82.719 87.694 88.284 86.184 82.229 82.231 82.636 81.931 82.346 82.562 81.994 81.602 80.902 81.019 80.922 80.884 80.909 80.977 81.012 81.009 80.977 81.057 81.162 81.254 81.317 81.114 80.854 80.707 80.627 85.657 86.834 86.597 83.329 80.314 82.917 83.367 81.502 80.699 79.669 79.639 81.129 79.734 79.682 79.602 79.547 79.497 79.519 79.307 79.154 78.964 79.022 79.357 81.427 81.809 79.887 79.119 79.389 79.417 79.439 79.389 79.399 79.439 79.479 79.532 79.599 79.627 79.682 79.727 79.732 79.784 79.792 79.849 79.884 79.882 79.829 79.742 79.612 79.702 80.049 80.212 80.362 80.479 80.574 80.722 80.904 81.029 80.947 80.827 80.854 80.807 80.764 80.924 81.229 81.844 82.474 83.244 84.207 84.604 85.029 85.054 84.969 90.772 91.597 92.287 91.504 90.682 85.514 90.859 95.429 87.554 87.917 88.889 87.737 87.749 87.782 87.807 87.839 87.859 88.292 88.417 88.642 88.709 89.884 90.419 93.992 98.544 99.222 99.894 100.514 100.362 99.687 99.047 98.327 91.864 88.912 88.914 88.319 88.349 88.074 88.637 88.057 88.137 88.249 89.839 90.667 91.599 92.674 91.512 91.499 91.112 90.249 90.049 89.979 89.804 89.572 89.267 88.924 88.837 88.819 88.862 89.062 91.969 88.989 89.599 90.009 91.072 92.354 92.257 92.949 94.507 97.547 99.387 93.569 94.517 94.667 94.752 94.894 95.447 96.949 97.277 96.762 97.509 99.244 99.574 96.507 96.602 96.767 97.644 99.437 98.137 98.819 99.157 98.624 97.757 98.044 98.017 98.857 98.217 98.422 98.359 98.327 98.434 98.582 99.489 101.102 101.599 98.959 100.574 99.892 99.079 99.497 99.739 99.597 99.634 99.707 99.914 99.999 103.452 104.442 101.769 100.684 104.017 101.307 101.309 102.787 104.274 105.184 103.324 102.252 102.437 103.089 103.534 103.559 105.717 105.179 103.572 103.607 105.057 107.407 103.917 103.989 106.234 105.882 103.804 103.779 103.707 103.919 103.759 103.757 105.724 106.564 103.914 103.397 103.302 103.322 103.779 103.192 105.039 104.604 103.462 103.082 102.997 103.03 102.907 102.88 103.152 103.6 103.052 103 102.832 102.862 102.877 102.88 102.865 102.86 102.84 102.935 103.472 104.09 104.19 105.8 104.451 103.833 103.835 104.391 105.146 104.317 104.013 104.034 104.043 104.063 104.406 104.386 104.214 109.376 110.092 110.833 108.419 105.292 105.329 104.441 104.594 105.041 114.216 115.408 114.995 113.171 113.487 112.575 112.316 107.764 107.376 107.186 109.197 107.503 107.22 107.371 107.463 107.852 108.428 109.573 108.806 108.963 109.091 109.441 112.51 114.002 112.976 112.042 113.18 113.633 110.858 112.89 113.563
88.084 86.289 87.211 86.441 84.631 89.316 90.479 91.086 91.599 91.216 90.609 89.806 84.624 84.974 84.814 84.894 84.821 84.784 86.711 86.269 85.361 85.874 86.109 85.946 88.981 91.164 92.066 90.656 88.846 85.686 87.589 85.754 85.706 84.526 84.506 84.519 84.559 84.796 84.736 84.679 84.624 84.564 84.534 84.466 84.444 84.481 84.494 84.436 84.356 84.374 84.699 90.231 90.599 91.389 90.999 90.421 89.359 87.011 84.401 83.884 83.131 88.041 92.454 86.856 82.694 83.309 84.611 83.771 82.774 82.676 82.691 88.344 88.391 88.239 88.244 87.529 82.071 81.906 83.174 81.581 82.024 81.729 80.837 80.897 80.919 80.844 80.829 80.874 80.912 80.922 80.889 81.014 81.072 81.172 81.234 81.064 80.834 80.659 80.804 85.934 86.877 87.747 87.444 86.524 81.424 80.139 82.204 82.904 80.574 79.562 79.457 79.372 80.847 79.507 80.099 79.867 79.344 79.232 79.134 78.952 79.094 80.227 80.959 79.162 80.252 78.932 79.224 79.337 79.352 79.237 79.267 79.344 79.374 79.407 79.472 79.519 79.827 79.639 79.704 79.727 79.739 79.817 79.839 79.894 79.807 79.719 79.667 79.639 79.674 79.879 80.252 80.412 80.637 80.814 80.949 81.107 81.207 81.092 80.992 81.022 80.949 80.959 81.154 81.452 82.304 82.979 83.659 84.409 84.922 85.182 85.167 90.752 91.569 92.244 91.537 90.732 85.499 85.857 86.032 89.122 88.169 87.879 87.774 87.802 87.849 87.904 87.952 88.067 88.147 88.307 89.242 89.637 89.274 90.852 95.707 98.782 99.432 100.087 101.252 99.622 99.452 98.792 95.037 89.044 88.869 88.894 88.899 89.227 88.374 88.194 88.152 88.239 88.684 90.414 91.159 91.392 91.842 92.077 91.817 91.527 91.349 90.747 90.364 90.169 90.014 89.799 89.477 89.167 89.034 89.007 89.037 89.077 92.657 89.579 89.942 90.029 89.987 91.564 92.202 98.844 100.252 100.949 99.787 95.219 94.217 95.192 96.632 97.389 95.907 96.069 96.567 96.857 97.754 99.819 98.834 99.252 99.467 99.234 97.957 97.692 97.752 97.957 97.734 100.362 98.149 98.132 98.174 98.279 98.319 98.362 98.632 98.574 98.709 98.844 99.672 99.037 101.442 99.802 100.987 101.192 100.517 99.932 99.844 99.964 99.879 99.964 100.117 100.199 102.504 105.169 104.787 100.744 104.557 102.137 102.024 102.629 104.322 105.072 103.894 103.229 103.232 103.494 103.564 103.587 104.519 104.614 105.464 103.737 103.784 104.134 103.977 104.122 106.372 105.984 103.837 103.792 103.769 103.884 105.927 105.029 106.102 106.537 103.947 103.409 103.374 103.439 103.744 103.324 104.854 105.587 103.675 103.195 103.342 103.335 102.99 102.975 103.587 103.785 103.06 102.92 102.915 102.94 102.932 103.005 103.015 103.012 103.047 107.012 107.195 106.47 107.25 106.411 105.47 104.316 104.229 104.625 105.243 104.467 104.185 104.194 104.124 104.226 104.274 104.307 104.259 104.162 105.914 105.26 105.122 104.481 104.305 104.599 104.59 112.527 116.83 117.41 117.676 113.433 107.688 111.72 113.71 108.085 106.903 107.071 107.099 107.49 108.207 107.653 107.88 108.412 108.921 113.343 110.438 109.284 109.383 110.352 109.71 113.877 113.423 111.294 114.275 115.052 111.291 111.254 112.362
85.826 86.074 86.506 85.589 84.621 85.264 87.464 90.371 90.956 91.549 91.356 90.761 90.174 86.036 84.666 84.739 84.754 84.976 86.131 85.301 85.274 87.074 86.049 86.604 86.009 85.829 89.761 88.996 87.149 87.384 87.584 84.456 84.394 84.434 84.389 84.339 84.299 84.309 84.691 84.619 84.536 84.479 84.409 84.261 84.249 84.256 84.296 84.221 84.214 84.196 84.216 84.499 89.909 91.044 91.594 91.144 87.731 86.566 83.119 82.901 82.919 84.534 92.491 85.519 82.759 82.716 83.226 84.719 82.904 84.509 88.024 88.234 88.449 88.254 88.209 87.709 82.211 81.634 81.474 81.186 80.962 80.764 81.187 80.832 80.757 80.739 80.792 80.819 80.844 80.817 80.944 81.169 81.124 81.149 81.007 81.234 80.599 80.437 86.019 86.887 87.794 87.899 86.732 84.537 80.359 80.139 80.049 82.932 82.929 79.942 79.254 79.172 79.099 80.612 79.167 79.087 79.077 79.007 78.929 79.092 78.979 78.479 78.452 78.599 78.812 79.232 79.309 79.382 79.347 79.242 79.312 79.314 79.354 79.349 79.422 79.607 79.907 79.592 79.647 79.682 79.769 79.779 79.817 80.002 79.689 79.654 79.592 79.599 79.734 79.914 80.137 80.482 80.764 81.012 81.164 81.292 81.389 81.252 81.154 81.159 81.089 81.147 81.327 81.779 82.817 83.597 84.114 85.567 90.612 85.547 90.709 91.537 92.269 91.597 90.782 87.069 86.562 86.072 86.389 88.597 89.322 87.872 87.837 87.922 87.989 88.024 88.162 88.352 89.609 88.707 88.789 90.187 91.594 98.344 99.027 99.702 100.332 100.539 99.894 99.269 98.559 94.172 89.194 89.064 88.894 88.877 89.779 89.299 88.327 88.304 88.402 90.249 91.114 92.672 92.124 92.294 92.384 92.147 91.934 91.764 91.447 91.002 90.642 90.419 90.192 90.022 89.769 89.432 89.237 89.182 89.229 89.264 91.844 91.352 89.437 89.669 90.577 91.609 92.912 96.849 99.849 100.969 100.174 98.469 94.227 94.829 95.384 95.842 96.022 96.144 96.494 96.777 96.944 97.204 97.914 100.559 100.542 97.934 97.749 97.599 97.689 98.954 97.792 97.904 100.502 98.177 98.247 98.419 98.407 98.422 99.492 99.719 99.357 99.459 99.647 100.284 100.292 101.442 99.512 99.762 100.142 99.887 100.052 101.039 100.079 100.134 100.404 103.284 101.639 105.179 103.967 100.829 103.219 103.387 103.659 104.769 102.104 103.242 103.227 103.669 103.667 104.979 106.582 106.609 105.524 103.637 103.924 104.047 104.032 106.432 104.034 104.022 104.657 104.114 103.844 103.824 103.817 104.127 106.734 106.007 103.787 104.007 104.534 104.149 103.449 103.734 105.139 104.512 105.107 105.742 103.695 103.64 104.312 103.725 104.437 103.13 103.61 103.857 103.367 103.377 103.482 103.18 103.47 103.305 103.162 103.11 103.555 105.122 109.76 111.272 110.555 106.997 104.82 104.443 104.664 105.244 106.131 105.336 104.338 104.32 104.304 104.401 104.86 105.28 104.951 105.06 105.173 105.259 105.014 106.341 106.725 107.158 106.697 108.02 116.506 118.53 117.936 115.051 108.278 110.957 113.338 107.856 107.615 107.597 107.879 109.913 108.364 108.971 116.092 116.032 115.88 116.386 121.374 113.506 109.514 110.274 114.576 116.153 111.397 111.533 112.208 112.952 112.047 110.947 111.419
85.649 87.064 84.704 84.984 84.559 84.549 85.161 86.639 90.366 90.814 91.399 91.481 90.891 90.289 86.216 84.861 84.359 85.361 85.654 85.021 85.151 86.536 85.209 85.526 85.504 85.456 85.499 87.636 85.061 87.196 84.726 84.331 84.351 84.296 84.311 84.249 87.456 88.426 84.309 84.864 84.511 84.389 84.236 84.169 84.104 84.061 84.076 84.051 84.026 84.021 84.051 84.136 87.886 90.326 90.904 84.296 85.044 84.124 88.756 88.386 83.939 82.889 82.886 82.809 82.866 82.784 82.844 82.726 82.309 82.376 88.526 88.221 88.224 88.911 88.411 84.444 81.874 81.796 81.134 80.939 80.712 80.722 80.792 80.682 80.662 80.697 80.752 80.747 80.742 80.869 81.039 81.044 81.097 80.904 80.659 80.502 80.874 80.319 85.164 86.742 87.497 86.672 84.039 80.339 80.142 79.129 80.047 81.934 82.512 82.924 78.912 78.902 78.887 78.904 78.979 78.889 78.917 79.044 79.494 79.169 78.439 78.434 78.562 79.114 79.094 79.159 79.362 79.399 79.307 79.274 79.294 79.302 79.282 79.314 79.347 79.409 80.047 79.544 79.612 79.697 79.734 79.764 79.724 79.637 79.594 80.704 79.579 79.529 79.729 79.977 80.202 80.444 80.854 81.152 81.392 81.537 81.544 81.367 81.309 81.309 81.232 81.312 81.584 82.292 83.294 83.982 85.574 92.174 91.444 90.782 91.517 92.277 91.637 90.807 85.982 85.474 86.829 87.494 88.297 88.224 87.844 87.854 87.952 88.042 88.112 88.204 88.322 88.492 88.702 90.247 89.744 92.334 98.579 99.222 99.904 100.794 100.102 99.657 98.967 98.324 91.257 88.984 88.989 89.052 90.969 92.394 91.679 88.517 88.527 89.017 91.029 91.627 92.134 92.884 93.369 93.659 92.827 92.379 92.162 91.917 91.594 91.207 90.919 90.619 90.402 90.217 90.024 89.682 89.464 89.412 90.342 89.449 91.247 93.082 89.607 91.027 91.349 91.667 92.569 93.797 99.462 100.917 101.304 100.167 97.164 94.629 94.819 95.764 96.017 96.087 96.167 96.627 97.097 97.552 98.897 99.992 98.762 98.789 97.702 97.629 97.737 97.862 97.877 97.912 98.709 99.772 98.884 98.432 98.529 98.744 101.102 101.519 99.582 99.419 99.474 100.354 99.679 101.964 99.632 99.872 99.959 100.024 100.074 101.564 100.479 100.747 100.757 103.369 102.397 101.964 103.392 103.914 104.427 105.342 105.414 105.487 102.252 103.167 103.822 107.894 108.402 108.429 108.317 108.807 107.637 103.669 104.042 109.369 109.114 109.482 109.197 109.549 108.017 104.077 104.284 108.364 108.792 108.337 108.762 108.122 106.059 103.949 103.629 104.197 104.779 104.032 106.867 106.439 103.642 103.862 103.77 104.052 104.382 105.39 106.392 105.68 103.9 104.407 106.375 107.152 106.677 104.602 104.61 104.56 104.987 103.685 103.515 110.962 111.565 112.287 111.432 109.905 104.433 104.549 104.563 105.706 106.459 105.633 104.492 104.488 104.481 104.615 104.931 104.802 108.562 111.914 112.177 110.948 107.267 105.478 107.094 107.077 106.99 105.781 108.715 116.601 117.191 111.982 113.812 109.199 114.207 116.012 115.643 107.933 108.87 108.125 108.625 117.825 120.364 123.347 123.169 124.3 121.572 114.759 112.346 110.562 115.552 115.962 112.899 111.256 111.089 111.428 111.955 111.081 111.512
84.764 84.559 84.564 84.569 84.474 84.476 84.509 84.516 84.494 90.121 90.689 91.281 91.576 89.806 84.494 84.189 85.124 84.384 84.651 85.439 85.724 85.281 84.826 84.854 85.211 85.419 85.389 86.129 84.649 84.244 85.146 84.216 84.254 84.114 84.051 86.071 89.869 90.584 90.804 84.551 84.331 84.339 84.261 84.056 83.989 83.931 83.871 83.859 83.851 83.861 83.854 83.879 84.331 88.426 86.774 84.211 83.844 88.774 89.696 89.111 88.511 85.271 82.884 82.904 82.894 82.771 82.654 82.639 83.916 82.201 82.239 89.086 88.199 88.034 84.259 81.996 81.731 81.659 81.449 80.689 80.654 80.612 80.574 80.562 80.619 80.672 82.709 80.667 80.772 80.947 80.964 81.044 80.884 80.047 80.077 80.237 80.144 81.697 82.574 85.097 86.529 85.402 83.134 79.627 78.952 78.729 78.684 80.049 81.367 83.609 78.554 78.577 78.619 78.619 78.594 78.757 78.747 78.807 78.939 78.639 78.387 78.517 78.672 78.834 79.039 79.254 79.372 79.314 79.224 79.194 79.224 79.242 79.292 79.317 79.312 80.064 79.929 79.527 79.612 79.662 79.694 79.642 79.579 79.544 79.597 79.582 82.452 85.232 79.627 79.924 80.239 80.609 80.769 81.234 81.544 81.717 81.662 81.749 81.474 81.444 81.379 81.479 81.799 82.702 83.684 84.197 90.949 91.727 92.227 91.609 92.252 91.687 90.839 86.682 85.274 85.837 86.549 88.017 88.074 87.879 87.889 87.949 88.074 88.174 88.279 88.389 88.489 88.587 88.762 88.957 89.167 89.277 95.739 100.142 100.677 100.114 99.472 98.757 98.097 89.312 89.567 89.304 88.989 91.702 92.904 90.589 88.849 88.799 90.984 91.627 92.282 92.644 93.199 93.789 93.879 93.252 92.692 92.487 92.259 91.974 91.704 91.412 91.119 90.857 90.637 90.437 90.254 89.969 89.764 89.642 91.169 89.624 89.662 89.709 89.762 91.042 91.369 91.764 102.172 98.187 99.744 100.977 101.737 100.589 98.014 96.102 94.884 95.774 96.232 96.192 96.367 97.399 98.372 97.952 99.317 98.964 97.679 99.932 98.177 97.692 97.857 97.922 97.934 98.087 98.139 99.472 98.492 99.614 98.819 98.914 99.027 100.067 99.847 99.509 99.597 99.559 99.887 101.672 100.252 99.959 100.092 100.127 100.137 100.144 100.924 101.147 101.402 102.564 102.132 101.894 105.969 106.297 107.334 108.057 108.369 108.527 104.407 102.822 104.404 110.309 110.594 110.699 110.664 110.602 108.847 103.632 104.609 110.854 111.339 111.677 111.367 111.252 109.552 104.029 105.087 111.014 110.857 111.049 110.897 110.857 110.119 103.839 104.034 110.399 110.439 110.407 110.337 110.292 109.174 104.892 104.64 110.262 110.222 110.112 110.162 110.095 108.965 104.435 107.17 107.742 107.285 104.657 104.657 109.852 111.347 109.437 112.395 112.42 112.462 111.71 110.87 107.515 104.432 104.579 104.837 104.754 104.681 104.629 104.642 104.633 104.641 104.775 106.293 105.166 107.057 111.866 112.549 111.238 107.28 105.224 105.125 105.153 105.22 105.78 110.332 113.896 113.243 108.198 115.472 119.536 123.759 115.557 121.667 111.885 110.987 108.252 115.855 120.137 122.337 117.36 116.25 123.678 122.955 122.658 117.147 113.062 115.391 115.644 113.164 111.155 111.5 111.591 111.688 111.667 111.649
84.504 84.381 84.389 84.406 84.391 84.386 84.419 84.441 84.486 87.449 90.186 90.554 90.859 84.334 84.076 84.176 84.131 84.174 84.231 84.866 85.971 85.334 84.621 84.656 84.634 84.541 85.201 84.626 84.186 84.114 84.141 84.379 84.036 84.016 85.224 89.746 90.456 91.174 90.664 89.959 84.206 84.251 84.219 84.034 83.866 83.814 83.754 83.684 83.634 83.664 83.659 83.771 83.839 84.009 83.956 84.101 86.611 89.046 89.644 89.849 89.229 88.636 87.516 82.959 82.859 82.786 82.446 82.851 82.441 83.654 82.069 81.919 87.586 82.639 81.926 81.881 81.814 81.544 80.749 80.639 80.562 80.504 80.482 80.544 80.597 80.587 80.572 81.394 83.762 80.899 81.044 80.807 80.029 79.927 82.164 83.704 79.937 79.822 81.802 82.529 83.797 83.087 80.232 80.329 79.754 78.519 78.494 78.422 78.274 78.262 78.397 78.407 78.409 78.389 78.374 78.364 78.744 79.077 78.157 78.304 78.424 78.634 78.797 78.967 79.129 79.252 79.262 79.202 79.119 79.112 79.149 79.177 79.242 79.277 79.289 79.347 79.439 79.492 79.557 79.569 79.549 79.494 79.502 79.602 79.617 84.142 86.749 86.087 85.279 80.177 80.362 80.969 80.849 81.099 81.644 81.877 81.782 82.417 81.619 81.592 81.542 81.644 81.997 82.834 83.792 84.389 85.547 90.899 91.689 92.317 91.762 90.939 87.022 85.274 85.687 85.939 87.912 88.064 87.987 87.924 88.352 88.119 88.217 88.324 88.432 88.542 88.642 88.732 88.849 89.022 90.174 89.329 89.367 100.284 99.882 99.199 98.532 92.602 89.442 89.489 89.564 89.684 89.434 89.484 89.009 89.014 89.857 91.499 92.049 92.404 92.939 93.472 94.109 93.964 93.937 93.579 92.794 92.629 92.384 92.119 91.859 91.582 91.289 91.039 90.807 90.634 90.462 90.269 90.027 89.842 89.759 89.809 89.832 89.847 89.889 90.734 94.174 97.484 103.162 101.752 97.612 100.564 101.739 100.999 99.804 96.877 94.662 95.687 96.819 97.414 96.879 96.664 96.972 97.282 97.864 98.407 97.764 97.777 100.704 97.999 98.707 98.282 98.124 98.147 98.359 98.634 100.782 98.817 98.984 99.112 99.177 99.404 100.127 99.887 99.609 99.609 99.907 100.947 101.239 100.197 101.447 101.569 101.009 102.792 101.527 101.234 101.299 102.757 101.492 101.872 107.034 109.174 109.337 109.637 109.702 109.907 105.412 102.622 103.769 110.304 111.264 111.277 111.234 110.829 108.832 103.614 104.832 110.874 111.597 111.659 111.587 111.284 109.539 103.992 104.494 111.432 111.439 111.627 111.547 111.574 110.894 103.809 104.372 110.572 111.612 111.754 111.609 110.974 108.809 104.442 104.732 110.867 111.605 111.867 111.505 111.077 108.972 104.542 107.317 107.74 107.245 104.68 104.69 108.352 111.862 111.35 112.337 112.29 111.452 110.615 108.492 104.362 104.437 104.614 104.763 104.834 104.822 104.75 104.816 104.802 104.803 105.97 106.74 105.842 109.053 112.015 112.758 111.241 108.031 105.817 105.772 105.762 105.797 106.199 112.744 113.672 114.321 109.015 116.028 123.711 124.253 124.465 119.648 118.386 110.076 108.36 110.591 116.367 122.03 123.129 123.176 123.621 119.43 120.196 114.852 111.305 113.989 115.962 115.258 115.401 112.279 111.907 111.59 111.61 112.316
84.319 84.251 84.224 84.224 84.256 84.261 84.299 84.331 84.406 84.274 84.439 89.354 84.129 84.096 84.046 83.949 84.006 84.041 84.771 84.266 84.286 84.351 84.516 84.694 84.541 84.679 84.261 84.086 84.284 84.004 83.861 84.951 83.571 83.621 89.606 90.329 91.054 90.799 90.074 88.391 85.261 84.166 84.031 83.876 83.744 83.684 83.626 83.574 83.511 83.461 83.456 83.511 83.591 83.664 83.786 82.894 85.911 88.594 88.934 89.516 89.924 89.404 88.809 87.976 82.889 82.279 82.374 83.006 82.219 83.101 82.734 81.919 81.739 81.739 81.674 81.556 82.026 81.859 80.636 80.616 80.447 80.407 80.469 80.512 80.514 80.517 80.549 80.667 81.549 81.387 80.859 80.027 80.104 80.604 85.482 86.007 84.364 79.627 79.622 80.184 79.934 79.592 78.847 78.034 77.839 78.877 78.297 78.094 77.797 78.599 79.029 79.297 78.217 78.222 78.184 79.937 78.214 77.929 78.077 78.297 78.549 78.742 78.889 79.022 79.112 79.144 79.099 79.052 79.002 78.992 79.037 79.079 79.164 79.207 79.242 79.324 79.404 79.444 79.454 79.432 79.404 79.442 79.619 79.757 79.764 85.304 86.094 86.757 86.132 86.049 81.007 80.882 80.877 81.522 81.729 82.007 81.919 82.107 81.784 81.737 81.742 81.872 82.099 82.769 83.747 84.577 84.942 85.622 90.877 91.662 92.262 91.537 90.754 85.582 85.819 87.524 87.594 88.002 88.382 88.177 88.232 89.424 88.379 88.472 88.587 88.674 88.784 88.867 88.962 91.494 90.344 89.534 89.407 89.594 98.964 98.277 89.594 89.564 89.927 89.632 90.002 89.364 89.204 89.187 89.204 90.917 91.877 92.419 93.912 93.397 93.924 94.282 94.194 94.134 94.149 94.084 93.907 92.732 92.577 92.344 92.109 91.854 91.557 91.257 91.007 90.807 90.642 90.454 90.209 90.052 89.939 90.004 90.017 90.037 90.684 90.374 93.332 92.924 96.567 95.669 94.654 100.204 100.662 96.469 94.794 95.947 96.902 96.727 96.477 96.614 96.627 96.782 97.007 97.334 97.537 99.774 97.859 97.914 98.324 100.872 98.074 98.049 98.219 98.337 98.437 99.449 99.527 101.289 99.177 99.259 99.749 99.437 99.484 99.814 99.572 99.602 99.957 101.937 101.719 100.137 101.982 104.204 103.532 104.619 105.762 106.242 107.879 107.554 101.467 101.862 104.642 109.962 109.709 109.924 109.439 109.289 106.092 102.564 104.317 109.932 109.887 109.907 109.827 109.789 108.989 103.492 104.199 110.227 110.214 110.237 110.214 110.202 108.849 103.902 104.377 110.054 110.067 110.164 110.164 110.207 109.382 103.809 104.519 110.294 110.444 110.769 110.557 110.577 108.619 104.187 105.902 110.817 111.157 111.942 111.235 111.052 108.57 103.897 105.537 105.747 105.7 104.702 104.692 104.67 111.322 112.292 112.07 111.195 110.327 105.77 104.802 104.48 104.607 104.73 104.823 105.292 104.996 104.932 104.954 104.935 104.953 105.362 107.631 106.413 110.477 112.173 112.724 110.794 108.243 107.509 105.846 106.244 106.217 106.997 108.721 110.012 108.236 107.814 113.227 122.149 124.752 124.592 115.551 120.382 108.423 110.336 111.681 113.265 119.955 123.181 124.125 121.054 125 123.838 119.448 113.258 111.138 111.792 114.726 114.359 114.081 113.678 112.18 113.022 114.557
84.211 84.156 84.114 84.084 84.081 84.116 84.144 84.176 84.136 83.971 83.936 83.951 84.021 83.699 83.686 83.796 83.844 83.909 84.079 84.026 84.266 84.641 84.431 85.854 85.414 84.644 83.971 83.899 84.204 83.901 84.234 86.181 88.131 84.666 84.866 90.906 90.924 90.199 88.179 84.054 84.084 83.906 84.174 83.771 83.614 83.561 83.506 83.449 83.376 83.309 83.266 83.279 83.251 83.409 83.031 82.916 82.919 82.914 87.894 88.776 89.371 89.919 89.536 83.406 83.131 82.196 82.276 82.219 82.234 82.199 83.636 82.106 82.034 81.406 81.339 81.419 83.464 80.644 80.586 80.481 80.329 80.379 80.427 80.449 80.437 80.452 80.544 80.639 80.697 82.579 80.002 79.847 80.332 85.469 86.324 86.837 86.044 84.212 79.579 80.192 78.872 78.752 77.849 77.679 77.534 78.209 79.877 77.632 77.482 77.364 79.879 77.727 78.059 78.337 80.427 77.494 77.734 77.889 78.162 78.417 78.647 78.799 78.907 78.962 78.947 78.942 78.934 78.909 78.864 78.892 78.927 78.979 79.037 79.137 79.197 79.319 79.402 79.374 79.314 79.334 79.382 79.539 79.817 80.027 79.894 80.452 85.279 86.092 87.459 86.907 86.104 81.704 81.277 81.374 81.959 82.164 82.057 82.802 81.937 81.884 81.932 82.077 82.304 83.187 84.154 84.802 85.072 85.132 86.032 90.837 91.629 92.259 91.569 90.879 86.307 86.877 87.619 88.347 89.349 89.032 88.397 88.394 89.834 88.627 88.732 88.822 88.889 88.967 91.469 91.552 91.627 90.407 89.629 89.444 93.109 89.512 89.524 89.567 89.602 90.439 89.779 89.342 89.332 90.057 91.914 92.424 92.979 93.569 93.967 94.419 94.542 94.352 94.274 94.272 94.207 94.207 94.379 94.319 92.754 92.589 92.357 92.127 91.797 91.494 91.222 91.012 90.849 90.657 90.434 90.259 90.179 90.192 90.207 90.217 91.324 90.349 90.947 90.734 90.759 97.402 99.209 97.937 95.254 95.382 95.299 95.292 97.249 96.507 96.589 96.652 96.669 97.169 97.332 97.492 98.062 99.259 99.304 97.947 98.052 99.987 100.497 98.264 98.279 98.522 98.652 99.237 101.517 99.329 100.417 99.349 99.437 99.809 99.484 100.484 99.617 99.577 99.637 100.892 102.437 100.227 100.529 104.424 106.947 107.729 108.217 108.697 109.094 108.009 103.117 101.882 103.759 108.644 108.434 108.327 108.104 107.672 105.164 102.529 103.094 103.174 104.112 103.982 103.554 103.387 103.339 103.402 103.832 104.852 103.949 104.662 104.042 104.677 103.924 103.819 103.739 103.784 103.847 104.909 104.532 103.847 103.887 103.839 103.827 105.367 106.554 107.707 107.594 106.417 105.924 103.862 105.035 108.675 109.605 109.872 109.89 109.502 108.037 104.12 104.62 104.64 104.632 104.702 104.712 104.705 104.65 111.82 110.91 107.937 104.995 104.642 104.765 104.717 104.86 104.93 105.11 105.4 105.158 105.07 105.103 105.065 105.102 105.601 106.475 105.381 109.63 112.23 112.537 110.989 108.534 108.143 106.21 106.098 106.746 106.456 106.687 106.813 109.14 110.746 114.223 119.195 123.732 123.471 123.584 116.192 111.206 109.85 111.135 113.003 114.044 120.994 124.574 125.318 125.473 124.74 117.268 112.759 111.368 111.586 111.256 113.048 113.799 114.091 113.59 113.884 115.074
84.229 84.041 84.019 83.976 83.944 83.921 83.961 83.961 83.954 83.831 83.744 83.814 83.781 83.681 88.099 83.696 85.004 88.144 83.806 83.904 83.974 84.021 84.166 85.271 84.266 83.879 83.819 83.781 83.691 83.644 83.636 86.859 89.304 90.034 87.036 84.124 90.346 89.614 83.819 83.609 83.681 83.629 83.606 83.524 83.486 83.444 83.386 83.309 83.254 83.189 83.126 83.076 83.156 83.164 82.964 82.884 82.869 82.801 83.584 86.986 88.821 89.249 84.366 87.106 87.826 84.546 82.179 82.149 82.224 82.459 81.961 81.749 81.951 81.996 81.049 82.374 80.681 80.611 80.401 80.256 80.297 80.337 80.362 80.347 80.367 80.429 80.514 80.567 80.479 80.257 79.942 80.319 85.369 86.252 88.347 85.957 85.809 80.247 79.702 81.449 81.149 78.419 77.709 77.457 77.369 77.309 77.719 79.254 77.194 77.127 77.134 77.377 80.764 80.669 77.619 77.547 77.709 77.937 78.197 78.454 78.659 78.777 78.809 78.792 78.782 78.767 78.749 78.749 78.754 78.784 78.812 78.899 78.989 79.152 79.234 79.237 79.332 79.324 79.322 79.334 79.537 79.859 80.142 80.097 79.969 79.717 80.482 85.909 86.822 87.554 87.162 86.902 82.207 81.327 81.987 82.294 82.182 83.022 82.089 82.022 82.097 82.272 82.654 83.682 84.662 85.294 85.409 85.292 85.264 86.002 90.797 91.599 92.282 92.697 91.889 87.099 86.602 88.282 88.564 89.489 88.552 88.762 88.734 90.067 88.859 88.944 89.009 90.909 91.552 91.624 91.539 90.227 90.047 89.824 89.502 89.537 89.537 89.547 89.597 89.489 89.524 89.567 91.527 92.469 93.229 93.559 94.049 94.982 94.587 94.669 94.507 94.419 94.389 94.324 94.282 96.459 100.059 95.399 94.382 92.734 92.584 92.352 92.042 91.727 91.469 91.262 91.079 90.894 90.672 90.462 90.404 90.359 90.407 90.404 90.394 90.417 91.142 91.612 92.889 96.057 98.334 95.144 94.727 97.749 102.269 100.572 96.129 96.532 96.574 96.644 97.052 97.467 99.179 97.954 98.047 99.324 101.057 98.062 98.074 98.164 100.342 100.204 98.599 98.664 98.752 99.117 100.104 101.039 100.574 99.557 99.534 99.824 100.132 100.094 99.954 99.544 100.324 100.167 100.229 100.322 100.382 103.244 107.862 108.999 109.244 108.969 108.379 107.894 106.164 101.892 101.887 102.504 101.994 103.254 102.289 102.274 102.994 102.337 102.797 102.912 103.097 103.294 103.734 103.302 103.142 103.239 103.459 106.137 104.214 104.054 104.419 104.094 105.212 103.674 103.664 103.807 103.847 104.837 103.912 105.127 103.877 103.862 103.792 103.722 103.692 104.787 103.839 103.862 103.902 103.994 104.052 105.202 104.272 105.652 103.975 103.992 104.08 104.115 104.66 104.677 104.682 104.71 104.742 104.725 104.692 106.042 107.472 104.8 104.712 104.792 104.855 105.405 105.13 105.205 105.385 105.295 105.249 105.244 105.264 105.228 105.221 106.006 106.102 105.525 108.478 112.278 112.42 110.588 108.493 108.412 107.875 106.005 107.402 110.297 110.329 110.525 110.654 114.016 118.189 120.851 123.288 123.962 115.554 120.901 108.958 109.001 109.904 109.714 111.281 119.527 122.887 123.442 124.251 122.583 116.933 111.378 111.532 111.537 111.32 112.94 113.945 114.092 112.446 111.92 115.805
84.201 84.081 83.879 83.856 83.839 83.804 83.781 83.781 83.741 83.706 83.679 83.659 83.691 87.164 89.824 89.229 87.651 85.631 83.814 84.286 83.824 83.884 83.894 84.056 85.411 83.979 83.746 83.589 83.594 83.561 85.789 89.174 89.899 90.524 89.924 88.444 83.701 87.094 84.031 83.474 83.439 83.451 83.426 83.364 83.371 83.346 83.284 83.209 83.184 83.099 83.041 83.079 83.051 83.019 82.964 82.866 82.801 82.779 82.776 82.811 86.464 85.311 84.431 89.054 88.559 87.986 86.876 82.114 82.179 82.101 81.956 81.749 81.469 82.704 82.504 80.754 80.546 80.371 80.191 80.211 80.262 80.272 80.269 80.309 80.347 80.412 80.554 80.407 80.224 80.014 79.797 81.474 85.867 86.719 86.317 85.834 79.402 78.787 78.737 80.459 81.277 77.854 77.419 77.304 77.252 77.119 80.439 84.649 79.812 76.982 77.032 77.552 78.119 77.624 77.354 77.607 77.782 77.977 78.222 78.429 78.569 78.632 78.619 78.592 78.582 78.597 78.589 78.617 78.634 78.717 78.774 78.887 79.024 79.132 79.244 79.234 79.249 79.314 79.302 79.589 79.759 80.772 80.602 80.174 80.089 79.999 80.632 80.557 85.994 86.969 88.299 87.727 86.909 81.609 82.064 82.452 82.279 82.257 82.234 82.172 82.277 82.442 82.992 84.054 85.099 85.672 85.842 85.742 85.614 85.399 85.904 90.412 92.652 93.364 92.729 91.944 88.237 87.632 87.957 88.582 88.869 89.604 89.069 88.914 89.004 89.079 91.244 91.554 91.629 91.414 90.139 90.069 90.052 90.022 89.524 89.547 89.674 89.649 89.629 89.687 90.262 92.302 92.964 93.517 94.367 94.687 94.869 94.767 94.779 94.642 94.584 94.627 94.569 94.354 95.482 100.054 100.879 101.342 94.729 94.157 92.699 92.574 92.324 92.002 91.757 91.542 91.344 91.137 90.942 90.707 90.597 90.534 90.594 90.619 90.609 90.544 95.189 94.509 94.779 94.517 94.209 95.259 101.437 102.589 102.642 101.459 95.797 96.542 97.049 98.117 98.452 97.364 97.669 97.949 98.942 98.724 101.782 100.272 98.182 98.242 98.577 100.057 99.659 98.837 99.594 98.904 99.012 101.247 100.142 101.527 100.182 100.444 99.977 100.002 100.147 99.919 100.032 100.379 103.624 100.264 100.437 101.672 104.742 108.529 108.024 107.579 107.139 105.757 101.569 101.509 101.842 102.524 102.004 103.394 102.264 102.369 102.384 102.279 102.487 103.064 104.112 104.237 103.847 104.114 102.974 103.062 103.117 105.594 103.834 105.347 104.294 104.469 103.947 103.564 103.587 103.987 104.144 105.127 103.832 103.889 103.912 103.932 103.967 103.849 103.909 105.034 104.002 104.064 104.119 104.227 104.275 104.677 104.172 105.852 104.24 104.197 104.675 104.577 104.71 104.717 104.715 104.732 104.78 104.77 104.757 104.735 104.745 104.865 104.95 104.997 105.087 105.202 105.875 105.562 105.465 105.34 105.349 105.439 105.429 105.365 105.38 105.445 105.431 106.366 106.749 106.523 106.878 108.993 108.76 108.704 108.678 107.055 110.899 111.157 109.668 107.833 108.603 110.951 116.062 118.29 122.069 123.212 123.253 116.289 109.853 109.696 112.621 109.926 110.006 111.934 121.773 119.744 122.846 120.26 115.723 111.826 111.388 112.131 112.185 111.623 112.333 114.034 113.011 111.964 111.824
84.009 84.029 83.929 83.734 83.719 83.696 83.674 83.654 83.634 83.611 83.594 83.621 85.974 90.409 90.526 90.024 90.011 89.424 86.939 83.751 83.884 83.736 83.771 83.781 83.874 84.961 83.976 83.629 85.279 84.346 89.041 89.756 90.476 90.056 89.331 87.696 84.151 83.434 83.379 83.326 83.286 83.236 83.231 83.259 83.269 83.374 83.431 83.874 83.241 83.164 83.009 83.016 82.929 82.854 82.824 82.811 82.751 82.709 82.706 82.729 82.831 82.986 88.129 88.699 89.184 88.694 88.096 87.531 82.141 82.096 81.986 81.681 81.369 81.531 80.851 80.674 80.309 80.061 80.119 80.166 80.199 80.167 80.189 80.289 80.272 80.309 80.274 80.099 79.992 79.842 79.684 79.577 81.742 85.867 85.827 81.142 78.739 78.844 78.622 77.617 77.457 77.182 77.177 77.127 77.004 76.932 76.889 85.539 79.132 79.284 76.922 77.119 77.367 77.144 77.397 77.927 77.847 77.994 78.194 78.317 78.409 78.444 78.407 78.394 78.419 78.442 78.454 78.554 78.627 78.709 78.757 78.849 79.044 79.202 79.264 79.252 79.327 79.302 80.677 85.759 81.672 80.712 80.694 80.234 80.282 81.592 80.472 80.509 81.354 86.249 87.522 88.279 83.027 81.602 82.334 82.589 82.437 82.434 82.404 82.334 82.454 82.689 83.389 84.444 85.432 85.859 86.054 86.134 86.192 85.882 85.562 86.542 91.834 92.619 93.354 93.657 92.839 88.572 87.474 88.679 88.889 89.732 89.264 89.147 89.157 90.894 91.559 91.627 91.569 90.222 90.084 90.054 90.069 90.057 89.987 89.894 89.814 89.754 89.859 92.069 92.812 93.577 94.134 94.717 94.939 94.877 94.929 94.932 94.797 94.714 94.737 94.884 94.932 96.572 100.199 100.869 101.347 100.562 99.742 94.784 94.589 92.727 92.562 92.344 92.104 91.839 91.619 91.407 91.207 90.972 90.799 90.714 90.789 90.797 90.819 90.792 94.677 94.707 92.887 92.994 94.672 94.854 100.909 102.174 103.039 101.884 98.104 98.832 97.449 97.199 97.319 97.499 97.804 99.349 101.212 99.367 99.144 101.932 99.529 98.379 98.449 98.927 100.499 100.132 98.874 98.929 99.017 99.517 99.654 99.554 101.749 101.487 100.034 102.182 103.192 101.639 102.657 106.824 106.439 100.697 100.489 100.579 104.197 106.944 105.417 102.897 101.409 101.457 101.502 101.534 101.677 102.792 103.894 104.602 103.182 103.039 102.172 102.209 102.302 102.424 102.539 102.629 102.727 102.822 102.899 102.982 103.017 103.229 103.674 103.502 103.312 103.384 103.407 103.457 103.512 103.602 103.714 103.739 103.889 104.102 103.879 103.937 103.982 104.112 104.222 104.134 104.202 104.259 104.289 104.382 104.41 104.8 104.942 104.935 104.632 104.715 104.737 104.76 104.747 104.777 105.19 105.387 105.462 105.412 105.637 105.242 105.36 105.855 105.352 105.372 105.415 105.715 105.595 105.57 105.507 105.447 105.532 105.611 105.591 105.521 105.542 107.553 107.778 107.678 108.597 107.949 108.377 109.432 108.664 106.779 106.185 109.125 111.442 108.225 106.922 108.178 107.648 108.457 109.426 116.821 119.91 121.426 121.369 114.088 108.872 112.639 114.298 111.513 110.937 112.278 112.105 111.873 113.498 115.1 111.366 112.079 111.992 111.608 111.8 113.26 112.12 112.076 112.817 113.464 112.233
83.819 83.869 83.856 83.764 83.589 83.559 83.544 83.529 83.501 83.504 83.536 84.136 88.866 89.699 90.291 90.349 90.686 90.151 89.569 88.729 83.971 83.706 83.711 83.646 84.399 86.069 83.356 83.169 83.974 83.536 89.149 90.361 90.169 89.454 87.606 83.506 83.481 83.316 83.226 83.171 83.126 83.066 83.106 83.151 83.209 83.396 83.736 83.206 82.959 83.296 83.036 82.884 82.791 82.744 82.671 82.621 82.641 82.599 82.591 82.604 82.691 83.096 85.834 88.009 88.571 89.154 88.846 88.254 87.669 82.119 81.971 81.516 81.149 80.861 80.826 80.541 80.044 80.024 80.086 80.119 80.102 80.084 80.242 80.204 80.167 80.427 79.952 79.577 79.569 79.632 79.492 79.337 79.199 81.224 81.967 78.737 79.169 77.107 77.379 77.154 77.027 77.012 76.954 76.899 77.924 84.997 77.672 76.724 78.372 76.692 76.867 80.059 77.164 77.312 77.502 77.704 77.869 78.009 78.119 78.199 78.254 78.254 78.257 78.254 78.304 78.374 78.442 78.524 78.584 78.654 78.712 78.902 79.144 79.252 79.517 79.337 79.349 79.327 85.719 86.557 87.174 81.839 80.352 80.454 80.937 80.627 80.644 80.917 81.227 81.274 86.704 82.024 81.654 82.177 82.677 82.734 82.577 82.617 82.564 82.524 82.654 82.922 83.757 84.839 85.732 86.037 86.097 87.752 86.487 86.309 86.349 86.437 87.482 91.652 93.402 94.397 93.844 93.042 89.384 88.552 88.812 88.979 89.464 90.447 89.339 91.539 91.617 91.697 90.339 90.169 90.049 90.064 90.049 90.087 90.117 90.092 90.044 90.744 92.777 93.367 93.949 94.594 95.264 94.977 94.942 94.992 95.042 94.937 94.869 95.004 94.992 95.027 95.072 100.792 101.627 101.524 100.572 99.749 94.389 95.224 94.989 94.572 92.742 92.622 92.424 92.152 91.887 91.679 91.504 91.254 91.044 90.959 90.949 90.979 91.014 91.027 91.802 92.494 92.129 93.669 95.109 95.269 98.514 101.817 103.467 103.234 101.724 96.587 97.407 97.464 97.499 97.774 98.812 102.029 102.779 102.024 98.702 98.874 101.469 99.394 98.539 98.577 99.519 99.979 101.039 99.737 99.017 99.077 99.149 99.387 99.397 102.309 100.534 103.427 104.812 106.602 107.282 107.934 107.142 104.834 100.407 100.624 101.392 101.312 101.277 101.312 101.564 101.494 101.529 101.517 101.547 101.679 101.769 101.804 101.904 102.002 102.062 102.109 102.204 102.302 102.429 102.527 102.622 102.709 102.777 102.854 102.927 103.024 103.574 103.307 103.164 103.287 103.287 103.342 103.417 103.484 103.604 103.674 103.732 103.749 103.769 103.829 103.914 104.007 104.059 104.087 104.157 104.187 104.244 104.312 104.37 104.455 104.505 104.585 104.622 104.652 104.69 104.745 104.772 104.83 104.942 105.007 105.067 105.137 105.2 105.232 105.312 105.357 105.345 105.437 105.515 105.527 105.565 105.537 105.545 105.59 105.687 105.755 105.749 105.673 105.75 108.141 107.036 109.425 108.94 108.947 109.201 108.74 109.176 107.815 106.481 108.021 108.856 106.94 109.737 111.021 108.222 107.559 107.879 107.892 111.016 113.012 110.077 108.913 109.155 109.633 110.769 110.409 111.66 113.169 111.515 111.024 112.212 111.174 112.627 113.643 113.134 111.744 111.8 112.744 112.433 112.102 112.224 116.457 116.031
83.654 83.709 83.706 83.679 83.556 83.426 83.406 83.399 83.396 83.379 83.546 83.614 85.556 87.931 88.761 89.581 90.184 90.711 90.301 89.679 83.701 83.684 83.666 84.111 86.846 83.396 83.299 83.001 82.696 83.006 83.464 88.219 89.586 88.379 83.439 83.406 83.329 84.184 83.111 83.006 82.934 82.944 82.976 83.019 83.206 83.211 83.106 82.976 82.649 84.456 83.044 83.024 82.679 82.629 82.564 82.491 82.441 82.449 82.444 82.481 82.164 82.136 82.126 84.954 87.866 88.439 89.029 89.006 86.841 82.086 81.729 81.284 80.911 80.776 80.629 80.209 79.946 80.001 80.039 80.024 79.984 84.242 82.079 80.062 80.197 80.542 80.762 79.314 84.034 81.579 79.324 79.159 79.037 78.912 78.797 78.549 77.084 77.047 77.989 77.059 76.997 76.952 76.909 76.847 81.049 89.882 88.612 76.734 76.729 76.707 76.802 77.044 77.294 77.427 77.579 77.702 77.832 77.914 77.992 78.072 78.097 78.117 78.169 78.217 78.299 78.384 78.419 78.487 78.567 78.629 78.659 78.787 79.234 79.239 79.274 79.242 80.434 85.699 86.527 87.209 86.539 85.722 81.197 81.134 82.792 80.727 81.342 83.597 81.452 81.334 82.439 81.897 82.332 82.724 82.967 82.909 82.739 82.792 82.717 82.724 82.894 83.317 84.274 85.319 85.922 86.014 86.087 86.142 86.292 86.487 86.547 86.627 86.504 86.989 92.824 93.614 94.379 94.154 94.132 89.627 88.507 89.207 89.574 89.867 90.507 89.582 91.674 90.564 90.314 90.184 90.124 90.092 90.082 90.162 90.212 90.349 92.054 92.662 93.409 94.409 94.864 95.214 95.142 95.054 95.129 95.182 95.069 94.999 95.147 95.589 95.612 95.649 100.762 101.589 102.139 101.362 99.834 95.119 94.717 95.217 95.647 95.117 95.174 92.842 92.692 92.464 92.217 92.007 91.807 91.569 91.274 91.177 91.097 91.162 91.192 91.247 92.489 91.494 92.029 94.177 94.782 96.517 96.312 102.082 103.247 103.387 102.194 96.492 97.402 97.492 98.209 98.542 98.639 98.632 102.447 103.137 99.167 98.522 98.617 101.407 99.169 98.597 98.642 98.889 99.467 99.559 98.989 99.097 99.174 99.369 99.402 99.667 100.062 105.342 107.017 107.177 107.942 107.229 106.499 104.877 100.809 100.637 100.764 101.132 101.219 102.014 101.942 101.334 101.359 101.372 101.422 101.502 101.584 101.699 101.804 101.924 102.017 102.107 102.212 102.314 102.407 102.527 102.622 102.724 102.817 102.889 102.952 103.014 103.082 103.129 103.194 103.219 103.272 103.334 103.402 103.464 103.529 103.582 103.639 103.702 103.747 103.819 103.859 103.922 103.982 104.034 104.099 104.164 104.204 104.272 104.322 104.395 104.435 104.77 106.99 107.145 104.797 104.695 104.755 104.812 104.87 104.977 105.03 105.072 105.147 105.207 105.27 105.312 105.342 105.445 105.505 105.512 105.587 105.632 105.687 105.725 105.852 105.897 105.897 105.819 105.911 108.197 106.727 106.428 107.39 108.46 108.28 112.168 107.741 107.048 106.757 108.871 107.09 108.656 110.144 110.645 107.25 108.695 108.06 108.009 110.502 110.529 108.84 108.943 109.185 109.54 110.969 110.708 111.231 112.171 113.328 111.265 111.07 115.208 114.166 112.271 113.089 112.592 112.082 112.373 113.324 112.565 115.174 118.022 118.981
83.511 83.576 83.539 83.521 83.499 83.349 83.286 83.274 83.266 83.259 83.389 83.459 83.459 83.471 83.934 87.554 89.466 90.054 90.656 89.744 89.141 83.819 83.621 86.731 83.484 83.329 82.851 82.731 82.546 82.249 82.151 83.391 84.291 86.336 83.301 83.276 83.204 83.089 83.106 82.854 82.799 82.814 82.846 82.956 83.091 83.031 82.929 82.806 82.644 87.934 88.371 83.086 82.544 82.486 82.439 82.371 82.311 82.244 82.256 82.249 82.116 82.079 82.089 82.079 85.706 87.861 88.279 87.581 82.081 81.854 81.389 81.074 80.746 80.619 80.236 79.869 79.914 79.954 79.969 79.924 79.909 79.967 83.372 79.964 79.594 79.464 79.549 83.419 85.467 85.347 81.919 79.159 78.824 79.152 79.502 78.812 77.139 76.979 76.919 78.264 76.914 76.907 76.842 76.794 77.167 80.817 78.809 76.659 76.802 76.844 77.019 78.014 77.464 77.514 77.619 77.737 77.804 77.854 77.894 77.957 78.012 78.114 78.192 78.254 78.322 78.369 78.427 78.507 78.592 78.574 78.562 78.579 79.137 79.602 80.079 79.234 85.487 86.504 87.249 86.572 85.747 80.309 80.349 80.729 80.759 81.057 81.772 81.954 81.747 82.112 82.287 82.564 82.959 83.189 83.227 83.069 82.929 82.947 82.877 82.932 83.147 83.742 84.762 85.674 85.834 85.934 86.419 86.312 86.387 86.537 86.707 86.804 86.892 87.262 87.407 92.729 93.867 95.424 94.964 94.169 90.144 89.752 89.544 89.397 89.534 90.254 90.132 90.397 90.434 90.397 90.274 90.207 90.164 90.144 91.084 91.764 92.187 92.939 94.379 94.954 95.187 95.167 95.194 95.252 95.309 95.212 95.147 95.292 95.484 95.739 96.774 101.554 101.922 102.114 101.352 100.284 95.297 95.484 95.637 95.904 95.649 96.387 95.214 94.992 92.889 92.734 92.542 92.339 92.129 91.897 91.574 91.364 91.262 91.337 91.367 91.432 92.224 91.579 92.859 94.337 94.789 95.082 95.354 101.602 102.839 103.732 102.582 98.852 97.264 98.089 98.107 98.584 98.624 98.657 98.647 102.592 102.764 98.607 98.684 98.939 101.599 99.317 98.667 98.717 98.789 99.899 99.542 100.097 99.509 105.909 102.984 99.322 99.962 100.044 106.557 107.432 106.757 106.064 102.947 100.202 101.654 100.739 100.772 100.917 100.942 101.037 101.082 101.187 101.234 101.279 101.377 101.489 101.599 101.717 101.809 101.907 101.994 102.084 102.184 102.309 102.832 102.824 102.667 102.687 102.774 102.857 102.922 102.982 103.052 103.132 103.182 103.239 103.292 103.362 103.424 103.502 103.559 103.604 103.677 103.727 103.812 103.859 103.914 103.969 104.034 104.104 104.179 104.234 104.289 104.352 104.397 104.46 104.52 104.575 104.63 104.675 104.725 104.78 104.82 104.9 104.945 105.005 105.055 105.11 105.18 105.212 105.277 105.372 105.447 105.517 105.585 105.635 105.715 105.762 105.8 105.885 106.02 106.04 106.04 105.99 106.07 106.2 106.325 106.483 106.611 109.151 113.41 113.47 110.965 107.461 108.524 107.396 106.847 107.546 108.792 109.658 108.387 108.184 108.044 108.118 110.873 109.928 108.995 109.008 109.313 110.875 111.844 110.698 111.278 112.045 112.61 111.69 111.619 116.421 115.574 111.847 111.977 113.564 113.826 112.194 114.326 115.962 118.391 119.217 119.36
83.316 83.404 83.389 83.416 83.401 83.314 83.169 83.159 83.154 83.131 83.221 83.244 83.246 83.291 83.564 83.684 86.361 89.416 90.504 90.456 89.871 84.236 86.146 84.111 82.976 82.961 82.669 82.526 82.371 82.104 81.686 81.919 83.331 83.286 83.144 83.051 83.046 82.914 82.761 82.671 82.656 82.676 82.701 82.874 82.886 82.821 82.744 82.666 86.721 88.529 89.276 89.329 83.191 82.359 82.301 82.241 82.191 82.134 82.079 82.071 82.044 82.004 81.989 82.024 82.079 82.959 87.566 82.064 81.879 81.471 81.176 80.726 80.639 80.269 79.869 79.831 79.879 79.884 79.871 79.859 79.782 79.729 79.747 79.644 79.464 79.349 82.459 85.389 86.252 86.252 85.429 81.864 78.994 78.682 78.594 80.649 78.349 76.972 76.854 77.384 77.639 76.839 76.789 76.694 76.674 76.669 76.547 76.829 76.987 77.059 77.297 77.432 77.562 77.587 77.664 77.709 77.762 77.827 77.887 77.992 78.067 78.144 78.194 78.259 78.344 78.419 78.499 78.577 78.569 78.559 78.574 78.687 79.179 79.274 81.442 85.639 86.482 87.242 86.617 85.789 80.532 80.194 81.982 80.277 81.092 81.132 82.364 82.597 82.374 82.679 82.902 83.184 83.389 83.484 83.412 83.209 83.127 83.119 83.027 83.099 83.379 84.254 85.297 85.634 85.739 86.087 86.227 86.407 86.559 86.672 86.817 86.872 87.024 87.307 87.344 87.699 92.334 94.609 95.374 95.027 95.327 91.367 89.487 89.649 90.249 90.434 92.597 90.384 90.692 90.884 90.642 90.387 90.232 90.117 90.242 91.594 92.282 93.194 94.122 94.867 95.204 95.287 95.337 95.467 95.354 95.279 95.474 95.859 95.787 95.994 101.527 102.342 102.969 101.789 100.557 95.289 95.504 95.932 96.022 96.039 96.062 96.204 97.479 95.364 94.857 92.894 92.754 92.609 92.449 92.229 91.937 91.604 91.532 91.507 91.544 91.594 91.649 91.712 92.447 93.839 94.692 95.082 95.569 98.719 102.459 101.782 97.524 96.682 97.594 97.899 98.012 98.267 98.637 98.694 98.674 98.682 102.139 102.737 98.779 98.812 98.964 101.467 98.802 98.724 98.842 99.624 100.742 99.677 102.227 105.137 105.902 102.692 99.452 100.019 101.262 106.324 104.582 100.702 100.152 100.357 103.147 100.659 100.687 100.739 100.802 100.882 100.959 101.072 101.187 101.274 101.359 101.472 101.567 101.662 101.749 101.834 101.944 102.057 102.182 102.344 103.982 103.579 103.634 102.767 102.804 102.887 102.959 103.004 103.094 103.122 103.189 103.249 103.379 103.382 103.427 103.494 103.859 104.507 103.712 103.749 103.802 103.837 103.894 103.957 104.009 104.079 104.157 104.214 104.264 104.339 104.387 104.437 104.502 104.57 104.64 104.68 104.732 104.792 104.842 104.91 104.967 105.035 105.092 105.137 105.215 105.272 105.342 105.447 105.545 105.627 105.715 105.787 105.852 105.885 106.102 106.215 106.165 106.187 106.2 106.142 106.267 107.388 106.568 106.656 108.458 113.243 114.331 114.221 112.631 109.456 107.015 106.876 106.922 108.736 108.817 107.559 107.637 108.599 108.355 108.227 111 110.998 109.628 109.52 109.665 110.462 112.236 112.033 112.072 112.669 113.337 112.904 111.519 112.544 113.971 111.934 111.847 112.923 114.169 113.202 114.455 117.303 118.762 119.739 119.166
85.076 83.319 83.311 83.316 83.306 83.296 83.156 83.056 83.051 83.019 83.041 83.024 83.039 84.551 83.154 83.734 83.899 88.919 89.796 90.381 83.726 85.324 83.424 83.324 82.769 82.364 82.416 82.291 82.166 81.766 81.646 82.729 81.676 83.186 82.986 82.844 82.819 82.709 82.594 82.481 82.481 82.496 82.599 82.776 83.611 82.649 82.606 82.566 87.721 89.029 89.564 88.836 88.119 82.599 82.276 82.116 82.061 82.024 81.974 81.891 81.859 81.869 81.869 81.899 81.924 81.991 82.059 86.621 81.509 81.171 80.714 80.669 80.336 79.949 79.744 79.796 79.811 79.799 79.764 79.711 79.644 79.614 79.652 79.544 79.382 82.104 85.269 86.202 87.389 85.809 83.587 79.209 78.789 77.972 77.734 79.097 77.242 76.884 76.829 76.759 76.789 81.372 83.204 76.962 76.564 76.679 76.799 76.907 77.164 77.362 77.472 77.544 77.584 77.589 77.657 77.772 77.819 77.862 77.914 77.997 78.072 78.129 78.189 78.272 78.362 78.474 78.602 78.572 78.549 78.604 78.507 79.724 79.882 79.307 85.609 86.439 87.209 86.644 85.814 80.127 80.099 80.174 80.192 81.044 81.754 82.032 82.447 82.807 83.019 83.207 83.392 83.584 83.674 83.674 83.537 83.342 83.317 83.284 83.187 83.274 83.747 84.759 85.434 85.532 85.854 86.139 86.349 86.552 86.732 86.839 86.929 87.069 87.202 87.339 87.497 88.522 88.439 93.262 94.637 96.489 96.124 95.332 93.004 90.914 90.507 90.562 90.522 90.594 90.822 92.117 90.939 90.877 90.272 90.884 92.272 90.589 91.954 93.054 94.027 94.807 95.297 95.452 95.597 95.497 95.412 95.579 95.709 95.814 96.359 101.524 102.324 102.972 102.202 101.389 95.732 95.797 96.102 96.124 96.239 96.189 96.209 98.552 96.437 96.384 95.452 94.979 92.957 92.897 92.714 92.549 92.317 91.914 91.712 91.642 91.717 91.752 91.834 91.864 92.022 93.239 94.379 94.764 95.307 95.697 96.082 96.449 96.947 98.637 97.114 97.827 97.989 98.174 98.647 98.737 98.754 98.754 98.732 101.614 101.472 98.829 98.827 99.037 101.212 99.717 98.837 99.404 99.399 102.149 101.619 104.099 105.897 106.862 103.197 99.357 99.962 100.207 99.897 99.974 102.157 100.804 100.562 100.459 100.539 100.627 100.707 100.837 100.959 101.064 101.162 101.224 101.304 101.452 101.602 101.712 101.822 101.922 102.014 102.134 102.274 102.429 102.599 102.604 102.879 102.974 102.897 102.967 103.052 103.134 103.202 103.239 103.294 103.377 103.457 103.484 103.519 103.569 103.642 103.717 103.777 103.834 103.887 103.932 103.994 104.042 104.262 104.179 104.227 104.284 104.352 104.372 104.427 104.47 104.522 104.622 104.722 104.782 104.85 104.89 104.89 104.957 105.01 105.085 105.17 105.217 105.25 105.312 105.467 105.55 105.622 105.715 105.83 105.94 106.02 106.052 106.235 106.307 106.312 106.332 106.322 106.307 106.37 106.639 106.616 106.74 106.925 110.942 113.724 115.279 114.105 112.185 107.208 106.86 107.615 109.323 108.668 108.504 108.527 110.674 110.473 110.079 110.682 110.154 109.821 109.644 109.708 110.31 110.823 110.443 111.126 112.646 113.229 113.347 111.773 112.05 113.52 112.329 111.998 112.038 113.654 112.638 116.948 118.595 119.698 119.552 118.255
89.054 84.429 83.271 83.246 83.266 83.281 83.204 82.994 82.944 82.921 82.851 82.824 82.821 82.881 83.139 84.016 83.269 83.366 88.751 85.181 83.286 83.386 83.819 82.824 82.544 82.309 82.061 82.021 81.721 81.669 86.789 83.359 81.974 81.654 82.339 82.674 82.556 82.576 82.451 82.304 82.299 82.299 82.476 82.571 82.894 82.664 82.511 86.259 88.569 89.141 89.606 88.301 82.596 82.451 82.511 82.411 81.944 81.881 81.819 81.789 81.719 81.654 81.704 81.731 81.764 81.811 81.896 82.684 84.051 81.201 80.529 81.726 79.996 79.639 79.714 79.734 79.731 79.694 79.641 79.546 79.517 79.669 79.569 79.427 79.299 83.624 85.667 86.462 85.904 85.037 79.139 78.852 77.934 77.629 77.149 78.197 83.119 77.147 76.814 76.797 78.572 83.492 84.309 76.654 76.824 76.969 77.319 77.299 77.429 77.452 77.494 77.542 77.594 77.672 77.744 77.767 77.839 77.882 77.967 78.012 78.107 78.199 78.257 78.362 78.427 78.539 78.569 78.537 78.677 78.587 78.682 84.909 85.739 84.967 86.397 87.172 86.677 85.844 80.517 80.397 80.934 80.119 81.124 81.644 82.092 82.502 82.942 83.224 83.417 83.567 83.697 83.822 83.917 83.809 83.624 83.507 83.494 83.447 83.374 83.469 84.224 84.907 85.219 85.734 86.017 86.272 88.444 86.717 86.832 87.004 87.114 87.199 87.349 87.457 87.872 88.362 88.539 88.497 94.614 95.659 96.437 96.167 93.979 90.582 90.594 90.507 91.212 93.724 92.729 91.094 91.209 91.297 90.979 91.449 91.049 91.429 92.292 93.327 94.242 94.957 95.454 95.717 95.632 95.544 95.612 95.677 95.739 95.907 101.517 102.324 102.977 102.214 101.394 95.909 96.629 97.132 96.649 96.747 96.367 96.477 96.542 96.439 98.194 96.292 96.664 95.947 95.549 93.119 93.019 92.822 92.624 92.327 91.937 91.862 92.004 92.047 91.984 92.044 92.124 92.427 92.944 93.869 95.162 95.839 96.374 97.297 99.932 102.434 102.667 97.202 98.042 98.194 98.489 99.077 101.257 100.234 98.797 98.849 101.684 98.849 98.757 99.389 100.782 100.637 98.944 99.772 102.147 102.194 104.489 106.019 106.749 106.747 105.667 100.867 99.827 99.897 99.879 100.537 100.512 100.332 100.337 100.399 100.467 100.599 100.712 100.819 100.902 100.979 101.084 101.224 101.384 101.492 101.624 101.769 101.899 101.982 102.009 102.392 102.387 102.432 102.639 102.557 103.112 102.907 102.962 102.967 103.232 103.202 103.569 103.692 103.887 103.884 103.749 103.692 103.592 103.737 104.012 104.039 104.127 104.594 104.277 104.177 104.162 104.859 104.972 105.184 104.932 105.169 105.062 104.667 104.625 104.587 104.587 104.825 104.935 104.855 104.855 104.967 104.96 105.027 105.135 105.132 105.19 105.275 105.28 105.377 105.465 105.562 105.722 105.837 105.965 106.05 106.155 106.232 106.255 106.4 106.442 106.482 106.477 106.492 106.615 108.25 106.855 106.839 107.494 108.878 112.978 114.188 114.639 113.634 109.992 106.879 108.415 109.871 111.667 111.103 110.867 111.223 111.278 109.89 108.935 109.231 109.855 109.739 109.819 110.125 111.791 110.708 112.562 111.606 113.042 113.252 112.527 113.839 114.378 114.249 114.329 112.393 112.764 112.141 116.597 118.344 118.954 118.331 117.491
89.291 86.429 83.221 83.219 83.246 83.241 83.191 83.071 82.891 82.816 82.766 82.689 82.654 82.651 82.676 82.774 82.954 83.281 84.784 82.969 83.129 83.119 83.271 82.949 82.349 82.244 81.931 81.649 84.309 85.456 87.546 88.261 86.326 81.996 82.521 82.219 82.354 82.234 82.186 82.124 82.116 82.149 82.331 82.479 82.506 82.896 84.626 88.496 89.006 89.641 89.044 88.304 82.559 82.384 82.069 82.096 82.009 81.809 81.721 81.656 81.596 81.531 81.461 81.519 81.556 81.646 82.484 81.456 81.066 80.464 80.396 80.031 79.631 79.624 79.656 79.664 79.636 79.599 79.509 79.454 79.442 79.274 79.204 79.469 79.224 79.232 83.457 85.569 85.119 81.912 80.092 78.014 77.709 77.137 77.034 76.834 77.767 76.937 77.277 82.029 82.942 80.012 77.154 76.947 77.117 77.252 77.394 77.394 77.414 77.454 77.517 77.572 77.584 77.669 77.692 77.777 77.884 77.959 78.007 78.094 78.232 78.279 78.357 78.447 78.514 78.559 78.532 78.659 79.362 79.107 84.882 85.717 86.469 85.832 87.189 86.692 85.864 81.692 80.474 80.124 80.389 80.979 81.599 82.017 82.504 82.882 82.992 83.124 83.272 83.424 83.597 83.784 83.882 83.762 83.709 83.687 83.659 83.587 83.527 83.727 84.437 84.649 85.574 86.064 86.222 88.667 92.552 92.859 86.849 86.992 87.159 87.387 87.452 87.602 87.819 88.192 88.422 89.027 89.479 94.249 95.602 96.842 96.174 90.664 90.549 90.702 91.289 91.374 91.297 91.252 91.462 91.652 91.704 91.492 91.639 92.179 92.982 93.839 94.614 95.212 95.664 95.707 95.654 95.749 95.809 95.857 95.829 101.482 102.324 102.924 102.224 101.322 95.942 96.597 96.822 96.879 96.917 96.812 98.337 96.584 96.497 102.227 102.104 96.402 96.337 96.307 95.999 95.469 93.204 93.084 92.929 92.689 92.292 92.057 92.004 93.359 92.149 92.224 92.254 92.437 93.444 94.317 94.062 95.847 96.827 98.212 103.034 103.752 103.569 101.074 98.074 98.177 97.397 100.117 99.132 98.804 98.807 98.852 101.629 99.412 98.719 98.732 99.657 100.689 99.022 99.024 102.039 103.262 106.032 106.982 106.784 105.747 104.152 100.169 100.139 100.319 99.844 99.992 100.029 100.177 100.229 100.364 100.489 100.569 100.654 100.744 100.852 100.982 101.149 101.279 101.417 101.844 101.759 101.712 101.802 101.874 101.899 102.139 102.407 102.474 102.514 102.549 102.844 104.089 103.247 103.629 103.174 103.319 103.467 103.477 103.959 103.799 103.749 104.419 103.782 104.142 104.204 104.282 104.489 104.614 104.652 104.577 104.487 104.862 104.774 105.157 105.024 105.172 104.999 105.157 105.09 105.015 105.015 105.642 105.662 105.907 105.682 105.47 105.255 105.302 105.397 105.435 105.595 105.542 105.517 105.585 105.777 105.795 105.825 105.995 106.087 106.275 106.277 106.367 106.415 106.507 106.592 106.64 106.612 106.637 106.88 107.82 106.878 106.868 106.991 109.517 111.181 113.295 114.378 113.774 112.502 109.712 109.992 111.428 114.292 114.033 114.282 113.706 113.087 111.625 109.703 109.663 109.973 110.031 110.124 110.202 110.945 110.574 112.74 110.889 111.272 111.891 116.007 116.15 115.363 117.379 117.437 117.795 112.742 112.796 112.453 114.578 118.071 113.859 112.836
89.741 89.141 88.529 83.921 83.249 83.221 83.164 83.036 82.944 82.749 82.654 82.589 82.539 82.481 82.474 82.524 82.709 82.694 82.656 82.824 82.766 82.894 83.809 82.424 82.176 81.974 81.869 82.144 87.321 88.066 88.254 88.616 87.911 86.714 82.039 81.704 81.859 82.064 81.974 81.954 81.946 81.994 82.209 82.441 84.454 87.981 88.659 88.869 89.591 89.184 88.471 85.154 82.644 82.376 81.926 81.641 82.319 81.671 81.651 81.554 81.476 81.429 81.364 81.316 81.314 81.749 82.189 81.134 80.444 80.316 80.074 79.701 79.544 79.589 79.594 79.581 79.569 79.481 79.386 79.316 79.234 79.159 79.119 79.067 79.432 79.182 79.214 81.397 79.412 79.327 79.122 77.542 77.269 76.987 76.792 76.597 76.497 77.304 80.847 83.219 81.542 76.849 76.992 77.154 77.274 77.334 77.364 77.362 77.409 77.494 77.564 77.614 77.569 77.617 77.707 77.757 77.864 77.994 78.087 78.137 78.312 78.352 78.472 78.539 78.567 78.539 78.637 78.619 78.814 84.862 85.694 86.449 85.839 85.017 79.602 85.617 81.692 80.784 80.169 80.197 80.884 81.537 81.947 82.397 82.642 82.684 82.827 83.039 83.242 83.432 83.582 83.719 83.822 83.857 83.877 83.852 83.804 83.757 83.749 83.844 84.217 84.694 85.612 86.247 88.644 92.499 93.347 93.677 92.669 87.084 87.114 87.327 87.629 87.729 87.967 88.119 88.477 89.067 89.447 89.469 95.884 97.602 97.047 96.219 91.462 91.524 91.417 91.414 91.367 92.202 91.984 91.857 91.962 92.067 92.384 92.914 93.634 94.324 94.992 95.519 95.639 95.679 95.829 96.297 95.889 96.852 101.474 102.287 102.937 102.232 101.407 96.604 96.787 96.867 97.107 97.154 97.197 97.147 96.989 96.527 102.814 103.554 102.922 102.109 96.857 97.072 96.472 96.312 96.547 93.304 93.254 93.047 92.749 92.309 92.219 92.237 92.317 92.382 92.449 92.479 92.679 94.374 93.714 96.459 96.847 103.042 104.049 104.877 104.309 103.209 97.629 97.217 97.267 98.149 99.112 99.999 99.207 98.817 100.979 98.644 99.832 98.702 98.687 98.834 98.772 98.847 99.032 105.349 106.339 106.652 105.722 103.327 99.532 99.384 100.057 99.707 99.789 99.874 99.979 100.072 100.199 100.317 100.407 100.487 100.672 100.767 100.822 100.879 101.354 101.314 101.402 101.464 101.554 101.664 101.722 102.257 102.429 101.857 102.442 102.532 103.744 105.072 106.477 106.412 104.982 105.934 103.134 103.442 104.552 106.507 105.614 107.137 105.112 104.494 103.707 104.342 104.422 105.754 104.572 105.117 105.072 104.704 104.727 105.279 105.372 105.607 105.702 105.699 105.684 105.669 105.532 105.56 105.585 106.062 105.82 106.335 106.307 106.15 105.63 105.617 105.635 105.707 105.902 105.962 106.932 106.002 106.155 106.5 106.422 106.252 106.307 106.422 106.525 106.55 106.597 106.712 106.79 106.802 106.745 106.79 107.345 108.635 108.435 107.483 109.36 107.466 107.159 110.284 113.279 110.863 108.846 109.939 109.663 110.959 115.338 115.622 115.572 115.515 115.299 114.905 111.213 109.955 111.7 114.965 111.766 113.577 114.672 114.887 115.289 114.508 111.602 112.84 117.867 118.057 118.472 118.675 118.916 118.414 114.008 112.364 112.709 112.289 112.889 112.633 112.18
90.249 89.849 89.241 88.421 83.269 83.184 82.981 82.939 82.959 82.856 82.686 82.491 82.431 82.374 82.314 82.339 82.341 82.336 82.464 82.456 82.489 82.769 82.161 82.086 81.991 81.651 81.776 87.186 87.899 88.634 88.229 88.044 87.311 84.536 81.651 81.676 81.749 81.871 81.781 81.761 81.776 81.894 82.176 82.699 87.791 88.571 89.326 89.476 89.331 88.609 87.251 82.626 82.549 82.194 81.946 81.364 81.404 81.351 82.634 81.404 81.346 81.296 81.236 81.186 81.384 81.121 81.276 80.866 82.269 81.014 79.696 79.469 79.509 79.534 79.514 79.519 79.494 79.351 79.406 79.636 79.104 79.047 79.004 78.954 78.914 79.027 79.184 79.209 79.164 78.434 77.569 77.299 77.162 76.959 76.644 76.472 76.899 81.252 82.902 79.537 76.699 76.992 77.187 77.267 77.307 77.307 77.294 77.359 77.439 77.512 77.644 77.624 77.654 77.677 77.747 77.774 77.859 77.982 78.114 78.237 78.287 78.447 78.549 78.554 78.519 78.642 79.297 78.772 83.652 85.644 86.422 85.887 85.049 79.477 79.672 80.137 80.674 80.167 80.982 80.874 81.462 81.859 82.234 82.402 82.397 82.602 82.814 83.002 83.197 83.394 83.599 83.777 83.914 83.987 84.017 84.017 83.959 83.869 83.964 83.972 84.377 85.349 86.004 86.759 92.487 93.327 93.712 92.894 92.039 86.744 87.094 87.357 87.629 87.884 88.007 88.174 88.434 89.032 89.367 89.757 95.177 96.859 97.582 97.077 97.164 92.714 91.434 91.472 91.922 91.972 91.909 94.067 91.972 92.547 92.904 93.432 94.129 94.784 95.359 95.509 95.579 95.692 95.874 97.612 95.894 101.464 102.302 102.989 102.227 101.419 96.174 96.567 97.292 97.704 97.444 97.509 97.609 98.767 97.507 97.219 102.002 102.807 103.569 103.274 102.772 98.224 96.837 96.762 96.567 96.572 93.434 93.372 93.162 92.747 92.407 92.382 92.479 92.547 92.614 92.644 92.702 93.099 94.004 95.772 96.844 98.244 103.429 104.514 105.054 103.949 102.869 97.267 97.232 97.277 98.702 99.534 100.714 98.692 99.882 98.619 98.627 99.689 99.027 100.389 102.149 98.702 98.889 99.052 105.294 105.654 104.447 100.287 99.484 99.977 99.612 99.622 99.704 99.794 99.947 100.044 100.132 100.214 100.377 100.507 100.604 100.814 101.522 100.709 100.932 101.319 101.369 101.487 102.157 106.442 107.624 108.009 108.459 101.769 102.452 104.794 109.227 109.262 110.057 109.399 109.437 106.389 103.172 103.492 110.164 110.262 110.464 110.179 110.117 109.732 103.757 104.364 111.119 111.062 111.059 111.039 110.984 111.024 104.812 105.449 109.134 111.274 111.779 111.762 111.732 110.814 106.867 105.945 107.017 111.57 112.125 112.162 111.977 111.455 108.355 106.615 105.875 106.062 106.145 106.167 106.912 106.295 107.04 106.855 106.372 106.377 106.45 107.317 106.77 106.765 106.782 106.875 106.96 106.96 106.902 106.957 107.792 109.095 109.787 109.78 107.453 107.324 107.226 107.202 108.937 108.918 109.058 111.141 109.005 112.55 115.477 116.209 116.858 116.29 116.175 115.121 109.757 109.899 114.275 117.19 117.31 117.435 117.276 117.471 117.354 114.074 110.994 115.632 117.988 119.029 119.28 120.135 118.793 118.275 116.055 112.957 112.752 111.902 112.019 112.131 112.183
89.616 90.211 89.949 89.351 88.881 86.589 82.869 82.919 82.986 82.939 82.744 82.546 82.339 82.274 82.226 82.144 82.091 82.104 82.114 82.106 83.151 82.931 82.049 81.979 81.836 81.716 86.536 87.771 88.494 88.341 87.644 86.424 83.524 81.594 81.599 81.649 81.686 81.664 81.609 81.596 81.601 81.796 81.774 82.371 82.401 89.144 89.566 88.841 88.221 88.054 82.611 82.641 82.289 82.024 81.916 82.419 81.109 81.506 81.424 81.261 81.199 81.161 81.109 81.044 81.031 81.016 82.686 80.319 82.334 81.036 79.401 79.434 79.464 79.456 79.429 79.469 79.284 79.189 79.496 79.604 79.124 78.922 78.879 78.842 78.822 80.229 78.999 79.879 80.949 77.739 77.309 77.154 76.924 76.714 76.554 76.467 80.032 84.172 77.319 76.964 76.959 77.152 77.212 77.239 77.237 77.272 77.337 77.409 77.527 77.557 77.647 77.689 77.694 77.732 77.767 77.819 77.872 77.982 78.137 78.279 78.399 78.424 78.559 78.504 78.609 78.597 78.872 84.717 85.619 86.442 85.917 85.102 80.569 79.667 79.789 80.782 80.772 80.384 80.872 81.374 81.737 82.057 82.184 82.204 82.379 82.564 82.722 82.919 83.224 83.489 83.717 83.842 83.992 84.084 84.124 84.147 84.102 84.019 84.122 84.229 85.139 85.849 87.407 92.467 93.284 93.769 93.542 92.737 90.682 86.747 86.967 87.259 87.564 87.812 88.147 88.282 88.457 89.049 89.592 90.382 90.592 95.499 96.782 98.492 98.154 97.349 92.569 92.297 92.292 92.407 92.237 91.957 92.344 93.139 93.264 93.814 94.459 95.147 95.352 95.447 95.622 95.809 95.822 96.474 101.439 102.287 102.962 102.259 101.437 97.392 96.914 97.307 97.444 97.727 97.959 97.887 99.777 97.639 98.187 97.852 97.044 102.004 102.959 104.192 103.602 102.787 97.797 97.237 97.024 96.614 96.574 93.617 93.534 93.247 92.749 92.602 92.604 92.702 92.764 92.819 92.844 93.057 95.039 95.392 96.437 96.922 102.384 103.824 104.902 104.582 103.569 99.822 97.227 97.372 99.442 100.117 100.392 99.849 98.397 98.617 98.602 98.629 99.822 98.719 103.562 105.374 98.719 98.977 99.049 100.817 100.024 99.204 100.047 99.527 99.484 99.544 99.622 99.777 99.869 99.962 100.034 100.219 100.294 100.412 101.952 100.644 100.614 100.972 100.502 101.169 101.357 107.034 108.037 108.469 109.007 109.309 109.594 103.424 102.512 104.447 109.574 110.554 110.582 110.539 109.679 107.309 103.179 103.529 110.259 111.479 111.554 111.524 111.067 109.719 103.772 104.399 111.462 112.434 112.467 112.434 112.387 112.377 104.987 105.752 110.402 113.092 113.117 113.287 113.074 112.467 107.157 106.2 108.28 113.387 113.622 114.117 113.515 113.435 112.467 108.832 106.142 106.345 106.415 106.405 106.51 108.802 111.735 111.297 106.807 106.517 106.63 106.737 107.747 106.997 107 107.02 107.107 107.12 107.08 107.147 108.282 110.112 107.602 107.617 107.587 107.487 107.242 107.058 107.356 108.961 109.18 110.653 108.714 112.699 114.657 114.702 115.363 115.233 115.42 114.907 111.024 110.163 114.552 117.21 117.689 117.73 117.804 117.784 117.401 113.482 110.758 111.654 117.909 118.104 118.108 118.073 117.539 117.123 116.383 112.535 111.595 111.842 111.849 112.172 111.955
88.711 89.499 90.101 90.049 89.451 83.201 82.886 82.956 82.866 82.779 82.709 82.581 82.416 82.211 82.121 82.049 81.981 81.924 81.859 81.874 83.281 83.726 81.946 81.861 81.769 81.671 87.016 88.349 88.471 87.771 86.249 81.541 81.574 81.624 81.431 81.504 81.546 81.489 81.416 81.561 81.479 81.656 81.599 81.421 82.326 82.414 88.539 88.251 82.616 82.594 82.586 82.744 82.311 81.786 81.759 81.036 81.201 81.916 81.184 81.086 81.041 80.996 80.956 80.944 80.929 80.986 80.164 80.084 79.851 79.434 79.354 79.406 79.394 79.361 79.386 79.324 79.094 79.481 79.246 79.216 78.829 78.779 78.749 78.727 78.704 78.669 79.192 79.042 81.244 77.794 77.212 77.002 76.759 76.524 76.349 76.392 80.792 76.502 76.849 77.009 77.109 77.149 77.147 77.172 77.239 77.334 77.424 77.469 77.542 77.619 77.652 77.679 77.744 77.777 77.832 77.852 77.972 78.042 78.169 78.312 78.462 78.522 78.504 78.622 78.657 78.634 84.682 85.584 86.414 85.952 85.144 80.639 79.579 79.739 80.564 81.269 81.682 80.952 81.262 81.572 81.847 81.954 81.982 82.139 82.307 82.439 82.632 82.907 83.349 83.654 83.892 84.104 84.229 84.184 84.239 84.269 84.252 84.182 84.302 84.597 85.507 87.342 92.444 93.279 93.757 92.967 93.489 93.559 92.759 90.179 86.857 87.087 87.427 87.719 88.162 88.462 88.524 88.862 89.657 90.259 90.552 90.572 96.172 97.842 98.614 98.214 97.399 94.362 92.637 92.549 92.407 92.699 93.224 95.429 93.387 93.779 94.722 95.142 95.274 95.439 95.672 95.999 95.839 101.439 102.274 102.962 102.262 101.454 96.094 96.572 97.639 97.617 97.624 98.034 98.859 99.262 98.604 98.052 97.699 97.669 97.587 97.604 102.607 103.427 104.177 103.649 103.432 99.067 97.299 96.979 96.609 96.557 93.807 93.634 93.227 92.799 92.757 92.837 92.927 92.989 93.037 93.132 93.564 94.877 95.789 97.119 97.144 103.072 104.127 104.209 103.484 102.717 97.244 100.662 99.449 98.542 100.374 100.454 98.169 99.397 98.554 98.554 98.887 102.877 105.312 106.477 106.147 98.759 99.029 99.042 99.772 99.867 99.332 99.367 99.434 99.522 99.622 99.687 99.762 99.899 99.999 100.137 100.807 100.202 102.157 100.659 100.512 102.209 101.657 100.799 101.369 107.147 109.329 109.632 109.937 108.912 108.479 106.704 102.197 104.014 109.374 109.374 109.359 109.259 109.157 107.617 103.034 103.487 110.174 110.447 110.534 110.544 110.572 109.562 103.764 104.449 111.822 111.804 111.872 111.882 111.907 111.967 104.932 105.814 110.459 113.189 113.427 113.894 113.424 112.489 107.487 106.205 107.107 113.452 114.187 114.575 114.277 114.337 113.1 108.977 106.375 106.61 106.637 106.787 110.807 113.77 114.475 113.512 111.73 107.167 106.802 106.832 106.96 107.48 107.152 107.17 107.26 107.29 107.28 107.33 108.38 109.82 108.01 107.83 107.71 107.52 107.338 107.36 108.037 108.38 110.597 109.084 108.711 108.73 108.704 109.443 110.786 112.949 112.642 112.489 109.531 110.333 111.81 115.632 115.427 116.441 116.302 116.407 116.202 113.659 110.969 112.203 116.92 114.755 116.001 113.111 113.261 111.809 111.842 111.985 111.557 111.526 111.712 112.25 111.457
84.201 88.794 89.384 90.021 83.611 82.911 83.059 82.644 82.589 82.559 82.561 82.579 82.449 82.286 82.109 81.959 81.876 81.814 81.741 81.669 81.664 81.694 81.856 81.786 81.684 85.694 87.534 88.271 88.251 87.174 81.514 81.501 81.404 81.256 81.229 81.296 81.344 81.264 81.239 82.644 81.379 81.474 81.474 81.284 81.114 81.766 82.424 82.759 82.521 82.516 82.364 82.284 82.044 81.591 81.304 81.104 82.534 81.051 81.066 81.874 80.886 80.839 80.901 81.219 80.911 80.226 80.039 79.836 79.501 79.259 79.306 79.331 79.309 79.296 79.306 79.306 79.459 79.261 79.246 78.729 78.652 78.612 78.599 78.587 78.579 78.567 78.659 78.679 80.377 77.897 77.189 76.922 76.614 76.402 76.297 76.309 76.584 76.934 77.029 77.064 77.069 77.064 77.132 77.222 77.302 77.379 77.377 77.507 77.607 77.649 77.699 77.767 77.799 77.849 77.882 77.932 78.062 78.129 78.189 78.362 78.494 78.489 78.557 78.602 78.904 84.052 85.552 86.394 85.977 85.152 80.684 80.067 79.737 79.862 80.702 82.009 80.884 80.969 81.214 81.519 81.709 81.764 81.899 82.057 82.167 82.362 82.624 83.034 83.344 83.702 83.994 84.312 84.434 84.317 84.322 84.374 84.392 84.342 84.444 84.867 85.564 91.657 93.232 93.757 92.979 92.167 92.669 93.479 93.562 92.787 90.752 86.827 87.157 87.737 88.262 88.534 88.992 89.432 89.792 90.152 90.504 91.079 91.637 96.437 97.824 98.584 99.229 98.457 93.292 92.684 92.829 93.339 93.407 93.304 93.549 94.477 94.832 95.079 95.394 95.614 95.662 96.222 101.442 102.259 102.939 102.277 101.472 97.202 96.749 97.059 97.644 97.854 98.104 100.682 99.397 98.844 98.812 98.584 98.157 97.877 98.352 99.402 97.079 102.609 103.489 104.779 104.257 103.449 98.289 97.374 97.024 96.582 96.482 93.917 93.702 93.234 92.967 92.954 93.074 93.139 93.204 93.249 93.392 94.759 95.814 96.974 97.122 99.524 103.417 103.139 99.997 97.497 100.207 98.292 98.402 98.392 99.719 100.437 97.927 100.047 98.559 98.582 103.307 105.699 106.587 106.009 105.089 101.444 98.794 99.039 99.027 99.152 99.197 99.272 99.379 99.467 99.517 99.629 99.764 99.869 99.997 100.082 100.102 100.107 100.497 101.899 106.432 107.062 105.194 100.739 101.397 102.922 109.634 109.629 108.052 107.127 103.489 101.699 101.729 103.009 105.802 105.602 105.284 104.259 105.519 105.667 103.057 103.457 103.572 104.052 104.382 104.564 107.269 107.169 103.819 104.464 108.994 107.064 107.109 107.329 107.997 107.959 104.997 105.772 110.152 111.284 111.374 112.064 112.059 111.649 106.895 106.375 108.805 112.622 112.822 112.75 112.93 112.957 111.317 108.812 106.607 107.037 107.095 107.135 111.752 114.34 115.262 114.54 113.36 110.14 107.29 107.182 107.392 107.507 107.412 107.37 107.42 107.46 107.48 107.432 107.56 110.165 112.02 108.252 107.815 108.53 107.855 108.173 108.464 109.555 110.622 108.828 109.15 108.845 108.682 109 109.856 108.824 108.81 109.166 109.812 110.934 110.299 110.704 111.299 111.831 112.442 111.076 110.637 110.628 110.863 112.471 111.631 111.681 111.651 112.456 111.865 111.89 111.916 111.769 111.474 111.347 111.368 111.279 111.354
83.736 83.356 87.896 85.924 82.839 82.556 82.521 82.424 82.191 82.129 82.546 82.469 82.369 82.249 82.146 81.999 81.799 81.724 81.649 81.586 81.516 81.441 81.441 81.464 81.714 84.304 88.119 88.589 87.866 86.699 81.499 81.334 81.201 81.091 81.084 81.114 81.124 81.054 81.071 81.251 81.249 81.286 81.281 81.179 81.011 80.904 81.434 82.401 82.359 82.261 82.114 81.926 81.686 81.376 81.159 80.921 80.911 80.964 81.681 80.819 81.216 80.806 81.844 82.406 81.689 79.881 79.786 79.481 79.191 79.244 79.271 79.254 79.221 79.204 79.124 79.901 78.969 78.996 78.966 79.061 78.537 78.422 78.424 78.452 78.467 78.542 78.569 78.587 79.209 78.009 79.219 79.592 76.514 76.407 76.484 76.809 76.994 77.072 77.064 77.047 77.079 77.134 77.184 77.264 77.319 77.349 77.427 77.519 77.619 77.687 77.792 77.842 77.887 77.922 77.942 78.034 78.099 78.202 78.269 78.387 78.624 78.527 78.612 78.602 82.624 85.522 86.359 86.032 85.192 80.242 79.424 80.244 79.892 82.022 80.654 80.559 80.732 82.067 81.089 81.309 81.482 81.652 81.799 81.927 82.102 82.344 82.862 83.047 83.402 83.817 84.149 84.399 84.634 84.537 84.429 84.477 84.504 84.454 84.522 84.694 85.264 85.827 90.414 93.017 92.169 86.782 88.744 92.629 93.462 93.589 92.809 90.574 87.542 88.047 88.222 88.469 90.577 89.674 89.807 89.919 90.412 91.124 91.589 91.689 96.979 98.857 99.637 99.284 98.487 94.782 93.647 93.597 93.532 93.502 93.734 94.747 94.804 95.159 95.599 95.624 95.794 95.804 99.584 102.979 102.289 101.469 96.702 96.829 97.079 97.672 97.662 98.272 99.019 99.502 98.934 98.849 98.844 98.919 98.714 98.354 98.119 98.549 98.117 97.549 103.199 103.992 104.777 104.272 103.459 99.107 97.302 97.004 96.554 96.559 94.084 93.669 93.214 93.124 93.197 93.307 93.359 93.422 93.474 93.657 95.162 96.959 97.089 97.647 102.082 98.259 98.094 100.654 103.894 104.007 102.334 98.219 98.444 100.407 98.017 100.167 98.599 104.632 105.749 106.612 105.934 105.019 103.147 98.822 98.852 98.952 98.967 99.014 99.067 99.207 99.314 99.347 99.412 99.569 99.724 100.254 99.952 100.077 100.104 101.192 106.327 107.182 107.627 107.989 106.839 100.539 100.844 101.389 107.954 104.749 102.117 101.744 101.809 101.679 101.672 102.314 102.582 102.914 102.859 102.774 104.834 104.759 103.334 103.469 103.634 103.874 104.244 104.342 103.889 104.147 103.867 104.544 105.407 104.819 104.882 105.062 105.029 105.182 105.414 107.182 105.892 106.037 106.227 106.594 105.949 106.012 106.102 106.535 106.577 106.745 107.265 106.607 106.817 106.742 106.625 106.76 106.825 107.13 107.132 107.18 107.197 112.547 114.697 115.252 114.225 113.21 107.835 107.467 107.512 107.55 107.68 107.552 107.56 107.617 107.645 107.627 107.635 108.147 111.842 109.227 109.377 112.612 112.652 111.643 110.605 110.973 111.687 109.064 108.966 109.441 108.693 109.023 109.588 109.251 109.112 109.424 109.921 110.325 110.122 110.141 110.192 110.321 110.671 110.649 110.583 111.06 110.615 111.601 111.163 111.595 111.678 112.492 112.346 111.719 111.765 111.439 111.279 111.184 111.189 111.248 111.311
82.996 82.834 83.356 82.874 82.489 82.336 81.404 81.399 81.419 81.454 82.089 82.004 82.214 82.179 82.104 81.959 81.839 81.646 81.564 81.509 81.456 81.381 81.289 81.226 81.289 81.644 83.326 88.044 87.284 81.581 81.306 81.099 80.969 80.921 80.904 80.924 80.871 80.886 80.911 80.929 81.151 81.764 81.114 81.039 81.039 81.524 80.884 80.876 82.019 81.994 81.861 81.676 81.441 81.171 83.049 81.534 82.036 83.376 80.819 81.511 80.724 80.751 81.896 82.249 82.079 79.644 79.426 79.139 79.166 79.201 79.191 79.154 79.194 79.051 78.904 79.661 78.896 78.909 78.819 78.626 78.969 82.117 78.392 78.329 78.374 78.464 78.484 78.519 78.507 79.277 81.314 80.834 77.114 76.869 77.022 77.052 77.109 77.107 77.047 77.077 77.129 77.172 77.242 77.252 77.319 77.384 77.464 77.582 77.679 77.774 77.857 77.924 77.954 77.979 77.987 78.067 78.129 78.229 78.319 78.402 78.567 78.729 78.624 80.017 85.487 86.312 86.049 85.212 81.544 79.504 79.717 79.719 80.432 80.452 80.334 80.394 80.589 80.804 81.017 81.204 81.394 81.557 81.687 81.847 82.049 82.469 82.717 83.054 83.367 83.842 84.197 84.487 84.729 84.649 84.534 84.589 84.619 84.574 84.562 84.712 84.997 85.584 85.994 89.547 86.737 86.752 86.747 88.807 92.599 93.424 93.617 93.664 92.132 87.737 87.994 90.044 89.082 89.617 89.859 89.947 90.289 90.907 91.314 91.777 92.139 96.967 98.802 99.577 99.334 99.424 95.252 93.654 93.572 93.849 94.537 94.667 95.272 95.474 95.527 95.662 95.844 95.862 100.857 102.329 101.497 98.739 96.334 97.227 97.567 97.702 97.942 99.419 99.569 99.287 98.967 98.949 98.959 99.499 99.079 98.907 98.584 98.349 98.894 100.812 97.674 103.132 103.997 104.772 104.287 103.469 98.757 97.032 96.517 95.342 94.477 94.129 93.647 93.337 93.317 93.434 93.522 93.587 93.612 93.747 94.187 95.657 96.977 96.979 97.359 100.097 98.239 98.779 104.754 105.112 104.602 103.564 99.809 100.267 97.799 98.499 98.529 98.954 106.607 105.854 104.927 102.512 100.099 99.272 98.864 98.857 98.862 98.867 99.037 99.169 99.224 99.252 99.349 99.497 99.732 100.659 99.969 100.037 100.104 106.717 107.502 108.157 108.102 107.422 106.757 103.567 100.407 101.342 103.884 101.879 101.392 101.729 101.327 101.457 101.622 102.317 102.052 102.534 102.632 102.712 102.657 102.749 102.919 105.554 103.789 103.869 104.184 104.269 104.242 103.979 104.469 104.614 105.132 104.862 105.307 105.134 105.149 106.502 107.394 106.614 105.999 106.137 106.259 107.087 106.212 107.314 108.012 109.17 109.485 107.067 107.07 107.07 106.837 106.96 107.127 108.047 107.23 107.182 107.21 107.262 107.26 107.577 113.537 114.72 114.625 113.747 109.17 107.48 107.645 108.067 107.992 107.742 107.732 107.787 107.797 107.782 107.827 107.84 107.862 107.942 108.042 108.622 108.705 109.35 109.503 110.428 110.04 110.857 108.895 110.091 109.648 110.235 111.188 109.983 109.688 109.522 109.659 109.905 109.982 110.168 110.21 110.153 111.101 111.452 111.685 110.783 110.517 111.475 110.773 111.469 111.232 111.432 111.57 111.204 111.07 111.058 111.091 111.156 111.221 111.27 111.292
82.886 82.884 82.831 82.481 81.719 82.376 86.711 81.416 81.406 81.424 81.586 81.741 81.831 81.986 86.729 85.356 81.789 81.671 81.484 81.444 81.414 81.336 81.249 81.156 81.081 81.089 81.076 81.654 85.926 82.306 81.116 80.911 82.054 80.806 80.701 80.689 80.676 80.726 80.744 80.859 81.021 81.049 81.711 80.959 82.754 86.521 84.579 80.866 80.871 81.616 81.621 81.461 81.256 82.109 81.206 81.406 86.906 86.134 80.796 80.691 80.699 80.671 80.836 81.076 79.676 79.426 79.151 79.076 79.121 79.136 79.096 79.116 79.036 78.859 78.906 79.049 78.881 78.761 78.591 78.984 83.547 84.787 84.312 83.084 78.382 78.389 78.424 78.437 78.432 78.419 80.459 78.282 77.477 77.127 77.049 77.122 77.114 77.062 77.107 77.152 77.199 77.217 77.709 77.277 77.309 77.382 77.489 77.622 77.749 77.842 77.892 77.964 78.012 78.012 78.047 78.099 78.169 78.244 78.349 78.437 78.577 78.679 78.874 78.874 80.492 86.077 85.247 81.227 79.614 79.647 79.714 82.162 79.962 80.077 80.122 80.324 80.532 80.737 80.927 81.112 81.274 81.417 81.604 81.992 82.047 82.329 82.824 83.042 83.437 83.734 84.207 84.577 84.832 84.692 84.644 84.699 84.724 84.682 84.702 84.674 84.884 85.237 85.822 86.702 86.732 86.749 86.764 86.787 88.279 92.577 94.212 94.597 93.789 93.004 88.117 89.707 89.267 89.622 89.842 90.172 90.559 90.679 91.097 91.659 92.419 92.704 97.167 98.747 100.662 100.424 99.634 96.024 93.862 94.399 94.504 95.269 95.424 95.437 95.594 95.727 95.852 101.094 102.104 102.909 101.979 97.594 96.187 97.264 97.714 98.264 99.042 100.599 99.127 99.509 99.147 99.084 99.102 100.229 99.264 99.249 99.074 98.752 98.524 98.617 98.542 98.737 103.159 103.967 104.747 104.292 102.564 96.787 96.517 95.029 94.857 94.579 94.137 93.609 93.519 93.562 93.664 93.729 93.792 93.829 93.987 94.844 95.602 99.889 100.147 98.014 97.997 103.899 105.584 105.534 105.692 101.662 100.167 97.527 97.452 97.447 100.114 99.904 98.812 104.817 101.144 98.522 99.407 100.117 98.694 98.709 98.704 98.872 99.014 99.104 99.209 99.264 99.344 99.359 99.652 99.339 100.289 100.042 101.099 102.374 107.327 107.534 106.904 105.304 103.934 102.102 100.707 101.739 101.207 101.207 101.272 102.339 101.279 101.369 101.657 102.834 104.127 101.992 102.084 102.619 102.699 102.789 103.332 105.467 103.787 103.879 104.129 104.292 104.344 105.269 105.929 104.629 104.932 104.917 105.399 105.229 105.224 106.427 107.247 106.062 106.027 106.342 106.562 106.677 106.752 107.757 108.727 108.492 109.617 107.207 107.192 107.347 107.392 107.472 107.34 108.905 107.322 107.297 107.327 107.372 107.65 110.23 110.835 113.855 113.63 108.475 107.485 107.64 108.175 108.375 107.975 107.897 107.885 107.922 107.965 107.98 107.98 107.987 108.025 108.082 108.16 108.24 108.337 108.425 108.581 109.537 109.544 109.174 108.856 108.959 109.082 109.46 109.431 109.588 109.519 109.684 109.625 109.724 109.809 110.214 110.171 110.22 110.173 110.366 110.636 110.367 110.41 110.47 110.552 110.634 110.75 110.786 110.857 110.969 110.957 111.103 111.12 111.148 111.161 111.169 111.246
82.774 82.601 82.511 81.404 81.401 88.429 87.664 86.229 81.401 81.441 81.456 81.559 81.626 81.681 87.159 87.104 85.431 81.596 81.456 81.359 81.344 81.291 81.179 81.091 81.009 80.911 80.836 80.864 81.059 81.006 80.956 80.796 80.636 81.771 80.464 80.469 80.539 80.576 80.621 80.811 80.896 80.946 80.924 81.329 86.416 87.104 87.809 86.586 82.074 81.354 81.186 81.294 81.116 82.131 81.606 87.534 87.616 86.994 86.571 83.104 80.871 80.711 80.651 79.639 79.506 79.219 78.989 79.054 79.061 79.046 79.016 79.026 78.874 78.829 78.846 78.866 78.841 78.679 79.206 84.379 84.412 85.457 85.192 84.222 78.497 78.862 78.362 78.359 78.379 78.349 78.442 78.254 77.632 77.157 77.169 77.122 77.079 77.107 77.184 77.252 77.219 77.239 77.262 77.317 77.352 77.424 77.532 77.672 77.772 77.909 77.979 78.029 78.049 78.054 78.082 78.134 78.204 78.277 78.347 78.434 78.547 78.664 78.837 79.054 79.084 80.344 82.654 79.889 79.499 79.552 79.827 79.844 79.834 79.864 80.057 80.252 80.454 80.654 80.842 81.009 81.167 81.364 81.577 83.712 82.252 82.829 83.002 83.067 83.137 83.504 84.119 84.639 84.882 84.724 84.732 84.784 84.819 84.802 84.832 84.857 84.894 85.107 86.212 86.687 86.752 86.772 86.762 86.769 88.629 89.817 93.467 94.282 94.619 93.577 89.024 89.089 89.292 89.609 91.389 91.102 90.644 90.727 90.932 91.527 92.159 92.629 92.649 97.597 99.804 100.614 100.462 99.652 94.072 94.354 95.114 95.374 95.339 95.522 95.752 95.804 101.262 102.069 102.909 102.449 101.629 98.462 97.639 97.817 98.237 98.872 99.452 99.229 99.162 99.162 100.544 99.207 99.244 99.344 100.214 99.307 99.394 99.217 98.899 98.664 98.617 100.412 97.752 103.152 103.939 104.572 97.912 97.374 96.827 96.527 95.164 94.969 94.607 94.137 93.729 93.692 93.797 93.889 93.954 94.002 94.052 94.234 100.252 101.772 97.617 97.937 98.057 103.539 105.192 104.444 104.729 101.069 98.024 97.569 97.414 97.417 99.519 100.332 98.989 98.609 98.479 98.477 98.979 98.977 98.529 98.587 98.719 98.877 98.987 99.034 99.172 99.249 99.247 99.277 99.344 99.882 99.289 100.469 100.004 100.292 106.652 105.737 103.857 101.979 100.827 100.272 101.909 102.247 101.942 103.154 101.129 101.992 101.259 101.334 102.802 102.339 104.199 101.979 102.119 102.664 102.722 102.909 103.607 105.309 104.187 104.054 104.894 104.347 104.442 105.854 105.619 104.842 104.982 104.947 105.564 105.839 105.422 105.777 106.169 106.604 106.399 106.589 107.822 106.552 106.372 107.269 108.645 108.757 109.57 107.31 107.28 107.485 107.485 107.49 107.395 107.417 107.435 107.44 107.492 107.725 107.752 108.2 109.135 108.56 108.247 108.66 108.52 107.867 108 108.812 108.09 108.037 108.032 108.077 108.107 108.097 108.097 108.095 108.102 108.162 108.232 108.302 108.395 108.502 108.6 108.774 108.765 108.838 108.912 109.017 109.107 109.181 109.28 109.37 109.441 109.543 109.625 109.677 109.736 109.919 110.02 110.063 110.137 110.202 110.253 110.369 110.425 110.501 110.595 110.68 110.75 110.784 110.865 110.974 110.985 111.024 111.08 111.031 111.192 111.297 111.396
82.444 82.304 81.484 81.424 87.624 88.374 88.534 87.759 87.476 85.891 81.814 81.421 81.481 81.539 81.954 83.324 83.501 83.799 81.301 81.216 81.219 81.186 81.081 80.979 80.901 80.829 80.716 80.636 80.684 80.679 80.721 80.609 80.451 80.376 80.291 80.346 80.409 80.444 80.616 80.754 80.811 80.861 82.891 86.289 87.011 87.689 87.619 86.889 84.086 81.291 81.091 80.941 82.324 80.924 86.316 87.141 87.746 87.731 87.114 86.516 80.671 80.526 79.614 79.504 79.234 78.939 78.969 78.989 78.991 78.946 78.931 80.749 78.734 78.809 78.779 78.769 78.706 78.614 83.496 84.901 85.082 85.699 84.722 81.167 78.479 78.469 78.429 78.362 78.332 78.522 78.254 77.777 77.219 77.197 77.159 77.122 77.149 77.182 77.254 77.232 77.247 77.279 77.314 77.352 77.399 77.472 77.544 77.662 77.769 77.857 77.942 78.032 78.074 78.087 78.119 78.207 78.267 78.304 78.367 78.467 78.562 78.652 78.897 79.012 79.217 79.282 79.372 79.529 79.549 80.929 79.612 79.602 79.602 79.792 79.984 80.179 80.397 80.579 80.707 80.894 81.114 81.379 82.362 82.464 82.982 83.042 83.074 88.519 89.332 83.827 83.707 84.734 84.914 84.772 84.829 84.867 84.879 84.889 84.944 85.007 85.074 85.134 85.392 86.242 86.737 86.809 86.777 86.752 87.529 87.639 89.709 93.452 94.504 93.652 89.037 88.779 89.334 90.687 90.077 90.322 91.179 90.819 91.389 91.577 91.989 92.302 93.017 93.724 97.907 99.777 100.584 93.897 93.742 94.519 95.289 95.269 95.417 95.667 95.859 101.177 102.087 102.889 102.454 101.639 98.054 96.212 97.267 98.117 100.082 100.617 99.354 99.262 99.269 99.302 99.317 99.329 99.359 99.389 99.432 99.459 99.464 99.547 99.392 99.092 98.744 99.664 98.517 98.274 103.439 103.754 102.109 97.682 97.337 96.837 96.549 95.312 95.022 94.604 94.129 93.887 93.922 94.019 94.094 94.167 94.209 94.284 95.587 97.204 97.217 97.614 98.014 98.757 98.952 102.054 101.389 100.057 98.064 98.059 97.379 97.359 99.962 98.724 98.259 98.352 98.344 99.124 98.639 98.362 98.879 98.644 98.729 98.847 98.922 99.064 99.117 99.184 99.224 99.242 99.344 104.107 99.259 99.264 99.817 99.974 100.314 103.609 103.127 100.619 100.129 100.174 100.332 102.269 101.962 103.462 101.202 100.802 101.462 101.362 101.609 101.777 103.514 101.982 102.147 102.697 102.744 102.889 103.057 104.207 103.944 103.987 105.957 104.467 104.569 105.592 105.429 105.092 105.244 105.012 105.567 106.392 106.092 106.644 106.849 106.659 106.697 106.849 106.969 106.677 106.032 106.247 107.42 107.702 107.58 107.41 107.39 107.63 107.59 107.565 107.56 107.67 108.52 107.74 107.937 107.852 107.862 107.872 109.01 109.26 107.827 108.287 107.845 107.885 108.015 109.342 109.27 108.147 108.182 108.22 108.21 108.172 108.14 108.245 108.267 108.325 108.372 108.44 108.47 108.557 108.632 108.711 108.784 108.867 108.956 109.043 109.138 109.247 109.32 109.408 109.479 109.571 109.634 109.775 109.865 109.955 110.002 110.113 110.156 110.263 110.265 110.399 110.475 110.531 110.617 110.65 110.703 110.788 110.824 110.871 110.904 110.969 111.075 111.173 112.376 112.731 112.05
82.809 81.531 81.444 81.421 84.631 87.519 88.274 88.519 88.676 88.156 87.391 83.779 81.424 81.446 81.454 81.439 85.806 86.719 81.179 81.109 81.124 81.069 80.956 80.851 80.756 80.691 80.649 80.576 80.459 80.511 80.439 80.324 80.311 80.166 80.189 80.231 80.264 80.424 80.619 80.709 80.756 81.964 86.344 86.849 87.571 87.741 87.034 85.596 80.846 80.839 80.801 81.436 80.869 80.899 82.729 86.424 87.006 87.601 87.709 80.666 80.684 79.611 79.439 79.244 78.969 78.881 78.921 78.921 78.874 78.921 78.824 78.704 79.079 78.901 78.946 78.726 78.649 78.584 79.511 84.444 85.474 85.257 84.234 78.434 78.459 78.432 78.427 78.359 78.369 78.239 77.657 77.229 77.232 77.197 77.139 77.164 77.222 77.254 77.169 77.239 77.294 77.299 77.357 77.427 77.439 77.489 77.594 77.689 77.789 77.887 77.944 78.022 78.064 78.122 78.144 78.234 78.294 78.357 78.402 78.479 78.594 78.702 78.842 79.002 79.117 79.419 79.359 79.379 81.477 81.132 79.447 79.422 79.562 79.739 79.909 80.107 80.299 80.469 80.647 80.832 81.059 82.937 81.932 82.194 83.652 83.337 88.479 89.307 90.089 89.574 83.872 84.674 84.954 84.837 84.907 84.952 84.932 84.959 85.032 85.114 85.207 85.324 85.432 85.682 86.422 86.804 86.804 87.429 87.627 87.647 87.654 91.489 95.614 94.982 94.162 90.087 91.299 89.832 90.084 90.277 91.214 91.059 91.544 91.619 91.814 92.324 92.869 93.269 93.737 96.389 94.012 93.722 94.487 95.224 95.187 95.332 95.674 95.777 100.619 102.054 102.877 102.444 101.639 98.402 96.552 96.749 97.447 101.107 99.234 99.462 99.414 99.339 99.367 99.422 99.437 99.464 99.472 99.509 99.532 99.557 99.584 99.602 99.694 99.537 99.104 98.764 98.729 99.907 104.487 104.552 103.742 102.339 97.749 97.354 96.874 96.554 95.459 95.019 94.577 94.122 94.074 94.154 94.239 94.317 94.377 94.424 94.542 95.012 97.049 97.322 97.584 97.849 98.029 99.027 98.189 98.599 98.084 98.092 97.329 97.322 98.934 98.032 97.989 98.149 99.012 98.149 98.209 98.354 99.382 98.592 98.737 98.827 98.904 98.994 99.869 100.004 99.182 99.162 105.049 106.194 107.064 100.957 99.229 99.519 99.782 101.099 99.887 99.934 101.092 100.142 100.179 100.239 102.032 103.017 101.129 100.737 102.319 101.404 101.524 101.752 102.099 102.047 102.367 102.692 102.829 102.892 103.244 104.044 104.287 104.407 104.629 104.772 104.709 105.127 105.332 105.294 105.439 106.244 106.027 106.467 106.459 106.617 107.789 106.997 106.962 107.089 107.364 106.779 106.004 106.094 107.917 107.82 107.592 107.457 107.522 107.725 107.722 107.71 107.7 107.84 108.132 109.985 108.8 107.97 108.225 108.035 109.855 108.565 108.215 108.087 108.05 108.032 108.15 112.535 110.25 109.457 108.327 108.352 108.302 108.267 108.34 108.637 108.555 108.832 108.772 109.607 109.22 108.782 109.145 108.91 108.908 108.948 109.005 109.095 109.173 109.295 109.378 109.445 109.527 109.576 109.687 109.746 109.847 109.942 110.013 110.098 110.18 110.226 110.311 110.357 110.39 110.491 110.576 110.632 110.708 110.788 110.901 111.977 111.011 111.095 111.637 112.633 112.278 112.202 112.472
81.579 81.661 81.424 81.391 81.376 86.254 87.414 86.741 87.889 88.636 88.241 87.479 85.854 81.401 81.341 81.324 86.584 86.511 80.999 81.046 81.036 80.989 80.954 80.901 80.851 80.644 80.549 80.489 80.394 80.311 80.221 80.154 80.096 80.066 80.089 80.121 80.316 81.289 80.586 80.689 80.744 84.904 86.746 87.459 87.884 87.161 86.431 80.996 80.854 80.781 80.756 80.906 80.891 80.911 80.889 81.024 86.296 86.911 82.346 80.616 79.859 79.431 79.279 79.006 78.806 78.849 78.851 78.829 78.816 78.834 78.714 78.784 78.701 78.699 78.671 78.674 78.661 78.531 83.574 84.949 85.737 84.737 79.212 78.717 78.457 78.492 78.417 78.307 78.302 77.794 77.279 77.257 77.224 77.172 77.172 77.214 77.242 77.144 77.197 77.244 77.284 77.327 77.409 77.497 77.502 77.542 77.637 77.709 77.784 77.892 77.977 78.039 78.114 78.169 78.224 78.289 78.332 78.397 78.457 78.527 78.649 78.772 78.882 79.104 79.152 79.319 79.597 79.467 79.399 79.404 82.152 81.744 79.637 79.677 79.837 80.009 80.222 80.394 80.579 80.784 81.242 82.209 82.504 83.269 83.127 88.147 89.277 90.059 89.599 88.759 84.327 84.857 85.022 84.927 84.992 85.014 84.967 84.999 85.074 85.184 85.312 85.467 85.617 85.754 86.007 86.562 87.339 87.582 87.582 87.627 87.794 94.092 94.902 95.632 95.039 95.094 90.579 89.632 89.992 90.882 91.122 91.264 91.567 91.782 91.804 92.349 92.854 92.937 93.467 93.687 93.722 94.522 95.097 95.094 95.234 95.632 95.824 100.952 102.024 102.832 102.457 101.644 96.724 96.492 96.864 97.094 98.807 98.254 98.707 99.302 99.519 99.484 99.444 99.484 99.532 99.539 99.577 99.607 99.637 99.647 99.679 99.719 100.252 99.752 99.092 98.769 99.017 102.322 103.679 104.489 104.574 103.764 102.117 97.849 97.354 96.879 96.564 95.624 94.927 94.462 94.334 94.277 94.367 94.449 94.524 94.752 94.657 94.797 94.934 96.139 97.382 97.662 97.807 97.952 97.984 98.032 98.742 98.059 97.282 97.302 97.694 98.162 97.889 98.422 98.022 98.047 98.107 98.262 98.434 98.612 98.744 98.809 98.937 98.987 99.439 99.014 99.212 102.424 105.784 106.892 106.394 105.239 99.877 99.412 100.539 99.777 100.374 99.812 99.882 100.084 100.132 100.182 100.369 102.554 100.657 100.704 102.184 101.399 101.472 101.579 102.074 102.167 102.647 102.829 102.859 102.944 103.394 104.292 104.597 104.334 104.922 104.707 104.879 105.092 105.584 105.837 112.787 111.604 106.542 106.557 106.612 106.709 107.994 107.082 107.187 107.307 107.554 108.579 109.212 109.222 107.89 108.177 107.832 107.88 107.892 108.11 108.2 108.162 108.112 108.205 109.147 108.67 108.68 108.36 108.532 108.572 108.3 108.62 108.595 108.287 108.772 109.785 113.742 112.407 115.342 112.57 108.467 108.475 108.47 108.462 108.485 108.987 108.707 109.275 108.932 108.9 108.905 109.11 109.017 109.255 109.475 109.201 109.43 109.372 109.48 109.999 109.91 109.823 109.926 109.842 109.839 109.933 110.09 110.447 110.677 111.104 110.358 110.498 110.536 110.496 110.794 110.901 110.897 111.639 111.326 111.868 111.679 113.611 111.711 111.271 111.45 112.559 112.275 112.295 112.456
81.069 81.229 81.331 81.301 81.351 81.351 81.391 82.906 87.034 87.781 88.551 88.334 87.576 85.761 81.381 81.156 82.619 81.344 80.971 81.279 82.059 81.129 81.549 80.966 80.806 80.641 81.591 80.336 80.304 80.229 80.134 80.074 80.011 79.974 79.991 80.184 81.204 80.739 80.411 80.404 80.551 80.714 86.271 87.899 87.286 86.574 81.951 80.956 80.744 80.691 80.821 80.951 80.719 80.854 80.881 80.826 80.851 83.211 80.621 80.336 79.364 79.304 79.024 78.734 78.779 78.799 78.766 78.721 78.764 78.734 78.611 78.771 78.616 78.649 78.634 78.619 78.566 79.291 84.429 85.464 85.257 84.214 78.517 78.462 78.442 78.424 78.409 78.374 77.972 77.329 77.319 77.267 77.212 77.209 77.214 77.254 77.144 77.124 77.189 77.209 77.267 77.342 77.439 77.484 77.542 77.594 77.639 77.712 77.812 77.887 77.994 78.042 78.124 78.187 78.259 78.329 78.374 78.427 78.482 78.577 78.697 78.837 78.932 78.999 79.162 79.274 79.419 79.742 79.429 81.887 82.224 82.147 81.717 79.684 79.789 79.949 80.127 80.324 80.574 81.104 81.604 81.784 83.444 83.137 87.854 89.234 90.079 89.634 88.787 84.109 83.219 84.982 85.069 84.994 85.052 85.057 85.002 85.052 85.232 85.359 85.489 85.557 85.767 85.952 86.089 86.369 88.157 87.329 87.457 87.867 88.379 89.152 94.049 94.927 96.519 95.924 95.092 91.347 90.244 91.464 91.002 91.262 91.562 91.959 92.372 92.509 92.667 93.109 93.422 93.522 94.317 95.197 95.052 95.102 95.497 95.849 101.184 102.017 102.844 102.457 101.654 97.372 96.082 96.712 97.132 97.499 98.164 98.129 98.399 99.172 99.612 99.634 99.579 99.539 99.594 99.632 99.662 99.699 99.719 99.737 99.772 99.809 100.879 99.829 98.957 98.742 100.139 98.317 102.229 103.689 104.479 104.587 103.777 102.849 97.642 97.359 96.942 96.529 95.394 94.674 94.474 94.544 94.477 94.574 94.647 96.137 94.834 94.884 95.032 95.199 95.337 96.589 97.874 97.799 97.912 97.962 98.014 97.992 97.307 97.252 97.272 99.774 97.707 97.764 97.797 97.919 98.114 98.289 98.479 98.632 98.734 98.759 98.899 99.609 98.957 99.002 99.072 105.364 106.837 106.944 105.679 101.972 99.192 99.917 101.779 100.037 102.147 101.362 99.869 100.442 100.144 100.547 100.534 102.132 100.609 100.654 100.757 101.422 101.469 101.647 102.437 102.229 102.354 103.284 102.912 103.004 103.387 104.189 104.357 104.432 104.709 105.072 105.019 105.387 106.147 105.767 106.272 109.604 107.669 106.689 106.764 106.864 107.877 107.284 107.394 107.539 107.599 108.274 108.032 107.987 108.305 108.195 107.997 108.07 108.07 108.21 108.915 108.285 108.255 108.29 108.582 108.605 108.665 109.075 109.172 110.097 110.945 109.977 109.102 109.54 110.065 109.77 110.302 111.517 111.81 111.89 108.632 108.59 108.63 108.617 108.602 108.622 108.687 109.457 108.865 108.902 108.947 109.122 109.297 109.392 109.747 109.462 109.875 109.696 109.793 109.839 109.951 109.991 110.016 110.152 110.227 110.195 110.417 110.559 110.689 111.939 110.668 110.978 110.685 110.778 110.824 110.853 111.428 113.002 111.803 111.619 111.809 112.866 111.805 111.426 112.272 112.466 112.241 112.398 112.389
81.029 81.086 81.231 81.234 81.299 81.341 81.314 81.379 83.029 86.524 87.681 88.426 88.459 87.701 81.334 81.019 80.889 80.871 80.909 81.534 81.066 81.779 80.874 80.776 80.764 81.329 80.574 80.361 80.156 80.119 80.044 79.971 79.911 79.861 79.944 80.261 80.279 80.364 80.394 80.336 80.256 81.196 80.711 83.961 86.711 83.519 81.361 80.776 80.661 80.611 80.551 80.589 80.629 80.751 80.871 80.794 80.761 80.649 80.496 79.284 79.214 79.059 78.759 78.706 78.729 78.724 78.664 78.674 78.566 78.541 78.649 79.134 81.336 78.581 78.566 78.506 79.766 83.529 84.951 85.744 84.732 79.887 78.449 78.434 78.419 78.409 78.297 78.247 77.469 77.354 77.309 77.264 77.209 77.242 77.279 77.417 77.154 77.149 77.159 77.229 77.287 77.352 77.449 77.489 77.572 77.604 77.649 77.747 77.857 77.924 77.979 78.039 78.139 78.207 78.264 78.362 78.399 78.457 78.559 78.637 78.729 78.882 78.957 79.049 79.147 79.264 79.347 79.462 79.607 79.479 82.257 82.212 82.147 81.902 79.794 79.902 80.092 80.344 80.862 81.562 81.929 82.027 82.167 88.204 89.227 90.052 89.644 88.829 84.437 83.192 83.384 85.117 85.087 85.052 85.092 85.074 85.067 85.214 85.447 85.687 85.784 85.864 85.894 86.082 86.287 86.947 86.704 87.124 87.852 88.234 88.417 88.457 88.799 94.382 95.767 96.504 95.987 95.262 92.617 90.552 90.772 91.077 91.604 92.109 92.609 92.772 92.809 93.217 93.337 93.529 94.309 95.284 95.139 95.509 95.804 100.564 102.019 102.839 102.479 101.657 98.062 96.202 96.864 96.909 97.407 97.892 97.957 98.202 98.729 99.334 99.677 99.782 99.719 99.652 99.622 99.682 99.732 99.777 99.809 99.799 99.857 99.884 99.919 100.029 99.797 99.422 98.739 98.704 99.232 101.894 103.657 104.469 104.609 103.802 102.547 97.647 97.219 96.969 95.654 94.969 94.564 94.657 94.704 94.684 94.779 95.187 94.979 95.054 95.102 95.267 95.439 95.609 95.789 96.052 96.267 97.042 97.197 97.252 97.294 97.159 97.239 97.392 97.497 97.584 97.787 97.974 98.119 98.302 98.469 98.647 98.762 98.824 98.922 99.797 98.959 99.032 103.689 106.077 107.059 106.089 103.912 99.187 99.174 99.259 100.234 99.994 99.754 102.089 101.667 99.974 100.237 100.389 100.994 100.829 102.017 100.624 100.809 102.387 101.772 101.884 102.159 102.324 102.454 104.269 102.989 103.164 103.367 104.392 104.519 104.564 104.734 105.057 105.194 105.734 106.472 106.059 106.254 106.324 107.839 106.834 106.912 107.027 107.969 109.087 107.907 107.779 107.872 108.784 108.614 108.694 108.547 108.3 108.152 108.237 108.26 108.307 108.337 108.37 108.37 108.4 108.617 108.532 108.74 108.637 108.68 108.8 111.395 115.34 114.647 113.477 111.68 109.94 109.292 109.192 110.467 108.727 108.765 108.71 108.71 108.752 108.72 108.785 108.87 108.947 110.21 108.962 109.3 109.817 109.565 109.612 109.61 109.665 110.032 109.968 109.963 109.982 110.44 110.168 110.154 110.445 110.97 110.917 110.999 110.685 110.636 111.975 110.91 110.805 110.722 110.893 111.768 111.207 111.374 111.64 111.46 111.857 112.441 112.78 111.709 111.741 111.995 112.238 112.305 112.192 112.896
