ncols 429
nrows 32
xllcorner    429108
yllcorner    434446
cellsize     2
NODATA_value -9999
82.099 81.909 81.802 81.632 81.52 81.388 81.305 81.216 81.135 80.98 87.337 92.115 94.935 91.685 84.541 80.287 80.24 80.321 80.291 80.159 80.129 80.011 79.932 79.874 79.879 79.78 79.739 79.648 79.577 79.529 79.393 79.316 79.137 78.942 78.721 78.562 78.359 78.415 78.686 79.079 78.778 78.459 79.53 80.502 81.222 80.871 78.609 79.925 79.219 78.536 78.173 78.842 78.446 78.245 78.086 77.914 78.023 77.661 77.569 77.323 77.072 77.03 76.991 76.785 76.675 76.69 76.684 79.345 77.945 77.558 83.198 81.525 76.412 75.633 76.691 78.044 77.134 76.172 75.365 75.079 75.03 75.02 74.838 74.854 75.248 78.099 81.653 81.206 81.569 85.36 77.646 74.592 73.891 74.103 74.108 73.475 73.802 74.083 73.689 76.792 80.413 80.31 79.891 76.858 74.229 73.826 74.059 74.463 74.496 74.543 74.74 74.768 74.773 74.802 74.772 74.706 74.598 74.412 74.257 74.131 73.929 73.744 73.712 74.491 74.7 73.644 73.645 73.67 73.66 73.708 73.804 73.977 74.339 74.709 74.803 74.781 74.858 74.794 74.727 74.52 73.952 73.386 72.815 72.325 72.015 72.536 81.723 88.316 89.229 89.818 90.348 90.345 90.566 91.704 93.569 96.013 96.265 94.812 91.929 91.607 89.786 90.173 89.569 89.461 89.424 85.166 77.486 74.191 74.159 74.139 74.061 74.001 73.911 73.759 73.634 73.531 73.449 73.341 73.241 73.081 72.964 72.791 72.581 72.331 72.264 82.549 83.266 83.281 83.306 83.326 83.319 83.331 83.346 83.354 83.359 83.376 83.401 83.401 83.409 79.019 77.946 77.944 70.331 70.719 70.284 70.259 70.184 70.124 70.019 69.946 69.854 69.819 69.831 69.816 69.801 69.789 69.751 69.721 69.711 69.704 69.676 69.679 69.659 69.646 69.616 69.586 69.584 69.579 69.549 69.534 69.489 69.476 69.764 71.464 69.796 70.366 70.654 69.609 70.084 69.239 69.206 69.199 69.176 69.179 69.199 71.296 70.891 78.731 78.551 78.771 78.771 78.781 78.771 78.769 78.749 78.564 78.926 79.001 78.954 78.979 78.961 78.994 79.016 78.979 78.976 78.954 78.961 78.949 78.911 78.754 78.661 78.739 70.759 70.769 70.766 78.154 78.156 78.144 78.139 78.161 78.154 78.146 77.064 70.709 69.544 68.736 68.771 68.801 69.554 69.221 69.284 69.334 70.244 69.394 69.476 69.561 69.517 69.467 70.282 72.072 78.782 79.489 80.092 80.707 81.082 80.579 80.017 79.422 78.259 76.114 71.047 69.477 69.427 69.304 69.304 69.207 69.087 69.049 69.034 69.024 68.977 68.934 68.889 68.854 68.807 68.764 68.737 68.694 68.634 68.687 72.017 90.137 94.949 84.442 80.197 81.942 83.694 85.079 83.409 81.632 79.954 78.399 79.567 76.497 71.797 69.672 68.677 85.799 86.864 86.902 86.922 86.919 87.027 87.072 87.117 87.182 73.504 68.462 68.444 68.434 68.449 68.494 68.547 68.629 68.712 68.869 68.884 68.889 68.897 68.927 70.242 87.047 92.514 89.822 94.167 94.114 94.004 93.894 93.802 68.949 68.934 69.374 72.084 64.352 64.267 64.262 64.279 64.297 64.312 64.469 67.897 67.807 67.857 67.909 67.962 68.002 68.014 67.989 67.949 68.062 68.099 68.139 68.694 72.002 69.897 69.999 70.084 69.977 69.567 68.967 68.514 67.914 67.367 66.569 66.272 66.139 66.107 66.064 66.039 65.999 65.957 65.902 65.834 65.774 65.719 65.677 65.644 65.607 65.569
82.1 81.959 81.793 81.665 81.507 81.373 81.214 81.039 80.933 81.325 84.183 91.182 90.561 88.639 82.649 80.196 80.192 80.207 80.074 80.075 79.964 79.931 79.835 79.738 79.708 79.647 79.615 79.545 79.54 79.474 79.357 79.253 79.124 78.993 78.824 78.706 78.509 78.39 78.353 78.356 78.094 78.122 79.243 80.889 82.47 83.738 82.93 81.054 79.025 78.145 78.132 78.394 -9999 78.138 77.931 77.721 77.609 77.564 77.251 76.975 76.932 76.784 76.65 76.564 76.558 76.532 76.803 77.186 76.458 76.981 78.785 76.899 75.981 75.511 75.15 75.484 75.755 75.656 75.158 74.918 74.893 74.859 74.749 74.576 74.766 78.165 83.554 81.976 76.742 80.095 78.135 75.065 74.261 74.564 74.517 74.155 73.584 72.959 72.774 73.957 75.935 75.551 79.199 75.731 73.421 73.516 73.963 74.11 74.122 74.439 74.496 74.543 74.498 74.52 74.574 74.585 74.477 74.324 74.085 73.884 73.721 73.655 73.605 73.505 73.596 73.607 73.609 73.604 73.631 73.624 73.667 73.934 74.448 74.879 74.819 74.748 74.742 74.652 74.541 74.248 73.666 73.211 72.685 72.323 72.23 72.669 80.62 88.092 89.365 89.929 91.695 91.793 90.276 91.467 92.848 95.662 96.007 94.904 91.657 90.961 90.402 91.941 89.578 89.612 89.351 85.215 76.295 74.188 74.135 74.127 74.056 73.946 73.876 73.774 73.594 73.489 73.434 73.329 73.181 73.024 72.906 72.799 72.604 72.359 72.264 82.766 82.771 82.796 82.831 82.839 82.869 82.899 82.924 82.901 82.941 82.966 82.971 82.991 82.996 79.181 77.946 78.091 70.341 70.401 70.291 70.251 71.341 70.896 70.019 71.214 69.801 70.774 70.839 70.581 70.731 70.471 70.111 69.859 69.859 69.784 69.654 69.606 69.606 69.594 69.561 69.551 69.519 69.516 69.494 69.499 69.474 69.464 69.459 69.426 69.401 69.369 69.344 69.314 69.299 69.286 69.246 69.236 69.211 69.126 69.196 71.299 71.686 78.729 78.524 78.746 78.769 78.771 78.771 78.754 78.764 78.526 78.919 78.959 78.959 78.949 78.991 78.986 79.016 79.001 78.994 78.976 78.961 78.951 78.944 78.779 78.654 78.741 72.019 70.756 70.766 77.531 78.151 78.134 78.146 78.154 78.139 78.141 78.144 70.396 69.246 68.519 68.566 68.596 69.201 68.991 69.076 69.161 69.191 69.281 69.359 69.446 69.404 69.444 69.697 69.689 68.817 78.704 79.294 79.879 80.469 81.044 80.767 80.949 79.019 78.414 76.639 70.117 69.457 69.309 69.267 69.309 69.082 68.979 68.944 68.924 68.912 68.872 68.839 68.794 68.762 68.712 68.652 68.589 68.584 68.684 69.209 81.259 91.324 80.902 81.742 83.479 85.084 83.634 81.794 80.099 78.507 72.984 74.874 71.219 70.224 69.314 83.144 86.544 86.597 86.629 86.602 86.704 86.749 85.469 84.432 79.317 68.452 68.452 68.432 68.437 68.477 68.522 68.577 68.662 68.842 68.894 68.902 68.899 68.862 68.907 68.927 88.159 94.199 87.342 93.992 93.869 93.769 93.669 93.569 80.287 68.954 68.934 68.912 64.634 64.094 64.117 64.129 64.152 64.162 64.234 64.889 67.879 67.824 67.884 67.949 68.012 68.019 68.022 67.982 67.962 68.052 68.114 68.184 68.782 69.372 69.837 70.014 70.004 69.929 69.517 68.954 68.359 67.832 67.089 66.532 66.302 66.142 66.092 66.034 66.007 65.952 65.904 65.832 65.759 65.727 65.709 65.662 65.642 65.594
82.115 81.941 81.736 81.651 81.477 81.34 81.138 81.014 80.893 81.112 83.17 89.029 86.442 80.56 80.233 80.131 80.141 80.073 79.972 79.893 79.837 79.798 79.644 79.667 79.608 79.552 79.461 79.424 79.418 79.347 79.296 79.196 79.075 78.991 78.868 78.812 78.574 78.4 78.228 78.082 77.993 78.051 78.96 80.195 84.535 86.918 87.773 85.512 82.214 80.608 78.445 77.76 78.141 78.256 78.095 77.843 77.62 77.227 76.901 76.86 76.72 76.385 76.329 76.435 76.333 76.163 77.612 77.951 78.134 79.224 80.449 76.876 76.072 75.402 75.027 75.215 75.339 75.334 75.022 74.881 74.714 74.585 74.538 74.425 74.454 76.472 82.131 82.186 76.851 75.204 76.215 75.199 75.233 75.108 74.715 73.87 72.896 72.882 72.776 72.642 72.85 73.601 75.556 73.182 72.882 73.24 73.553 73.719 73.831 73.726 73.634 74.032 74.301 74.218 74.263 74.285 74.063 73.842 73.634 73.449 73.39 73.326 73.307 73.351 73.435 73.452 73.503 73.545 73.536 73.558 73.604 73.884 74.591 74.863 74.784 74.704 74.637 74.532 74.378 73.904 73.488 73.07 72.62 72.287 72.275 74.884 83.51 87.455 89.291 89.665 91.033 91.672 90.996 90.871 92.42 95.513 95.786 94.638 90.81 89.68 90.035 91.146 89.882 89.49 89.397 85.327 79.038 74.2 74.123 74.127 74.045 73.96 73.861 73.756 73.574 73.506 73.391 73.254 73.169 73.009 72.909 72.764 72.601 72.371 72.774 83.006 82.989 82.966 82.959 82.934 82.909 78.684 78.614 78.666 78.624 78.591 78.596 79.381 80.644 78.041 77.941 70.664 70.409 70.411 70.464 70.294 70.766 70.886 70.029 70.611 69.684 69.664 69.746 69.736 69.764 69.794 69.811 69.941 70.434 70.414 70.116 69.789 73.749 76.734 71.471 70.774 70.431 69.561 69.519 69.481 69.444 69.411 69.371 69.334 69.324 69.296 69.274 69.261 69.244 69.226 69.211 69.196 69.174 69.099 69.191 71.291 71.811 78.721 78.494 78.769 78.774 78.786 78.791 78.779 78.789 78.516 78.981 78.979 78.974 78.986 79.001 78.996 78.986 78.984 78.979 78.984 78.986 78.981 78.969 78.744 78.624 78.736 70.806 70.796 70.804 77.484 78.369 78.339 78.396 78.264 78.289 78.474 78.304 71.631 69.161 68.326 68.384 68.404 69.066 68.784 68.891 68.979 69.069 69.139 69.216 69.321 69.222 69.362 69.682 69.984 69.782 73.224 77.962 79.064 79.637 80.252 80.527 80.364 79.809 79.214 78.634 77.714 71.914 68.544 69.189 69.172 69.392 68.952 68.844 68.842 68.834 68.912 68.777 68.749 68.712 68.667 68.592 68.514 68.499 68.689 68.642 68.647 75.359 81.502 83.269 85.027 83.882 82.069 80.342 78.694 70.717 69.064 69.137 69.452 68.527 80.229 86.219 86.264 86.319 86.342 86.392 86.432 85.647 84.387 78.949 68.462 68.442 68.429 68.447 68.457 68.497 68.549 68.637 68.842 68.927 68.899 68.902 68.882 68.894 68.884 68.907 74.622 93.099 91.339 87.907 93.612 93.557 93.454 93.367 91.169 68.947 68.939 68.919 68.214 63.997 63.959 63.977 63.992 64.017 64.042 64.237 67.922 67.822 67.869 67.934 68.002 68.034 68.047 68.029 67.999 67.974 68.029 68.112 68.187 68.782 69.462 69.832 70.224 70.534 69.909 69.502 68.887 68.279 67.559 66.999 66.517 66.262 66.137 66.032 65.997 65.947 65.879 65.814 65.762 65.719 65.707 65.684 65.662 65.602
82.09 81.926 81.732 81.602 81.505 81.267 81.11 80.968 80.819 80.774 80.624 80.509 80.44 80.325 80.214 80.053 80.023 79.985 79.92 79.839 79.709 79.634 79.544 79.529 79.469 79.427 79.32 79.259 79.29 79.172 79.159 79.073 78.99 78.895 78.817 78.745 78.572 78.4 78.265 78.166 78.027 77.952 78.386 80.515 83.033 86.985 91.899 86.066 84.705 90.445 78.669 77.871 78.017 78.381 78.363 77.781 77.291 76.987 76.825 76.697 76.351 76.422 76.299 76.169 75.986 75.968 76.147 76.589 78.779 81.509 81.58 80.285 76.174 75.495 75.266 75.04 74.956 75.22 75.049 74.838 74.558 74.418 74.345 74.063 74.148 76.558 78.659 77.696 74.71 74.333 75.031 75.457 75.369 74.836 73.615 72.921 72.836 72.769 72.593 72.653 72.594 72.577 72.495 72.546 72.674 72.842 73.044 73.069 73.044 72.939 72.796 73.438 73.969 74.743 73.647 73.558 73.428 73.264 73.191 73.149 73.094 73.081 73.115 73.195 73.254 73.292 73.399 73.426 73.428 73.513 73.629 73.981 74.384 74.377 74.264 74.181 74.261 74.434 74.177 73.72 73.234 72.914 72.562 72.253 71.92 74.611 82.086 86.261 89.098 89.618 90.056 90.153 90.587 91.098 92.865 95.459 95.666 94.992 90.887 90.057 90.492 90.368 89.561 89.414 89.273 85.064 77.451 74.264 74.132 74.076 74.05 73.941 73.827 73.709 73.536 73.449 73.336 73.261 73.131 72.994 72.854 72.739 72.579 72.366 75.061 83.404 83.396 83.381 83.374 83.351 83.346 78.571 78.969 78.684 79.124 78.974 80.314 80.346 81.261 81.356 80.371 79.079 70.201 70.136 70.014 69.846 69.716 69.809 69.659 69.781 69.526 69.571 69.639 69.669 69.691 69.714 69.774 69.801 69.841 69.849 69.844 70.089 74.231 80.056 81.044 81.876 80.926 79.914 76.399 73.514 69.919 70.659 70.344 70.666 69.416 69.466 69.386 69.261 69.216 69.176 69.136 69.131 69.161 69.226 67.926 71.014 75.476 78.079 78.046 78.074 78.084 78.129 78.134 78.149 78.199 78.204 78.256 78.279 78.299 78.324 78.296 78.324 78.331 78.299 78.321 78.289 78.324 78.334 78.354 78.346 78.354 78.386 72.306 70.806 70.826 74.521 74.494 74.471 74.454 74.454 74.811 74.501 74.464 71.416 70.126 68.129 68.191 68.214 68.911 68.549 68.686 68.809 68.896 68.984 69.066 69.189 69.104 69.577 71.572 69.907 69.869 75.769 71.682 74.259 78.839 79.344 79.394 79.762 80.327 80.044 79.464 81.829 81.169 79.347 73.612 69.179 69.047 68.874 68.787 68.757 68.744 68.742 68.737 68.699 68.664 68.627 68.559 68.469 68.407 68.387 68.687 70.909 68.662 72.444 84.802 84.102 82.352 80.582 78.872 73.074 69.414 69.054 69.059 68.459 77.217 79.569 85.929 85.977 86.019 86.089 86.102 85.632 84.579 84.594 68.479 68.457 68.427 68.447 68.472 68.482 68.512 68.549 68.784 68.894 68.917 68.894 68.887 68.877 68.899 68.862 68.904 68.909 80.954 88.252 92.582 93.442 93.314 93.232 93.119 92.689 81.317 68.942 69.094 71.392 64.114 63.807 63.824 63.852 63.867 63.892 64.027 65.014 67.889 67.854 67.907 67.992 68.102 68.069 68.059 68.034 68.014 67.977 67.964 68.084 68.224 68.714 69.777 69.784 69.939 69.977 69.884 69.457 68.814 68.317 67.584 66.994 66.539 66.254 66.112 65.984 65.927 65.842 65.822 65.774 65.737 65.729 65.684 65.654 65.589
82.026 81.907 81.784 81.553 81.429 81.254 81.115 80.9 80.786 80.648 80.54 80.469 80.362 80.316 80.194 79.984 79.902 79.864 79.802 79.724 79.642 79.554 79.494 79.443 79.361 79.297 79.218 79.198 79.134 79.012 78.963 78.911 78.866 78.791 78.706 78.615 78.506 78.435 78.306 78.166 78.047 77.923 78.001 81.983 84.286 86.73 89.796 88.279 93.355 91.69 78.095 77.848 77.781 78.264 78.203 77.413 77.178 76.881 76.621 76.395 76.383 76.266 76.097 76.028 75.976 75.885 76.661 82.766 83.75 80.782 78.927 77.422 76.203 75.423 75.133 75.051 75.067 74.99 75.019 74.797 74.592 74.325 74.087 74.091 74.401 77.601 81.771 78.398 75.041 74.232 74.752 75.254 74.084 73.357 72.767 72.715 72.727 72.517 72.658 72.755 72.968 72.635 72.658 72.494 72.367 72.525 72.642 72.63 72.641 72.294 71.758 72.264 73.028 73.115 73.125 73.088 73.006 72.861 72.902 72.848 72.833 72.919 72.984 73.052 73.096 73.164 73.26 73.37 73.415 73.459 73.476 73.664 73.771 73.659 73.537 73.401 73.714 74.112 73.96 73.523 73.123 72.772 72.438 72.172 71.97 73.038 77.447 79.564 83.9 88.406 89.876 90.555 90.223 90.283 91.228 95.313 95.692 94.909 90.3 90.395 90.091 90.311 89.431 87.015 82.565 79.574 74.467 74.281 74.117 74.064 74.006 73.914 73.775 73.63 73.445 73.344 73.254 73.194 73.106 72.924 72.789 72.664 72.519 72.359 76.081 83.604 83.599 83.586 83.579 83.566 83.576 78.574 78.654 79.141 79.134 79.054 80.649 80.709 81.311 80.309 80.154 79.044 70.176 70.144 69.941 69.941 69.664 69.626 69.536 69.486 69.391 69.486 69.529 69.551 69.604 69.599 69.641 69.704 69.799 69.899 69.931 70.589 76.721 80.166 81.124 81.861 80.859 80.076 74.191 70.836 69.431 69.506 69.744 69.439 69.376 69.334 69.349 69.344 69.244 69.266 69.144 69.086 69.054 68.419 67.771 71.064 72.854 78.714 78.714 78.719 78.719 78.719 78.721 78.726 78.714 78.721 78.709 78.716 78.724 78.724 78.714 78.711 78.719 78.721 78.724 78.726 78.729 78.734 78.726 78.734 78.744 78.746 70.871 70.804 70.826 74.499 74.456 74.431 74.441 74.439 74.829 74.466 74.466 70.946 70.146 67.949 67.971 67.979 68.681 68.349 68.484 68.601 68.939 68.864 68.981 69.101 68.907 70.232 75.037 74.909 69.789 69.347 69.282 69.209 68.727 74.714 78.362 79.747 79.562 80.197 82.424 82.577 81.944 81.354 80.364 76.719 69.974 69.184 68.754 68.692 68.647 68.644 68.649 68.632 68.612 68.584 68.534 68.442 68.347 68.324 68.314 72.219 69.577 69.122 72.984 82.544 80.869 79.009 74.227 68.932 69.059 69.029 68.504 73.832 85.692 85.622 85.669 85.709 85.729 85.784 85.824 85.414 84.564 71.552 68.512 68.452 68.462 68.469 68.482 68.482 68.492 68.522 68.549 68.844 68.899 68.902 68.897 68.869 68.894 68.897 68.872 68.904 75.134 85.242 93.172 93.217 93.042 93.019 92.889 92.797 90.984 68.947 68.924 68.912 64.314 63.652 63.682 63.709 63.729 63.772 63.804 63.969 67.972 67.864 67.909 67.989 68.059 68.174 68.112 68.074 68.047 68.019 67.979 67.959 68.147 68.292 68.342 69.189 70.047 69.954 69.932 69.864 69.399 68.884 68.189 67.554 67.057 66.927 68.389 68.232 65.969 65.849 65.817 65.792 65.769 65.764 65.762 65.709 65.687
81.968 81.838 81.692 81.553 81.403 81.18 81.046 80.852 80.699 80.489 80.485 80.367 80.323 80.266 80.109 80.038 79.903 79.805 79.668 79.602 79.55 79.451 79.413 79.352 79.279 79.142 79.095 79.099 78.976 78.924 78.868 78.825 78.785 78.71 78.62 78.505 78.416 78.382 78.252 78.111 78.021 77.928 77.704 78.238 80.928 86.036 87.333 87.934 86.447 77.847 77.45 78.1 77.62 77.913 77.591 77.22 77.106 76.733 76.435 76.36 76.21 76.055 75.967 75.879 75.802 75.819 78.031 87.585 85.331 80.641 78.411 81.021 80.144 75.653 75.267 75.238 75.323 74.897 75.059 74.676 74.678 74.343 74.076 74.068 74.762 77.644 82.654 76.998 74.939 74.054 73.892 73.742 73.085 72.944 72.727 72.703 72.71 72.576 72.694 74.734 74.537 72.592 72.503 72.295 72.161 72.263 72.369 72.477 72.582 72.385 72.123 72.363 72.68 72.698 72.773 72.748 72.704 72.717 72.7 72.726 72.747 72.833 72.902 72.967 73.047 73.12 73.2 73.254 73.311 73.349 73.399 73.436 73.486 73.451 73.424 73.37 73.487 73.728 73.665 73.323 73.013 72.713 72.39 72.148 71.851 71.683 71.718 72.02 72.006 81.802 88.783 88.305 89.025 89.753 90.202 94.99 95.662 95.254 90.585 89.521 89.525 89.509 88.259 76.769 74.89 74.419 74.402 74.153 74.109 74.033 73.97 73.895 73.768 73.595 73.402 73.256 73.201 73.144 73.064 72.894 72.741 72.626 72.491 72.349 75.326 83.599 83.589 83.596 83.594 83.601 83.604 78.571 77.186 78.659 77.994 78.996 79.114 80.216 81.306 81.256 80.129 79.011 70.279 70.006 69.829 69.491 69.449 69.399 69.351 69.316 69.279 69.351 69.391 69.391 69.391 69.459 69.519 69.571 69.671 69.826 69.966 70.304 78.476 80.194 81.191 81.791 80.784 80.039 71.636 69.704 69.381 69.381 69.404 69.336 69.256 69.251 69.241 69.254 71.201 70.544 69.079 68.979 68.669 67.669 67.956 70.859 71.011 76.146 74.636 74.461 74.596 74.476 73.469 75.734 76.701 75.129 73.319 74.141 73.526 73.456 72.569 73.016 75.786 74.656 72.336 71.981 72.484 71.804 72.116 71.741 72.119 71.226 70.801 70.824 70.836 74.506 74.456 74.451 74.451 74.449 74.866 74.461 74.471 70.956 70.076 67.739 67.779 67.784 68.784 68.114 68.306 68.479 68.631 68.759 68.926 68.976 68.829 71.554 75.331 74.836 72.966 73.061 71.896 71.836 68.741 68.621 73.016 78.144 78.746 80.229 83.269 83.361 82.754 82.604 81.629 80.981 77.389 71.679 68.964 68.659 68.606 68.541 68.564 68.556 68.551 68.539 68.519 68.426 68.341 68.251 68.236 68.231 68.226 68.349 68.954 69.729 78.559 80.286 78.361 68.839 68.869 68.451 77.824 85.241 85.291 85.331 85.389 85.389 85.462 85.494 85.542 85.367 70.169 68.454 68.997 69.529 68.464 68.469 68.477 83.662 68.484 68.499 68.529 68.569 68.847 68.902 68.849 68.834 68.779 68.824 68.867 68.889 68.919 85.604 93.107 93.004 92.902 92.784 92.657 92.567 88.564 75.164 68.924 68.909 68.857 63.594 63.537 63.579 63.587 63.624 63.672 63.809 66.344 67.899 67.919 67.987 68.049 68.179 68.222 68.182 68.089 68.054 68.007 67.974 67.967 68.064 68.314 68.274 68.969 69.737 69.877 69.889 69.829 69.489 69.009 69.644 71.179 70.784 66.544 66.109 65.949 65.919 65.849 65.814 65.824 65.854 65.784 65.747 65.747
81.912 81.792 81.656 81.551 81.375 81.229 80.974 80.804 80.611 80.382 80.368 80.329 80.256 80.134 80.077 79.982 79.85 79.807 79.633 79.527 79.418 79.284 79.316 79.19 79.19 79.058 79.006 78.915 78.847 78.81 78.762 78.728 78.647 78.621 78.588 78.451 78.401 78.262 78.23 78.099 78.02 77.893 77.803 77.721 79.03 78.533 81.079 77.565 77.406 77.294 79.269 79.159 79.346 79.675 78.485 77.064 76.699 76.606 76.503 76.235 75.985 76.026 76.006 75.789 75.758 75.709 76.255 84.215 81.25 76.654 85.352 81.638 78.141 75.304 75.086 77.728 76.878 75.451 74.76 74.664 74.664 74.376 74.125 74 73.975 74.863 76.022 75.605 74.363 73.7 73.32 73.014 72.842 72.812 72.741 72.667 72.657 73.082 77.864 82.42 78.498 73.255 72.315 72.205 72.1 72.612 72.653 72.466 72.388 72.254 72.021 72.399 72.463 72.475 72.533 72.665 72.751 72.677 72.662 72.784 72.713 72.726 72.903 72.981 73.036 73.082 73.203 73.238 73.296 73.336 73.384 73.444 73.466 73.429 73.377 73.329 73.317 73.383 73.347 73.078 72.818 72.617 72.373 72.078 71.76 71.667 71.437 71.216 71.07 79.259 85.949 83.661 87.766 89.947 91.641 95.283 95.713 94.628 89.812 89.67 89.479 89.643 88.872 78.167 75.749 74.895 74.598 74.16 74.117 74.024 73.926 73.797 73.678 73.537 73.384 73.261 73.159 73.084 72.819 72.844 72.731 72.594 72.469 72.324 73.489 83.391 83.401 83.404 83.419 83.426 83.436 78.581 78.726 78.654 78.679 79.051 80.401 80.396 81.316 81.224 80.294 79.929 69.951 69.904 69.706 69.509 69.466 69.414 69.336 69.254 69.161 69.214 69.231 69.281 69.334 69.414 69.516 69.534 69.589 69.754 69.881 69.596 79.576 80.329 81.236 81.741 80.719 79.826 70.981 69.621 69.376 69.351 69.326 69.241 69.181 69.161 69.186 69.346 71.529 69.714 68.931 68.664 68.051 67.159 68.196 71.189 70.829 70.814 70.819 70.816 70.811 70.816 70.819 73.376 75.054 71.574 70.811 70.804 70.786 70.801 70.809 70.821 75.071 72.484 70.794 70.794 70.801 70.791 70.786 70.796 70.816 70.809 70.819 70.836 70.844 74.379 74.499 74.464 74.446 74.449 74.871 74.476 74.469 71.111 69.339 67.586 67.606 67.611 67.851 67.869 68.159 68.379 68.521 68.656 68.816 68.841 68.694 73.244 75.521 74.666 73.119 72.896 72.049 72.169 70.346 68.769 68.856 73.481 78.421 81.634 82.334 82.939 83.451 83.971 82.404 81.786 81.224 79.101 73.471 68.781 68.539 68.494 68.479 68.481 68.481 68.484 68.479 68.529 68.349 68.259 68.169 68.174 68.146 68.199 68.424 69.069 69.284 77.481 72.476 68.756 68.294 72.571 84.416 84.956 85.001 85.059 85.032 85.144 85.177 85.227 85.319 71.719 69.124 68.452 68.439 69.294 69.122 69.237 81.672 83.339 80.332 68.482 68.497 68.542 68.607 68.772 68.679 68.714 68.762 68.807 68.824 68.842 68.899 77.944 92.879 87.809 92.669 92.472 92.457 92.344 92.247 92.194 68.917 70.754 70.769 63.537 63.392 63.434 63.467 63.497 63.537 63.604 63.774 68.002 67.917 67.964 68.034 68.109 68.237 68.249 68.184 68.092 68.047 68.012 67.977 67.959 68.014 68.232 68.272 68.384 68.999 69.194 69.489 69.579 70.359 69.734 73.237 70.152 68.717 68.187 66.214 66.047 66.047 65.987 65.967 65.947 65.814 65.744 65.729
81.896 81.739 81.569 81.494 81.317 81.207 80.951 80.82 80.618 80.431 80.278 80.13 80.118 80.058 79.962 79.832 79.793 79.724 79.624 79.494 79.369 79.24 79.116 79.042 79.026 78.897 78.89 78.818 78.774 78.692 78.65 78.659 78.573 78.523 78.417 78.384 78.247 78.226 78.143 77.966 77.929 77.826 77.693 77.474 77.458 77.304 77.276 77.374 77.548 77.497 79.357 81.11 80.776 82.659 80.154 77.403 76.555 76.473 76.277 76.056 76.047 76.053 75.884 75.771 75.687 75.491 75.596 76.699 76.205 76.125 77.76 76.066 75.414 75.178 75.042 76.673 81.207 76.149 74.469 74.324 74.563 74.472 74.033 74.173 74.054 74.252 74.333 73.983 73.519 73.74 73.188 72.869 72.864 72.754 72.677 72.64 72.612 76.27 79.561 86.58 81.601 73.258 72.285 72.197 72.916 74.676 74.484 73.384 72.19 72.175 72.147 72.301 72.377 72.496 72.497 72.573 72.58 72.508 72.198 72.201 72.181 72.3 72.471 72.529 72.575 73.094 73.556 73.672 73.414 73.329 73.381 73.416 73.449 73.422 73.326 73.218 73.164 73.07 73.018 72.813 72.672 72.499 72.314 72.015 71.795 71.57 71.364 71.197 73.91 86.585 89.678 88.096 89.659 91.241 92.163 95.138 94.361 93.252 91.483 91.446 91.353 91.456 90.95 86.622 80.752 80.083 75.063 74.262 74.1 73.992 74.051 73.847 73.661 73.507 73.384 73.261 73.172 73.071 72.964 72.819 72.674 72.591 72.476 72.349 72.229 82.999 82.991 83.014 83.024 83.049 83.061 78.569 78.854 78.651 78.289 78.846 80.564 80.659 81.359 81.209 80.861 81.016 69.801 69.509 69.446 69.359 69.339 69.304 69.261 69.154 69.029 69.026 69.114 69.196 69.229 69.294 69.389 69.466 69.509 69.666 69.789 70.001 79.776 80.364 81.294 81.646 80.704 79.656 69.161 69.374 69.311 69.271 69.231 69.149 69.101 69.079 69.144 69.231 70.494 69.101 68.744 68.379 67.656 67.109 67.011 67.021 67.306 70.836 70.831 71.071 70.819 70.836 70.836 70.971 75.044 71.621 69.716 67.989 67.286 69.141 69.606 70.851 75.059 73.114 71.299 67.064 67.691 67.306 69.684 67.049 70.841 70.851 70.836 70.839 71.154 74.536 74.481 74.464 74.469 74.459 74.746 74.464 74.479 68.166 67.289 67.436 67.486 67.514 67.569 67.784 67.874 68.049 68.311 68.561 68.674 68.616 69.549 74.304 75.486 74.441 73.244 72.754 72.061 71.121 71.109 69.036 69.619 68.786 69.791 80.954 81.924 82.119 82.641 83.154 83.216 82.619 81.571 81.414 80.856 68.631 68.486 68.401 68.404 68.416 68.419 68.401 68.401 68.454 68.386 68.269 68.206 68.134 68.116 68.141 68.239 69.111 70.791 70.641 69.039 68.531 69.224 77.941 84.631 84.681 84.739 84.699 84.817 84.862 84.897 84.964 75.582 68.467 70.527 69.234 68.454 68.464 74.319 83.669 83.317 82.972 82.634 77.034 68.499 68.522 68.562 68.622 68.664 68.689 68.722 68.752 68.779 68.844 68.874 68.919 85.884 82.862 84.092 92.354 92.232 93.434 123.579 134.794 68.914 69.459 70.884 65.419 63.259 63.299 63.322 63.357 63.427 63.419 63.564 66.757 67.932 67.977 68.027 68.094 68.249 68.314 68.329 68.264 68.202 68.047 68.014 67.979 67.967 67.967 68.227 68.389 68.059 68.177 68.724 68.864 68.862 68.604 76.147 71.959 68.887 67.202 66.549 66.314 66.177 66.014 65.907 65.797 65.754 65.722 65.692
81.811 81.674 81.574 81.446 81.308 81.159 80.954 80.813 80.487 80.352 80.231 80.102 80.058 79.899 79.837 79.797 79.699 79.647 79.556 79.438 79.351 79.215 79.09 78.956 78.843 78.799 78.704 78.631 78.629 78.573 78.517 78.494 78.421 78.452 78.333 78.268 78.182 78.141 78.04 77.959 77.843 77.689 77.51 77.406 77.35 77.228 77.301 77.451 77.569 77.619 78.833 80.908 80.546 81.084 78.912 77.227 76.633 76.231 76.11 76.146 75.96 75.784 75.82 75.624 75.453 75.37 75.409 75.348 75.458 75.546 75.408 75.241 75.925 76.323 75.575 75.491 75.691 74.693 74.644 74.227 74.262 74.53 74.449 74.247 73.917 74.132 74.136 73.994 73.551 74.274 74.3 73.257 72.806 72.633 72.638 73.06 73.79 75.57 84.425 82.237 75.96 74.094 72.25 72.179 73.82 76.799 78.863 73.1 72.306 72.163 72.202 72.269 72.335 72.415 72.272 72.251 72.178 72.082 71.952 71.838 71.829 72.095 72.77 72.358 72.225 72.181 72.628 73.151 73.215 73.195 73.093 73.057 73.204 73.399 73.155 73.022 72.975 72.929 72.777 72.695 72.506 72.331 72.188 72.029 71.738 71.54 71.352 71.563 74.385 88.817 91.259 91.119 91.958 92.153 92.613 92.944 92.373 92.182 92.112 92.118 92.135 92.049 91.657 87.903 82.383 79.802 75.215 74.238 74.121 74.407 75.198 74.479 73.855 73.513 73.481 73.225 73.245 73.112 73.091 72.929 72.819 72.721 72.449 72.514 72.221 74.994 76.111 76.699 77.026 77.624 78.211 78.576 78.614 79.031 78.689 78.594 78.631 79.911 80.624 80.191 82.044 77.239 70.569 70.461 69.169 69.184 69.176 69.186 69.139 68.996 68.909 68.969 68.971 69.094 69.154 69.154 69.199 69.316 69.441 69.586 69.676 69.899 79.404 80.386 81.359 81.584 80.539 80.024 69.479 69.256 69.239 69.201 69.154 69.059 68.994 68.959 68.924 69.171 69.031 69.056 68.459 68.036 67.524 67.099 66.926 66.944 66.956 74.221 74.134 73.361 73.809 73.509 74.029 74.521 76.129 75.054 73.194 71.224 74.091 74.514 73.299 75.374 76.539 76.316 75.721 72.696 71.554 72.899 72.631 72.859 73.794 73.799 73.886 74.211 74.386 74.531 74.576 74.484 74.474 74.471 74.594 74.471 74.476 68.959 67.194 67.306 67.391 67.479 67.584 68.904 68.921 68.024 68.156 68.301 68.464 68.564 68.504 73.541 74.601 73.916 73.364 72.476 70.994 71.216 69.014 69.014 68.876 68.684 68.769 68.244 78.049 81.111 79.371 81.884 82.826 83.339 82.461 81.401 75.414 68.506 68.389 68.349 68.346 68.334 68.331 68.334 68.329 68.334 68.419 68.339 68.494 68.121 68.076 68.104 68.691 71.674 74.284 73.424 68.449 67.956 84.046 84.311 84.366 84.411 84.429 84.484 84.527 84.574 84.607 84.652 76.472 68.694 68.454 70.557 69.932 76.394 83.637 83.279 82.952 82.617 82.284 81.934 70.427 68.527 68.569 68.602 68.662 68.692 68.719 68.759 68.822 68.927 68.874 68.912 76.444 92.337 92.239 94.557 131.552 134.774 134.779 134.807 86.852 68.907 71.009 68.984 63.214 63.162 63.189 63.254 63.299 63.317 63.384 63.944 68.004 67.972 68.019 68.099 68.212 68.337 68.379 68.394 68.297 68.212 68.044 68.017 67.984 67.987 67.959 68.412 69.217 68.122 67.784 67.667 67.847 68.027 67.859 68.879 67.209 66.849 66.457 66.284 66.112 65.959 65.812 65.747 65.727 65.709 65.714
81.726 81.551 81.488 81.348 81.253 81.007 80.907 80.678 80.411 80.219 80.144 80.06 79.941 79.855 79.718 79.599 79.621 79.552 79.473 79.32 79.286 79.192 79.082 78.972 78.759 78.652 78.591 78.513 78.436 79.781 78.511 78.313 78.328 78.24 78.233 78.171 78.113 78.047 77.863 77.844 77.764 77.597 77.42 77.357 77.249 77.182 77.31 77.47 77.511 77.737 78.343 77.549 78.086 77.706 78.241 77.047 76.538 76.721 76.354 76.048 75.826 75.689 75.789 75.425 75.406 75.426 75.387 75.3 75.397 75.476 75.402 76.222 79.238 79.139 76.264 74.731 74.812 77.313 75.677 74.143 74.115 74.168 74.209 74.07 73.911 73.944 74.728 74.334 73.299 73.95 74.778 73.813 72.932 72.747 73.031 73.715 77.351 76.125 80.872 82.591 78.782 74.57 72.536 72.114 73.058 72.846 73.692 72.621 72.034 72.131 72.146 72.098 72.182 72.194 72.105 71.997 71.993 71.943 71.853 71.776 71.73 71.773 71.916 72.216 72.068 72.651 72.373 72.734 72.83 72.777 72.646 72.581 73.6 72.919 72.822 72.848 72.716 72.598 72.543 72.538 72.372 72.202 72.02 71.898 71.639 71.439 71.47 72.807 76.76 88.865 92.122 92.396 92.412 92.434 92.539 92.599 92.458 92.449 92.496 92.472 92.437 92.439 92.253 91.164 84.252 79.446 74.632 74.087 74.115 74.59 75.98 75.43 74.065 73.228 72.933 72.752 76.434 73.328 72.471 72.779 72.659 72.321 72.121 71.889 71.521 71.574 75.946 76.319 76.296 76.266 76.609 77.691 78.619 77.251 78.686 78.759 78.781 78.661 78.896 79.224 80.921 75.256 70.636 70.354 69.061 69.006 69.016 69.011 68.951 68.881 68.804 68.906 68.919 69.001 69.036 69.056 69.101 69.201 69.359 69.501 69.609 69.794 79.981 80.439 81.404 81.529 80.499 79.884 69.931 69.369 69.171 69.111 69.046 68.986 68.896 68.826 68.769 68.936 68.869 68.644 68.244 67.819 67.401 67.026 66.849 66.864 69.299 78.129 78.126 78.124 78.119 78.129 78.134 78.104 78.096 78.091 78.096 78.106 78.129 78.121 78.121 78.121 78.119 78.134 78.179 74.451 74.464 74.481 74.469 74.461 74.474 74.456 74.466 74.476 74.486 74.474 74.469 74.451 74.449 74.454 74.639 74.454 74.446 69.584 67.201 67.171 67.291 67.459 67.606 67.761 67.906 68.034 68.164 68.284 68.396 68.371 68.961 68.519 68.386 68.401 68.469 68.541 68.571 70.006 69.179 69.041 68.671 68.661 68.656 68.764 68.746 69.041 69.186 77.144 81.551 81.966 81.239 78.704 68.526 68.381 68.336 68.311 68.264 68.251 68.239 68.236 68.239 68.259 68.274 68.296 68.226 68.914 68.036 68.041 68.046 68.454 72.676 70.204 67.921 67.971 77.154 81.691 84.076 84.116 84.156 84.169 84.242 84.277 84.317 84.357 81.019 74.104 69.899 69.214 82.977 83.624 83.282 82.942 82.607 82.269 81.922 81.584 79.749 68.889 68.544 68.604 68.639 68.677 68.722 68.834 68.764 68.782 68.889 68.917 68.922 95.862 130.044 135.504 135.502 134.757 134.762 123.209 130.529 68.907 71.134 70.724 63.149 63.034 63.087 63.124 63.199 63.227 63.197 63.439 68.129 67.969 68.029 68.097 68.164 68.342 68.409 68.469 68.439 68.379 68.239 68.047 68.014 68.007 67.994 67.949 68.112 69.244 68.862 68.322 67.839 67.332 67.172 67.162 67.194 67.064 67.072 66.907 67.014 67.449 66.632 65.729 65.742 65.737 67.434
81.699 81.561 81.395 81.262 81.139 80.949 80.795 80.51 80.306 80.076 80.045 79.979 79.861 79.815 79.683 79.616 79.465 79.416 79.405 79.228 79.173 79.095 79.055 78.931 78.794 78.691 78.467 78.367 78.234 78.322 78.233 78.212 78.203 78.142 78.118 78.071 78.073 77.949 77.826 77.72 77.623 77.537 77.286 77.241 77.224 77.155 77.156 77.31 77.574 78.206 78.361 77.564 76.698 76.654 76.541 77.79 77.127 77.766 77.086 75.98 75.788 75.628 75.464 75.352 75.408 75.219 75.17 75.276 75.388 75.282 75.185 76.098 82.304 77.7 75.347 74.608 75.018 76.82 75.312 74.425 74.181 73.795 73.758 73.873 74.095 73.912 74.425 74.411 73.282 73.328 74.544 75.84 74.355 72.792 72.769 73.118 74.745 72.995 75.286 79.627 79.112 75.987 72.486 71.978 72.246 72.143 72.205 71.817 72.008 72.163 72.004 72.002 72.11 72.005 71.905 71.906 71.742 71.685 71.697 71.641 71.638 71.684 71.741 71.864 71.99 72.488 72.313 72.311 72.399 72.302 72.263 72.262 72.259 72.459 72.6 72.318 72.27 72.276 72.223 72.221 72.159 72.007 71.812 71.647 71.439 71.741 72.125 85.733 86.126 91.992 92.493 92.517 92.471 92.571 92.542 92.56 92.528 92.602 92.577 92.568 92.541 92.583 92.532 91.572 87.728 82.872 75.257 74.469 74.107 74.176 74.202 74.183 72.914 72.309 72.001 71.656 75.873 71.84 71.491 71.694 71.969 71.699 71.574 71.244 70.954 71.826 75.996 77.129 77.429 77.436 80.409 82.501 82.424 82.271 82.319 82.261 81.336 81.709 81.606 81.474 81.989 80.874 69.519 69.474 69.354 69.411 68.891 68.881 68.841 68.769 68.689 68.824 68.866 68.926 68.941 68.946 69.006 69.104 69.226 69.381 69.851 69.609 79.076 80.876 81.014 81.009 80.621 79.151 69.334 69.146 69.066 69.006 70.526 68.951 68.844 68.706 68.674 68.724 68.661 68.339 68.084 67.684 67.279 66.936 66.761 66.774 67.926 78.136 78.131 78.119 78.089 78.104 78.121 78.096 78.076 78.081 78.086 78.106 78.114 78.116 78.101 78.096 78.554 78.159 78.149 74.434 74.454 75.616 75.679 75.491 75.196 74.451 74.469 74.476 75.571 76.321 74.479 74.446 74.446 74.446 74.474 74.456 74.451 69.029 66.944 67.076 67.229 67.439 67.659 67.774 67.886 70.741 68.844 68.244 68.321 68.679 69.614 68.539 68.369 68.381 68.389 68.389 69.246 69.129 69.086 68.679 68.544 68.831 69.134 70.769 68.899 70.024 68.549 68.844 73.014 71.889 68.551 68.501 68.409 68.379 68.314 68.276 68.211 68.221 68.201 68.191 68.174 68.171 68.194 68.209 68.301 68.346 68.484 67.981 67.989 67.981 68.106 68.379 67.919 67.971 68.071 80.689 83.559 83.841 83.876 83.929 83.869 84.002 84.019 84.064 84.112 83.222 71.042 83.657 83.597 83.267 82.932 82.599 82.259 81.932 81.584 81.242 80.902 79.132 68.524 68.567 68.609 68.659 68.774 68.717 68.742 68.757 68.964 68.924 68.934 117.979 135.497 135.424 134.807 134.819 135.242 134.774 129.454 68.919 70.744 70.849 64.067 62.929 62.959 63.014 63.074 63.134 63.037 63.249 65.504 68.004 68.039 68.097 68.177 68.339 68.427 68.494 68.547 68.514 68.452 68.217 68.037 68.012 68.009 67.987 67.952 67.927 68.609 68.679 68.317 68.364 68.304 68.267 68.279 68.202 67.942 67.612 67.124 66.697 66.667 65.714 65.714 68.927 75.317
81.529 81.481 81.337 81.23 81.079 80.856 80.68 80.362 80.163 80.004 79.963 79.914 79.843 79.739 79.651 79.584 79.456 79.411 79.344 79.115 79.047 78.903 78.931 78.846 78.787 78.679 78.522 78.405 78.164 78.081 78.049 78.032 77.988 78.007 77.989 77.958 77.91 77.792 77.713 77.623 77.578 77.398 77.212 77.185 77.24 77.09 76.99 76.945 77.539 77.933 79.164 78.152 76.844 76.675 76.427 76.847 76.551 78.163 81.043 77.042 75.806 75.4 75.257 75.198 75.121 75.189 75.146 75.134 75.217 76.287 76.231 75.326 78.168 76.796 74.792 74.791 74.597 74.475 74.704 74.415 73.94 73.899 73.936 75.353 74.784 73.668 73.612 73.34 73.146 73.535 77.793 81.653 78.384 73.029 72.696 72.544 72.424 72.163 72.773 76.697 81.489 74.054 73.016 72.019 71.868 71.787 71.857 71.845 72.041 71.888 71.917 72.065 71.993 71.831 71.765 71.748 71.586 71.463 71.408 71.475 71.575 71.618 72.127 72.964 72.517 72.05 72.004 72.694 71.988 71.834 71.877 71.978 72.161 72.341 72.224 72.335 72.176 71.951 71.91 72.033 72.415 71.842 71.62 71.432 71.423 71.855 80.333 88.22 91.102 92.444 92.44 92.355 92.319 92.405 92.377 92.37 92.421 92.451 92.454 92.431 92.441 92.444 92.334 91.979 90.598 88.221 77.414 74.541 74.147 74.12 73.807 73.084 72.094 71.431 72.503 70.501 70.383 70.372 70.434 70.589 70.954 71.039 71.049 70.964 70.789 71.729 76.009 77.139 78.311 78.606 81.394 83.236 83.564 83.486 83.436 83.394 83.331 83.304 83.264 83.274 83.016 80.866 71.689 71.029 68.081 68.941 68.889 69.044 68.766 68.641 68.569 68.686 68.934 69.644 74.634 71.156 68.896 69.026 69.136 69.276 70.316 71.954 79.786 79.984 80.951 80.814 80.061 79.819 69.081 68.734 68.904 70.381 76.701 68.789 71.651 68.581 68.559 68.559 68.464 68.189 67.916 67.551 67.169 66.854 66.689 66.689 68.571 78.116 80.961 80.949 78.126 78.106 78.101 78.104 78.104 78.111 78.111 78.124 78.124 78.124 78.114 78.114 78.111 78.124 78.141 74.451 74.451 74.469 74.459 74.461 74.481 74.476 74.461 74.471 74.896 74.866 74.464 74.456 74.456 74.466 74.494 74.451 74.446 68.291 66.899 67.044 67.209 67.416 68.521 68.664 68.424 70.989 68.681 68.214 68.281 69.584 69.506 68.701 68.374 68.406 68.441 68.441 68.439 68.434 68.446 68.864 68.411 68.384 68.379 68.414 68.456 68.496 68.504 68.499 68.484 68.661 68.496 68.456 68.414 68.364 68.304 68.211 68.279 68.811 70.049 68.174 68.099 68.106 68.129 68.149 68.174 68.159 69.139 67.949 67.954 67.951 68.109 68.384 68.404 67.991 68.064 68.159 80.524 82.504 83.594 83.626 83.679 83.604 83.747 83.789 83.844 83.884 83.942 83.604 83.254 82.909 82.589 82.254 81.922 81.579 81.249 80.897 80.002 68.492 68.509 68.544 68.582 68.634 68.679 68.697 68.732 68.749 68.797 68.937 68.952 83.492 117.729 130.282 129.829 134.767 134.982 134.764 134.789 70.869 69.664 70.962 66.257 62.829 62.847 62.899 63.067 63.009 62.957 63.052 63.327 68.094 68.052 68.112 68.189 68.302 68.437 68.504 68.602 68.657 68.582 68.459 68.147 68.032 68.014 67.997 67.969 67.929 67.867 67.939 68.259 68.374 68.592 68.897 69.942 69.147 68.754 68.349 67.697 67.332 67.524 66.152 65.709 76.832 76.682
81.364 81.332 81.198 81.141 80.96 80.812 80.489 80.253 79.935 79.944 79.96 79.892 79.802 79.707 79.646 79.557 79.37 79.374 79.2 79.115 79.017 78.957 78.8 78.721 78.635 78.573 78.494 78.382 78.269 78.122 77.91 77.873 77.772 77.797 77.789 77.795 77.786 77.682 77.606 77.576 77.483 77.359 77.191 77.295 76.991 76.941 76.862 76.765 76.883 77.177 78.95 81.433 79.825 77.514 77.496 77.78 77.925 77.594 81.125 79.844 75.674 75.23 75.038 74.895 74.932 75.047 75.024 75.008 75.193 76 78.539 75.942 74.925 74.872 74.941 75.593 75.55 74.707 74.366 74.329 74.522 74.219 73.715 76.062 74.334 73.364 73.207 73.213 73.696 77.734 83.629 86.197 85.296 75.502 72.572 72.485 72.336 72.094 71.997 74.63 77.328 74.434 72.618 71.783 71.597 71.781 71.937 72.041 71.9 71.825 71.922 71.952 71.869 71.723 71.503 71.415 71.378 71.257 71.149 71.337 71.621 71.835 72.677 75.431 73.476 71.506 72.142 72.233 71.504 71.469 71.502 71.515 71.614 71.907 72.313 72.857 73.797 72.179 71.592 72.213 72.437 71.69 71.402 71.374 71.169 73.74 82.616 85.7 90.45 91.871 92.136 92.092 92.132 91.95 91.944 91.953 90.938 91.773 91.804 91.866 92.132 91.506 91.894 91.481 89.865 82.49 75.275 74.389 74.271 74.413 73.954 72.847 71.51 71.315 74.129 69.406 69.237 69.302 69.465 74.089 70.291 70.651 70.766 70.716 70.656 70.651 76.074 77.224 78.396 79.554 81.949 83.224 84.404 84.691 84.626 84.589 84.534 84.499 84.484 84.204 83.021 80.484 71.744 71.566 71.636 68.901 68.944 68.814 68.579 68.491 68.499 68.504 68.924 76.274 79.951 79.594 74.369 69.254 69.301 69.246 70.131 71.154 79.261 80.056 81.031 80.726 80.009 79.521 68.071 68.644 71.011 69.529 74.316 68.631 69.456 68.469 68.429 68.391 68.319 68.159 68.099 67.416 67.081 66.746 66.594 66.586 66.919 78.149 80.956 80.951 78.101 78.101 78.099 78.104 78.114 78.114 78.124 78.121 78.134 78.119 78.121 78.131 78.134 78.141 78.141 74.456 74.464 74.476 74.476 74.476 74.494 74.476 74.479 74.461 74.469 74.471 74.486 74.469 74.471 74.469 74.464 74.464 74.456 68.491 66.879 67.006 67.191 67.371 68.544 68.894 67.846 67.914 68.024 68.134 68.204 68.209 68.209 68.239 68.606 68.339 68.391 68.429 68.424 68.441 68.449 68.456 68.444 68.436 68.426 68.411 68.411 68.431 68.444 68.466 68.499 68.509 68.489 68.446 68.379 68.314 68.266 68.361 66.759 75.031 75.119 68.186 68.146 68.046 68.071 68.079 68.084 68.084 68.059 67.984 67.909 67.901 67.916 68.294 68.591 68.234 68.044 68.119 68.236 79.839 83.319 83.351 83.392 83.417 83.364 83.522 83.572 83.614 83.594 83.244 82.909 82.584 82.237 81.904 81.562 81.232 80.892 78.662 68.487 68.507 68.532 68.537 68.574 68.597 68.634 68.677 68.704 68.734 68.769 69.002 68.969 81.129 123.314 132.272 134.839 135.827 117.872 134.767 129.502 82.824 68.987 71.092 69.179 62.784 62.744 62.814 64.252 62.939 62.874 62.879 63.154 68.034 68.074 68.127 68.197 68.264 68.439 68.527 68.609 68.734 68.752 68.617 68.374 68.057 68.027 68.004 67.984 67.934 67.902 67.837 67.857 69.422 68.124 68.459 69.347 69.107 69.047 68.762 69.714 67.674 67.277 67.384 65.704 68.724 76.802
81.144 81.054 81.084 80.987 80.855 80.672 80.284 79.989 79.914 79.908 79.921 79.853 79.796 79.655 79.599 79.463 79.435 79.378 79.127 79.034 78.975 78.885 78.753 78.707 78.551 78.463 78.401 78.302 78.227 78.131 78.003 77.84 77.668 77.582 77.594 77.57 77.569 77.551 77.52 77.463 77.372 77.209 78.767 82.743 78.862 77.746 77.058 76.674 76.543 76.674 78.506 84.78 85.255 83.931 82.916 79.911 78.716 78.08 78.652 77.875 74.58 74.107 74.544 74.54 74.651 74.602 74.876 74.988 75.004 75.129 75.499 75.126 74.95 74.908 75.313 78.016 77.463 74.92 74.502 74.821 76.552 74.242 73.805 73.76 73.241 73.299 73.185 73.007 77.145 90.131 87.469 84.969 82.566 74.107 72.51 72.395 72.286 71.988 71.827 72.42 72.858 72.306 71.742 71.56 71.446 71.681 71.651 71.58 71.667 71.766 71.547 71.615 71.424 71.344 71.24 71.16 71.072 71.04 71.016 71.188 71.732 71.596 71.844 72.808 72.776 71.897 71.817 71.411 71.165 71.11 71.133 71.132 71.116 71.143 71.418 71.802 72.557 71.678 71.246 71.509 71.49 72.798 71.961 71.234 71.684 74.081 84.518 84.754 88.779 91.241 91.454 91.416 89.87 91.379 91.577 89.438 86.713 90.287 90.816 89.133 90.154 88.235 87.169 90.609 88.99 83.009 76.187 74.701 74.272 74.291 73.913 73.714 73.245 69.991 69.813 68.384 68.277 68.261 68.461 69.031 69.901 70.391 70.531 70.499 70.504 70.539 76.114 77.271 78.411 79.596 81.906 83.244 84.404 85.629 85.864 85.809 85.774 85.714 85.364 84.204 93.679 94.901 85.864 71.594 71.409 70.411 69.881 68.841 68.556 68.411 68.516 68.044 68.254 75.659 79.164 79.314 74.674 69.679 69.771 69.429 69.669 72.186 79.539 80.089 81.084 80.649 79.101 78.671 69.631 68.664 68.631 68.574 68.519 68.494 68.444 68.354 68.269 68.221 68.254 68.144 68.656 67.294 66.974 66.651 66.494 66.494 66.781 78.129 80.959 80.941 78.189 78.101 78.104 78.096 78.096 78.114 78.111 78.111 78.116 78.116 78.124 78.124 78.126 78.131 78.129 74.459 74.461 74.461 74.471 74.469 74.466 77.071 77.346 74.461 74.456 74.459 74.456 74.466 74.479 74.474 74.461 74.461 74.451 69.049 66.856 66.976 67.136 67.319 70.499 69.646 68.744 69.551 68.434 68.014 68.134 68.904 68.344 68.306 68.561 68.621 68.371 69.331 69.611 68.361 68.714 68.521 68.404 68.421 68.409 68.419 68.436 68.451 68.466 68.489 68.514 68.506 68.454 68.374 68.314 68.294 68.699 69.569 74.119 75.386 75.906 73.541 68.146 68.106 67.996 68.016 68.019 68.034 68.029 67.994 67.909 67.834 67.866 67.886 68.409 68.589 68.099 68.106 68.189 71.454 83.049 83.079 83.099 83.144 83.212 83.169 83.292 83.332 83.232 82.909 82.577 82.232 81.879 81.547 81.212 80.837 78.232 68.954 68.509 68.514 69.724 79.114 72.969 68.577 68.607 68.652 68.682 68.867 69.602 68.824 68.974 68.962 122.902 134.877 134.964 134.827 134.877 118.937 134.434 118.314 68.904 71.179 70.764 62.744 62.634 62.707 63.782 62.852 62.812 62.747 62.992 64.884 68.104 68.149 68.219 68.289 68.457 68.547 68.607 68.767 68.869 68.804 68.577 68.154 68.017 68.024 68.019 67.969 67.924 67.867 67.809 67.779 67.864 67.982 68.684 68.739 68.927 68.884 68.797 68.364 67.997 70.102 66.497 65.692 69.674
80.967 80.896 80.884 80.817 80.732 80.524 80.239 79.918 79.866 79.877 79.836 79.826 79.754 79.637 79.576 79.469 79.416 79.161 79.114 78.982 78.815 78.706 78.668 78.645 78.586 78.493 78.296 78.192 78.129 78.027 77.932 77.83 77.661 77.537 77.358 77.324 77.31 77.335 77.359 77.351 77.647 77.156 81.399 85.173 84.793 83.348 77.709 76.574 76.559 77.131 83.898 88.264 88.607 86.595 84.418 83.81 83.552 79.461 77.257 74.331 73.995 73.635 73.806 73.974 73.973 74.232 74.674 75.057 75.044 75.081 75.016 74.9 75.023 75.271 75.278 79.301 82.777 75.208 74.691 75.718 74.335 74.004 73.724 73.378 73.257 73.223 73.068 73.522 84.365 94.304 92.847 88.628 77.525 73.916 72.546 72.359 72.198 72.026 71.849 71.894 71.922 71.738 71.199 71.12 71.295 70.927 70.806 71.152 71.05 71.052 71.058 71.07 70.955 70.937 70.961 71.265 71.062 71.495 71.945 72.534 72.927 72.541 73.802 72.905 73.898 74.052 75.898 73.964 74.113 73.926 74.423 75.019 73.441 73.859 75.141 74.625 74.141 74.135 70.968 71.127 71.264 71.507 71.287 72.028 71.1 71.022 78.258 83.541 88.12 90.228 86.968 84.763 87.671 89.264 79.766 87.565 90.65 90.226 87.451 88.621 87.265 79.724 82.467 89.045 88.829 86.696 77.588 74.39 74.261 74.364 73.855 75.039 73.573 71.066 70.014 69.497 70.279 72.361 69.595 68.741 69.706 70.139 70.259 70.309 70.376 70.386 76.144 77.286 78.461 79.609 82.041 83.276 84.456 85.614 85.839 85.861 85.964 85.979 85.401 84.841 97.434 99.236 87.464 71.561 71.394 70.364 69.821 68.774 68.534 68.379 68.501 67.406 67.366 73.494 74.541 75.206 68.999 68.131 69.754 69.314 67.526 68.976 79.664 80.126 81.149 80.581 79.594 78.609 68.791 68.394 68.551 68.469 68.424 68.381 68.331 68.249 68.169 68.741 68.431 67.796 67.509 67.176 66.879 66.559 66.381 66.394 66.411 78.121 80.971 80.949 78.086 78.101 78.101 78.091 78.086 78.096 78.081 78.101 78.111 78.119 78.114 78.104 78.111 78.094 78.151 74.426 74.441 74.446 74.436 74.431 74.439 77.019 76.999 74.444 74.429 74.434 74.426 74.461 74.469 74.474 74.439 74.444 74.446 68.801 66.829 66.939 67.064 67.206 67.756 68.024 67.686 67.919 67.779 67.856 67.924 70.944 68.836 68.314 68.356 68.301 68.359 68.414 68.429 68.419 68.669 69.056 68.391 68.304 68.294 68.319 68.351 68.369 68.379 68.396 68.416 68.386 68.351 68.321 68.341 67.314 69.036 75.494 75.999 75.046 75.729 75.486 69.689 68.089 68.049 67.944 67.966 67.979 67.984 67.971 67.924 67.844 67.809 67.849 67.991 68.576 68.484 68.234 68.126 68.214 69.816 82.186 82.849 82.879 82.904 82.954 82.977 83.062 82.894 82.532 82.207 81.867 81.532 81.197 80.779 75.777 68.509 68.517 68.519 73.824 80.557 79.629 78.852 69.469 68.604 68.637 68.664 68.909 68.777 69.707 68.994 68.939 112.727 134.949 134.774 125.092 134.769 134.857 124.257 129.874 68.904 70.004 70.822 62.722 62.524 62.612 62.687 62.772 62.732 62.652 62.859 63.162 68.247 68.172 68.227 68.307 68.432 68.557 68.629 68.739 68.882 68.857 68.664 68.324 68.012 68.032 68.079 68.204 67.957 67.887 67.832 67.767 67.697 67.777 67.779 68.034 68.387 68.712 68.792 68.747 68.452 67.724 68.554 66.039 65.692
81.805 81.08 80.682 80.594 80.555 80.476 80.358 80.158 79.929 79.844 79.753 79.757 79.676 79.622 79.553 79.469 79.389 79.158 79.095 78.879 78.757 78.641 78.595 78.606 78.522 78.417 78.329 78.231 78.048 77.92 77.878 77.75 77.693 77.569 77.422 77.248 77.169 77.132 77.093 77.125 78.987 82.578 86.078 86.827 85.096 81.938 77.098 76.69 77.339 79.3 89.056 90.557 90.07 89.202 88.335 86.5 85.776 81.054 79.617 78.69 77.579 74.738 74.029 73.151 73.214 73.899 74.433 74.768 75.145 75.194 75.046 74.942 75.271 76.869 76.453 76.474 76.552 74.612 74.473 74.309 74.065 73.863 73.59 73.318 73.243 73.145 74.214 80.3 90.882 95.549 94.631 91.234 83.14 79.3 73.464 72.371 72.051 71.977 71.748 71.813 71.844 71.069 70.64 70.669 70.432 70.086 70.125 70.614 70.403 70.21 70.398 70.434 70.327 70.489 70.652 70.605 71.519 71.738 72.573 73.794 75.176 75.211 75.828 76.75 77.446 78.108 78.515 78.645 77.559 77.334 77.301 77.476 77.629 77.411 77.671 77.722 77.801 75.015 72.159 70.933 70.917 70.927 72.848 74.588 71.283 70.594 70.753 73.913 80.089 86.454 73.277 73.122 81.227 77.454 74.811 85.624 84.02 81.68 82.035 79.897 82.344 80.147 81.017 84.293 85.684 77.123 74.192 74.105 74.214 74.705 75.988 79.814 79.429 79.381 79.245 79.673 81.818 81.463 76.574 68.669 69.539 69.859 69.961 69.969 69.849 69.929 76.174 77.311 78.456 79.421 82.181 83.319 84.381 84.551 84.584 84.666 84.656 84.751 84.854 84.599 89.471 89.971 87.291 71.559 71.386 70.331 69.749 68.726 68.474 68.411 68.731 67.741 68.686 70.769 71.234 70.989 68.836 67.329 69.401 69.114 69.116 73.119 79.331 80.529 81.204 80.561 79.824 77.336 69.349 68.246 68.469 68.406 68.354 68.306 68.209 68.124 68.016 67.939 67.831 67.644 67.396 67.074 66.759 66.459 66.271 66.286 66.419 78.134 78.874 78.529 78.089 78.094 78.104 78.106 78.099 78.109 78.109 78.111 78.116 78.131 78.121 78.124 78.121 78.126 78.146 74.449 74.456 74.461 74.449 74.439 74.454 74.446 74.454 74.459 74.536 74.454 74.454 74.469 74.476 74.469 74.456 74.439 74.451 68.521 66.771 66.871 66.971 67.081 67.236 67.786 67.471 67.959 67.721 67.634 67.704 70.001 69.381 68.124 68.701 68.344 68.159 68.201 68.409 69.401 69.016 68.366 68.456 68.336 68.324 68.394 68.369 68.324 68.294 68.306 68.329 68.371 68.529 68.526 67.549 66.721 65.869 75.509 76.386 75.676 75.096 75.861 75.296 68.111 68.046 67.929 67.901 67.911 67.919 67.934 67.921 67.851 67.761 67.801 67.819 68.211 68.476 67.999 68.059 68.144 68.234 74.961 82.039 82.604 82.642 82.672 82.719 82.789 82.537 82.202 81.834 81.537 81.189 80.869 70.622 68.489 68.509 68.524 76.272 80.294 80.979 80.269 79.474 78.692 69.249 68.612 68.664 68.694 69.089 68.832 68.887 68.914 84.737 134.792 134.759 131.347 116.579 134.872 131.912 131.564 72.212 69.749 70.902 64.634 62.432 62.527 62.607 62.694 62.642 62.564 62.679 63.024 68.239 68.204 68.259 68.329 68.422 68.564 68.647 68.707 68.882 68.862 68.754 68.454 68.057 68.052 68.089 68.364 68.299 67.937 67.849 67.789 67.732 67.684 67.712 67.777 67.729 68.084 68.512 68.677 68.657 68.439 67.742 66.864 65.947
93.289 93.733 89.644 80.984 80.343 80.281 80.29 80.223 80.053 79.854 79.775 79.717 79.617 79.575 79.491 79.424 79.199 79.075 78.992 78.808 78.708 78.55 78.52 78.465 78.443 78.356 78.263 78.193 78.077 77.945 77.751 77.682 77.616 77.483 77.427 77.312 77.209 77.051 76.946 76.896 77.23 79.513 83.517 85.799 84.731 77.971 76.695 76.99 83.019 86.878 88.729 89.75 90.112 90.443 89.992 89.656 89.562 87.09 83.356 82.552 83.648 84.696 78.214 73.705 72.706 73.391 74.143 74.829 75.153 75.186 75.094 74.963 74.989 76.092 75.514 74.745 75.736 74.728 74.209 74.15 74.064 73.774 73.581 73.496 73.267 72.995 75.446 81.522 88.498 94.156 94.428 93.083 90.636 81.353 72.853 72.591 72.429 71.976 71.766 71.733 71.317 70.723 70.117 70.903 71.624 71.068 70.897 71.337 70.972 70.544 70.625 70.099 69.796 70.051 70.169 70.259 70.395 71.429 72.391 73.285 75.381 74.981 75.395 76.611 77.91 78.481 80.436 78.989 77.249 76.465 76.476 76.568 76.533 76.513 77.105 76.954 76.773 76.755 73.003 70.769 70.696 71.183 74.307 71.987 71.121 70.282 70.18 70.658 73.001 71.61 70.034 69.898 69.975 69.596 70.869 73.915 76.593 74.971 75.785 77.791 80.373 80.641 80.093 78.924 75.311 72.111 73.605 74.137 74.11 74.771 76.111 80.495 81.45 81.416 81.475 81.522 81.998 81.392 75.088 68.511 69.239 69.556 69.616 69.466 68.771 69.596 76.176 77.289 78.104 78.154 82.184 83.176 83.321 83.344 83.419 83.429 83.511 83.551 83.611 83.684 82.869 76.929 72.209 71.591 70.809 71.609 71.014 69.929 68.379 68.471 68.349 70.206 70.294 71.019 71.144 71.124 70.426 67.389 69.496 68.894 68.821 76.294 78.334 79.701 80.636 79.844 78.581 74.456 68.181 68.046 68.336 68.296 68.219 68.146 68.034 67.926 67.881 67.791 68.059 68.109 67.566 66.964 66.621 66.356 66.156 66.176 66.229 77.536 76.841 77.161 76.554 77.404 76.701 77.451 77.889 76.484 76.904 76.741 76.836 76.386 76.869 76.084 75.191 74.839 75.621 73.734 72.426 72.531 73.366 74.574 74.679 72.539 72.406 72.474 73.456 72.606 72.014 72.396 71.976 72.426 71.254 72.074 71.624 68.164 66.699 66.791 66.876 66.949 67.504 67.396 67.271 67.351 67.374 67.449 67.501 68.864 67.809 68.144 68.906 67.919 67.969 67.999 69.684 69.201 68.139 68.196 68.244 68.271 68.304 68.331 68.324 68.324 69.951 68.944 69.384 68.384 68.389 68.464 68.521 69.206 68.546 72.659 75.741 76.134 75.364 75.311 75.866 76.541 68.299 67.969 67.861 67.859 67.856 67.886 67.884 67.854 67.781 67.706 67.749 67.756 67.801 67.884 67.976 68.066 68.161 68.226 78.257 82.317 82.354 82.402 82.442 82.497 82.189 81.832 81.502 81.167 80.354 70.327 68.379 68.452 68.512 70.072 78.799 79.554 80.334 80.962 80.144 79.359 77.614 68.639 68.662 68.704 68.744 68.809 68.864 68.897 71.592 119.067 134.777 135.269 118.627 119.284 134.769 134.832 82.069 68.907 70.969 68.659 62.342 62.434 62.524 62.622 62.557 62.489 62.514 62.879 66.034 68.259 68.297 68.352 68.429 68.589 68.659 68.727 68.882 68.852 68.772 68.607 68.129 68.069 68.114 68.292 68.399 68.282 68.002 67.804 67.759 67.714 67.657 67.634 67.692 67.574 67.847 70.769 68.507 68.587 68.422 67.772 66.867
95.047 95.602 95.082 93.53 85.209 81.622 80.059 79.98 79.914 79.829 79.758 79.754 79.665 79.517 79.508 79.433 79.093 79.053 78.94 78.692 78.609 78.561 78.455 78.426 78.378 78.269 78.186 78.12 78.054 77.952 77.759 77.636 77.525 77.372 77.361 77.262 77.182 77.102 76.888 76.759 76.804 77.802 85.279 83.109 78.926 76.347 76.372 76.409 77.856 80.357 81.053 82.797 87.82 89.304 90.028 90.51 90.483 89.987 88.658 88.062 86.381 85.883 80.505 79.225 78.145 74.436 72.894 74.499 75.118 75.19 75.127 75.098 75.064 74.785 74.616 74.765 74.809 74.242 74.224 74.099 73.813 73.677 73.567 73.379 73.285 73.016 73.05 74.544 84.286 94.018 94.428 92.626 84.575 75.493 74.494 73.841 72.736 72.82 71.762 71.613 71.532 70.963 70.26 72.897 78.466 77.997 76.512 77.872 74.535 75.78 76.678 71.019 69.47 69.573 70.003 70.103 70.165 71.216 71.613 72.524 73.229 74.096 74.548 76.125 79.526 78.065 78.636 78.226 75.936 75.364 75.403 75.442 75.382 75.428 75.545 75.789 76.883 76.183 71.572 70.477 70.323 70.301 70.625 70.914 70.555 70.249 70.024 69.957 69.979 70.07 70 69.897 69.875 69.6 70.613 75.478 79.92 80.006 78.645 80.223 81.454 81.49 78.957 75.362 72.31 73.565 74.108 74.233 74.321 74.53 75.191 80.785 81.846 81.83 81.758 81.745 82.03 81.499 73.588 68.159 68.931 69.199 69.189 68.866 68.506 70.079 76.229 76.901 76.924 77.001 81.351 82.166 82.044 82.259 82.294 82.351 82.381 82.419 82.446 82.481 82.529 75.336 68.301 67.944 69.836 69.689 68.946 68.269 68.249 68.559 67.259 70.219 70.294 71.034 71.729 71.321 70.594 67.346 69.431 68.781 68.514 76.034 77.661 79.781 80.656 79.761 78.814 73.459 68.016 68.024 68.176 68.136 68.086 67.996 67.911 67.829 67.791 67.711 67.856 67.811 67.616 66.861 66.529 66.259 66.056 66.074 66.151 70.831 70.831 70.834 70.834 70.829 70.834 70.826 75.049 71.981 70.831 70.834 70.829 70.831 70.831 70.826 70.831 70.826 70.824 70.826 70.824 70.821 70.831 73.426 73.786 70.829 70.821 70.829 71.131 70.861 70.819 70.819 70.811 70.809 70.816 70.824 70.826 67.346 66.611 66.681 66.764 66.861 68.341 67.691 67.651 67.661 67.196 67.241 67.329 70.011 67.769 67.541 69.294 67.764 67.776 67.814 68.886 68.076 67.939 68.001 68.766 68.131 68.204 69.531 68.161 68.074 71.784 71.724 71.634 68.291 68.319 68.396 68.256 69.356 68.954 78.386 76.901 76.094 76.121 75.131 78.506 79.404 75.504 67.944 67.886 67.784 67.816 67.834 67.854 67.836 67.781 67.699 67.664 67.706 67.731 67.794 67.881 67.986 68.056 68.139 68.229 77.114 82.084 82.132 82.172 82.169 81.822 81.494 81.144 78.662 68.207 68.264 68.332 68.412 68.474 68.532 76.864 78.962 79.687 80.464 80.814 79.999 79.232 77.789 68.689 68.709 68.749 68.814 68.862 68.897 68.939 114.679 118.599 133.122 134.747 134.757 115.162 134.899 118.222 68.929 68.987 67.952 62.272 62.362 62.459 62.539 62.492 62.419 62.389 62.719 63.032 68.374 68.322 68.387 68.462 68.584 68.664 68.747 68.899 68.859 68.807 68.749 68.329 68.114 68.159 68.277 68.464 68.427 68.302 68.077 67.769 67.724 67.669 67.607 67.547 67.614 67.469 67.522 67.867 68.302 68.457 68.979 67.757
96.927 96.544 96.55 95.367 92.075 84.578 80.045 79.936 79.789 79.663 79.649 79.656 79.652 79.605 79.514 79.309 79.195 79.286 78.862 79.693 78.569 78.526 78.411 78.32 78.277 78.174 78.132 77.987 77.905 77.826 77.657 77.613 77.518 77.424 77.277 77.152 77.743 77.404 77.368 79.946 77.463 76.422 81.357 77.243 76.504 76.272 76.206 76.347 76.868 78.348 78.143 79.212 81.274 83.246 87.848 89.081 89.617 90.13 90.513 89.452 89.325 88.378 87.348 85.555 83.75 78.228 75.829 76.629 77.414 75.968 75.131 75.049 74.768 74.694 74.622 74.493 74.413 74.25 74.067 73.919 73.845 73.77 73.552 73.406 73.452 73.095 73.972 82.174 91.847 94.765 94.499 91.907 83.044 78.35 76.714 79.143 75.551 72.85 71.716 71.755 71.309 70.602 71.729 77.675 80.548 82.229 81.81 80.569 79.846 79.744 76.579 72.57 69.182 69.585 69.826 69.877 69.941 70.007 71.057 71.435 72.339 73.225 73.866 75.133 76.087 75.856 75.807 74.795 74.446 74.394 74.26 74.338 74.25 74.299 74.265 74.451 74.555 73.801 71.528 70.058 70.034 70.08 70.077 70.523 72.58 72.202 70.86 70.235 69.986 69.951 69.834 69.797 69.743 69.578 71.688 78.755 80.521 82.024 81.552 81.772 83.04 82.509 80.208 78.691 74.367 74.091 74.223 74.249 74.309 74.277 75.136 80.823 81.809 81.823 81.775 81.762 82.017 81.608 74.003 67.999 68.591 68.819 68.756 68.246 67.356 68.531 75.701 75.754 75.794 75.821 71.691 71.381 70.549 70.309 72.079 71.454 71.816 72.136 72.504 79.769 80.796 71.731 68.194 68.409 68.231 68.141 68.174 71.254 73.374 71.266 68.224 70.209 70.314 71.006 71.726 71.331 70.481 67.454 69.444 68.721 68.931 77.234 78.889 79.881 80.644 79.726 78.751 72.719 68.054 68.024 68.049 67.979 67.919 67.849 67.786 67.746 67.664 67.579 67.681 67.526 67.236 66.741 66.439 66.126 65.949 70.761 70.629 70.811 70.821 70.824 70.819 70.819 70.809 70.799 75.046 71.714 70.811 70.819 70.801 70.811 70.811 70.799 71.479 71.019 71.239 70.994 70.804 70.799 70.801 72.794 74.619 70.801 70.811 70.811 71.129 72.064 71.286 70.736 70.719 70.721 70.734 70.739 70.741 70.736 70.749 66.584 66.641 66.729 69.616 68.256 67.754 68.906 67.064 67.111 67.161 69.794 68.664 68.446 70.509 67.591 67.581 67.609 68.934 69.319 67.786 68.644 69.769 67.941 67.991 67.979 68.601 67.949 71.191 71.506 70.521 68.246 68.276 69.101 68.961 68.229 69.441 77.199 79.321 75.404 76.259 79.061 79.701 80.036 79.291 71.361 67.866 67.814 67.754 67.769 68.069 67.796 67.774 67.716 67.624 67.641 67.669 67.714 67.931 68.014 68.139 68.026 68.089 68.137 76.779 81.219 81.879 81.824 81.489 81.117 75.974 68.114 68.159 68.232 68.297 68.509 68.429 74.682 79.027 79.677 80.317 80.934 81.389 80.639 79.897 79.127 76.242 68.737 68.762 68.794 68.872 68.914 68.942 102.927 134.864 108.457 130.234 125.879 120.174 134.824 128.354 68.927 68.924 69.092 62.189 62.297 62.399 62.487 62.444 62.364 62.314 62.567 62.909 68.482 68.352 68.407 68.487 68.567 68.694 68.757 68.919 69.154 68.824 68.727 68.477 68.154 68.199 68.312 68.512 68.474 68.319 68.097 67.844 67.722 67.667 67.607 67.552 67.494 67.532 67.462 67.367 67.677 68.124 68.342 68.222
97.53 88.615 93.388 95.685 93.406 81.843 80.026 79.901 79.784 79.658 79.535 79.495 79.451 79.419 80.232 82.606 82.315 81.689 86.506 86.547 79.595 78.433 78.335 78.291 78.161 78.075 78.037 77.936 77.91 77.769 77.592 77.47 77.432 77.507 77.414 86.325 89.33 85.507 84.266 86.718 78.04 76.49 77.187 77.742 76.244 76.167 76.171 76.651 77.831 78.038 78.022 78.062 78.129 78.99 80.952 81.616 82.942 86.825 88.459 89.796 90.572 90.448 89.757 89.477 88.474 85.409 82.872 83.326 81.963 78.709 74.726 74.692 74.886 74.766 74.717 74.476 74.405 74.123 73.876 73.856 73.818 73.648 73.62 73.504 73.404 73.174 75.471 83.903 92.618 95.22 94.455 93.363 87.683 82.348 78.348 76.861 74.184 72.033 71.679 71.554 70.915 70.462 71.112 75.646 80.929 83.408 82.106 81.566 81.439 80.775 77.429 70.583 69.249 69.33 69.522 69.66 69.78 69.793 69.723 70.776 71.27 72.308 73.202 73.957 73.886 73.905 73.473 73.146 73.276 73.178 73.062 73.082 73.081 73.058 73.069 72.978 72.945 72.21 70.306 69.698 69.833 69.884 69.911 70.234 72.089 71.24 70.819 72.559 70.226 69.709 69.729 69.634 69.525 69.518 71.73 74.633 78.912 81.496 81.671 81.747 81.963 81.54 80.352 78.317 75.554 74.254 74.27 74.274 74.311 74.362 75.715 81.241 81.868 81.834 81.778 81.779 82.007 81.665 76.644 67.734 68.281 68.524 68.776 67.884 67.196 67.161 67.376 67.266 67.234 67.656 67.129 68.329 68.944 68.806 68.319 67.931 67.859 68.161 68.329 78.606 80.341 67.946 67.986 68.001 67.994 68.026 68.026 72.786 70.589 72.029 72.521 70.419 70.284 70.999 71.736 71.319 70.606 67.814 69.824 68.601 68.806 77.016 78.846 79.941 80.641 79.679 78.699 71.111 68.386 67.996 67.926 67.856 67.799 67.724 67.669 67.594 67.534 67.441 67.559 67.441 67.169 66.664 66.361 66.009 65.869 70.366 71.249 70.774 71.396 72.106 72.024 72.006 71.934 72.931 75.104 72.384 71.139 71.461 70.946 71.421 71.789 72.411 71.321 71.626 72.559 72.486 72.161 72.576 72.334 73.994 74.904 72.601 70.791 70.796 70.766 70.684 70.704 70.701 70.689 70.686 70.711 70.729 70.709 70.709 70.746 66.464 66.519 66.566 69.356 69.684 68.164 68.284 67.049 66.934 66.986 68.644 69.374 67.799 70.434 68.444 67.364 67.404 74.116 72.724 68.326 69.491 69.924 67.754 67.769 68.691 68.936 67.904 70.821 71.289 71.394 71.136 69.724 68.464 68.316 68.539 73.174 79.171 79.244 78.599 79.086 79.751 80.471 80.584 79.896 79.124 69.164 67.839 67.711 67.726 67.751 67.744 67.751 67.716 67.641 67.554 67.596 67.651 68.276 68.269 67.891 67.949 67.962 67.994 68.339 74.602 81.614 81.484 81.169 72.727 68.022 68.077 68.139 68.779 70.949 68.579 74.144 79.129 79.737 80.417 81.107 81.712 82.109 81.322 80.532 79.774 78.969 74.302 68.777 68.822 68.852 68.912 68.929 99.357 119.382 117.577 134.829 134.892 134.767 133.522 123.817 72.882 68.914 69.104 62.122 62.237 62.359 62.434 62.412 62.334 62.287 62.457 62.794 67.972 68.374 68.442 68.502 68.582 68.709 68.779 68.849 68.922 68.832 68.779 68.582 68.244 68.274 68.357 68.507 68.249 68.124 68.014 67.897 67.782 67.662 67.604 67.564 67.517 67.452 67.439 67.782 67.679 67.654 68.957 68.237
97.436 97.307 97.148 95.888 93.009 86.244 79.966 79.812 79.685 79.593 79.598 79.932 80.066 79.23 80.345 85.866 88.416 83.026 86.555 82.737 84.835 78.646 78.231 78.218 78.108 78.044 77.932 77.909 77.825 77.638 77.476 77.294 77.223 77.061 88.619 86.602 82.415 78.392 80.85 86.448 77.846 76.468 76.359 76.254 76.172 76.129 76.198 76.969 78.414 77.772 77.998 78.002 77.963 78.24 78.419 79.158 80.69 80.119 82.848 88.156 89.15 89.974 90.365 90.09 89.595 88.704 88.278 87.991 82.267 81.112 76.659 77.81 76.734 74.447 74.061 74.232 74.181 73.837 73.99 73.89 74.15 73.74 73.619 73.358 73.224 73.131 73.725 75.795 88.92 95.27 94.792 92.566 81.641 81.195 77.531 73.126 72.302 71.693 71.519 71.352 71.035 70.464 70.965 75.81 80.621 81.909 81.735 81.495 81.422 80.547 76.063 70.286 69.322 69.147 69.327 69.432 69.532 69.587 69.563 69.422 70.631 71.771 72.466 72.542 72.613 72.683 72.516 72.232 71.947 71.783 71.86 71.838 71.784 71.81 71.743 71.686 71.712 71.457 70.271 69.463 69.652 69.668 69.717 69.656 69.737 69.76 69.966 69.942 69.601 69.609 69.558 69.475 69.413 69.324 72.052 77.285 79.581 81.383 81.621 81.684 81.731 81.56 80.236 77.186 75.622 74.317 74.305 74.32 74.308 74.361 76.039 81.094 81.77 81.895 81.818 81.813 82.062 81.62 74.118 67.529 70.011 68.154 68.071 67.671 67.156 67.276 67.136 67.121 67.136 67.141 67.154 68.476 70.431 68.766 68.339 68.019 67.979 67.969 67.966 70.014 70.884 67.796 67.864 67.874 67.869 67.891 68.234 70.781 70.361 74.211 73.061 70.321 70.286 70.979 71.724 71.331 70.611 67.299 69.469 68.489 69.109 77.339 78.819 79.994 80.564 79.606 78.619 68.284 67.891 67.699 67.794 67.724 67.656 67.604 67.549 67.466 67.396 67.334 67.321 67.451 68.039 66.601 66.266 65.879 65.776 70.689 70.816 75.211 75.214 75.216 75.219 75.211 75.219 75.214 75.209 75.216 75.224 75.226 75.224 75.226 75.224 75.224 75.224 75.219 75.221 75.214 75.221 75.219 75.221 75.229 75.231 75.216 70.781 70.794 70.779 70.704 70.724 70.711 70.701 70.699 70.724 70.724 70.719 70.711 70.634 66.329 66.381 66.394 67.344 66.944 67.931 70.131 66.974 66.731 66.781 68.859 70.219 70.691 67.486 67.276 67.161 67.196 67.251 67.326 68.031 69.536 67.599 67.564 67.619 67.864 69.576 68.131 67.721 71.284 71.484 71.521 71.529 70.839 69.549 68.941 78.231 79.039 78.346 78.216 77.941 79.301 80.064 81.401 80.686 79.616 78.304 72.104 67.769 67.664 67.691 67.709 67.711 67.714 67.649 67.559 67.544 67.596 68.009 68.079 68.436 67.821 67.867 67.892 67.907 69.227 80.597 80.712 69.887 69.174 67.979 68.057 68.109 69.584 69.609 77.477 79.247 79.814 80.447 81.114 81.817 82.252 81.674 80.994 80.874 80.472 79.657 79.219 69.024 68.842 68.854 68.882 68.939 70.812 127.224 134.619 129.529 127.232 85.769 75.537 83.159 68.922 68.927 69.007 63.924 62.194 62.309 62.389 62.394 62.324 62.287 62.372 62.759 64.527 68.424 68.452 68.512 68.592 68.747 68.794 68.862 68.924 68.857 68.767 68.657 68.334 68.359 68.377 68.324 68.232 68.127 68.019 67.919 67.862 67.744 67.599 67.552 67.499 67.469 67.404 67.342 67.387 68.187 68.577 67.889
97.728 97.712 96.8 95.792 91.652 89.856 80.878 79.785 79.67 79.553 79.401 79.323 79.32 79.078 79.897 83.588 82.308 87.503 87.279 85.555 85.731 84.33 82.964 78.336 78.051 77.972 77.872 77.828 77.705 77.51 77.394 77.083 76.971 76.93 84.243 86.499 82.907 77.779 77.281 80.618 82.452 76.379 76.301 76.195 76.123 76.137 76.113 75.826 75.328 75.693 76.042 76.865 77.914 78.069 77.478 77.766 78.32 78.25 79.02 81.365 83.562 84.854 89.03 89.673 89.987 90.603 90.345 89.69 88.243 86.131 83.682 85.306 82.016 76.722 74.631 76.269 75.621 73.392 72.585 71.943 74.388 74.106 73.717 73.379 73.274 73.122 73.761 78.557 91.357 95.492 94.576 92.044 81.483 83.521 75.641 72.539 71.966 71.668 71.282 71.265 70.989 70.169 70.936 78.651 80.956 81.595 81.421 81.469 81.589 81.008 78.951 75.448 69.816 69.111 69.166 69.229 69.276 69.316 69.268 69.327 70.419 70.976 71.465 71.115 71.171 71.324 71.324 70.95 70.553 70.626 70.513 70.433 70.554 70.486 70.465 70.419 70.357 70.145 69.779 69.327 69.334 69.438 69.468 69.479 69.57 69.534 69.448 69.518 69.489 69.409 69.291 69.143 69.041 69.013 74.125 78.264 80.306 81.838 81.799 81.809 81.972 82.014 80.391 77.303 76.016 74.463 74.315 74.354 74.324 74.319 75.102 81.204 82.975 82.173 81.846 82.231 83.207 82.195 75.854 67.276 67.729 67.869 67.751 67.454 68.116 67.654 67.179 69.019 67.081 67.946 67.126 67.884 68.174 68.184 68.084 67.994 67.984 68.004 68.024 68.101 68.154 67.659 67.834 68.076 67.726 67.759 67.754 71.596 68.964 68.779 73.291 70.206 70.286 70.989 71.286 71.241 70.609 67.699 75.819 68.426 68.651 77.439 78.679 79.581 79.949 79.996 78.061 68.024 67.649 67.571 67.584 67.541 67.511 67.474 67.401 67.321 67.274 67.246 67.224 67.109 67.049 66.494 66.141 65.769 65.654 69.644 72.714 74.666 74.684 74.701 74.701 74.679 74.691 74.689 74.714 74.736 74.726 74.766 74.791 74.824 74.796 74.766 74.731 74.691 74.676 74.629 74.631 74.591 74.569 74.576 74.544 74.549 71.946 70.796 70.779 70.729 70.729 70.731 70.714 70.719 70.724 70.734 70.736 70.724 70.631 66.189 66.209 66.256 67.706 66.631 66.359 66.429 66.501 66.544 66.616 67.529 67.576 70.999 66.864 66.944 67.004 67.036 67.329 67.181 67.201 67.246 67.316 67.404 67.466 69.519 70.721 68.386 67.636 71.384 71.404 71.431 71.449 71.474 71.499 71.121 71.681 74.949 75.069 74.161 73.709 78.459 79.816 80.269 80.834 80.136 78.309 67.834 67.749 67.684 67.641 67.656 67.671 67.674 67.659 67.584 67.481 67.559 67.594 69.124 68.204 68.541 67.857 67.794 67.804 67.809 68.797 67.807 67.857 67.974 68.157 72.694 69.644 70.952 78.722 79.357 79.944 80.564 81.164 81.869 82.114 81.552 80.944 80.254 80.204 80.987 80.324 72.792 72.584 68.847 68.849 68.862 68.907 68.917 83.917 82.652 68.917 68.897 68.929 68.927 68.932 68.927 68.939 69.337 64.447 62.147 62.277 62.354 62.407 62.364 62.324 62.344 62.714 63.219 68.524 68.477 68.524 68.602 68.727 68.812 68.879 68.929 68.897 68.789 68.694 68.437 68.452 68.424 68.359 68.252 68.182 68.164 68.182 68.142 68.037 67.902 67.694 67.507 67.459 67.407 67.354 67.284 67.294 67.582 67.439
97.458 96.646 95.435 93.144 90.835 81.025 80.385 80.211 79.659 79.479 79.392 79.245 79.159 79.056 78.927 82.217 82.273 87.951 83.137 81.934 84.563 88.81 88.647 82.864 78.159 77.958 77.788 77.751 77.522 77.436 77.255 77.066 77.443 81.62 91.676 87.002 85.701 76.844 86.906 77.032 76.274 76.235 76.193 76.134 76.059 76.184 76.036 75.684 75.526 75.334 75.245 75.242 76.244 75.963 77.467 77.833 78.027 78.039 78 78.081 78.479 79.212 82.535 84.862 87.698 89.78 90.044 90.167 90.025 89.038 87.309 87.521 86.398 80.753 80.132 77.981 77.728 72.968 71.182 71.586 74.326 74.196 74.641 73.617 73.17 73.054 75.614 87.589 92.906 93.791 94.347 91.882 87.49 77.84 72.774 72.14 71.848 71.598 71.303 71.186 70.85 70.319 71.907 76.274 81.972 81.855 81.56 81.764 82.402 81.571 79.023 71.744 68.878 68.907 68.894 68.863 68.852 69.017 69.02 69.077 68.995 70.323 70.106 69.97 70.252 70.225 70.039 70.059 69.192 69.108 69.239 69.23 69.116 69.054 69.084 69.113 68.902 69.138 69.025 69.012 69.13 69.173 69.311 69.429 69.418 69.375 69.367 69.367 69.202 69.154 68.955 69.002 68.893 68.916 74.735 77.419 79.315 83.415 82.176 81.887 81.927 83.537 80.688 78.222 76.131 74.329 74.319 74.433 74.323 74.374 75.024 81.391 83.675 82.466 81.904 81.989 83.501 82.108 75.454 67.159 67.259 67.646 67.654 67.301 68.711 67.359 67.039 69.104 67.046 68.554 67.739 67.744 67.851 67.881 67.911 67.934 67.956 67.971 67.989 68.019 68.034 67.551 67.631 67.656 67.596 67.816 67.639 70.341 70.451 68.706 74.386 70.001 69.806 70.551 70.526 70.551 70.534 67.566 70.131 68.559 69.656 77.486 78.481 79.496 79.749 78.776 77.764 66.721 67.561 67.466 67.489 67.474 67.434 67.384 67.296 67.236 67.159 67.154 67.104 67.001 66.791 66.414 66.024 65.709 65.534 70.191 71.131 75.214 75.026 75.294 75.346 75.341 75.346 75.339 75.321 75.101 75.281 75.329 75.324 75.336 75.341 75.321 75.194 75.159 75.329 75.329 75.334 75.334 75.311 75.271 75.079 75.221 70.786 70.796 70.781 70.704 70.719 70.716 70.709 70.694 70.714 70.726 70.714 70.719 70.739 66.011 66.031 66.056 66.074 66.149 66.209 66.269 66.339 66.394 66.461 66.534 66.589 66.656 66.729 66.781 66.856 66.921 66.984 67.046 67.099 67.169 67.229 67.296 67.356 67.844 69.181 68.126 67.459 69.884 71.331 71.356 71.364 71.411 71.426 71.046 71.111 71.166 71.641 71.984 72.144 75.456 78.956 79.669 80.521 80.156 78.206 69.914 67.746 67.701 67.601 67.614 67.631 67.639 67.641 67.606 67.511 67.456 67.551 67.834 68.044 68.526 68.317 67.729 67.742 67.734 67.757 67.777 67.819 68.559 72.704 72.897 76.117 78.867 79.459 80.089 80.669 81.294 81.977 81.962 81.324 80.734 80.144 79.487 79.647 78.867 72.764 72.512 68.839 68.837 68.839 68.859 68.879 68.917 68.904 68.929 68.932 68.919 68.939 68.934 68.927 68.942 68.959 68.967 66.799 62.122 62.234 62.414 62.427 62.397 62.347 62.334 62.644 63.022 68.349 68.494 68.557 68.619 68.707 68.822 68.902 68.969 68.954 68.824 68.652 68.534 68.549 68.492 68.399 68.392 68.407 68.387 68.377 68.347 68.277 68.162 67.964 67.684 67.499 67.414 67.367 67.304 67.237 67.202 67.284
95.221 94.048 93.892 87.199 80.5 80.368 80.202 79.889 79.702 79.875 79.468 79.157 79.094 78.994 78.842 79.723 80.312 83.86 87.22 85.149 85.566 89.453 88.491 86.125 80.19 79.406 77.841 77.603 77.434 77.262 77.06 76.904 77.604 85.779 88.261 84.921 77.824 76.32 76.975 76.742 76.225 76.073 76.012 76.037 76.085 76.07 75.894 75.661 75.425 75.231 75.163 75.065 75.624 74.826 74.667 75.412 77.498 77.992 78.015 78.002 78.043 78.038 78.523 78.961 80.104 82.072 87.122 88.469 89.999 89.513 89.953 90.23 89.216 87.379 86.803 85.711 81.231 74.781 71.459 72.489 75.721 74.225 74.566 72.23 72.125 71.441 73.019 82.183 91.442 94.321 94.252 85.322 75.396 73.005 72.333 72.12 71.82 71.566 71.34 71.178 70.949 70.698 71.526 72.688 79.514 81.996 81.71 81.744 83.089 81.555 78.357 70.163 68.758 68.642 68.633 68.478 68.605 68.661 68.686 68.906 68.849 68.748 68.829 68.835 68.857 68.731 68.756 69.271 68.981 68.756 68.938 68.871 68.825 68.83 68.88 68.854 68.889 68.794 68.88 68.872 68.91 69.008 69.083 69.271 69.256 69.266 69.267 69.148 69.012 68.847 68.689 68.272 68.15 67.856 73.263 77.236 80.473 81.903 82.211 81.865 82.828 82.526 80.676 78.127 74.449 74.299 74.201 74.319 74.332 74.263 74.842 81.138 82.068 82.122 81.85 81.788 82.114 81.706 77.05 67.099 67.211 67.234 67.421 67.171 67.269 67.029 67.034 68.316 67.034 67.644 68.261 67.811 68.174 67.824 67.844 67.859 67.879 67.869 67.904 68.349 68.244 67.426 67.449 67.464 67.469 67.494 68.236 69.296 68.641 67.511 71.634 67.746 66.886 66.876 66.854 66.826 66.856 67.299 68.461 68.389 69.031 77.521 78.544 79.544 79.694 78.709 77.779 66.874 67.454 67.449 67.501 67.491 67.509 67.394 67.301 67.211 67.129 67.066 67.011 66.909 66.644 66.274 65.884 65.599 65.424 69.844 71.096 75.224 75.064 75.259 75.266 75.311 75.306 75.279 75.291 75.109 75.234 75.291 75.316 75.309 75.289 75.276 75.176 75.139 75.296 75.304 75.299 75.294 75.291 75.206 75.099 75.229 70.781 70.799 70.781 70.686 70.716 70.711 70.686 70.696 70.714 70.721 70.714 70.711 70.726 65.841 65.851 65.876 65.906 65.971 66.039 66.099 66.161 66.214 66.291 66.349 66.419 66.484 66.569 66.621 66.666 66.744 66.826 66.899 66.979 67.051 67.096 67.179 67.226 67.276 67.399 68.079 67.356 68.016 67.419 67.416 68.824 71.301 71.354 71.086 71.076 69.309 68.984 66.779 66.446 67.934 78.301 79.261 80.206 79.594 78.756 77.601 67.784 67.716 67.654 67.554 67.584 67.594 67.614 67.604 67.539 67.466 67.494 67.554 67.984 67.851 68.367 67.807 67.702 67.694 67.689 67.719 68.814 72.737 72.947 78.144 78.972 79.577 80.177 80.809 81.454 82.072 81.834 81.197 80.552 79.962 79.354 78.807 76.307 72.714 72.649 69.812 68.822 68.807 68.802 68.834 68.867 68.924 68.949 68.952 68.949 68.929 68.947 68.947 68.942 68.957 68.957 68.969 69.087 62.099 62.199 62.412 62.464 62.442 62.389 62.342 62.634 63.039 67.844 68.524 68.569 68.634 68.697 68.837 68.914 68.979 68.984 68.859 68.932 68.639 68.624 68.564 68.524 68.529 68.509 68.494 68.497 68.457 68.397 68.307 68.209 68.089 67.774 67.532 67.369 67.309 67.249 67.189 67.132
89.662 91.088 81.355 80.578 80.376 80.247 79.942 79.719 79.596 79.673 79.948 79.219 79.092 78.916 78.837 78.717 78.927 80.287 83.934 81.184 83.209 86.622 87.235 87.226 84.092 85.842 80.52 79.983 77.381 77.076 76.918 76.749 76.691 77.517 80.555 76.728 76.094 76.079 77.936 81.508 77.248 77.105 75.932 75.902 76.085 76.075 75.765 75.661 75.348 75.222 75.322 80.038 80.726 79.732 75.243 74.718 74.563 75.608 77.075 77.681 77.98 77.995 78.001 77.946 78.115 78.543 80.2 82.528 85.565 87.484 89.38 89.525 89.835 90.275 89.488 89.008 87.861 81.023 76.781 78.569 80.22 74.045 73.164 71.002 69.782 69.219 70.881 75.02 82.964 91.353 91.806 76.202 72.75 72.317 72.275 72.051 71.649 71.156 71.099 71.3 70.711 70.038 71.316 77.114 79.213 81.59 81.539 81.696 81.959 80.887 78.826 72.465 68.506 68.321 67.946 67.705 68.26 68.398 68.501 68.556 68.484 68.557 68.556 68.596 68.526 68.586 68.612 68.524 68.552 68.57 68.446 68.431 68.572 68.509 68.515 68.641 68.682 68.546 68.619 68.635 68.682 68.816 68.878 68.887 69.026 69.059 68.993 68.937 68.874 68.613 68.445 67.463 66.596 66.508 73.661 75.506 78.096 80.909 81.775 81.825 83.266 82.856 80.797 77.974 73.936 73.629 73.556 73.658 73.641 73.6 74.082 80.7 81.844 81.924 81.774 81.754 82.057 81.686 75.42 67.005 66.962 67.054 67.024 67.016 67.011 67.026 67.034 67.029 67.024 67.094 67.121 67.439 67.579 67.659 67.691 67.709 67.726 67.729 67.746 67.821 67.826 67.286 67.301 67.329 67.351 67.431 67.379 69.966 70.281 72.731 70.606 66.886 66.856 66.826 66.801 66.774 66.891 67.714 68.889 69.256 68.939 77.611 78.589 79.614 79.599 78.631 77.686 68.469 67.491 67.456 67.499 67.459 67.539 67.311 67.181 67.149 67.071 66.974 66.879 66.719 66.446 66.049 65.729 65.439 65.281 70.131 70.744 75.214 75.081 75.244 75.281 75.304 75.301 75.314 75.286 75.141 75.229 75.291 75.299 75.286 75.311 75.291 75.166 75.176 75.306 75.319 75.311 75.291 75.291 75.269 75.094 75.221 70.779 70.806 70.786 70.716 70.719 70.714 70.711 70.711 70.721 70.729 70.726 70.724 70.736 65.669 65.689 65.686 65.744 65.804 65.879 65.961 66.004 66.044 66.114 66.181 66.251 66.331 66.421 66.514 66.534 66.619 67.311 68.104 66.821 67.776 67.001 67.049 67.091 68.036 69.389 67.466 67.261 70.126 67.556 67.516 68.556 68.239 67.394 65.994 66.166 68.581 68.789 66.786 67.991 75.346 77.814 78.811 79.661 80.134 79.309 78.474 72.954 67.939 67.671 67.576 67.516 67.551 67.571 67.589 67.569 67.496 67.414 67.521 67.886 68.014 68.274 67.937 67.729 67.632 67.627 67.704 67.849 70.139 72.792 76.059 79.712 80.322 80.894 81.552 82.132 81.742 81.074 80.437 79.832 79.209 78.744 72.032 70.437 72.152 68.782 68.784 68.779 68.767 68.772 69.037 68.882 68.989 68.947 68.964 68.957 68.964 68.949 68.939 68.959 68.952 68.952 68.959 69.074 62.057 62.162 62.449 62.549 62.499 62.449 62.399 62.569 63.022 64.837 68.559 68.589 68.644 68.717 68.857 68.924 68.989 69.047 68.974 68.799 68.724 68.714 68.672 68.319 68.412 68.534 68.534 68.492 68.462 68.432 68.422 68.409 68.399 68.312 67.949 67.549 67.337 67.254 67.194 67.134
83.867 85.797 84.413 80.686 80.276 80.022 79.697 79.603 79.62 79.671 79.609 79.739 79.66 79.538 78.719 78.585 78.479 78.387 78.347 78.214 78.179 78.801 78.621 83.905 82.514 84.504 81.219 77.723 77.919 76.906 76.835 76.663 76.457 76.339 76.193 76.053 76.006 76.042 79.056 75.971 75.955 75.909 75.878 75.934 76.008 75.86 75.674 75.774 75.238 75.868 80.996 81.305 84.678 82.256 74.733 74.524 74.53 74.436 74.408 75.383 76.527 77.809 77.681 77.897 77.993 78.065 77.972 78.795 79.574 82.489 84.376 84.022 88.946 89.45 89.386 90.521 90.123 86.995 79.745 75.762 80.009 74.073 72.648 69.522 69.814 70.63 71.431 72.997 75.519 85.373 80.067 75.128 72.928 72.33 72.037 71.466 69.84 69.205 70.307 69.447 67.896 68.686 71.687 76.632 80.047 81.493 81.41 81.585 81.573 80.812 76.576 69.805 67.732 67.737 66.629 65.351 67.385 68.185 68.247 68.335 68.399 68.408 68.694 68.706 68.415 68.444 68.416 68.404 68.415 68.627 68.39 68.404 68.385 68.364 68.435 68.506 68.615 68.481 68.445 68.453 68.51 68.595 68.614 67.609 68.687 68.748 68.741 68.714 68.669 68.475 65.065 65.177 65.141 65.337 74.7 78.703 77.415 81.344 81.769 81.854 83.535 83.121 81.029 78.837 73.128 72.756 72.671 72.601 72.817 73.245 73.838 79.934 81.375 81.829 81.769 81.876 82.006 81.7 77.684 66.682 66.59 66.785 66.916 66.969 66.989 66.981 66.989 66.991 66.984 66.994 67.006 67.039 67.056 67.069 67.101 67.116 67.116 67.136 67.129 67.146 67.274 67.174 67.191 67.214 67.229 67.256 67.244 69.014 71.416 73.759 70.366 66.886 66.846 66.811 66.749 66.706 66.809 68.279 69.554 69.534 69.826 77.626 78.271 79.674 79.491 78.549 77.599 66.744 66.959 67.091 67.016 66.959 66.889 66.834 66.814 66.734 66.714 66.606 66.594 66.436 66.269 66.049 65.506 65.214 65.124 69.806 70.749 75.214 75.099 75.259 75.319 75.316 75.324 75.329 75.321 75.149 75.236 75.324 75.329 75.331 75.339 75.334 75.224 75.196 75.324 75.341 75.344 75.344 75.329 75.296 75.101 75.224 70.934 70.804 70.796 70.729 70.724 70.719 70.701 70.709 70.721 70.719 70.711 70.716 70.734 65.526 65.539 65.534 68.929 68.254 66.571 67.194 66.634 65.896 65.956 67.116 67.206 66.186 66.266 66.346 66.419 66.479 68.631 72.109 69.144 72.946 68.226 66.916 66.989 67.516 69.899 68.589 68.566 68.071 67.179 67.194 67.349 67.219 66.571 65.574 65.581 66.159 66.036 67.679 70.426 68.806 67.906 78.254 79.099 79.924 79.874 79.254 78.194 69.089 67.659 67.784 67.476 67.496 67.534 67.571 67.556 67.524 67.444 67.456 67.539 69.306 68.082 67.934 68.032 67.622 67.629 67.699 67.772 68.222 71.992 73.402 78.509 81.117 81.744 82.179 81.569 80.957 80.327 79.717 79.124 78.579 73.194 69.494 71.569 68.694 68.722 68.717 68.707 68.714 68.754 69.282 69.429 69.417 68.992 68.962 68.967 68.959 68.952 68.947 68.937 68.934 68.939 68.949 69.239 62.047 62.154 62.522 62.664 62.552 62.529 62.479 62.522 62.964 63.209 68.624 68.597 68.654 68.717 68.877 68.954 69.017 69.064 68.989 68.864 68.804 68.774 68.852 68.079 68.194 68.292 68.374 68.442 68.417 68.387 68.447 68.557 68.629 68.722 68.687 68.124 67.632 67.347 67.207 67.139
87.438 87.122 84.668 80.249 80.145 79.792 79.581 79.541 79.658 80.079 86.091 85.991 83.171 79.418 79.371 78.58 78.395 78.271 78.227 78.063 77.942 77.859 78.081 82.224 80.366 83.174 80.185 86.467 83.83 76.78 76.848 76.577 76.41 76.235 76.041 75.998 75.925 75.965 75.934 75.898 75.849 75.807 75.814 75.928 75.91 75.708 80.339 82.498 77.283 78.643 82.321 85.077 85.09 80.266 75.299 74.523 74.444 74.349 74.214 74.082 74.032 74.39 74.32 75.288 77.658 77.928 77.949 77.939 78.064 78.532 78.359 81.145 85.003 83.21 87.94 89.732 89.43 89.715 83.999 78.901 74.322 72.651 71.932 72.321 72.443 73.17 72.971 73.049 74.456 77.453 79.808 76.356 73.089 72.226 71.482 69.172 67.673 68.695 69.26 67.59 67.125 69.769 74.94 77.902 80.318 81.364 81.513 81.609 81.522 78.995 73.665 67.167 65.761 67.345 65.548 65.089 67.997 69.376 68.409 68.153 68.21 68.671 69.318 69.673 69.361 68.954 68.393 68.965 69.702 68.466 68.835 69.232 69.221 68.54 68.675 69.137 71.62 70.027 70.932 71.653 70.425 72.556 72.802 72.226 73.184 74.226 73.273 72.902 73.699 73.617 69.97 72.959 72.925 70.797 77.163 79.597 80.745 81.806 81.874 81.844 82.904 82.889 80.666 77.564 72.261 71.693 71.627 71.648 71.696 71.558 73.012 79.472 81.473 81.73 81.815 81.795 82.007 81.616 76.148 66.646 66.642 66.806 66.929 66.976 66.984 66.981 66.979 66.974 66.984 66.989 66.991 66.989 66.984 66.986 66.996 67.006 67.026 67.144 67.046 67.036 67.044 67.089 67.116 67.154 67.136 67.161 67.146 67.064 67.654 70.024 67.569 66.871 66.831 66.774 66.714 66.631 66.639 67.844 68.556 69.149 69.329 76.429 79.646 79.389 79.481 79.389 77.526 66.296 66.276 66.141 67.934 70.141 65.951 65.886 66.266 65.911 65.954 65.844 65.764 65.799 65.831 65.551 65.394 64.976 64.954 70.106 70.756 75.216 75.076 75.296 75.336 75.329 75.344 75.344 75.341 75.139 75.224 75.331 75.326 75.331 75.341 75.319 75.211 75.156 75.316 75.314 75.334 75.319 75.324 75.259 75.081 75.226 71.129 70.799 70.779 70.691 70.709 70.709 70.701 70.694 70.714 70.714 70.701 70.716 70.731 65.416 65.431 65.424 66.584 66.534 66.031 66.911 65.939 65.729 65.801 66.669 67.134 66.624 67.299 66.919 66.261 66.339 67.179 68.389 67.194 68.129 67.266 66.779 66.846 66.909 66.961 67.001 67.019 67.049 67.056 67.046 67.594 67.389 65.994 65.824 67.234 65.606 65.574 67.619 65.986 66.394 66.011 73.276 78.531 79.389 80.206 79.569 78.729 76.284 67.701 67.889 67.529 67.446 67.489 67.519 67.539 67.529 67.464 67.374 67.544 68.314 70.027 68.184 67.829 67.557 67.604 67.677 67.757 67.844 68.677 73.144 73.699 81.652 82.192 81.467 80.759 80.179 79.602 79.009 77.922 72.814 72.252 71.312 68.602 68.627 68.632 68.637 68.659 68.714 68.772 68.824 68.982 69.899 69.284 68.969 68.974 69.017 68.949 68.934 68.924 68.909 68.914 68.944 69.134 63.037 62.242 62.622 62.802 62.634 62.594 62.562 62.544 62.917 63.234 68.704 68.619 68.662 68.734 68.852 68.972 69.027 69.104 68.767 68.952 68.892 68.854 68.462 67.527 67.637 67.742 67.909 68.074 68.167 68.232 68.359 68.597 68.719 68.879 69.049 69.029 68.477 67.844 67.362 67.167
90.587 90.459 88.75 80.587 79.967 79.604 79.521 79.609 79.649 81.331 86.426 88.488 86.649 79.779 79.027 79.068 79.418 78.519 78.125 77.963 77.913 77.812 77.71 78.376 77.539 80.458 85.806 82.239 77.028 76.809 77.221 76.567 76.239 76.139 76.074 75.966 75.921 76.133 78.821 75.941 75.74 75.764 75.769 75.832 75.699 80.991 84.303 84.57 85.382 86.359 84.605 82.22 77.92 75.728 74.48 74.432 74.303 74.269 74.159 74.053 73.854 73.636 73.351 73.384 74.23 74.854 76.611 77.931 78.018 78.043 77.993 78.424 78.744 78.873 81.541 81.531 87.183 89.394 87.266 79.268 74.997 74.896 75.897 76.565 75.474 75.589 76.223 74.74 74.546 78.045 78.173 74.926 73.278 73.859 70.71 70.312 71.091 74.492 73.68 71.168 71.488 75.8 77.7 79.454 80.583 81.53 81.386 81.543 81.647 80.033 76.322 68.668 70.37 70.786 74.614 70.945 73.94 71.346 70.1 71.108 70.972 73.763 74.059 76.156 75.047 72.105 72.65 74.688 74.721 71.134 72.417 73.139 74.715 74.76 74.031 76.304 75.771 74.828 76.8 78.39 76.442 77.156 77.949 77.74 78.917 78.227 78.291 77.371 77.186 77.546 77.746 77.309 75.517 77.033 79.304 80.885 80.998 81.805 82.216 81.786 81.998 81.246 80.555 77.037 71.394 70.747 70.846 70.887 70.695 70.79 73.067 80.821 81.724 81.791 81.721 81.742 81.899 81.497 75.617 67.77 67.105 67.03 67.016 66.998 66.979 66.965 66.949 66.952 66.945 66.965 66.953 66.963 66.96 66.971 66.961 66.973 66.993 67.11 66.987 66.981 66.984 66.995 66.988 66.979 66.976 66.978 66.966 66.934 66.903 66.888 66.875 66.822 66.766 66.693 66.628 66.529 66.37 66.543 67.852 68.067 67.9 66.833 66.204 65.744 66.589 66.762 65.416 65.5 65.193 65.254 70.167 71.654 64.964 64.831 64.956 65.11 65.176 65.108 65.202 64.951 65.179 65.014 65.036 64.901 64.724 69.416 70.994 75.214 75.059 75.281 75.321 75.319 75.331 75.321 75.301 75.134 75.226 75.311 75.326 75.319 75.316 75.314 75.204 75.154 75.274 75.314 75.311 75.306 75.301 75.264 75.056 75.224 70.769 70.799 70.781 70.714 70.716 70.716 70.704 70.696 70.714 70.726 70.709 70.711 70.734 65.236 65.246 65.209 65.764 66.096 65.604 66.139 65.471 65.561 65.629 67.464 66.856 66.191 67.991 67.591 66.086 66.174 67.349 70.879 66.704 73.001 68.416 66.634 66.701 67.491 69.119 67.994 66.906 66.931 66.921 66.881 67.196 67.356 65.464 65.451 65.496 65.504 65.694 65.809 66.309 65.934 65.221 78.866 78.051 78.886 79.706 80.106 79.259 78.424 70.271 67.601 67.616 67.454 67.441 67.481 67.909 67.521 67.484 67.386 67.384 67.999 70.334 67.512 67.494 67.544 67.602 67.669 67.742 67.819 67.972 68.854 73.574 73.747 81.762 80.754 80.057 79.429 78.874 76.404 72.672 72.249 69.967 68.529 68.547 68.564 68.562 68.602 68.674 68.724 68.782 69.057 69.672 69.237 68.947 69.634 69.119 69.889 68.939 68.909 68.869 68.867 68.892 68.937 68.997 65.187 62.357 62.732 62.874 62.787 62.697 62.659 62.644 62.814 63.207 68.822 68.642 68.692 68.752 68.834 68.972 69.052 69.169 68.604 69.004 68.937 68.892 68.027 66.637 66.824 66.974 67.347 67.599 67.827 68.014 68.209 68.424 68.634 68.927 69.032 69.199 69.337 68.879 68.142 67.489
91.158 91.486 90.678 90.204 87.331 80.034 79.544 79.629 79.608 80.687 86.386 88.053 87.08 79.33 78.821 78.725 78.66 81.7 80.633 78.035 77.788 77.638 77.611 77.501 77.391 78.528 79.913 77.237 76.98 76.892 76.539 76.367 76.208 76.065 80.913 80.676 76.852 75.779 75.817 75.686 75.658 75.635 75.719 75.775 75.573 75.601 77.388 83.345 79.787 79.88 77.188 75.327 80.947 78.856 77.992 75.801 74.203 74.152 74.029 73.98 73.805 73.658 73.437 73.075 72.806 73.346 73.99 75.363 76.996 77.963 77.966 77.922 78.023 78.04 78.126 78.189 80.876 82.323 84.911 80.543 78.274 79.26 79.873 78.975 79.598 79.719 79.949 80.048 79.053 81.915 78.193 76.139 76.823 79.636 79.881 77.802 79.111 80.227 80.009 74.501 76.121 79.638 78.255 74.587 80.613 81.665 81.599 81.616 81.918 81.062 79.438 77.646 77.129 78.717 79.044 79.697 79.69 78.357 77.076 78.486 79.573 77.747 79.791 80.303 79.392 77.171 79.231 79.66 78.991 77.428 78.808 79.657 78.69 79.782 80.474 80.265 80.689 79.982 80.623 80.398 79.79 80.486 80.94 80.381 80.269 80.491 80.917 80.665 79.876 80.624 81.192 79.206 77.803 80.207 80.939 81.284 81.392 82.129 82.118 81.944 82.002 82.448 80.572 77.022 71.223 70.57 70.571 70.592 70.557 70.657 73.69 80.612 83.017 82.533 82.584 82.895 82.871 81.503 77.478 67.8 67.701 67.037 67.01 67.007 66.994 66.977 66.962 66.971 66.988 67.01 67.051 67.038 67.029 67.006 67.035 67.021 67.019 67.024 66.978 66.979 67.004 67.023 66.978 66.954 66.933 66.937 66.913 66.844 66.816 66.795 66.774 66.744 66.705 66.596 66.494 66.365 66.214 66.034 65.829 65.648 65.411 65.173 64.907 64.75 64.655 64.896 64.502 64.589 64.545 64.65 72.897 66.216 67.002 64.183 64.7 63.832 64.054 64.241 64.244 64.229 64.239 64.504 64.871 64.724 64.491 69.016 72.566 74.846 74.796 74.866 74.871 74.851 74.881 74.919 74.846 74.844 74.866 74.946 74.886 74.909 74.839 74.864 74.804 74.769 74.831 74.719 74.741 74.711 74.696 74.634 74.619 74.609 73.494 70.799 70.794 70.726 70.731 70.724 70.704 70.696 70.716 70.729 70.719 70.714 70.731 64.954 64.946 64.974 66.746 65.054 65.459 65.536 65.284 65.374 65.499 65.981 65.716 65.696 66.196 67.844 65.909 66.001 67.961 67.254 67.886 66.421 67.464 66.484 66.554 67.409 66.654 66.709 66.776 67.594 67.989 67.056 67.274 67.046 65.194 65.259 65.391 65.476 65.629 67.446 65.801 65.999 65.231 74.414 75.156 78.289 79.146 79.996 79.809 78.964 77.996 68.789 67.536 67.501 67.394 67.449 67.506 67.824 67.511 67.441 67.369 67.399 67.404 67.432 67.494 67.544 67.607 67.654 67.719 67.779 67.882 68.047 70.782 73.567 74.699 80.147 79.367 78.752 74.654 72.582 72.032 68.907 68.439 68.462 68.482 68.499 68.559 68.624 68.682 68.742 69.024 69.687 69.104 68.942 70.372 71.117 70.219 68.959 64.272 69.017 68.879 68.882 68.902 68.934 68.987 68.154 62.492 62.872 62.962 62.974 62.799 62.774 62.779 62.829 63.057 67.479 68.669 68.709 68.774 68.829 68.982 69.052 69.192 67.007 68.904 68.969 68.924 68.982 66.309 66.524 66.782 67.039 67.319 67.572 67.787 68.002 68.227 68.437 68.647 68.857 69.054 69.339 69.497 69.259 68.389
91.781 92.434 91.65 91.014 90.432 89.642 80.122 79.662 79.584 79.831 83.861 84.83 80.413 78.946 78.735 79.215 81.325 82.125 84.92 88.655 85.055 77.551 77.419 77.339 77.28 77.169 77.09 76.941 77.402 76.876 76.711 76.568 76.914 81.964 86.151 86.117 82.78 78.656 75.683 75.601 75.574 75.57 75.667 75.685 75.516 75.323 75.661 76.329 75.437 82.408 75.827 89.198 91.037 87.392 81.462 79.052 74.132 74.118 73.912 73.835 73.765 73.556 73.486 73.346 73.047 72.85 72.692 73.415 75.184 75.92 77.278 77.678 77.561 77.878 78.084 78.048 78.013 78.302 80.125 76.508 75.057 77.2 77.35 75.84 76.934 79.11 79.384 77.986 85.029 90.344 86.787 87.104 80.613 78.995 78.896 75.595 75.29 79.157 76.444 71.806 75.077 77.171 75.289 77.153 81.448 81.968 82.631 81.83 81.971 81.734 81.361 81.138 80.638 80.419 81.283 81.924 82.38 81.413 81.314 81.109 80.809 82.099 82.027 81.674 81.035 80.845 81.522 81.488 81.704 82.426 82.027 81.699 81.949 81.996 82.2 82.251 83.61 82.351 82.1 82.248 82.907 82.468 82.101 82.947 82.218 82.309 82.131 82.484 82.514 82.577 83.154 82.037 81.702 82.009 82.269 82.546 82.357 83.537 83.222 83.287 83.167 83.389 79.921 76.254 71.255 70.514 70.52 70.425 70.377 70.557 73.077 80.796 82.657 83.043 83.874 83.555 83.106 81.308 78.104 67.976 68.084 67.037 67.026 67.006 66.991 66.976 66.976 66.995 67.009 67.02 67.049 67.056 67.026 66.995 66.979 67.002 67.024 67.01 66.968 67.038 67.167 67.746 68.089 67.972 67.916 67.701 67.666 67.391 66.881 66.769 66.749 66.675 66.613 66.529 66.408 66.269 66.125 65.911 65.661 65.469 65.249 65.005 64.779 64.56 64.338 64.131 63.931 63.679 63.47 63.247 63.178 63.126 63.179 63.125 62.97 62.958 63.146 63.126 63.332 63.455 63.571 63.836 64.009 64.099 64.244 69.081 71.191 75.176 75.201 75.194 75.181 75.199 75.201 75.194 75.214 75.201 75.209 75.194 75.204 75.206 75.211 75.196 75.196 75.204 75.194 75.201 75.206 75.199 75.214 75.219 75.221 75.214 70.776 70.794 70.776 70.711 70.726 70.714 70.679 70.684 70.706 70.714 70.704 70.711 70.721 64.744 64.771 64.784 65.494 65.426 64.969 65.144 65.149 65.206 65.296 66.266 65.989 65.691 67.026 65.831 65.769 65.861 67.371 68.354 66.236 66.616 66.539 66.364 66.426 66.484 66.571 66.794 66.676 66.701 66.724 66.701 66.164 65.324 65.219 65.141 65.276 65.446 66.111 65.796 65.399 66.521 68.819 70.334 74.891 77.606 78.584 79.426 80.099 79.329 78.476 75.626 67.574 67.509 67.454 67.414 67.451 67.486 67.501 67.481 67.404 67.376 67.479 67.437 67.492 67.542 67.574 67.677 67.682 67.764 67.819 67.859 68.167 71.719 73.184 75.329 79.144 73.302 72.664 71.864 68.369 68.359 68.387 68.402 68.432 68.504 68.584 68.642 68.712 68.959 69.322 69.002 68.934 71.064 71.039 69.897 68.617 61.882 61.862 68.542 68.889 68.877 68.907 68.944 68.979 69.062 62.712 62.969 63.044 63.054 63.002 62.892 62.904 62.944 63.049 65.432 68.694 68.734 68.774 68.834 68.987 69.052 69.199 67.307 68.554 69.009 68.957 68.934 66.239 66.494 66.742 66.979 67.234 67.499 67.717 67.944 68.177 68.399 68.622 68.874 69.079 69.279 69.454 69.769 69.282
92.298 92.556 92.22 91.949 90.51 86.917 80.049 79.741 79.637 79.495 79.284 79.063 78.894 78.707 78.651 80.602 82.02 82.66 86.434 92.856 92.437 79.089 77.447 77.202 77.171 77.062 77 76.829 77.102 77.524 76.601 77.423 79.646 86.141 86.903 86.553 83.997 80.671 75.573 75.479 75.452 75.555 78.305 81.285 81.765 75.149 74.9 74.837 74.604 82.603 78.775 85.919 89.262 92.456 88.619 85.856 74.22 74.059 77.858 74.221 78.794 74.563 73.459 73.423 73.264 73.193 72.936 72.803 72.725 72.894 74.34 73.45 74.541 76.399 76.974 76.842 77.628 77.141 73.585 72.279 72.419 72.862 73.032 73.13 73.014 73.741 73.938 85.413 91.484 92.709 91.489 83.202 77.05 73.856 72.108 71.228 72.162 73.08 71.65 71.177 71.695 71.384 71.047 76.616 81.433 83.118 83.764 82.502 82.542 82.214 81.681 81.506 81.472 81.612 81.838 81.9 81.969 81.923 81.771 81.659 81.633 82.483 83.49 82.07 81.485 81.536 81.65 82.036 83.278 84.194 83.527 83.709 84.008 83.637 83.921 84.071 84.163 84.102 83.992 84.174 84.304 84.276 84.089 84.23 83.722 84.065 84.075 84.227 84.13 83.898 84.181 84.009 83.572 83.52 84.051 84.227 84.184 84.113 84.304 84.289 84.232 83.477 80.446 77.419 70.789 69.658 69.951 70 69.61 69.717 72.697 79.423 81.821 83.326 84.079 82.859 82.646 81.276 76.081 68.059 67.115 67.639 67.34 67.566 67.073 67.022 67.29 67.035 67.031 67.004 67.027 67.06 67.032 66.998 66.968 66.986 67.001 66.998 66.987 67.027 67.171 67.802 68.201 68.083 68.289 67.901 67.934 67.54 66.964 66.854 66.79 66.762 66.815 66.67 66.51 66.392 66.57 66.07 65.684 65.384 65.175 64.89 64.677 64.418 64.193 63.975 63.752 63.536 63.299 63.066 62.835 62.732 62.535 62.376 62.178 62.244 62.385 62.507 62.778 62.992 63.221 63.463 63.698 63.951 64.174 69.051 70.764 75.211 75.219 75.154 75.224 75.191 75.226 75.111 75.214 75.221 75.234 75.216 75.124 75.106 74.761 75.166 74.929 74.654 75.179 74.589 74.431 75.141 74.714 74.481 75.211 74.556 70.759 70.794 70.779 70.686 70.711 70.704 70.689 70.671 70.699 70.714 70.706 70.706 70.726 64.546 64.581 64.599 67.776 65.186 65.236 66.464 66.021 65.029 65.099 65.489 66.064 65.666 66.291 65.879 65.601 65.679 66.899 66.601 66.404 67.356 68.199 66.204 66.281 66.349 67.219 67.386 66.561 66.589 66.694 67.199 67.184 65.556 65.304 65.176 65.161 66.964 65.309 65.839 68.889 68.786 68.789 68.794 73.286 75.956 78.026 79.969 79.506 79.874 79.026 78.214 72.769 67.534 67.461 67.359 67.424 67.461 67.501 67.511 67.464 67.396 67.432 67.469 67.802 67.937 68.009 68.012 67.797 67.707 67.774 67.819 67.884 68.064 70.607 72.724 73.244 72.719 71.119 68.209 68.237 68.304 68.324 68.362 68.459 68.537 68.607 68.674 69.242 69.282 68.949 68.944 71.247 70.967 69.304 66.452 63.809 61.862 61.827 66.857 68.907 68.874 68.907 68.937 68.984 69.337 62.902 63.042 63.072 63.094 63.137 63.094 63.029 63.072 63.177 64.482 68.732 68.739 68.784 68.844 68.939 69.037 69.187 68.009 67.174 69.022 68.977 69.044 67.474 66.452 66.712 66.939 67.187 67.424 67.662 67.894 68.117 68.339 68.594 68.842 69.102 69.332 69.529 69.677 69.812
92.162 92.537 91.635 91.447 89.731 80.778 80.171 79.746 79.555 79.388 79.041 79.787 80.908 78.656 78.561 79.216 80.87 82.001 82.902 83.353 80.062 79.894 83.697 82.551 77.393 76.874 76.845 76.699 76.628 76.559 76.467 76.255 80.338 83.388 85.762 83.923 84.131 79.958 75.454 75.412 75.413 75.713 79.941 86.305 87.258 83.489 81.05 75.13 74.585 77.49 82.33 91.688 91.382 92.395 90.14 78.115 74.053 78.362 77.354 74.37 75.181 73.452 73.42 73.37 73.284 73.206 73.079 72.955 72.827 72.57 72.601 72.372 72.55 73.558 74.173 75.104 76.868 74.59 72.26 72.224 72.176 72.182 72.861 72.614 71.953 71.045 72.241 81.47 90.083 93.251 93.784 93.919 81.348 73.242 71.867 70.632 70.599 70.774 71.137 71.084 70.902 70.604 71.125 75.893 81.14 83.927 83.93 83.76 83.854 83.761 82.266 81.516 81.519 81.613 81.637 81.705 81.798 81.655 81.722 81.8 81.646 81.906 82.208 81.69 81.541 81.543 81.56 81.758 82.261 83.432 84.093 84.217 84.358 84.24 84.247 84.37 84.258 84.232 84.233 84.264 84.323 84.217 84.265 84.384 84.397 84.244 84.347 84.373 84.177 84.316 84.426 84.393 84.295 84.357 84.466 84.373 84.274 84.29 84.336 84.342 84.171 83.53 81.046 77.874 69.983 68.772 69.178 68.992 68.897 69.003 71.473 76.035 81.213 81.917 83.029 82.906 82.166 80.755 77.831 67.463 67.078 67.962 67.524 67.549 67.2 67.609 67.991 67.555 67.001 66.961 67.024 67.091 67.018 67.002 66.97 66.972 66.969 66.973 66.969 67.043 67.381 67.7 67.925 68.01 67.728 67.806 67.664 67.536 67.058 66.896 66.848 66.856 67.212 66.745 66.498 66.543 67.215 66.358 65.644 65.394 65.176 64.961 64.671 64.463 64.247 64.072 63.892 63.678 63.868 63.212 62.922 62.8 62.723 62.25 62.282 62.431 62.516 62.481 62.71 62.938 63.091 63.361 63.61 63.882 64.141 70.324 70.786 70.781 70.781 70.781 70.776 70.789 70.789 70.784 75.044 73.229 70.789 70.796 70.794 70.784 70.789 70.784 70.794 70.784 70.786 70.774 70.779 70.776 70.781 71.716 74.891 70.796 70.806 70.809 70.794 70.719 70.719 70.724 70.699 70.709 70.724 70.721 70.719 70.721 70.729 64.349 64.369 64.386 64.399 64.511 64.609 64.701 64.776 64.836 64.904 64.999 65.084 65.456 66.506 66.311 65.424 65.471 65.594 65.706 66.721 68.469 66.301 66.049 66.111 66.321 67.221 67.679 66.456 67.311 66.791 66.889 66.654 65.584 65.281 65.319 65.121 65.124 67.086 68.804 68.786 68.766 68.761 68.771 67.861 67.006 69.746 78.129 78.961 79.786 79.559 78.769 77.474 67.704 67.399 67.284 67.369 67.444 67.491 67.521 67.509 67.466 67.422 67.484 67.972 67.899 67.954 67.982 68.187 67.782 67.727 67.787 67.834 67.872 68.147 71.249 72.649 69.647 68.089 68.122 68.159 68.214 68.277 68.392 68.502 68.572 68.644 69.342 69.109 68.909 69.427 71.192 70.909 69.022 62.544 61.892 61.857 61.809 61.794 65.819 68.907 68.892 68.902 68.934 68.979 69.334 63.597 63.059 63.077 63.097 63.189 63.207 63.219 63.194 63.269 63.377 68.789 68.749 68.797 68.837 68.909 69.064 69.219 68.629 66.462 69.032 68.982 70.032 68.962 66.487 66.742 66.987 67.209 67.457 67.699 67.954 67.867 68.067 67.949 68.972 69.189 69.387 69.602 69.737 69.992
