ncols 405
nrows 32
xllcorner    429158
yllcorner    436250
cellsize     2
NODATA_value -9999
51.251 51.314 51.339 51.384 51.429 51.471 51.529 51.551 51.539 51.501 51.441 51.561 52.536 51.796 51.766 51.669 52.754 51.776 51.941 52.036 52.079 52.114 52.186 52.276 52.314 52.321 52.219 52.126 53.321 55.736 56.831 55.844 54.076 52.129 52.429 54.569 55.939 54.509 52.366 52.134 52.174 52.414 52.744 52.949 52.976 52.979 53.016 53.614 53.419 53.486 53.599 53.834 53.746 53.794 53.904 53.829 53.781 53.709 53.541 54.656 56.119 58.931 59.319 59.809 60.259 60.676 60.684 60.291 58.936 55.041 52.839 54.327 54.579 57.897 56.889 53.702 53.747 53.259 53.239 53.324 53.547 53.474 53.354 53.417 53.479 53.522 53.579 53.642 53.704 53.884 53.767 53.804 53.817 53.844 53.937 54.069 54.317 54.254 54.279 54.517 55.739 54.532 54.634 54.747 55.319 54.889 54.979 54.914 55.144 57.497 60.987 61.462 61.892 62.127 61.877 61.472 61.042 60.637 57.869 55.564 56.429 58.299 56.484 56.659 57.282 57.522 58.889 57.599 57.639 57.767 58.297 58.962 58.274 58.402 58.867 58.834 59.014 58.899 59.097 59.362 59.927 59.807 59.932 60.062 60.509 61.067 60.767 60.924 60.917 61.032 61.219 61.444 61.674 61.984 62.039 61.589 62.484 63.034 62.607 62.854 63.697 63.984 64.317 64.502 64.759 64.902 65.034 65.197 65.424 65.619 65.814 66.114 66.282 66.447 66.612 66.777 66.984 67.169 67.457 67.624 67.827 68.052 68.294 68.527 68.722 68.969 69.169 69.524 69.842 70.122 70.422 70.757 71.059 71.394 71.727 72.089 72.412 72.712 73.059 73.399 73.742 74.107 74.467 74.819 75.164 75.542 75.819 76.142 76.417 76.687 76.977 77.259 77.664 78.049 78.489 78.844 79.207 79.654 80.079 80.552 81.222 81.862 82.189 82.624 82.909 83.384 83.862 84.247 84.662 85.034 85.434 85.952 86.344 86.749 87.027 87.367 87.747 88.074 88.399 88.734 91.079 92.689 99.622 95.082 90.479 90.844 91.289 91.674 92.049 92.512 92.877 93.289 93.767 94.407 94.844 95.497 96.372 96.449 96.992 97.524 98.037 98.919 99.822 100.139 100.294 101.207 101.872 102.449 104.137 103.347 103.954 104.892 106.037 106.387 106.564 111.884 112.819 112.242 108.752 106.497 106.512 106.422 106.312 106.209 106.247 106.217 106.132 106.204 106.379 107.167 106.932 107.024 107.009 112.417 112.329 107.407 108.797 107.012 108.679 109.094 106.967 106.987 108.152 107.412 107.407 107.504 107.129 107.154 107.109 107.142 107.134 107.084 107.072 107.052 107.892 106.999 106.947 106.957 106.954 109.702 110.977 107.034 108.639 110.244 110.567 106.779 107.034 107.149 106.647 106.599 106.702 106.609 109.922 110.842 111.399 110.314 111.332 111.329 111.879 111.754 111.597 111.782 111.419 110.749 108.934 107.877 108.009 108.034 105.869 105.767 106.194 114.967 114.662 105.637 105.637 105.557 109.857 109.527 114.309 111.492 106.339 105.089 105.079 105.097 105.064 105.039 105.137 105.329 105.947 104.332 104.229 104.224 104.229 104.244 104.142 104.079 104.009 103.974 103.942 103.899 103.859 103.812 103.782 103.792 103.757 103.724 103.719 103.734 103.714 103.667 103.687 103.662 103.637 103.647 103.664 103.717 103.724 103.744 103.809 103.824 103.874 103.909 103.924 103.969 104.014
51.179 51.201 51.206 51.311 51.439 51.501 51.481 51.464 51.461 51.466 51.441 51.386 51.474 51.899 51.559 51.801 51.671 51.751 51.834 51.884 51.921 51.961 52.021 52.064 52.116 52.166 52.134 52.181 54.084 56.306 56.756 55.539 52.411 52.041 52.009 52.214 52.191 52.149 51.976 52.089 52.046 52.299 52.549 54.059 53.314 53.404 52.954 53.271 53.074 53.186 53.341 53.311 53.344 53.774 53.756 53.636 53.486 53.426 53.299 55.036 53.581 52.646 55.229 55.589 58.631 59.026 59.461 59.824 58.291 54.274 52.716 54.629 54.047 60.132 59.809 59.477 59.102 57.552 54.662 53.099 53.222 53.444 53.289 53.357 53.414 53.469 53.517 53.584 53.667 53.734 53.794 53.829 53.869 53.879 53.902 53.924 54.007 54.099 54.369 54.719 54.699 54.382 54.484 54.614 55.064 54.679 54.749 54.804 54.949 55.989 55.219 56.859 60.684 61.064 61.934 61.909 62.177 61.894 61.269 55.594 56.269 58.302 56.254 56.457 56.719 57.344 57.407 57.139 57.582 57.687 59.167 58.549 58.082 58.057 58.142 58.379 58.597 58.694 58.802 58.949 59.247 59.277 59.394 59.649 60.749 61.202 60.447 61.314 60.922 61.007 61.162 61.324 61.804 62.477 61.689 61.092 62.232 63.382 63.449 62.934 63.449 63.799 64.074 64.267 64.439 64.632 64.842 64.994 65.262 65.447 65.684 65.902 66.057 66.232 66.399 66.594 66.799 67.042 67.297 67.529 67.694 67.879 68.099 68.337 68.607 68.817 69.104 69.432 69.684 69.992 70.324 70.657 70.949 71.279 71.682 71.959 72.247 72.562 72.872 73.242 73.604 73.962 74.297 74.622 75.007 75.332 75.587 75.872 76.137 76.412 76.667 77.064 77.427 77.824 78.289 78.659 79.034 79.367 79.769 80.319 80.849 81.314 81.789 82.312 82.682 83.112 83.557 83.939 84.389 84.839 85.174 85.587 86.007 86.464 86.759 87.132 87.447 87.782 88.139 88.429 88.849 89.219 90.282 91.627 90.182 90.579 90.929 91.332 91.707 92.242 92.584 92.942 93.352 93.972 94.429 95.044 96.077 96.102 96.659 97.184 97.634 98.434 99.434 100.017 100.162 100.717 101.437 102.064 102.814 103.149 103.409 104.407 105.429 106.154 107.154 108.357 112.212 112.849 111.934 106.477 106.472 106.682 106.347 106.307 106.177 106.202 106.157 106.117 106.242 106.334 106.869 106.577 106.647 107.157 107.129 107.864 106.964 108.844 112.309 112.427 109.112 106.877 107.282 107.049 107.069 107.099 107.084 107.352 107.137 107.087 107.104 107.279 107.409 107.947 107.304 106.909 106.922 108.267 107.752 110.877 107.399 107.897 107.509 110.514 106.504 106.577 106.639 107.292 106.479 106.467 107.589 106.187 106.134 106.644 108.142 107.399 107.662 109.537 111.609 111.382 109.594 111.639 110.729 111.004 112.007 110.729 108.022 108.042 105.977 105.787 106.129 112.197 112.659 108.262 105.619 105.474 108.824 113.722 114.837 113.462 107.589 111.199 106.319 105.104 106.312 105.079 105.429 107.257 107.674 104.359 104.114 104.132 104.112 104.102 104.039 103.989 103.922 103.869 103.834 103.789 103.779 103.702 103.662 103.649 103.622 103.609 103.619 103.642 103.619 103.562 103.572 103.567 103.587 103.579 103.584 103.622 103.669 103.712 103.739 103.777 103.824 103.877 103.902 103.932 103.964
51.056 51.061 51.261 51.419 51.534 51.574 51.591 51.559 51.446 51.389 51.416 51.394 51.346 51.374 51.386 51.441 51.744 51.581 51.586 51.689 51.746 51.761 51.836 51.896 51.889 51.916 51.974 52.149 55.144 56.344 56.456 55.261 51.944 51.824 51.776 51.779 51.896 51.854 51.769 51.801 51.989 52.654 52.874 53.406 52.311 55.641 52.499 52.701 53.019 53.669 53.689 52.899 52.821 52.869 53.616 53.316 53.286 53.179 52.656 55.076 52.139 52.204 52.244 52.406 52.879 52.534 55.506 57.086 56.814 53.146 52.804 53.579 55.472 61.169 60.947 60.559 60.402 59.214 58.874 56.232 53.159 53.512 53.209 53.267 53.327 53.359 53.522 53.707 53.822 53.872 53.877 53.842 53.857 53.894 53.939 53.959 53.984 54.012 54.039 54.072 54.149 54.237 54.582 54.484 54.522 54.592 54.617 54.724 54.829 54.939 55.004 55.239 55.344 57.634 59.777 60.669 61.057 61.492 60.527 55.594 57.162 62.077 61.904 61.272 59.244 58.452 59.127 58.529 56.894 56.534 58.739 59.019 57.892 57.944 58.082 58.237 58.352 58.452 58.612 58.754 58.882 59.194 59.169 59.424 59.579 59.679 59.809 59.979 60.452 61.709 60.934 60.979 60.829 60.857 62.104 61.172 63.087 63.929 63.224 63.062 63.297 63.627 63.842 64.007 64.187 64.412 64.654 64.847 65.097 65.272 65.512 65.652 65.832 66.047 66.237 66.442 66.642 66.914 67.117 67.332 67.587 67.779 67.977 68.172 68.424 68.657 69.012 69.272 69.567 69.859 70.189 70.497 70.807 71.224 71.557 71.864 72.172 72.479 72.779 73.107 73.399 73.787 74.099 74.467 74.807 75.109 75.372 75.612 75.847 76.112 76.472 76.844 77.242 77.634 78.202 78.427 78.744 79.112 79.597 80.059 80.464 80.934 81.497 82.089 82.359 82.807 83.212 83.652 84.104 84.444 84.962 85.307 85.699 86.039 87.154 86.834 87.159 87.492 87.787 88.172 88.572 89.087 90.129 89.537 89.877 90.234 90.592 90.932 91.362 91.804 92.254 92.642 93.004 93.527 94.022 94.612 95.242 95.867 96.357 96.824 97.392 97.854 98.714 99.612 100.112 100.242 101.129 101.712 102.467 102.987 103.204 103.992 104.767 105.572 106.737 106.447 111.327 112.519 112.539 111.122 106.449 106.399 106.382 106.297 106.189 106.137 106.152 106.084 106.099 106.149 106.234 106.349 106.949 107.024 107.694 106.912 109.484 112.372 113.102 113.209 112.399 109.092 106.947 106.957 106.999 107.027 109.007 108.249 108.589 107.047 107.037 107.212 107.797 106.819 106.732 106.764 106.889 107.229 110.437 108.057 106.864 107.354 109.564 106.274 106.362 106.404 107.252 106.402 106.374 106.507 106.872 106.079 106.039 107.452 106.644 106.264 106.504 109.457 108.767 107.472 108.414 108.849 111.139 112.124 111.894 110.757 108.804 108.012 106.072 105.739 105.742 105.659 108.394 113.974 105.684 105.419 105.244 106.852 111.057 108.937 107.112 111.772 106.599 105.097 109.034 113.627 112.034 108.244 109.514 104.897 103.952 104.042 103.994 103.979 103.969 103.877 103.839 103.797 103.744 103.717 103.684 103.632 103.602 103.554 103.529 103.499 103.509 103.477 103.502 103.472 103.504 103.547 103.577 103.557 103.557 103.564 103.604 103.672 103.707 103.744 103.782 103.809 103.869 103.882 103.929
50.899 51.096 51.246 51.326 51.394 51.446 51.516 51.564 51.526 51.431 51.326 51.344 51.331 51.284 51.249 51.309 51.366 51.391 51.439 51.481 51.561 51.631 51.649 51.701 51.701 51.596 51.544 51.239 56.884 57.489 56.211 54.474 51.394 51.416 51.466 51.464 51.506 51.511 51.591 51.806 51.809 51.421 51.264 51.204 51.761 52.604 51.679 53.559 54.026 52.339 52.449 53.086 53.059 52.741 52.671 52.624 52.679 52.881 54.344 55.129 52.211 52.196 52.331 52.541 52.284 52.294 52.394 52.469 52.534 52.629 53.884 53.644 57.539 60.182 60.562 60.949 60.809 60.342 59.959 53.084 53.187 53.234 53.097 53.174 53.204 53.334 53.944 53.917 58.969 54.189 53.919 53.989 53.987 53.989 53.952 53.952 53.987 54.032 54.077 54.099 54.129 54.144 54.209 54.332 54.387 54.487 54.504 54.617 54.707 54.782 55.184 55.477 55.282 56.844 55.459 55.454 55.482 57.654 57.222 55.634 60.227 62.519 63.019 62.747 62.317 61.884 61.159 60.192 59.149 56.752 58.912 58.507 57.889 57.914 57.949 58.029 58.119 58.244 58.427 58.587 58.762 59.079 59.104 59.127 59.564 59.644 59.522 59.629 59.819 60.147 60.492 62.319 60.369 60.289 62.619 61.767 63.769 63.734 63.839 63.274 63.169 63.374 63.542 63.739 64.002 64.254 64.454 64.687 64.862 65.119 65.289 65.459 65.649 65.869 66.084 66.299 66.599 66.764 66.979 67.217 67.407 67.629 67.867 68.099 68.249 68.584 68.882 69.139 69.442 69.732 70.037 70.344 70.702 71.097 71.399 71.732 72.072 72.384 72.679 72.994 73.329 73.604 73.879 74.249 74.572 74.854 75.114 75.367 75.617 75.854 76.229 76.612 76.962 77.439 77.952 78.272 78.479 78.839 79.289 79.747 80.144 81.014 81.172 81.644 82.082 82.464 82.902 83.317 83.724 84.217 84.664 84.969 85.377 85.732 86.149 86.449 86.814 87.139 87.469 87.894 88.264 88.594 88.937 89.249 89.537 89.917 90.262 90.684 91.009 91.472 91.987 92.302 92.737 93.089 93.649 94.137 94.907 95.999 96.067 96.564 97.337 97.609 98.034 99.067 100.007 100.159 100.574 101.429 102.089 102.779 103.022 103.497 103.917 104.962 105.747 106.422 106.547 111.914 112.824 112.247 108.122 106.329 106.297 106.317 106.227 106.084 106.102 106.109 106.009 106.007 106.102 106.204 106.789 107.774 106.902 107.024 108.242 112.317 113.104 114.027 113.219 112.402 108.107 107.159 106.974 106.994 108.274 108.712 107.019 106.969 106.952 106.947 106.724 106.727 106.719 106.762 107.197 109.952 109.042 106.562 107.464 109.902 107.147 106.187 106.182 107.797 106.792 106.344 106.284 107.782 106.072 106.057 106.677 108.669 105.664 105.809 106.917 108.769 108.612 106.092 106.139 106.407 106.162 106.972 109.887 107.947 108.609 106.767 107.287 107.992 108.127 107.689 106.769 106.434 105.827 105.434 106.027 105.932 106.437 105.087 105.079 105.419 105.059 105.062 108.184 113.732 110.984 108.699 108.697 105.114 103.797 103.829 103.837 103.799 103.817 103.759 103.727 103.699 103.659 103.622 103.607 103.582 103.547 103.509 103.452 103.429 103.372 103.357 103.357 103.389 103.442 103.512 103.579 103.582 103.562 103.557 103.599 103.657 103.692 103.727 103.739 103.779 103.834 103.839 103.879
50.884 51.041 51.061 51.101 51.196 51.324 51.401 51.459 51.496 51.486 51.404 51.264 51.276 51.261 51.234 51.186 51.209 51.264 51.301 51.349 51.374 51.444 51.671 51.559 51.566 51.404 51.166 53.326 57.246 58.361 57.351 54.189 51.114 51.174 51.261 51.304 51.316 51.591 51.679 51.394 51.441 51.374 51.756 51.099 52.509 51.521 51.489 51.479 51.866 51.571 51.831 52.301 52.066 51.144 52.449 52.511 52.461 52.521 54.591 53.481 53.324 52.559 52.181 52.329 52.099 52.104 52.151 52.191 52.269 52.481 52.969 53.824 55.729 58.949 59.457 59.814 59.617 59.974 60.374 53.067 53.124 53.094 52.992 53.052 53.067 53.287 53.709 55.237 59.752 60.867 61.347 58.082 54.019 54.052 54.089 54.099 54.082 54.029 54.064 54.114 54.152 54.187 54.199 54.239 54.242 54.289 54.372 54.484 54.584 54.647 55.349 55.034 55.117 55.667 55.312 55.367 55.402 55.399 55.492 56.317 57.842 61.514 61.944 62.349 63.042 62.957 62.684 62.259 61.842 61.349 57.652 56.914 56.962 57.344 57.854 57.752 57.767 57.987 58.179 58.387 58.732 59.027 59.047 58.744 59.354 59.157 59.302 59.439 59.659 60.189 60.174 59.942 59.967 60.442 61.367 62.352 62.752 62.687 62.649 62.852 62.957 63.069 63.329 63.559 63.812 64.059 64.317 64.447 64.722 64.904 65.092 65.282 65.514 65.712 65.942 66.177 66.439 66.669 66.889 67.089 67.277 67.502 67.737 67.904 68.212 68.507 68.769 69.007 69.272 69.602 69.879 70.209 70.607 70.917 71.282 71.519 71.944 72.242 72.577 72.882 73.172 73.424 73.802 74.109 74.329 74.602 74.909 75.177 75.489 75.707 75.964 76.299 76.722 77.109 77.464 77.834 78.204 78.617 78.997 79.422 79.944 80.432 81.119 81.309 81.722 82.099 82.552 82.942 83.344 83.837 84.214 84.642 85.004 85.479 85.767 86.152 86.482 86.782 87.139 87.619 87.982 88.339 88.694 88.989 89.277 89.587 89.947 90.334 90.737 91.157 91.624 92.024 92.454 92.742 93.319 93.817 94.504 95.354 95.572 96.242 96.667 97.239 97.692 98.452 99.599 100.082 100.162 101.092 101.732 102.647 102.869 103.047 103.512 104.172 105.122 105.962 106.262 109.127 112.459 112.859 111.957 106.347 106.267 106.304 106.242 106.189 106.014 106.052 106.034 105.939 106.029 106.069 107.172 106.247 106.519 106.947 107.277 108.024 112.349 113.159 113.812 113.067 112.284 106.964 106.917 107.637 108.397 107.064 106.899 106.927 106.904 106.674 106.624 106.642 106.652 106.812 110.187 109.599 106.904 106.672 110.217 108.459 106.152 106.084 106.612 106.407 106.452 106.244 106.654 106.019 105.892 105.934 108.144 105.947 105.622 106.174 108.632 108.294 105.862 106.029 106.002 106.124 106.797 106.127 108.804 106.504 106.339 106.877 109.234 105.704 105.862 105.867 107.952 107.802 107.697 108.109 106.749 107.297 105.622 105.389 105.842 106.022 105.752 105.247 105.189 105.292 105.387 107.747 106.374 103.727 103.694 103.839 103.782 103.797 103.697 103.617 103.462 103.439 103.512 103.499 103.487 103.439 103.449 103.402 103.372 103.337 103.312 103.319 103.274 103.272 103.334 103.432 103.517 103.572 103.572 103.529 103.582 103.627 103.677 103.712 103.727 103.744 103.772 103.807 103.882
50.901 50.914 50.904 50.936 50.984 51.131 51.246 51.326 51.364 51.401 51.421 51.359 51.229 51.199 51.199 51.159 51.116 51.111 51.181 51.219 51.256 51.371 51.431 51.396 51.414 51.279 51.084 55.439 57.561 58.279 57.076 52.726 51.066 51.119 51.184 51.204 51.674 51.504 51.169 50.736 50.829 50.689 50.721 50.766 52.486 51.501 51.484 51.476 51.191 50.841 51.031 53.021 51.454 50.996 52.969 52.939 51.924 52.759 52.569 52.581 53.894 54.461 54.811 52.861 52.219 52.009 52.084 52.071 52.026 52.274 53.426 53.679 53.689 54.327 56.589 56.942 58.404 58.884 56.887 53.029 52.997 52.902 52.869 52.919 53.004 53.137 53.199 56.942 60.147 61.224 60.982 59.857 54.469 54.009 54.072 54.119 54.142 54.167 54.152 54.189 54.152 54.182 54.212 54.262 54.299 54.329 54.359 54.397 54.454 54.549 55.307 54.832 55.004 54.982 55.077 55.147 55.222 55.239 55.399 56.527 55.777 56.422 56.342 58.037 60.894 61.924 62.309 62.727 62.967 62.769 62.752 62.382 61.549 58.867 57.114 57.367 57.509 57.672 57.704 57.907 58.519 58.767 58.502 58.494 58.744 58.924 59.074 59.289 59.629 59.809 59.632 59.547 60.272 60.862 61.464 62.632 63.132 62.532 62.689 63.174 62.664 62.907 63.219 63.419 63.682 63.882 64.092 64.269 64.554 64.704 64.902 65.134 65.379 65.587 65.799 66.059 66.272 66.522 66.752 66.964 67.174 67.372 67.572 67.792 68.104 68.379 68.637 68.889 69.202 69.432 69.717 70.079 70.429 70.724 71.159 71.469 71.807 72.134 72.469 72.762 73.022 73.309 73.627 73.889 74.154 74.442 74.702 74.889 75.202 76.017 75.734 76.114 76.489 76.989 77.174 77.544 77.999 78.329 78.762 79.184 79.712 80.132 80.927 81.037 81.369 81.757 82.177 82.519 83.034 83.457 83.864 84.252 84.684 85.082 85.469 85.799 86.152 86.499 86.887 87.269 87.699 88.112 88.474 88.717 89.029 89.307 89.659 90.054 90.447 90.812 91.244 91.684 92.124 92.429 92.932 93.489 94.057 94.587 95.232 96.022 96.334 96.872 97.397 97.969 99.019 99.914 100.054 100.499 101.399 102.104 102.579 102.887 103.412 103.922 104.589 105.334 106.119 106.304 111.139 112.522 112.552 111.007 106.229 106.254 106.582 106.159 106.019 105.949 105.999 105.979 105.882 105.934 106.012 107.512 106.824 106.574 106.624 107.152 108.377 112.372 113.059 112.384 108.304 107.184 106.394 106.224 107.482 106.809 106.847 106.849 106.702 106.629 106.612 106.884 107.537 109.217 107.404 106.754 106.984 109.577 110.204 106.029 106.034 106.342 107.282 106.149 106.147 106.047 107.619 105.869 105.839 106.917 108.432 105.239 105.627 106.289 107.379 105.752 105.712 105.744 105.482 105.327 105.902 106.827 107.107 105.369 104.832 106.377 108.192 104.904 105.102 105.509 106.007 107.079 107.507 108.179 105.224 106.424 106.712 106.432 107.112 107.087 107.419 106.754 106.084 106.007 105.539 105.642 104.164 103.627 103.629 103.614 103.574 103.644 103.674 103.519 103.347 103.679 104.272 103.224 103.207 103.247 103.269 103.299 103.379 103.219 103.202 103.157 103.997 103.177 103.202 103.392 103.487 103.574 103.577 103.557 103.562 103.609 103.649 103.699 103.717 103.734 103.747 103.767 103.799
50.811 50.821 50.799 50.794 50.821 50.896 50.976 51.119 51.179 51.254 51.286 51.326 51.326 51.179 51.116 51.111 51.101 51.061 51.016 51.086 51.154 51.221 51.531 51.214 51.389 51.156 51.586 56.654 57.851 57.984 56.779 53.166 51.064 51.066 51.109 51.136 52.621 50.881 53.464 52.579 51.161 50.934 50.746 51.314 50.781 50.799 51.071 51.481 50.866 50.831 50.899 53.101 50.891 50.924 53.044 52.931 51.796 51.771 52.219 51.421 51.434 55.069 52.186 54.196 53.281 51.974 52.009 52.104 52.739 52.381 53.724 53.624 53.609 53.704 55.282 53.587 53.034 53.344 53.042 52.939 52.839 52.704 52.754 52.799 52.957 53.009 52.997 58.439 59.617 60.864 60.562 59.489 54.667 53.927 53.939 53.997 54.027 54.059 54.397 54.304 54.297 54.314 54.304 54.267 55.697 54.984 54.399 54.457 54.507 54.537 54.567 54.597 54.742 54.814 54.884 54.952 55.012 55.089 55.234 55.374 57.147 56.219 56.134 56.297 56.789 56.402 58.627 61.492 61.942 62.787 63.294 63.499 63.179 62.752 62.367 61.602 58.492 57.017 57.439 59.032 58.027 58.164 58.249 58.487 58.579 58.709 58.897 59.229 59.667 59.409 59.204 59.799 60.439 61.059 61.977 62.047 62.849 62.984 63.327 62.504 62.522 62.794 63.012 63.284 63.512 63.764 63.959 64.157 64.294 64.499 64.752 64.984 65.212 65.404 65.689 65.907 66.114 66.334 66.577 66.799 67.017 67.237 67.402 67.747 68.007 68.232 68.484 68.762 69.042 69.309 69.634 69.937 70.199 70.567 70.902 71.262 71.642 71.989 72.349 72.599 72.927 73.209 73.442 73.697 73.959 74.252 74.472 74.712 75.039 75.209 75.459 75.899 76.224 76.642 77.032 77.287 77.749 78.087 78.419 78.944 79.407 79.869 80.302 80.644 80.999 81.427 81.809 82.242 82.642 83.069 83.459 83.892 84.347 84.734 85.144 85.457 85.769 86.192 86.599 86.949 87.402 87.744 88.047 88.424 88.734 89.054 89.389 89.749 90.147 90.512 90.992 91.384 91.794 92.209 92.609 93.162 93.652 94.254 94.824 95.317 95.907 96.464 97.104 97.629 98.372 99.322 99.984 100.069 101.079 101.787 102.219 102.727 102.864 103.414 103.932 104.492 105.797 106.304 106.164 111.887 112.459 111.872 106.887 106.364 106.167 106.184 106.087 106.007 105.902 105.937 105.904 105.807 105.857 106.119 108.642 106.477 106.929 106.497 106.647 109.112 112.299 107.382 106.822 106.559 106.577 106.207 106.677 106.772 106.784 106.739 106.677 106.682 106.604 106.764 109.044 108.134 106.597 108.072 109.007 109.827 105.969 105.882 105.907 107.784 106.674 106.074 106.079 106.817 105.804 105.789 105.764 107.192 105.229 105.072 105.062 106.514 105.627 105.592 105.459 105.182 105.159 105.424 105.294 107.419 106.897 104.857 104.577 104.969 104.689 104.707 104.719 105.202 104.882 104.944 104.932 107.437 104.622 104.629 104.839 105.039 104.827 105.089 104.867 105.737 105.972 105.522 105.534 105.102 103.669 103.512 103.572 103.552 103.474 103.584 103.962 103.474 103.327 106.734 107.512 108.312 106.454 103.294 103.277 103.349 103.202 103.194 103.184 103.142 103.194 103.117 103.192 103.344 103.454 103.542 103.574 103.572 103.539 103.579 103.632 103.672 103.682 103.694 103.724 103.737 103.767
50.756 50.739 50.746 50.716 50.696 50.741 50.801 50.926 51.016 51.096 51.131 51.164 51.211 51.236 51.171 51.036 51.051 51.064 51.036 50.981 51.041 51.064 51.094 51.134 51.129 51.051 51.069 56.959 58.161 57.679 56.489 52.569 51.031 50.999 51.041 51.051 54.409 54.146 54.589 54.299 54.014 53.744 53.446 52.749 52.434 54.241 51.136 50.764 50.709 50.724 50.841 50.899 50.831 50.849 50.841 51.346 51.251 51.524 51.246 51.351 51.379 51.454 51.541 53.059 52.209 52.901 52.539 52.011 52.086 52.454 53.601 53.749 53.646 53.784 53.804 52.941 52.779 52.834 52.914 52.851 52.656 52.561 52.629 52.661 52.834 52.911 53.886 58.896 59.999 60.436 59.316 56.389 53.804 54.169 53.871 53.906 53.896 53.931 54.414 54.396 54.386 54.394 54.706 55.064 54.416 54.559 54.936 55.414 54.519 54.551 54.601 54.631 54.656 54.969 55.439 54.869 54.881 54.944 55.031 55.124 55.754 55.501 55.776 56.546 56.229 55.664 56.296 56.341 57.779 61.769 61.661 62.481 62.871 63.821 63.484 63.181 62.706 62.361 58.886 56.996 57.669 57.876 58.016 58.174 58.469 58.559 59.016 59.334 58.906 59.084 59.419 59.914 60.449 62.641 62.861 62.251 62.706 62.749 62.099 62.051 62.411 62.629 62.879 63.134 63.361 63.526 63.771 64.016 64.179 64.441 64.601 64.811 65.174 65.386 65.574 65.781 66.024 66.224 66.429 66.649 66.894 67.051 67.356 67.629 67.869 68.094 68.369 68.654 68.909 69.176 69.491 69.761 70.091 70.379 70.719 71.086 71.456 71.821 72.146 72.431 72.816 73.089 73.261 73.514 73.796 74.056 74.231 74.576 74.766 75.031 75.274 75.579 75.871 76.231 76.871 77.026 77.441 77.766 78.231 78.799 79.106 79.534 79.909 80.256 80.684 81.071 81.454 81.896 82.274 82.689 83.054 83.529 83.941 84.416 84.831 85.019 85.476 85.884 86.279 86.646 87.054 87.396 87.791 88.111 88.474 88.804 89.151 89.496 89.791 90.261 90.676 91.161 91.454 91.901 92.249 92.726 93.204 93.801 94.439 94.929 95.499 96.049 96.684 97.216 97.774 98.781 99.746 99.946 100.244 101.356 102.966 102.374 102.619 102.861 103.931 103.956 105.624 106.296 106.136 107.336 109.971 106.126 106.134 106.076 106.101 106.116 106.299 106.036 105.979 105.851 105.881 105.826 105.741 105.926 105.964 108.574 106.514 106.504 106.486 106.559 106.414 106.726 106.309 106.209 111.229 111.426 106.116 106.636 106.534 106.696 106.704 106.634 106.574 108.686 106.984 106.481 106.356 106.266 108.216 106.091 105.946 105.819 105.951 105.977 105.611 105.669 106.789 106.194 105.629 105.659 106.352 105.911 105.099 105.079 105.102 105.632 105.051 105.439 104.979 104.919 105.254 105.146 106.699 108.217 105.524 104.639 106.722 104.539 104.691 104.722 104.667 104.994 104.694 104.719 105.634 104.604 104.524 104.514 104.502 104.466 104.187 104.159 104.201 104.144 104.292 104.327 104.527 104.937 103.539 103.469 103.474 103.484 103.402 103.499 103.532 103.362 103.259 109.194 109.804 109.844 109.162 103.839 103.272 103.189 103.177 103.202 103.202 103.122 103.087 103.057 103.124 103.307 103.407 103.517 103.592 103.594 103.572 103.582 103.612 103.657 103.649 103.664 103.694 103.714 103.759
50.631 50.646 50.604 50.634 50.574 50.609 50.684 50.766 50.841 50.901 50.951 51.006 51.049 51.136 51.201 51.126 51.001 50.994 51.009 50.996 50.949 50.909 50.986 50.989 51.164 51.044 51.004 51.036 50.981 51.761 53.109 51.706 50.941 50.949 50.936 51.844 53.901 54.704 55.281 55.374 55.201 54.904 54.611 54.081 50.584 56.804 56.526 56.261 55.184 52.866 50.754 50.794 50.766 50.799 50.826 51.351 50.841 52.419 51.211 51.244 51.221 51.236 51.346 51.424 53.456 53.804 53.899 52.576 51.709 51.741 52.094 52.649 53.089 53.336 53.154 53.106 52.514 52.631 52.709 52.654 52.454 52.431 52.481 52.551 52.726 52.804 52.849 52.941 55.959 59.774 58.921 53.351 53.091 53.294 53.561 53.709 53.766 54.136 55.046 58.134 54.841 54.541 55.471 55.904 54.806 54.514 54.959 54.616 54.939 54.649 55.706 54.631 54.676 54.721 54.744 55.304 54.779 54.851 54.879 54.919 55.154 55.431 55.379 57.014 55.786 55.359 56.224 56.301 56.194 56.594 56.791 56.866 58.176 62.076 62.479 62.901 63.279 62.589 56.801 56.924 57.496 57.641 57.786 57.951 58.229 59.509 58.816 58.804 58.754 58.916 59.471 59.894 60.341 60.864 61.069 61.589 62.079 61.776 61.684 61.869 62.239 62.451 62.734 62.974 63.174 63.286 63.626 63.796 63.944 64.314 64.494 64.789 65.061 65.239 65.409 65.669 65.876 66.086 66.289 66.516 66.724 66.944 67.219 67.466 67.726 67.969 68.259 68.534 68.776 69.041 69.356 69.589 69.899 70.194 70.559 70.916 71.266 71.636 71.906 72.299 72.636 72.881 73.086 73.326 73.589 73.829 74.176 74.381 74.516 74.746 75.054 75.336 75.644 75.974 76.736 76.734 77.151 77.556 77.969 78.401 78.831 79.211 79.566 79.944 80.326 80.651 81.109 81.516 81.894 82.306 82.714 83.139 83.606 84.016 84.396 84.766 85.156 85.594 85.929 86.344 86.724 87.111 87.451 87.784 88.156 88.614 88.911 89.211 89.536 89.994 90.294 90.754 91.151 91.596 92.021 92.364 92.974 93.449 93.961 94.526 95.119 95.654 96.304 96.861 97.301 98.124 99.076 99.774 99.899 100.601 101.346 102.144 102.461 102.646 102.889 103.461 104.851 105.604 106.081 106.036 105.989 106.044 106.374 110.454 106.039 106.054 106.059 106.211 105.996 106.229 105.801 105.826 105.754 105.709 105.879 105.844 106.254 107.446 106.461 106.229 106.679 106.491 106.286 111.309 112.144 112.254 111.474 107.706 106.221 106.219 106.554 106.474 107.456 108.889 106.861 106.366 106.824 108.639 106.091 105.986 105.849 105.859 109.669 105.612 105.584 105.589 109.542 105.512 105.551 105.559 107.269 105.072 105.076 105.107 105.844 104.654 104.744 105.259 104.682 104.494 104.929 105.079 109.249 108.907 104.699 105.451 105.482 104.492 104.576 104.599 104.804 104.602 104.566 104.624 106.407 104.407 104.434 104.441 104.449 104.374 104.387 104.099 104.319 104.074 103.799 103.797 103.794 103.799 103.451 103.441 103.392 103.384 103.299 103.412 103.484 103.302 103.229 109.244 110.349 109.882 109.137 103.974 103.234 103.182 103.164 103.169 103.134 103.092 103.074 102.904 102.977 103.179 103.352 103.449 103.544 103.569 103.569 103.574 103.607 103.647 103.652 103.652 103.682 103.702 103.732
50.464 50.489 50.471 50.496 50.501 50.499 50.534 50.591 50.671 50.726 50.761 50.834 50.921 50.991 51.081 51.139 51.109 51.029 50.946 50.951 50.949 50.906 50.871 50.839 50.899 50.919 50.916 50.876 50.914 50.914 51.024 50.864 50.834 50.816 50.844 50.789 50.736 53.829 54.104 54.406 54.674 55.006 55.256 52.526 51.584 57.961 57.666 57.389 57.091 56.571 50.669 50.729 50.866 52.129 50.839 50.896 50.871 52.451 51.139 51.124 51.129 51.114 51.221 51.346 53.904 51.729 51.831 51.809 51.926 51.781 51.786 51.794 51.874 52.179 52.564 52.646 52.326 52.429 52.459 52.364 52.236 52.296 52.331 52.441 52.594 52.661 52.731 52.821 52.921 53.076 53.089 53.649 53.099 53.204 53.359 53.584 53.601 54.764 57.419 60.384 60.116 59.819 58.014 56.579 55.164 54.539 54.714 54.749 54.639 54.644 54.659 54.686 54.711 54.689 54.746 54.791 54.841 54.874 54.901 54.926 54.949 54.981 55.064 56.259 55.296 55.626 56.874 56.224 56.169 56.426 56.436 56.639 56.869 57.749 56.826 59.989 62.054 61.789 56.674 56.991 57.351 57.471 57.604 58.136 60.504 60.164 58.579 58.276 58.626 59.166 59.506 59.869 60.399 60.859 61.271 61.044 61.426 61.364 61.506 61.821 62.109 62.334 62.589 62.829 62.899 63.224 63.484 63.634 63.891 64.144 64.356 64.656 65.014 65.211 65.461 65.486 65.689 65.924 66.166 66.396 66.511 66.871 67.106 67.321 67.564 67.839 68.139 68.374 68.659 68.946 69.154 69.444 69.721 70.044 70.384 70.744 71.109 71.419 71.761 72.124 72.414 72.629 72.901 73.156 73.391 73.639 73.941 74.144 74.341 74.564 74.806 75.074 75.376 75.761 76.221 76.566 76.844 77.304 77.759 78.106 78.546 78.876 79.244 79.639 79.941 80.366 80.766 81.171 81.596 81.956 82.396 82.789 83.219 83.566 84.019 84.496 84.859 85.554 85.589 85.984 86.364 86.774 87.101 87.741 87.854 88.499 88.546 88.894 89.206 89.616 90.026 90.394 90.769 91.254 91.664 92.031 92.579 93.001 93.521 94.069 94.736 95.259 95.881 96.441 96.906 97.429 98.364 99.391 99.729 99.831 100.734 101.296 102.049 102.439 102.679 103.149 103.739 104.929 106.021 106.116 106.051 106.164 111.199 111.866 110.706 106.049 106.024 105.961 106.024 106.304 106.406 105.751 105.781 105.696 105.674 105.814 105.729 106.289 105.901 106.444 106.601 106.009 110.419 111.871 112.664 113.124 112.341 111.516 107.109 106.226 106.274 106.901 109.191 108.929 106.244 108.386 107.854 106.484 105.951 105.816 105.801 105.812 105.576 105.542 105.554 105.564 105.232 105.374 105.521 106.309 105.484 104.949 104.989 105.017 105.721 104.454 104.292 104.262 104.499 104.229 104.279 105.644 108.784 106.574 104.644 104.417 104.477 104.454 104.414 104.437 105.152 104.554 104.427 104.521 105.182 104.304 104.319 104.259 104.237 104.204 104.004 104.009 104.039 104.154 103.762 103.737 103.639 103.599 103.337 103.347 103.304 103.274 103.194 103.329 103.462 103.252 103.192 109.259 110.409 109.814 108.737 103.629 103.184 103.214 103.159 103.114 103.242 103.307 103.402 102.857 102.802 103.047 103.269 103.412 103.469 103.534 103.542 103.562 103.612 103.632 103.647 103.657 103.684 103.694 103.714
50.394 50.454 50.454 50.436 50.426 50.439 50.444 50.494 50.554 50.599 50.644 50.699 50.739 50.814 50.894 50.961 51.061 51.111 51.069 50.964 50.901 50.886 50.879 50.831 50.779 50.759 50.784 50.826 50.834 50.811 50.796 50.764 50.736 50.731 50.759 50.631 50.639 50.644 51.589 52.536 53.549 53.819 54.104 50.671 54.716 57.516 57.811 58.116 58.171 54.309 51.846 50.736 51.741 56.284 57.099 56.726 56.104 53.294 50.824 50.904 50.906 50.951 51.104 52.234 52.981 51.716 51.724 51.911 51.929 53.661 52.701 51.801 51.791 51.839 51.919 51.981 52.021 52.134 52.359 52.166 52.084 52.134 52.524 52.381 52.481 52.546 54.739 52.714 52.794 53.056 53.501 53.056 53.571 53.469 53.249 53.361 53.449 54.626 59.819 60.721 61.089 60.809 60.496 60.171 59.864 58.489 55.029 54.564 54.659 54.569 56.889 54.664 54.709 55.174 54.734 54.764 54.814 54.879 54.924 54.964 54.999 55.011 55.024 55.051 55.076 55.201 55.809 55.854 55.934 55.954 56.364 56.621 57.774 56.644 56.699 56.774 56.766 56.504 56.559 56.996 57.221 57.359 57.481 68.796 58.081 58.256 58.049 58.146 58.849 59.226 59.606 59.879 60.509 61.071 61.049 60.746 60.894 61.134 61.406 61.704 61.926 62.194 62.411 62.599 62.796 63.084 63.346 63.556 63.799 63.989 64.224 64.524 64.761 65.059 65.254 65.404 65.609 65.794 65.991 66.169 66.464 66.744 66.939 67.204 67.441 67.726 67.964 68.221 68.536 68.744 69.011 69.301 69.586 69.886 70.199 70.539 70.886 71.179 71.644 71.949 72.159 72.446 72.706 72.971 73.159 73.499 73.651 73.864 74.124 74.351 74.599 74.871 75.164 75.551 75.949 76.279 76.654 77.064 77.474 77.874 78.211 78.569 78.976 79.314 79.656 80.056 80.386 82.554 81.224 81.626 82.066 82.531 82.904 83.196 83.676 84.129 84.541 84.921 85.326 85.749 86.076 86.409 86.771 87.129 87.494 87.974 88.251 88.594 88.911 89.311 89.684 90.121 90.456 90.879 91.376 91.761 92.086 92.654 93.104 93.601 94.251 94.859 95.421 96.029 96.566 97.044 97.754 98.789 99.519 99.581 99.916 100.724 101.351 102.069 102.454 102.704 103.036 103.684 104.821 105.914 106.114 108.076 111.611 112.366 111.936 110.464 106.006 105.904 105.904 105.951 105.849 105.709 105.716 105.719 105.639 105.594 105.749 105.631 106.356 106.446 105.821 105.961 106.091 110.404 111.859 112.781 113.151 112.349 111.564 106.589 106.351 109.016 106.214 105.986 106.151 106.744 107.466 105.796 105.796 105.779 105.794 106.179 105.532 105.519 105.514 105.372 105.112 105.127 105.152 106.457 104.819 104.896 104.926 105.792 104.396 104.289 104.244 104.184 104.519 104.042 104.474 105.424 105.816 104.257 104.279 104.554 104.414 104.407 104.377 104.507 104.512 104.447 104.389 105.759 104.219 104.237 104.582 104.152 104.119 104.057 105.474 106.179 106.176 106.161 106.149 103.504 103.444 103.372 103.217 103.139 103.152 103.159 103.094 103.237 103.307 103.162 103.152 109.272 110.372 109.804 105.989 103.452 103.154 103.172 103.132 103.054 104.529 105.054 103.957 102.797 102.649 102.947 103.154 103.342 103.482 103.524 103.537 103.539 103.594 103.634 103.642 103.662 103.684 103.682 103.689
50.446 49.991 50.034 50.111 50.231 50.279 50.374 50.434 50.446 50.484 50.529 50.689 50.634 50.664 50.716 50.764 50.846 50.944 51.061 51.079 51.021 50.879 50.829 50.819 50.806 50.781 50.744 50.704 50.659 50.659 50.644 50.616 50.626 50.634 50.686 50.629 50.601 50.779 50.559 50.584 50.729 50.694 52.014 50.494 56.119 56.379 56.674 56.974 57.271 50.666 51.881 51.246 52.759 56.689 58.304 58.361 57.961 57.554 57.114 56.719 55.846 50.961 50.911 53.099 52.541 51.659 51.911 51.934 51.936 55.946 58.304 59.329 56.996 53.749 51.794 51.844 51.896 51.949 51.999 51.916 51.934 51.969 53.654 52.321 52.409 52.521 58.324 59.436 60.099 55.399 52.744 53.114 53.491 53.156 53.086 53.194 53.669 54.489 57.521 59.671 60.136 60.509 60.944 61.096 60.906 60.534 60.251 59.891 58.809 54.759 54.616 54.649 54.689 54.689 54.731 54.916 56.211 56.669 54.876 54.926 54.974 55.014 55.054 55.089 55.109 55.136 55.146 55.184 55.316 55.726 56.001 56.366 58.279 56.371 56.414 56.496 56.406 56.234 56.424 56.889 57.086 57.261 57.669 58.639 57.821 57.789 57.616 58.424 58.861 59.211 59.524 59.721 60.634 60.291 60.341 60.371 60.636 60.956 61.294 61.576 61.824 62.021 62.246 62.401 62.726 62.944 63.184 63.464 63.624 63.844 64.091 64.424 64.621 64.846 65.046 65.249 65.461 65.691 65.881 66.096 66.256 66.559 66.791 67.026 67.324 67.576 67.821 68.084 68.349 68.601 68.829 69.106 69.404 69.731 70.059 70.369 70.654 71.086 71.404 71.694 72.021 72.254 72.526 72.769 73.054 73.196 73.424 73.634 73.854 74.101 74.401 74.949 74.964 75.339 75.761 76.064 76.444 76.814 77.294 77.651 77.904 78.296 78.644 78.991 79.409 79.751 80.086 80.506 80.896 81.329 81.726 82.169 82.489 82.926 83.381 83.856 84.201 84.596 84.991 85.364 85.764 86.086 86.459 86.806 87.136 87.529 87.911 88.264 88.636 89.066 89.429 89.731 90.129 90.579 90.919 91.401 91.726 92.266 92.701 93.131 93.669 94.386 94.936 95.539 96.154 96.651 97.176 97.979 99.029 99.386 99.411 100.519 100.774 101.421 102.134 102.151 102.601 102.999 104.011 104.924 105.859 106.009 107.371 111.596 112.389 111.959 111.184 105.891 105.854 105.914 105.874 105.771 105.659 105.651 105.634 105.531 105.506 105.606 105.531 105.516 105.736 105.984 106.064 106.091 109.589 111.841 112.616 112.004 109.041 106.121 108.564 105.806 105.659 105.694 106.906 108.086 105.741 105.744 105.756 105.756 105.834 108.959 105.532 105.492 105.717 105.137 105.072 105.067 105.092 105.092 104.757 104.747 104.814 106.092 104.289 104.219 104.197 104.082 105.706 104.954 104.429 104.271 104.094 104.032 104.271 104.389 104.304 104.327 104.344 104.394 104.679 104.254 104.282 105.637 104.134 104.114 104.099 104.076 104.059 103.999 105.237 106.189 106.194 106.197 106.137 103.449 103.352 103.286 103.107 103.014 103.039 103.047 102.989 103.124 103.529 103.559 103.402 109.307 110.449 109.834 107.527 103.267 103.362 103.314 103.177 103.194 103.562 102.979 103.222 102.702 102.602 102.809 103.037 103.262 103.454 103.552 103.542 103.544 103.589 103.629 103.647 103.669 103.677 103.654 103.667
49.819 49.404 49.424 49.471 49.961 50.016 50.181 50.349 50.279 50.256 50.281 50.621 51.076 51.346 50.661 50.694 50.761 50.821 50.881 50.966 51.014 51.004 50.944 50.829 50.756 50.754 50.729 50.719 50.671 50.654 50.601 50.559 50.529 50.489 50.489 50.496 50.526 50.819 50.564 51.104 50.604 50.659 50.534 50.476 51.209 50.586 52.269 54.811 56.119 50.579 50.679 51.811 53.541 57.006 57.541 57.924 58.361 58.749 58.761 58.141 56.221 52.089 50.714 53.139 53.129 51.979 51.226 51.914 52.094 57.576 58.699 59.116 57.971 55.761 51.911 51.744 51.766 52.349 52.521 51.734 51.774 51.814 52.549 53.026 52.741 54.336 58.679 59.786 59.941 58.836 53.354 52.696 52.726 52.829 52.921 53.719 54.534 54.241 54.316 54.476 56.229 59.246 59.811 60.164 60.521 60.859 61.211 60.929 60.589 60.244 59.934 58.671 55.209 54.539 54.604 54.866 54.911 54.954 54.919 54.889 54.926 54.969 55.014 55.064 55.109 55.164 55.201 55.224 55.236 55.264 55.286 55.401 56.079 55.734 55.891 55.989 55.959 55.979 56.356 56.741 56.936 57.354 59.384 57.321 57.376 57.216 57.846 58.384 58.789 59.136 59.421 59.549 59.654 59.761 59.981 60.284 60.536 60.871 61.169 61.409 61.661 61.919 62.049 62.374 62.604 62.839 63.081 63.256 63.496 63.699 64.026 64.221 64.456 64.724 64.881 65.029 65.311 65.521 65.624 65.986 66.209 66.346 66.506 66.849 67.146 67.414 67.671 67.951 68.154 68.389 68.651 68.944 69.224 69.546 69.894 70.201 70.521 70.886 71.199 71.494 71.774 72.039 72.359 72.606 72.814 73.026 73.221 73.424 73.659 73.854 74.096 74.401 74.806 75.289 75.516 75.874 76.209 76.584 76.959 77.319 77.639 77.994 78.336 78.746 79.124 79.466 79.854 80.216 80.639 81.296 82.119 82.301 82.204 82.649 83.094 83.509 83.871 84.266 84.674 85.091 85.391 85.789 86.131 86.481 86.841 87.269 87.564 87.964 88.324 88.751 89.054 89.436 89.946 90.181 90.644 91.049 91.401 91.709 92.326 92.691 93.161 93.796 94.429 95.009 95.639 96.244 96.801 97.284 98.101 99.029 99.189 99.274 100.251 100.756 101.479 101.981 102.474 102.674 103.351 104.274 105.021 105.884 105.926 106.331 111.589 112.334 111.959 110.819 105.841 105.854 106.089 105.809 105.721 105.586 105.571 105.549 105.444 105.351 105.386 105.409 105.806 105.921 106.009 106.066 106.046 109.206 111.794 110.431 106.069 107.761 107.204 110.104 105.651 105.979 108.086 106.024 105.701 105.711 106.011 105.771 105.381 108.294 105.057 105.542 105.162 105.009 105.009 105.019 104.954 104.629 104.691 104.646 105.257 104.362 104.182 104.169 104.132 104.189 105.826 109.354 109.801 104.262 103.606 103.807 104.092 104.329 104.271 104.287 104.411 104.399 104.742 103.981 105.382 104.087 104.002 104.004 103.989 103.956 103.942 103.826 103.497 104.804 104.509 104.552 104.744 103.487 103.457 103.824 102.994 102.972 102.939 102.944 102.887 103.012 103.282 103.062 103.094 109.299 110.427 109.744 106.549 103.172 103.257 103.112 103.037 102.929 102.862 102.772 102.787 102.599 102.472 102.709 102.964 103.192 103.384 103.509 103.517 103.519 103.559 103.609 103.642 103.669 103.662 103.637 103.654
49.509 49.441 49.379 49.459 49.716 49.794 49.954 50.001 50.079 50.061 50.061 50.159 50.321 50.419 50.524 50.626 50.666 50.704 50.729 50.769 50.821 50.886 50.914 50.914 50.879 50.809 50.701 50.651 50.644 50.624 50.604 50.569 50.546 50.511 50.476 50.446 50.419 50.386 50.396 50.424 50.444 50.431 50.431 50.429 50.871 50.926 50.574 50.576 50.591 50.511 50.526 50.594 50.731 51.501 53.169 54.191 56.724 57.129 57.634 57.679 55.379 50.844 51.664 53.179 53.161 52.301 50.984 50.981 54.436 57.029 58.766 58.746 57.596 51.916 51.789 51.701 51.709 51.679 51.619 51.589 51.629 51.661 51.971 52.099 51.886 56.869 58.744 60.166 59.576 58.464 52.719 52.611 52.641 52.711 52.796 52.834 53.199 53.586 53.954 54.156 54.609 54.679 54.651 55.561 58.449 59.816 60.101 60.454 60.836 61.106 60.956 60.609 60.284 59.964 55.831 54.896 54.931 55.059 54.999 55.049 55.054 55.029 55.021 55.034 55.081 55.129 55.184 55.226 55.276 55.321 55.344 55.346 55.364 55.394 55.481 55.566 55.654 55.744 56.099 56.399 56.801 57.064 57.061 57.101 56.914 57.524 57.984 58.416 58.641 58.849 59.076 59.169 59.369 59.596 59.894 60.189 60.454 60.816 61.019 61.319 61.524 61.709 61.926 62.219 62.484 62.699 62.956 63.186 63.406 63.679 63.874 64.079 64.344 64.574 64.714 64.999 65.161 65.314 65.601 65.841 66.044 66.291 66.509 66.739 66.926 67.201 67.539 67.761 67.996 68.204 68.456 68.746 69.059 69.386 69.669 69.951 70.356 70.689 71.001 71.319 71.576 71.881 72.086 72.389 72.601 72.839 73.044 73.239 73.449 73.609 73.819 74.159 74.589 74.984 75.371 75.704 76.029 76.376 76.719 77.069 77.436 77.774 78.124 78.509 78.819 79.194 79.549 79.966 80.356 81.169 81.161 81.424 81.909 82.379 82.809 83.184 83.604 84.076 84.369 84.721 85.079 85.456 85.804 86.181 86.519 86.844 87.224 87.641 88.051 88.369 88.729 89.106 89.491 89.889 90.251 90.659 91.051 91.441 91.741 92.289 92.701 93.226 93.901 94.479 95.064 95.684 96.264 96.671 97.326 98.156 98.969 99.069 99.346 100.191 100.829 101.329 101.886 102.401 102.914 103.371 104.336 105.001 105.806 105.854 107.141 111.561 112.334 111.736 107.126 105.704 105.744 105.749 105.736 105.664 105.501 105.469 105.461 105.374 105.241 105.344 105.374 105.936 106.056 105.981 105.989 105.984 108.006 106.031 107.491 106.256 110.909 111.459 110.759 106.426 106.654 105.664 105.674 105.681 105.881 105.941 104.964 104.949 105.159 105.324 105.054 105.004 104.989 105.034 104.629 104.634 104.597 104.551 105.879 104.319 104.144 104.084 104.017 104.644 103.747 109.809 110.462 104.264 103.411 103.429 103.739 104.144 104.319 104.271 104.237 103.932 103.867 103.926 105.794 103.947 103.934 103.929 103.862 103.892 103.867 103.729 103.482 109.317 109.752 109.721 109.087 103.502 103.489 103.402 102.882 102.922 102.847 102.852 102.809 102.902 103.324 103.019 103.059 109.484 110.579 109.722 108.207 103.202 103.259 103.014 102.944 102.882 102.852 102.759 102.824 102.527 102.364 102.599 102.884 103.129 103.322 103.454 103.477 103.479 103.509 103.584 103.612 103.637 103.642 103.617 103.624
49.309 49.281 49.271 49.381 49.506 49.589 49.711 49.764 49.861 49.916 49.909 49.989 50.116 50.196 50.386 50.536 50.576 50.591 50.809 50.561 50.581 50.636 50.746 50.806 50.739 50.786 51.059 50.774 50.706 50.649 50.564 50.544 50.521 50.499 50.471 50.456 50.439 50.404 50.384 50.356 50.336 50.304 50.274 50.271 50.319 50.359 50.356 50.439 50.424 50.376 50.391 50.714 50.716 50.751 50.734 50.799 52.009 50.701 53.394 56.179 53.814 50.641 50.636 50.644 51.154 51.409 51.359 50.926 56.299 57.396 58.409 57.424 56.449 51.821 51.516 51.556 51.546 51.494 52.154 51.436 51.474 51.516 52.406 51.871 52.156 57.406 58.504 59.329 58.269 56.599 52.676 52.546 52.576 52.626 53.091 52.724 55.084 53.229 53.424 53.726 54.074 54.351 54.151 54.171 54.299 54.481 55.806 59.066 59.739 60.081 60.434 60.804 61.079 60.069 54.671 55.794 60.414 59.114 55.289 54.979 55.036 55.084 55.086 55.049 55.239 55.111 55.134 55.179 55.231 55.291 55.349 55.386 55.416 55.431 55.466 55.526 55.624 56.561 55.694 55.846 56.901 56.989 56.896 56.914 57.349 60.509 57.861 58.109 58.324 58.631 58.791 59.006 59.244 59.496 59.776 60.034 60.391 60.674 60.896 61.126 61.339 61.509 61.809 62.049 62.284 62.594 62.819 63.034 63.264 63.514 63.719 63.944 64.154 64.379 64.611 64.844 65.014 65.179 65.479 65.641 65.944 66.171 66.416 66.649 66.906 67.151 67.361 67.511 67.789 68.036 68.291 68.576 68.896 69.134 69.394 69.794 70.146 70.464 70.784 71.086 71.389 71.636 71.966 72.154 72.361 72.599 72.851 73.066 73.196 73.376 73.611 73.911 74.259 74.641 75.094 75.454 75.774 76.119 76.444 76.764 77.149 77.446 77.939 78.236 78.571 78.911 79.256 79.629 80.001 80.444 80.774 81.199 81.639 82.171 82.449 82.856 83.251 83.706 84.126 84.379 84.769 85.104 85.436 85.804 86.204 86.519 86.916 87.254 87.639 88.014 88.336 88.706 89.094 89.499 89.859 90.276 90.676 91.054 91.356 91.791 92.264 92.724 93.304 93.934 94.521 95.154 95.694 96.196 96.709 97.461 98.399 98.889 98.939 99.406 100.071 100.879 101.419 101.916 102.399 102.759 103.449 104.316 104.889 105.519 105.679 107.369 111.529 108.376 105.634 105.554 105.584 105.586 105.624 105.646 105.561 105.441 105.391 105.401 105.336 105.241 105.356 105.324 105.624 105.926 105.904 105.894 105.971 106.901 106.389 110.681 111.589 112.346 111.659 110.951 107.251 105.656 105.649 105.939 105.539 106.521 104.979 104.974 105.347 105.059 105.014 104.987 104.989 105.044 104.694 104.659 104.514 104.949 105.402 104.229 104.374 104.109 104.649 103.904 104.992 104.654 105.661 103.551 104.509 103.642 103.727 103.746 103.893 104.153 104.036 103.839 103.83 103.883 103.977 103.958 103.847 103.819 103.786 103.754 103.719 103.639 103.609 109.307 110.987 110.697 109.029 103.487 103.426 103.339 102.804 102.807 102.739 102.752 103.012 103.144 103.142 102.937 103.017 109.327 110.422 109.814 108.642 103.414 102.969 102.909 102.859 102.814 102.779 102.652 102.577 102.424 102.284 102.524 102.799 103.072 103.279 103.429 103.464 103.492 103.517 103.582 103.602 103.607 103.632 103.622 103.614
49.271 51.249 49.386 49.224 49.331 49.439 49.534 49.561 49.634 49.736 49.774 49.811 49.919 50.031 50.276 50.559 50.564 50.581 56.156 57.351 57.221 53.481 50.544 50.611 50.611 50.579 51.266 51.591 51.671 50.746 50.596 50.579 50.579 50.579 50.491 50.426 50.404 50.369 50.364 50.359 50.331 50.321 50.291 50.271 50.261 50.239 50.204 50.209 50.194 50.209 50.226 50.739 52.136 51.686 50.626 51.476 50.746 50.624 50.664 50.671 50.609 51.451 50.544 50.571 50.731 51.431 51.094 50.976 56.674 57.774 58.166 57.039 52.724 50.974 51.249 51.306 51.344 51.341 51.229 51.309 51.321 51.386 51.554 51.609 52.469 57.754 58.886 59.004 57.874 53.434 52.371 53.629 53.079 52.644 52.711 52.691 53.661 53.039 53.131 53.809 54.604 54.084 53.899 53.974 54.119 54.271 54.376 54.461 54.509 56.719 58.746 59.724 60.076 59.721 55.094 59.526 61.021 61.066 60.671 60.321 58.264 55.036 54.991 55.369 55.184 55.399 55.244 55.261 55.209 55.244 55.301 55.346 55.391 55.451 55.479 55.521 55.571 55.634 56.069 55.819 56.779 57.039 56.726 57.191 57.386 57.626 57.659 57.941 58.251 58.424 58.636 58.831 59.101 59.396 59.674 59.924 60.229 60.496 60.744 60.969 61.066 61.401 61.649 61.891 62.209 62.436 62.646 62.861 63.219 63.374 63.544 63.816 63.989 64.214 64.431 64.644 64.814 65.106 65.349 65.519 65.771 66.044 66.299 66.536 66.799 67.024 67.211 67.429 67.511 67.689 68.074 68.394 68.659 68.901 69.204 69.574 69.874 70.221 70.536 70.861 71.164 71.449 71.726 71.984 72.164 72.389 72.621 72.774 72.914 73.121 73.384 73.761 74.021 74.401 74.911 75.191 75.534 75.869 76.206 76.549 76.824 77.249 77.591 77.996 78.289 78.651 78.981 79.349 79.731 80.116 80.426 80.946 81.361 81.791 82.119 82.539 82.896 83.346 83.681 84.066 84.459 84.766 85.124 85.464 85.811 86.206 86.594 86.916 87.259 87.619 87.979 88.324 88.736 89.109 89.521 89.884 90.271 90.641 91.024 91.286 91.706 92.259 92.736 93.371 93.989 94.531 95.079 95.639 96.136 96.744 97.596 98.384 98.776 98.811 99.421 100.081 100.726 101.464 102.181 102.529 102.869 103.101 103.856 105.019 105.579 105.619 106.666 105.564 105.909 106.076 110.819 105.834 105.571 105.564 105.569 105.514 105.356 105.326 105.354 105.281 105.171 105.269 105.239 105.359 105.639 105.669 106.244 107.529 105.681 110.764 111.529 112.241 113.059 111.844 111.144 108.771 105.644 105.921 105.006 105.054 105.194 105.059 105.352 106.924 104.974 104.966 105.054 105.589 104.749 104.474 104.422 105.079 104.122 104.091 104.029 103.969 103.674 106.354 104.382 106.544 104.146 104.894 104.569 103.757 103.432 103.505 103.621 103.957 103.848 103.765 103.799 104.596 104.045 104.221 104.177 104.176 104.084 104.082 104.099 104.152 104.262 109.369 111.329 110.701 108.587 103.799 103.747 103.542 102.697 102.697 102.639 102.654 102.609 103.182 103.037 102.854 103.207 109.362 109.642 109.687 108.974 103.484 102.937 102.857 102.767 102.704 102.637 102.524 102.834 102.372 102.154 102.447 102.729 103.004 103.232 103.407 103.489 103.489 103.519 103.564 103.574 103.602 103.619 103.624 103.609
54.306 54.694 51.961 49.226 49.194 49.329 49.391 49.431 49.484 49.581 49.596 49.654 49.781 49.909 50.081 50.329 50.484 50.539 56.564 57.646 56.969 55.136 50.464 50.409 50.421 50.439 50.486 50.724 50.959 50.526 50.426 50.494 51.004 50.506 50.606 50.579 50.536 50.504 50.421 50.331 50.286 50.276 50.274 50.266 50.261 50.256 50.236 50.221 50.189 50.166 50.701 50.194 50.216 50.514 50.306 50.886 50.334 50.369 50.366 50.506 50.419 51.406 50.449 50.806 50.634 50.709 51.191 51.314 56.204 58.176 57.789 56.666 51.309 50.996 51.084 51.206 51.171 51.184 51.101 51.171 51.146 51.294 51.441 51.526 51.604 51.659 54.174 57.931 57.526 51.806 51.834 52.011 52.064 52.854 53.026 52.904 55.181 55.276 54.516 53.329 55.384 54.726 53.836 53.861 53.999 54.094 54.164 54.299 54.414 54.576 54.474 54.499 54.519 55.416 55.089 60.371 60.924 61.321 61.621 61.391 60.969 60.579 59.894 57.036 56.546 55.301 55.296 55.354 55.396 55.434 55.986 55.321 55.361 55.414 55.456 55.494 55.536 55.594 55.661 55.839 56.351 56.811 57.056 57.206 57.351 57.381 57.699 57.839 58.104 58.259 58.391 58.634 58.944 59.246 59.514 59.816 60.076 60.304 60.546 60.701 60.924 61.266 61.511 61.746 61.984 62.256 62.496 62.794 62.989 63.201 63.434 63.644 63.846 64.044 64.286 64.451 64.709 64.944 65.184 65.381 65.659 65.934 66.161 66.409 66.654 66.801 67.016 67.224 67.471 67.671 67.889 68.106 68.351 68.634 69.024 69.356 69.626 69.969 70.274 70.614 70.876 71.246 71.489 71.749 71.944 72.189 72.384 72.531 72.691 72.934 73.239 73.459 73.796 74.149 74.574 74.879 75.236 75.631 76.001 76.306 76.629 76.991 77.334 77.701 78.044 78.429 78.806 79.114 79.474 79.756 80.226 80.664 81.054 81.444 81.826 82.199 82.584 82.984 83.371 83.724 84.066 84.464 84.781 85.124 85.531 85.929 86.246 86.609 86.891 87.261 87.619 88.041 88.379 88.756 89.061 89.441 89.859 90.236 90.631 90.949 91.231 91.659 92.466 92.729 93.414 93.919 94.524 95.054 95.536 96.059 96.649 97.531 98.444 98.666 98.744 100.366 100.081 100.761 101.466 102.204 102.464 102.724 103.219 104.186 105.091 105.821 105.584 105.979 106.304 110.754 111.574 111.026 106.566 105.526 105.564 105.534 105.426 105.284 105.241 105.261 105.199 105.061 105.134 105.129 105.156 105.564 107.609 105.611 105.584 105.599 110.146 111.369 112.046 112.176 111.271 106.414 105.796 104.986 109.219 105.189 104.976 105.122 104.999 105.237 104.884 104.919 105.076 106.477 105.456 104.414 104.509 104.222 104.102 104.109 104.032 104.069 103.557 103.879 103.569 105.752 103.207 103.612 104.549 103.361 103.322 103.33 103.406 103.801 103.791 103.714 103.752 104.668 105.231 104.025 104.053 103.891 103.539 103.443 103.418 103.704 105.852 109.349 111.034 110.694 109.004 103.312 103.309 104.347 102.599 102.612 102.532 102.539 102.487 102.597 102.722 102.819 102.932 104.169 104.544 105.029 105.412 103.314 102.909 102.807 102.692 103.107 102.824 104.082 102.474 102.222 101.964 102.277 102.607 102.939 103.194 103.369 103.462 103.492 103.514 103.554 103.547 103.572 103.609 103.617 103.619
55.671 56.226 55.024 52.399 49.146 49.569 49.261 49.369 49.396 49.451 49.481 49.539 49.679 49.779 49.951 50.114 50.234 53.331 56.746 57.774 56.674 52.409 50.386 50.291 50.299 50.319 50.344 50.351 50.359 50.301 50.256 50.376 50.341 50.261 50.326 50.394 50.466 50.509 50.529 50.874 50.459 50.401 50.294 50.241 50.226 50.224 50.226 50.216 50.201 50.184 50.166 50.161 50.141 50.136 50.121 50.139 50.201 50.239 50.264 50.264 50.306 50.326 50.351 50.531 50.536 50.649 50.781 50.834 50.846 50.876 53.961 56.006 50.866 50.879 50.961 51.046 51.051 52.094 50.979 51.016 51.056 51.254 51.299 51.359 51.859 51.551 51.616 51.774 52.486 51.786 51.831 51.906 51.996 52.091 52.169 54.901 52.756 52.916 54.449 54.979 54.094 53.281 53.301 54.124 54.021 53.894 53.981 54.089 54.206 54.301 54.391 54.659 55.664 54.626 55.234 54.996 59.796 60.299 60.669 61.059 61.484 61.626 60.836 56.134 56.006 59.849 57.381 55.351 55.366 55.889 55.596 55.521 55.456 55.391 55.414 55.454 55.494 55.549 55.696 55.879 56.066 56.276 56.521 56.769 57.069 57.334 57.584 57.789 58.001 58.196 58.309 58.546 58.754 58.961 59.184 59.501 59.704 59.986 60.244 60.456 60.719 61.014 61.289 61.581 61.921 62.024 62.239 62.499 62.701 62.894 63.109 63.316 63.569 63.774 64.009 64.216 64.426 64.671 64.881 65.126 65.364 65.601 65.824 66.101 66.309 66.514 66.729 66.931 67.159 67.404 67.681 67.901 68.099 68.426 68.756 69.026 69.411 69.696 70.051 70.301 70.676 70.999 71.249 71.464 71.721 71.969 72.154 72.324 72.511 72.721 73.031 73.301 73.596 73.939 74.296 74.669 74.999 75.384 75.736 75.976 76.424 76.736 77.066 77.374 77.761 78.106 78.516 78.854 79.164 79.539 79.966 80.356 80.761 81.139 81.509 81.899 82.319 82.661 83.039 83.399 83.706 84.094 84.419 84.784 85.156 85.564 85.881 86.289 86.619 86.969 87.311 87.701 87.986 88.321 88.654 89.019 89.394 89.844 90.184 90.569 90.881 91.181 91.616 92.104 92.749 93.321 93.901 94.456 94.919 95.419 95.861 96.556 97.534 98.439 98.619 98.714 99.604 100.201 100.779 101.454 102.171 102.404 102.741 103.456 104.199 105.271 105.591 105.496 105.674 110.691 111.519 111.826 111.071 107.054 105.476 105.449 105.444 105.331 105.209 105.129 105.151 105.111 104.976 104.931 104.979 105.556 105.779 105.451 105.614 105.641 106.791 108.569 111.129 111.496 108.841 105.489 105.136 105.806 110.479 110.314 108.894 105.629 105.212 104.934 104.879 104.899 105.646 106.521 104.367 104.332 105.307 104.187 104.097 104.102 104.036 103.779 103.722 103.492 103.449 103.374 103.191 103.284 103.276 103.307 103.201 103.246 103.444 103.815 103.794 103.72 103.932 103.986 103.718 103.74 103.582 103.501 103.5 103.381 103.394 103.406 105.95 109.304 110.384 110.384 108.839 103.312 103.326 104.279 102.474 102.477 102.432 102.442 102.369 102.484 102.989 103.174 104.134 103.507 103.072 103.217 103.302 103.447 102.927 102.784 102.689 102.714 102.709 103.339 102.174 102.019 101.912 102.102 102.454 102.817 103.102 103.312 103.407 103.454 103.497 103.522 103.532 103.557 103.589 103.597 103.597
56.866 56.499 55.229 49.791 49.094 50.224 49.196 49.271 49.334 49.366 49.404 49.481 49.564 49.654 49.879 49.839 49.934 55.764 57.039 57.574 56.381 53.556 50.344 50.141 50.114 50.024 50.036 50.099 50.124 50.074 50.074 50.246 50.561 50.129 50.074 50.101 50.209 50.296 50.461 51.261 50.776 50.804 50.506 50.381 50.349 50.341 50.309 50.236 50.189 50.179 50.216 50.421 50.139 50.154 50.131 50.124 50.121 50.096 50.101 50.144 50.159 50.201 50.241 50.386 50.726 50.476 50.564 50.664 50.711 50.769 50.776 50.846 50.796 50.844 50.879 50.901 50.911 51.224 50.856 50.874 51.006 51.164 51.284 54.299 57.394 53.279 51.469 51.731 52.351 51.989 51.829 51.826 51.871 51.931 52.029 53.259 53.376 52.561 53.176 54.376 54.584 54.931 55.289 55.141 54.004 53.521 53.686 53.876 53.986 54.109 54.251 54.381 54.429 54.899 54.684 54.799 54.911 54.966 58.261 60.051 60.409 60.811 60.441 55.649 56.494 61.059 61.109 60.736 59.151 56.804 55.386 55.431 55.696 55.546 55.384 55.414 55.454 55.519 55.696 56.011 56.301 56.419 56.589 56.861 57.104 57.314 57.544 57.739 57.909 58.089 58.281 58.491 58.694 58.911 59.116 59.354 59.581 59.826 60.059 60.319 60.594 60.874 61.111 61.359 61.604 61.829 62.066 62.279 62.499 62.704 62.936 63.189 63.424 63.694 63.911 64.139 64.364 64.614 64.856 65.059 65.279 65.494 65.666 65.926 66.134 66.359 66.509 66.716 66.914 67.146 67.359 67.581 67.806 68.061 68.371 68.771 69.126 69.439 69.726 70.059 70.396 70.671 70.941 71.229 71.516 71.736 71.921 72.104 72.339 72.566 72.846 73.106 73.441 73.741 74.076 74.379 74.801 75.169 75.474 75.819 76.136 76.471 76.794 77.109 77.461 77.786 78.146 78.584 78.866 79.304 79.734 80.111 80.459 80.829 81.194 81.631 81.991 82.379 82.706 83.049 83.389 83.786 84.121 84.504 84.869 85.226 85.586 85.944 86.319 86.611 87.021 87.331 87.624 87.954 88.266 88.611 89.009 89.411 89.751 90.076 90.404 90.789 91.196 91.514 92.079 92.741 93.301 93.854 94.386 94.854 95.391 95.899 96.606 97.589 98.399 98.566 98.729 99.616 100.134 100.786 101.499 102.134 102.469 103.589 104.196 104.044 105.199 105.566 105.481 105.539 110.449 111.449 111.959 111.126 106.664 105.416 105.399 105.404 105.264 105.224 105.044 105.054 105.024 104.919 104.849 104.954 104.981 106.389 105.436 106.026 105.444 105.269 105.699 110.579 105.444 105.384 104.954 110.054 111.046 111.286 110.776 110.184 106.409 104.899 104.942 104.819 104.676 104.407 104.307 104.324 104.419 104.249 104.084 104.002 104.002 103.879 103.689 103.389 105.034 103.241 103.279 103.23 103.262 103.113 103.106 103.219 103.53 103.801 104.282 103.757 104.955 103.79 103.884 103.682 103.543 103.443 104.582 105.602 105.333 103.495 104.137 107.48 107.264 107.216 108.507 103.307 103.146 104.032 102.341 102.234 102.304 102.322 102.269 102.394 102.862 102.247 102.062 102.274 102.717 101.897 102.019 102.409 101.877 101.872 101.959 101.842 101.887 101.864 102.017 101.804 101.782 101.994 102.342 102.712 103.009 103.234 103.367 103.442 103.472 103.509 103.544 103.564 103.572 103.602 103.599
56.576 55.286 50.354 49.039 49.086 50.034 49.101 49.154 49.249 49.296 49.319 49.379 49.446 49.519 49.656 49.674 49.656 50.864 55.994 57.284 56.084 52.754 50.301 50.021 49.986 50.226 49.881 49.904 49.919 49.919 49.966 50.121 50.139 51.181 53.624 54.399 51.101 50.061 50.244 50.389 50.419 51.244 50.746 50.416 50.434 50.414 52.266 52.571 50.316 50.259 50.209 50.169 50.144 50.139 50.121 50.131 50.134 50.139 50.126 50.119 50.114 50.119 50.119 50.194 50.236 50.249 50.286 50.379 50.634 50.666 50.974 50.684 50.656 50.684 50.779 50.714 50.759 50.679 50.736 50.746 50.926 51.171 51.284 55.534 57.804 58.901 58.226 56.176 51.451 51.484 51.489 51.816 52.356 51.769 51.999 53.036 53.329 52.276 52.371 52.831 53.431 54.484 53.809 54.624 56.526 54.459 53.899 53.639 53.816 53.871 53.951 54.099 54.286 54.411 54.541 54.584 54.711 54.746 56.891 54.976 55.331 55.241 57.801 56.726 58.894 61.444 61.986 61.819 61.456 61.086 60.709 59.146 55.901 55.376 55.344 55.379 55.416 55.509 55.841 56.579 56.796 56.911 57.089 57.229 57.286 57.336 57.419 57.691 57.956 58.141 58.376 58.524 58.754 58.961 59.211 59.499 59.749 59.976 60.751 60.479 60.699 60.949 61.229 61.439 61.671 61.884 62.114 62.339 62.561 62.796 63.004 63.224 63.481 63.699 63.951 64.154 64.409 64.629 64.889 65.104 65.299 65.511 65.686 65.896 66.086 66.279 66.466 66.691 66.886 67.106 67.334 67.526 67.736 67.966 68.199 68.409 68.644 68.996 69.434 69.841 70.066 70.401 70.686 70.994 71.259 71.481 71.734 71.954 72.176 72.436 72.699 72.941 73.266 73.609 73.861 74.201 74.571 74.911 75.179 75.549 75.874 76.209 76.539 76.864 77.201 77.526 77.864 78.146 78.696 79.069 79.459 79.809 80.156 80.536 80.909 81.309 81.691 82.066 82.374 82.729 83.091 83.481 83.839 84.254 84.601 84.879 85.236 85.639 85.981 86.354 86.736 86.976 87.316 87.579 87.919 88.261 88.601 88.996 89.349 89.699 90.004 90.414 90.746 91.091 91.536 92.099 92.649 93.264 93.724 94.269 94.924 95.381 95.906 96.684 97.729 98.401 98.516 98.666 99.756 100.199 100.799 101.481 101.924 102.386 103.269 103.454 104.169 105.056 105.431 105.479 105.524 110.404 111.389 111.909 111.189 106.979 105.316 106.116 105.249 105.161 105.156 104.966 104.939 104.926 104.841 104.741 104.811 104.796 106.499 107.644 105.124 105.054 105.226 105.394 105.344 104.919 107.259 110.491 111.156 111.764 111.706 111.157 110.587 108.727 105.649 104.507 104.697 104.176 104.154 105.409 104.292 104.084 104.679 104.754 104.909 103.862 103.297 103.404 104.649 103.135 103.14 103.869 103.195 103.029 103.057 103.131 103.534 103.786 103.977 103.8 105.515 103.647 103.822 103.641 103.682 103.432 104.506 105.396 105.236 103.502 103.444 103.533 103.387 103.344 103.279 103.127 102.829 102.489 102.234 102.099 102.194 102.202 102.159 102.717 102.329 102.197 102.062 105.332 107.979 107.984 107.939 105.194 101.857 101.857 101.872 101.862 101.832 101.747 101.902 101.624 101.769 101.914 102.297 102.662 102.974 103.192 103.297 103.407 103.444 103.472 103.512 103.554 103.582 103.599 103.607
55.384 51.026 48.974 48.936 49.044 49.901 49.016 49.049 49.139 49.196 49.219 49.264 49.306 49.386 49.544 49.624 49.669 50.934 53.214 54.279 53.249 51.881 50.134 49.929 49.721 50.501 51.416 49.756 49.761 51.381 50.294 50.061 50.176 52.626 53.944 54.631 53.444 50.584 50.181 50.329 50.379 51.211 50.464 50.446 50.464 50.464 50.439 50.454 50.421 50.409 50.326 50.311 50.296 50.266 50.206 50.121 50.076 50.099 50.116 50.126 50.129 50.141 50.144 50.149 50.131 50.124 50.166 50.226 50.251 50.269 50.309 50.441 50.486 50.581 50.569 50.589 50.544 50.561 50.604 50.699 50.941 50.589 51.139 57.119 58.206 58.966 57.849 56.454 51.429 51.486 51.494 51.544 51.539 51.504 53.941 51.234 51.244 51.216 51.579 52.494 52.259 52.664 52.891 53.156 53.206 53.119 53.601 53.956 53.646 53.681 53.756 53.841 54.101 55.314 54.151 54.316 54.466 55.616 54.729 54.889 54.921 55.274 55.031 55.946 56.754 60.374 60.986 61.344 62.384 62.009 61.766 61.331 59.936 55.351 55.296 55.341 55.386 55.549 56.086 56.676 56.936 57.051 57.136 57.186 57.341 57.529 57.546 57.421 57.664 57.981 58.219 58.404 58.611 58.811 58.904 59.241 59.449 59.776 60.456 60.361 60.496 60.811 61.094 61.284 61.491 61.774 61.961 62.219 62.414 62.616 62.816 63.036 63.251 63.506 63.716 63.951 64.221 64.409 64.654 64.891 65.121 65.351 65.479 65.644 65.836 66.061 66.251 66.469 66.709 66.946 67.136 67.404 67.676 67.934 68.156 68.371 68.601 68.856 69.074 69.316 69.741 70.126 70.439 70.736 71.031 71.244 71.531 71.796 72.094 72.309 72.524 72.786 73.091 73.581 73.709 74.019 74.346 74.586 74.991 75.306 75.621 75.906 76.241 76.571 76.914 77.226 77.526 77.961 78.424 78.846 79.281 79.566 79.884 80.236 80.604 81.059 81.419 81.774 82.104 82.461 82.784 83.154 83.611 83.979 84.299 84.664 84.959 85.359 85.709 86.029 86.444 86.709 87.004 87.271 87.594 87.956 88.206 88.599 88.946 89.231 89.551 89.934 90.336 90.719 91.086 91.521 92.034 92.631 93.169 93.706 94.361 94.904 95.421 96.011 96.844 97.724 98.364 98.459 98.666 99.646 100.239 100.824 101.496 102.066 102.389 102.624 103.066 104.009 104.826 105.369 107.134 105.336 109.611 111.336 111.134 108.661 105.291 105.191 105.181 105.254 105.121 105.126 104.896 104.826 104.824 104.759 104.654 104.679 104.671 104.794 105.124 104.761 104.829 105.349 105.059 104.836 104.956 105.684 110.169 110.774 111.336 111.284 110.309 104.834 104.609 104.212 104.094 104.149 104.079 105.344 104.216 104.119 106.119 105.981 104.687 103.197 103.932 103.977 103.657 103.38 103.398 104.1 103.298 103.032 103.003 103.604 103.338 103.294 103.644 103.604 104.481 103.825 103.704 103.512 103.313 103.253 103.172 103.135 102.998 103.003 102.871 102.928 102.86 102.814 103.444 102.749 102.664 102.487 102.157 102.097 102.082 102.099 102.089 102.709 102.177 102.102 101.977 104.749 108.357 108.999 108.372 104.759 101.782 101.812 101.839 101.842 101.797 101.642 101.874 101.629 101.847 101.887 102.239 102.617 102.947 103.167 103.272 103.364 103.424 103.444 103.484 103.532 103.549 103.569 103.592
50.769 49.359 49.881 49.964 48.884 49.789 48.959 48.964 49.036 49.094 49.121 49.184 49.174 49.274 49.416 49.484 49.531 52.336 53.679 54.164 52.931 49.684 49.664 49.614 50.376 51.281 49.871 49.604 49.596 51.396 49.781 49.876 50.169 53.071 54.276 54.344 53.174 50.181 50.181 50.276 50.356 51.889 50.496 50.479 50.489 50.479 50.491 50.486 50.419 50.919 50.346 51.011 50.471 50.464 50.741 50.314 50.236 50.161 50.129 50.114 50.096 50.119 50.134 50.159 50.156 50.156 50.141 50.141 50.121 50.151 50.201 50.259 50.286 50.329 50.366 50.371 50.394 50.454 50.481 50.619 50.741 50.594 53.021 56.544 57.759 58.374 57.479 53.059 51.401 51.389 51.391 51.369 53.214 53.974 52.324 51.616 56.316 52.519 51.614 52.836 51.526 52.059 52.501 52.514 52.374 52.831 53.151 52.974 53.306 54.076 53.571 53.624 53.974 54.219 54.106 54.079 54.041 56.699 54.681 54.786 54.866 54.891 56.109 54.989 55.186 55.334 55.871 60.184 60.689 61.044 61.471 61.166 56.326 55.286 55.249 55.304 55.379 55.604 56.186 56.561 56.761 56.849 56.981 57.041 57.186 57.444 57.554 57.651 57.589 57.711 57.886 58.131 58.309 58.611 58.804 59.031 59.259 59.549 59.781 60.064 60.346 60.601 60.809 61.069 61.321 61.544 61.761 61.989 62.206 62.401 62.604 62.811 62.969 63.271 63.511 63.739 63.984 64.231 64.474 64.691 64.919 65.126 65.276 65.511 65.686 65.846 66.031 66.246 66.451 66.621 66.809 67.104 67.321 67.631 67.974 68.236 68.589 68.831 69.031 69.239 69.446 69.659 70.004 70.466 70.811 71.071 71.369 71.669 71.836 72.139 72.361 72.626 72.901 73.214 73.514 73.829 74.069 74.459 74.731 75.054 75.349 75.651 75.969 76.286 76.599 76.961 77.261 77.799 78.526 78.906 79.679 79.764 79.746 79.946 80.389 80.801 81.179 81.579 81.909 82.204 82.551 82.886 83.309 83.689 83.989 84.309 84.729 86.599 85.391 85.726 86.094 86.431 86.684 86.976 87.336 87.634 87.946 88.281 88.581 88.886 89.236 89.521 89.851 90.284 90.614 91.006 91.486 92.041 92.634 93.254 93.789 94.491 94.924 95.439 96.006 96.849 97.744 98.326 98.451 98.704 99.644 100.179 100.756 101.331 101.931 102.234 102.339 102.846 103.836 104.446 105.099 105.176 105.174 109.661 108.354 106.966 107.014 105.456 105.141 105.139 105.119 105.074 104.924 104.766 104.711 104.711 104.684 104.571 104.474 104.464 104.466 104.481 105.154 105.216 104.579 104.756 104.954 104.944 104.924 108.036 110.336 110.691 106.399 104.782 104.104 108.362 109.271 106.432 104.822 104.362 104.099 104.444 106.237 105.692 104.969 103.144 103.459 103.389 103.131 103.339 104.759 104.669 104.393 103.191 103.023 103.437 103.205 103.155 103.262 104.114 104.695 103.733 103.676 103.329 103.018 103.004 102.934 102.916 102.86 102.821 102.805 107.758 106.995 105.911 106.514 102.609 102.529 102.242 102.069 102.042 101.974 101.979 102.012 102.337 102.117 102.014 101.967 105.984 108.774 109.097 107.942 105.262 101.942 101.822 101.797 101.789 101.729 101.649 101.669 101.617 101.669 101.854 102.167 102.537 102.902 103.137 103.279 103.372 103.412 103.449 103.462 103.497 103.534 103.544 103.564
48.754 48.526 49.579 50.871 48.814 50.341 48.909 48.914 48.941 48.969 49.006 49.046 49.059 49.199 49.271 49.306 49.311 52.634 53.849 53.846 52.646 49.679 49.756 49.501 50.226 49.639 49.426 49.451 49.459 49.469 49.676 49.894 50.176 53.376 54.596 54.041 52.884 50.009 50.139 50.251 50.744 51.421 50.536 54.266 51.654 50.606 50.524 50.531 50.434 50.416 50.371 50.679 50.569 50.571 50.469 50.466 50.371 50.291 50.271 50.301 50.231 50.226 50.171 50.116 50.519 50.949 50.156 50.166 50.164 50.169 50.151 50.144 50.146 50.159 50.181 50.236 50.291 50.339 50.364 50.496 50.691 50.596 55.874 56.946 58.029 57.286 56.181 50.746 51.521 51.189 51.169 51.146 54.111 51.811 51.176 56.796 57.514 57.146 56.784 55.731 51.644 51.174 52.211 52.139 52.016 52.184 52.386 52.599 53.879 53.181 53.631 53.266 54.169 53.834 53.916 53.916 53.969 56.094 54.604 54.684 54.756 54.744 56.274 54.691 54.901 54.944 55.156 55.841 55.226 58.074 58.479 60.709 55.291 55.269 55.279 55.266 55.554 55.631 55.796 56.186 56.329 56.484 56.739 56.946 57.016 57.201 57.359 57.711 57.659 57.731 57.854 57.964 58.116 58.446 58.696 58.876 59.164 59.401 59.649 59.929 60.291 60.429 60.691 60.939 61.124 61.321 61.589 61.829 62.024 62.224 62.459 62.581 62.869 63.109 63.311 63.559 63.816 64.056 64.284 64.521 64.781 64.894 65.106 65.244 65.446 65.684 65.854 66.031 66.159 66.354 66.631 66.854 67.084 67.369 67.621 67.894 68.229 68.544 68.846 69.124 69.401 69.606 69.789 69.976 70.276 70.759 71.249 71.444 71.691 71.961 72.169 72.431 72.681 72.971 73.286 73.574 73.861 74.209 74.491 74.766 75.071 75.376 75.684 75.994 76.304 76.554 77.064 77.796 78.709 79.199 79.414 79.759 79.546 79.736 80.111 80.549 80.896 81.219 81.876 81.961 82.326 82.634 82.971 83.379 83.734 84.184 84.399 84.816 85.121 85.461 85.771 86.101 86.426 86.646 86.959 87.296 87.621 87.844 88.139 88.466 88.804 89.139 89.434 89.839 90.221 90.596 90.961 91.436 92.041 92.696 93.424 93.939 94.454 95.006 95.464 96.061 96.876 97.991 98.366 98.456 98.676 99.599 100.136 100.756 101.331 101.969 102.099 102.214 102.624 103.341 104.159 104.981 105.234 105.206 106.051 105.641 110.439 110.506 106.674 105.116 105.189 105.251 104.986 104.851 104.781 104.624 104.614 104.594 104.491 104.376 104.599 104.841 104.344 104.366 104.421 104.856 104.906 104.896 104.891 104.706 104.754 109.872 104.757 104.624 104.079 109.414 110.249 109.872 109.459 108.542 104.969 104.032 104.044 103.569 103.214 103.121 103.184 103.218 103.143 103.681 104.617 104.881 104.968 103.077 103.551 103.458 103.184 103.18 103.357 104.475 104.37 103.933 103.597 103.374 103.107 103.027 103.035 103.012 102.963 102.884 102.688 108.565 109.503 109.468 108.059 102.512 102.551 102.297 101.962 101.937 101.892 101.884 101.917 102.004 102.044 101.989 101.922 105.044 108.382 109.062 107.929 101.754 102.052 101.762 101.737 101.702 101.677 101.569 101.584 101.772 101.697 101.837 102.112 102.442 102.804 103.074 103.232 103.364 103.409 103.439 103.474 103.517 103.544 103.562 103.567
48.564 48.471 48.414 49.264 50.944 49.506 48.886 48.841 48.859 48.851 48.894 48.941 48.959 49.096 49.256 49.201 49.341 52.966 54.146 53.554 51.836 49.606 49.324 49.256 49.176 49.726 49.274 49.296 49.324 49.389 49.591 49.539 50.494 53.541 54.769 53.739 51.499 49.899 50.076 50.834 51.686 51.549 51.934 56.866 56.579 56.344 56.034 54.539 50.631 51.679 50.409 55.564 51.774 50.571 50.531 50.511 50.404 50.324 50.309 50.339 50.444 50.654 51.399 50.556 50.239 50.224 50.124 50.131 50.151 50.149 50.156 50.169 50.169 50.174 50.179 50.194 50.204 50.239 50.261 50.316 50.444 50.651 51.971 57.351 58.031 56.901 55.361 50.579 50.794 50.874 50.966 51.634 54.174 50.971 51.011 58.656 58.664 58.266 57.866 57.474 57.104 52.061 51.521 51.614 51.681 51.859 52.034 52.174 52.804 52.349 52.604 52.906 53.271 54.481 53.664 53.799 56.099 57.406 55.241 54.021 54.476 54.681 54.864 54.499 54.496 54.604 54.614 56.016 54.866 55.054 55.279 55.549 55.234 55.191 55.421 55.576 55.421 55.484 55.521 55.939 56.066 56.321 56.564 56.671 56.751 56.896 57.054 57.259 57.386 57.579 57.816 57.979 58.171 58.309 58.516 58.826 59.049 59.301 59.559 59.834 60.056 60.291 60.514 60.786 60.966 61.151 61.376 61.634 61.854 62.066 62.249 62.454 62.729 62.966 63.161 63.414 63.659 63.869 64.104 64.364 64.536 64.729 64.871 65.071 65.229 65.414 65.609 65.829 65.969 66.219 66.439 66.646 66.889 67.151 67.354 67.609 67.976 68.194 68.439 68.779 69.069 69.441 69.744 69.944 70.156 70.396 70.659 71.099 71.501 71.761 72.026 72.244 72.471 72.789 73.099 73.346 73.714 73.939 74.256 75.584 74.809 75.099 75.404 75.691 75.971 76.364 76.911 78.199 78.791 78.979 79.694 79.561 79.361 79.449 79.844 80.221 80.566 80.904 81.269 81.606 81.976 82.316 82.696 83.064 83.474 83.844 84.136 84.436 84.856 85.136 85.486 85.809 86.094 86.394 86.679 86.991 87.301 87.521 87.811 88.076 88.379 88.696 89.029 89.416 89.824 90.196 90.606 91.001 91.509 92.214 92.829 93.461 93.974 94.459 95.004 95.439 96.054 97.001 98.056 98.366 98.441 98.649 99.561 100.189 100.634 101.264 101.796 101.934 102.054 102.494 103.149 103.946 104.891 106.766 105.501 109.669 111.011 111.414 110.781 109.384 105.139 104.984 104.909 104.989 104.781 104.639 104.579 104.491 104.476 104.414 104.301 104.831 104.864 104.209 105.234 105.369 104.886 104.814 104.621 104.541 104.586 104.694 104.642 104.154 106.429 109.814 110.832 110.992 110.512 110.069 109.569 103.997 103.989 103.247 103.217 103.316 103.798 104.074 103.159 103.19 104.043 104.46 104.638 103.087 103.301 106.775 105.585 103.185 104.083 104.059 103.516 104.817 103.643 103.355 103.213 103.088 103.062 102.97 102.925 102.891 102.737 108.631 110.28 109.743 107.434 102.452 102.512 102.189 101.862 101.826 101.801 101.789 101.827 101.899 101.927 101.892 101.919 105.077 108.389 109.072 107.922 102.549 102.889 101.722 101.682 102.287 101.677 101.517 101.517 102.177 101.449 101.784 102.032 102.327 102.687 103.007 103.179 103.292 103.392 103.439 103.472 103.507 103.542 103.572 103.562
48.489 48.444 48.416 48.394 48.851 49.096 48.856 48.771 48.746 48.764 48.811 48.829 48.879 49.146 49.124 49.089 50.484 52.651 53.801 53.016 50.991 49.486 49.281 49.039 49.051 49.106 49.134 49.161 49.181 49.331 49.446 49.539 52.199 53.519 54.169 53.006 50.171 49.824 50.029 51.519 52.976 52.841 55.821 57.991 57.709 57.674 57.136 56.874 50.501 51.124 51.221 57.029 56.749 56.496 56.186 55.521 50.679 50.386 50.356 50.456 50.554 50.551 51.324 50.721 51.104 51.716 50.916 50.226 50.184 50.141 50.139 50.139 50.154 50.174 50.189 50.196 50.206 50.206 50.214 50.226 50.324 50.381 50.401 50.444 50.684 53.296 51.331 50.521 50.559 50.599 50.699 50.791 51.344 50.831 51.151 57.604 57.989 58.394 58.709 58.579 54.961 52.469 51.649 51.494 51.496 51.559 51.666 51.679 52.294 52.169 52.181 52.214 52.341 53.589 53.456 53.216 56.244 56.676 53.689 53.826 53.931 56.041 54.359 54.339 54.231 54.294 54.631 55.046 54.656 55.146 54.849 55.034 55.104 55.024 55.224 55.481 54.951 54.979 55.211 55.454 55.746 55.986 56.224 56.401 56.529 56.721 56.896 57.094 57.306 57.476 57.656 57.904 58.129 58.461 58.629 58.706 58.854 59.164 59.494 59.714 59.891 60.171 60.371 60.559 60.781 61.011 61.216 61.444 61.654 61.861 62.046 62.346 62.556 62.771 63.039 63.259 63.486 63.711 63.934 64.154 64.309 64.519 64.699 64.881 65.039 65.211 65.409 65.564 65.799 66.041 66.269 66.481 66.694 66.899 67.111 67.389 67.654 67.866 68.161 68.451 68.711 69.059 69.456 69.864 70.181 70.401 70.621 70.869 71.081 71.361 71.746 72.009 72.254 72.564 72.816 73.181 73.451 73.731 73.959 74.261 74.549 74.854 75.159 75.431 75.706 76.131 76.554 77.274 77.971 78.139 78.619 79.096 79.066 79.166 79.539 79.876 80.226 80.619 80.966 81.304 81.669 82.019 82.394 82.781 83.161 83.524 83.841 84.171 84.561 84.936 85.236 85.516 85.841 86.151 86.394 86.684 86.956 87.184 87.524 87.681 87.959 88.296 88.656 89.004 89.409 89.809 90.199 90.646 91.014 91.634 92.359 92.881 93.494 93.946 94.546 95.051 95.424 96.019 97.159 97.911 98.344 98.456 98.621 99.566 100.271 100.561 101.166 101.724 101.826 102.024 102.359 103.031 103.874 104.539 106.186 105.394 109.646 110.894 111.496 111.014 110.349 105.426 104.794 104.894 104.804 104.721 105.611 104.659 104.356 104.346 104.311 104.216 104.111 104.051 104.031 104.831 104.994 104.689 104.501 104.276 104.481 104.544 104.579 104.089 108.839 109.519 109.939 110.404 110.794 110.234 108.407 103.939 103.594 103.201 103.212 104.054 103.758 103.2 103.194 103.189 103.204 103.155 103.274 103.782 103.279 103.836 103.866 103.259 105.046 103.739 103.461 104.673 103.946 103.468 103.784 103.085 102.981 103.044 103.315 104.001 103.761 108.683 110.706 109.797 107.975 102.464 102.356 102.367 101.771 101.719 101.706 101.692 101.719 101.807 101.717 101.719 101.707 105.674 108.404 109.047 107.887 102.524 101.689 101.592 101.582 101.539 101.454 101.429 101.559 101.372 101.479 101.727 101.959 102.262 102.589 102.889 103.137 103.299 103.359 103.414 103.447 103.447 103.484 103.539 103.544
48.411 48.409 48.414 48.399 48.504 48.861 48.764 48.679 48.649 48.676 48.736 48.759 48.816 48.991 49.066 49.056 51.764 52.951 53.539 52.334 49.239 48.996 48.964 48.864 49.334 48.951 49.074 49.176 49.649 49.226 49.349 49.446 52.631 53.841 53.889 52.701 49.576 49.709 49.964 51.701 52.394 52.339 57.241 57.531 57.789 58.089 58.196 58.011 50.606 50.584 54.724 58.116 57.851 57.646 57.276 56.984 50.466 50.504 51.161 55.871 53.556 51.341 50.686 50.579 50.551 50.586 50.314 50.306 50.294 50.364 50.276 50.256 50.221 50.161 50.166 50.179 50.204 50.239 50.226 50.229 50.231 50.224 50.281 50.354 50.391 50.421 50.521 50.504 50.519 50.571 51.281 50.639 50.691 50.751 52.776 56.416 56.896 57.314 57.669 58.046 52.176 52.714 52.676 53.531 56.831 53.236 51.964 51.511 51.971 52.156 52.149 52.159 52.301 53.731 53.139 52.779 52.934 53.051 53.199 53.411 53.649 55.209 54.231 54.166 54.294 54.211 55.799 54.196 54.181 54.116 54.561 55.374 54.664 54.829 54.926 54.921 54.611 54.691 55.059 55.276 55.409 55.704 56.001 56.096 56.306 56.504 56.679 56.886 57.089 57.274 57.509 57.689 57.914 58.251 58.516 58.694 58.859 59.084 59.226 59.504 59.786 60.039 60.206 60.404 60.644 60.859 61.079 61.269 61.511 61.676 61.936 62.164 62.466 62.629 62.869 63.126 63.324 63.544 63.729 63.909 64.134 64.336 64.479 64.669 64.824 64.991 65.224 65.341 65.646 65.849 66.036 66.249 66.499 66.699 66.874 67.176 67.371 67.646 67.889 68.124 68.439 68.774 69.144 69.521 70.019 70.376 70.644 70.859 71.004 71.174 71.359 71.571 71.926 72.289 72.564 72.926 73.281 73.479 73.746 74.009 74.324 74.601 74.896 75.124 75.499 75.889 76.266 76.649 77.001 77.336 77.704 78.129 78.501 78.916 79.194 79.541 79.934 80.271 80.634 81.021 81.354 81.756 82.121 82.504 82.821 83.199 83.619 83.944 84.304 84.674 84.939 85.246 85.611 85.889 86.154 86.384 86.641 86.859 87.134 87.266 87.681 87.891 88.279 88.669 88.989 89.374 89.774 90.241 90.774 91.141 91.771 92.371 92.951 93.486 93.991 94.521 95.041 95.454 96.141 96.839 97.729 98.319 98.449 98.621 99.451 99.961 100.499 101.036 101.586 101.674 101.896 102.256 102.839 103.586 104.386 104.981 104.956 107.014 110.671 111.314 111.266 110.581 106.756 105.084 104.746 104.559 104.664 104.499 104.444 104.259 104.194 104.184 104.124 103.999 103.896 103.934 103.871 103.849 104.066 104.004 104.396 104.411 104.219 104.032 104.042 104.021 106.672 109.259 109.734 109.839 104.424 103.864 103.606 106.779 104.892 103.117 103.165 103.323 103.192 103.182 103.175 103.065 105.011 103.637 103.183 103.17 103.193 103.344 105.798 104.071 103.374 103.592 103.877 103.558 103.098 102.92 102.834 102.786 102.927 103.239 102.993 108.635 110.345 109.68 108.03 102.419 102.252 102.262 101.674 101.649 101.614 101.604 101.654 101.699 101.704 101.689 101.694 105.812 108.409 108.984 107.852 101.882 101.687 101.652 101.582 101.497 101.429 101.332 101.279 101.294 101.322 101.629 101.817 102.124 102.459 102.759 103.024 103.199 103.302 103.369 103.394 103.424 103.452 103.492 103.517
48.409 48.374 48.379 48.404 48.489 48.804 48.606 48.594 48.569 48.589 48.669 48.721 48.789 48.944 49.031 49.074 52.061 53.269 53.246 52.024 48.994 48.999 48.841 48.741 49.609 48.819 49.541 48.871 50.101 49.214 49.219 49.244 52.929 54.124 53.649 52.404 49.594 49.654 50.021 52.686 51.206 50.966 56.144 56.389 56.671 56.941 57.236 56.569 50.649 50.626 57.076 57.339 57.624 57.941 58.146 57.894 50.546 50.714 55.729 56.959 56.706 56.436 56.134 54.804 52.631 50.734 51.579 50.361 50.324 50.429 50.434 50.414 50.364 50.336 50.251 50.219 50.199 50.201 50.224 50.229 50.254 50.266 50.261 50.251 50.244 50.314 50.389 50.429 50.474 50.531 50.871 50.586 50.624 50.666 51.046 51.159 51.204 53.661 56.606 56.966 51.176 53.286 52.529 54.459 57.741 58.051 57.451 56.364 52.101 51.494 51.559 52.079 53.044 53.759 52.309 52.464 52.616 52.724 52.844 52.971 53.296 53.686 54.584 53.986 54.296 54.311 55.464 54.109 54.261 54.174 55.524 54.386 54.419 55.629 54.361 54.176 54.334 54.514 54.846 54.981 55.149 55.414 55.924 55.851 55.981 56.191 56.409 56.624 56.814 57.074 57.246 57.541 57.744 57.976 58.271 58.579 58.736 59.001 59.284 59.454 59.626 59.806 60.036 60.281 60.471 60.699 60.921 61.156 61.309 61.491 61.771 62.034 62.219 62.429 62.684 62.914 63.116 63.356 63.539 63.729 63.921 64.086 64.249 64.444 64.579 64.789 64.941 65.239 65.436 65.654 65.844 66.021 66.229 66.429 66.719 66.914 67.109 67.359 67.616 67.864 68.176 68.531 68.894 69.281 69.764 70.111 70.436 70.724 71.099 71.366 71.319 71.484 71.644 71.804 72.229 72.584 72.984 73.216 73.476 73.734 74.059 74.331 74.586 74.899 75.301 75.679 76.014 76.371 76.736 77.076 77.401 77.791 78.149 78.496 78.841 79.229 79.644 80.001 80.346 80.669 81.071 81.451 81.821 82.176 82.541 82.944 83.294 83.656 84.114 84.404 84.714 85.034 85.399 85.679 85.936 86.139 86.406 86.626 86.846 87.044 87.281 87.599 87.944 88.349 88.651 89.069 89.489 89.871 90.369 90.861 91.249 91.851 92.426 93.031 93.531 93.996 94.534 95.041 95.526 96.059 96.866 97.739 98.309 98.436 98.591 99.466 100.734 100.356 100.884 101.354 101.494 102.081 102.349 102.751 103.349 104.036 104.769 104.761 105.144 110.414 111.064 110.609 104.709 104.526 104.779 104.121 104.186 104.529 104.399 104.304 104.176 104.054 104.034 104.006 103.911 103.806 103.761 103.714 103.674 103.681 104.214 104.282 103.794 103.932 104.039 104.009 104.359 103.994 104.109 108.644 103.847 103.609 104.512 108.632 108.479 107.346 104.158 103.134 103.641 103.235 103.064 103.069 103.346 103.409 103.143 103.142 103.162 103.983 103.214 103.224 103.27 103.499 104.149 103.361 103.128 102.954 103.377 102.81 102.726 102.701 103.327 108.57 109.045 108.996 108.006 102.387 102.231 102.221 101.579 101.524 101.517 101.507 101.564 101.594 101.622 101.659 101.657 105.492 108.572 108.979 107.939 103.657 101.692 101.627 101.534 101.437 101.357 101.277 101.169 101.142 101.184 101.452 101.657 102.027 102.377 102.687 102.967 103.177 103.299 103.372 103.434 103.459 103.487 103.482 103.512
49.646 48.374 48.339 48.341 48.516 48.744 48.499 48.514 48.514 48.534 48.634 48.699 48.789 48.921 49.014 49.206 52.336 53.546 52.926 51.596 49.016 49.041 49.049 48.821 48.839 48.699 48.789 48.739 48.854 49.139 49.329 50.476 53.251 54.324 53.276 51.349 49.879 49.629 51.671 52.504 50.626 50.559 50.611 50.794 52.384 54.586 56.126 52.044 51.751 50.641 55.156 56.239 56.534 56.799 57.081 55.464 51.716 50.599 58.116 58.116 57.824 57.549 57.246 56.964 56.304 51.386 51.536 50.389 50.499 50.534 50.511 50.444 50.534 50.491 50.359 50.336 50.996 50.326 50.294 50.219 50.244 50.499 50.589 50.281 50.286 50.291 50.281 50.279 50.356 50.421 50.454 50.506 50.561 50.626 50.749 50.809 50.899 51.454 51.289 50.984 51.346 51.881 52.316 56.466 58.374 59.454 59.026 58.419 57.824 57.231 54.449 51.456 51.349 52.096 51.991 52.216 52.386 52.521 52.606 52.679 52.766 52.914 53.099 53.416 54.314 54.041 56.086 54.864 54.529 55.451 54.071 53.894 54.089 54.059 53.934 54.056 54.396 54.359 54.366 54.576 54.851 55.586 55.079 55.306 55.619 56.786 57.749 56.336 56.544 56.746 57.001 57.271 57.544 57.821 58.049 58.359 58.679 58.881 59.116 59.314 59.614 59.819 59.939 60.104 60.374 60.634 60.789 60.999 61.131 61.386 61.616 61.826 62.056 62.261 62.511 62.686 62.924 63.154 63.301 63.516 63.659 63.856 64.059 64.189 64.349 64.556 64.781 65.036 65.216 65.421 65.614 65.794 65.971 66.214 66.424 66.614 66.846 67.094 67.381 67.626 67.951 68.299 68.684 69.106 69.451 69.939 70.214 70.481 70.714 70.941 71.151 71.464 71.624 71.751 71.884 72.056 72.459 72.904 73.279 73.511 73.744 74.049 74.319 74.709 75.096 75.429 75.774 76.114 76.471 76.746 77.156 77.489 77.859 78.224 78.536 78.896 79.211 79.646 80.041 80.406 80.809 81.111 81.464 81.871 82.256 82.681 83.014 83.429 83.776 84.159 84.464 84.856 85.166 85.436 85.689 85.899 86.196 86.361 86.584 86.806 87.001 87.304 87.601 87.971 88.294 88.696 89.124 89.606 90.006 90.479 90.906 91.299 91.879 92.419 93.014 93.506 94.019 94.511 95.041 95.514 96.009 96.829 97.676 98.286 98.429 98.514 99.214 99.789 100.186 100.711 101.224 101.486 102.424 102.169 102.421 102.876 103.534 104.171 104.651 104.651 109.311 106.051 105.046 104.709 109.489 108.751 104.511 104.164 104.291 104.381 104.194 104.139 103.971 103.889 103.871 103.824 103.731 103.604 103.549 103.564 103.509 103.524 103.492 103.817 103.949 103.984 104.221 103.786 103.799 103.852 103.857 103.119 107.767 109.036 109.499 109.127 108.692 108.223 106.736 103.657 103.307 103.075 103.101 103.386 103.06 103.133 103.244 104.771 103.1 102.906 103 103.252 103.879 103.496 103.238 103.134 103.28 103.764 104.322 103.586 102.721 104.201 104.241 104.067 103.233 102.372 102.127 101.742 101.472 101.389 101.409 101.417 101.462 101.474 101.537 101.542 101.562 105.794 108.384 108.724 108.232 103.699 101.629 101.589 101.472 101.377 101.272 101.199 101.284 101.029 101.039 101.327 101.592 101.949 102.349 102.692 102.939 103.162 103.312 103.397 103.457 103.492 103.517 103.517 103.517
48.474 49.746 48.346 48.399 48.554 48.589 48.456 48.486 48.484 48.504 48.566 48.639 48.744 48.901 49.009 49.014 51.244 53.044 52.624 50.329 49.009 49.089 48.984 48.889 48.836 48.931 48.786 48.801 48.799 48.984 48.956 51.644 54.554 55.764 55.604 53.049 50.389 49.429 53.066 53.091 50.689 50.701 50.596 50.724 50.549 50.561 50.601 50.626 51.121 50.679 50.626 50.641 51.424 52.976 55.244 51.746 51.521 50.651 57.089 57.371 57.691 57.959 58.181 58.091 54.401 50.581 50.541 50.454 56.149 53.289 50.609 50.536 50.576 50.459 50.409 50.379 50.506 50.539 50.669 50.519 50.361 50.316 50.919 50.829 50.289 50.314 50.349 50.301 50.296 50.291 50.301 50.359 50.436 50.731 50.639 50.706 50.984 50.919 50.964 50.806 51.121 51.004 51.251 54.469 57.409 58.029 58.614 59.189 59.371 58.814 58.161 57.579 57.016 52.841 51.721 51.896 52.076 52.239 52.391 52.474 52.546 52.601 52.709 52.796 52.951 53.051 53.021 54.614 54.531 53.379 53.384 53.839 53.664 53.814 53.624 53.784 53.836 53.999 54.126 54.334 54.546 54.634 54.821 55.034 55.301 56.246 55.691 55.884 56.369 56.736 57.326 56.944 57.146 57.519 57.869 58.176 58.409 58.664 58.874 59.109 59.464 59.726 59.961 60.106 60.266 60.454 60.696 60.906 61.046 61.264 61.481 61.664 61.899 62.129 62.296 62.526 62.761 62.914 63.086 63.254 63.451 63.639 63.784 63.939 64.166 64.336 64.624 64.834 64.994 65.181 65.379 65.564 65.724 65.981 66.174 66.361 66.559 66.816 67.106 67.399 67.724 68.061 68.479 68.841 69.299 69.704 70.004 70.271 70.481 70.721 70.956 71.184 71.566 71.761 71.904 72.029 72.191 72.399 72.681 73.129 73.469 73.736 74.124 74.486 74.854 75.136 75.534 75.891 76.184 76.516 76.891 77.239 77.579 77.906 78.226 78.539 78.894 79.259 79.636 80.076 80.464 80.884 81.196 81.586 81.991 82.396 82.804 83.201 83.561 83.904 84.266 84.614 84.944 85.209 85.414 85.714 85.964 86.099 86.301 86.589 86.804 87.091 87.274 87.656 88.016 88.406 88.784 89.204 89.674 90.104 90.536 90.979 91.409 91.889 92.536 93.091 93.604 94.479 94.511 95.019 95.444 96.414 96.674 97.474 98.206 98.386 98.444 99.119 101.784 99.954 100.466 101.034 101.406 101.714 101.889 102.029 102.729 103.049 103.821 104.989 107.081 104.674 104.319 108.816 110.074 110.124 109.556 107.521 104.109 104.106 104.274 104.161 104.049 105.101 103.731 103.726 103.716 103.649 103.516 103.414 103.399 103.316 103.309 103.374 103.956 103.899 103.789 103.649 103.676 103.629 103.764 103.076 108.411 109.314 109.826 110.441 109.735 109.343 108.925 108.351 107.606 104.462 103.077 103.026 103.03 104.838 103.875 103.202 102.766 102.77 103.068 103.504 104.88 104.096 103.264 103.044 103.377 104.454 104.009 103.626 102.727 102.757 102.61 102.536 102.451 102.404 102.161 101.649 101.364 101.257 101.312 101.302 101.312 101.374 101.402 101.427 101.457 105.182 106.532 107.587 107.607 103.367 101.607 101.539 101.412 101.264 101.194 101.124 101.097 101.019 100.949 101.202 101.539 101.954 102.349 102.647 102.917 103.127 103.282 103.352 103.434 103.494 103.502 103.497 103.482
48.356 48.301 49.509 48.546 48.649 48.616 48.464 48.456 48.451 48.461 48.506 48.571 48.681 48.874 49.016 48.974 48.969 49.064 49.784 49.081 49.131 49.094 49.186 48.929 48.889 49.036 48.986 49.079 48.841 48.909 48.919 52.036 54.854 56.064 55.604 53.761 49.036 49.219 53.466 52.311 49.731 50.191 50.359 50.996 50.184 50.314 50.359 50.336 50.354 50.426 50.476 50.451 51.244 50.631 50.619 50.631 51.709 51.574 55.341 56.256 56.574 56.826 57.094 57.374 52.926 50.621 50.589 54.009 57.221 56.806 56.404 55.984 53.024 50.481 50.454 50.404 50.966 50.991 50.569 50.766 50.514 50.686 50.539 50.341 50.289 50.266 50.301 50.309 50.326 50.316 50.319 50.306 50.314 50.371 50.489 50.546 50.989 50.886 50.899 50.701 50.864 50.891 52.346 51.419 51.419 53.009 55.716 57.599 58.224 58.739 59.059 59.141 58.026 54.431 51.496 51.609 51.771 51.961 52.174 52.276 52.321 52.346 52.409 52.486 52.559 52.614 52.631 52.659 52.709 54.176 53.301 53.254 53.249 53.426 53.359 53.471 53.646 53.736 53.914 54.304 54.204 54.379 54.579 54.821 55.029 55.289 55.546 55.736 55.876 57.579 56.356 56.651 57.609 57.264 57.561 57.884 58.151 58.421 58.714 58.946 59.219 59.554 59.819 60.101 60.941 60.454 60.614 60.779 60.934 61.159 61.404 61.601 61.726 61.959 62.114 62.341 62.551 62.736 62.911 63.056 63.161 63.379 63.544 63.749 63.926 64.196 64.419 64.609 64.784 64.976 65.186 65.319 65.599 65.741 65.889 66.094 66.331 66.569 66.826 67.111 67.414 67.836 68.246 68.649 69.074 69.529 69.799 70.041 70.241 70.466 70.699 70.914 71.194 71.401 71.726 72.046 72.251 72.391 72.559 72.784 73.019 73.369 73.856 74.289 74.601 74.931 75.301 75.634 75.941 76.334 76.656 76.954 77.299 77.594 77.924 78.254 78.601 78.931 79.329 79.701 80.151 80.636 80.906 81.334 81.716 84.776 82.574 82.944 83.359 83.704 84.091 84.391 84.689 84.966 85.134 85.566 85.696 85.889 86.099 86.259 86.574 86.784 86.996 87.354 87.701 88.046 88.469 88.856 89.326 89.729 90.154 90.671 91.076 91.404 91.939 92.549 93.134 93.589 94.059 94.544 95.049 95.421 95.934 96.574 97.301 98.109 98.321 98.379 98.854 99.474 100.266 100.336 101.041 101.309 101.519 101.564 101.844 102.094 102.714 103.369 105.666 104.761 104.386 106.926 109.549 110.099 110.481 109.899 109.299 104.529 104.084 104.161 104.101 103.926 103.864 103.654 103.571 103.559 103.524 103.426 103.306 103.177 103.167 103.237 103.154 103.856 103.572 103.304 103.467 103.339 103.187 103.532 105.994 107.484 108.739 109.146 109.587 109.982 110.02 109.585 109.116 108.605 108.036 106.852 104.898 104.053 103.161 102.82 103.488 102.903 102.991 104.062 104.951 103.688 102.984 102.57 102.72 102.751 102.922 102.829 102.75 102.677 102.582 102.495 102.422 102.359 102.122 101.962 101.274 101.199 101.201 101.194 101.192 101.307 101.307 101.347 101.412 102.844 102.352 101.499 101.517 101.549 101.547 102.019 101.312 101.194 101.097 101.052 101.189 100.899 100.824 101.119 101.442 101.884 102.254 102.594 102.879 103.069 103.187 103.297 103.409 103.472 103.487 103.477 103.439
48.291 49.816 49.841 50.174 51.006 48.811 48.446 48.464 48.464 48.426 48.446 48.526 48.616 48.744 48.781 48.864 48.914 48.941 48.981 49.189 50.931 52.676 49.339 51.891 50.956 49.439 49.039 49.136 48.964 49.004 48.991 50.839 55.149 56.289 55.299 52.644 49.016 49.156 52.709 51.556 49.811 49.724 49.496 49.634 49.801 49.899 49.946 49.991 50.074 50.161 50.166 50.196 50.534 50.369 50.446 50.656 50.729 50.516 50.579 50.599 50.791 52.746 55.966 56.301 50.751 50.634 50.631 57.881 58.159 57.909 57.481 57.044 56.619 50.514 50.479 50.426 50.599 50.691 51.059 50.594 50.596 50.556 50.514 50.419 50.436 50.394 50.409 50.399 50.294 50.311 50.319 50.321 50.346 50.361 50.346 50.351 50.426 50.499 50.726 50.584 50.641 51.304 50.924 51.019 51.201 51.404 51.751 51.429 53.526 56.784 57.524 58.116 57.469 51.311 51.334 51.399 51.549 51.704 51.889 52.054 52.144 52.154 52.189 52.269 52.331 52.381 52.429 52.551 52.851 54.036 52.924 52.976 53.039 53.099 53.229 53.316 53.399 53.539 53.756 53.824 53.976 54.121 54.334 54.539 54.751 54.964 55.204 55.464 55.624 55.871 56.109 56.334 56.671 57.251 57.224 58.221 57.914 58.221 58.449 58.669 59.024 59.419 59.541 59.831 60.114 60.579 60.704 60.826 60.959 61.114 61.269 61.444 61.714 61.881 62.034 62.206 62.359 62.539 62.664 62.841 63.009 63.166 63.349 63.519 63.731 63.986 64.169 64.359 64.576 64.761 64.949 65.169 65.366 65.481 65.669 65.854 66.084 66.341 66.571 66.849 67.169 67.609 67.919 68.449 68.879 69.251 69.559 69.801 69.996 70.216 70.424 70.711 70.931 71.169 71.341 71.611 71.941 72.371 72.681 72.831 73.009 73.211 73.406 73.736 74.281 74.684 75.049 75.371 75.746 76.084 76.391 76.679 77.011 77.321 77.644 77.969 78.269 78.629 79.019 79.396 79.774 80.236 80.644 81.034 81.409 81.919 82.314 82.746 83.111 83.479 83.846 84.161 84.469 84.671 84.984 85.264 85.471 85.684 85.809 86.084 86.304 86.569 86.779 87.054 87.439 87.746 88.146 88.551 88.974 89.391 89.789 90.141 90.604 91.046 91.411 91.929 92.541 93.071 93.571 94.004 94.529 95.029 95.449 95.826 96.424 97.214 97.861 98.239 98.316 98.614 99.244 99.719 100.226 100.796 101.051 101.239 101.364 101.479 101.706 102.196 102.961 103.609 103.989 104.049 104.129 108.839 109.789 110.359 110.259 109.656 107.941 104.786 104.189 104.109 103.889 103.751 103.576 103.441 103.394 103.381 103.301 103.219 103.114 103.039 103.084 103.027 102.917 103.512 102.877 103.384 103.834 102.782 103.471 102.714 103.149 106.327 108.506 108.88 109.429 109.771 110.03 109.918 109.34 108.964 107.116 103.756 103.366 102.717 102.538 103.088 103.564 103.4 103.581 102.636 102.484 102.434 102.443 102.541 102.655 102.588 102.495 102.512 102.565 102.337 102.208 102.132 102.062 101.949 101.176 101.094 101.091 101.087 101.094 101.212 101.199 100.939 100.747 100.637 100.672 100.747 100.882 101.097 100.812 100.822 100.927 100.757 101.247 101.314 100.832 100.859 100.704 100.932 101.287 101.722 102.087 102.442 102.752 102.974 103.124 103.257 103.354 103.432 103.442 103.442 103.424
48.269 50.011 48.554 49.011 50.029 48.874 48.616 48.481 48.429 48.414 48.406 48.474 48.554 48.614 48.704 48.801 48.891 48.939 48.991 49.044 55.046 55.269 55.001 54.724 54.416 52.494 52.211 51.919 50.651 49.586 49.396 54.174 55.469 56.184 55.384 49.411 49.056 49.186 52.471 49.946 50.141 50.211 49.381 50.444 49.374 49.459 49.599 49.651 49.709 49.784 49.839 50.329 50.069 50.099 50.304 51.661 50.219 50.291 50.421 50.339 50.546 50.729 50.551 50.571 50.626 50.641 52.319 56.776 57.211 57.644 58.044 58.109 55.186 50.561 50.526 55.989 56.059 53.374 51.131 50.619 50.586 50.581 50.519 50.446 50.461 50.451 50.451 50.769 50.441 50.421 51.406 51.694 50.614 50.349 50.366 50.366 50.374 50.379 50.374 50.406 50.469 50.759 50.699 50.764 50.866 50.971 51.044 51.169 51.276 51.286 51.536 55.104 55.629 51.196 51.124 51.149 51.259 51.451 51.731 51.901 51.986 52.019 52.056 52.124 52.206 52.304 52.469 52.666 52.716 52.641 52.694 52.776 52.896 52.891 53.001 53.116 53.486 53.984 53.441 53.639 53.771 53.946 54.094 54.281 54.471 55.524 54.886 55.144 55.404 55.596 55.866 56.084 56.311 56.571 56.949 57.229 58.759 58.099 58.959 58.516 58.644 58.944 59.236 59.611 59.841 60.119 60.386 60.674 61.036 62.104 62.539 61.411 61.491 61.726 61.991 62.201 62.236 62.361 62.499 62.659 62.799 63.004 63.211 63.321 63.574 63.731 63.939 64.124 64.344 64.521 64.744 64.989 65.139 65.291 65.441 65.611 65.839 66.086 66.319 66.566 66.969 67.284 67.756 68.211 68.624 68.986 69.294 69.851 69.776 70.019 70.211 70.511 70.736 70.931 71.129 71.346 71.621 71.929 72.249 72.529 72.936 73.246 73.414 73.594 73.829 74.126 74.711 75.099 75.486 75.836 76.106 76.431 76.761 77.049 77.356 77.661 77.954 78.314 78.706 79.076 79.451 79.951 80.334 80.719 81.176 81.644 82.094 83.026 82.821 83.226 83.606 83.906 84.219 84.439 84.816 85.009 85.234 85.459 85.644 85.886 86.094 86.294 86.561 86.799 87.119 87.464 87.849 88.259 88.576 88.981 89.404 89.749 90.181 90.654 91.046 91.439 91.934 92.651 93.041 93.514 93.966 94.411 94.911 95.341 95.766 96.301 96.931 97.711 98.174 98.244 98.484 99.216 99.631 100.119 100.639 100.804 100.941 101.061 101.199 101.486 102.051 102.634 103.286 103.771 104.074 104.631 104.454 109.399 109.986 110.496 110.004 109.414 105.324 104.179 104.431 103.954 103.689 103.519 103.399 103.251 103.186 103.149 103.104 103.029 102.939 102.844 102.872 102.707 102.627 102.944 102.559 102.831 102.822 103.437 102.729 102.699 102.889 105.514 108.089 108.707 109.132 109.508 109.703 108.711 103.453 103.013 103.193 105.723 105.93 103.419 104.433 103.226 102.524 102.608 102.466 102.393 102.336 102.358 102.437 102.424 102.201 102.082 102.317 102.154 102.114 102.042 101.974 101.617 101.091 101.004 101.002 100.977 101.142 101.114 101.069 100.797 100.532 100.814 101.399 103.474 101.402 100.539 100.477 100.512 100.522 100.522 100.427 100.417 100.644 100.872 100.709 100.812 101.154 101.567 101.994 102.349 102.662 102.884 103.054 103.194 103.292 103.364 103.384 103.394 103.392
