ncols 440
nrows 31
xllcorner    430016
yllcorner    430438
cellsize     2
NODATA_value -9999
37.887 38.092 38.464 37.723 37.683 37.635 37.598 37.662 39.98 40.673 38.487 38.659 38.395 37.718 37.827 37.658 36.782 36.687 36.71 36.68 36.694 36.693 36.692 36.689 36.683 36.641 36.614 36.657 37.288 40.992 41.806 42.552 42.773 42.18 41.644 40.987 41.551 42.279 42.951 42.322 39.01 36.617 36.587 36.566 36.596 36.543 36.549 36.516 36.512 36.599 36.598 36.649 36.651 36.655 36.652 36.648 36.659 36.662 36.697 36.68 36.681 36.699 36.724 36.738 36.778 36.755 36.826 36.826 36.845 36.795 36.838 36.882 36.985 39.491 38.087 39.601 41.837 40.536 39.782 40.163 39.304 36.706 36.568 36.591 36.535 36.393 36.279 36.329 36.285 36.341 36.593 41.444 43.447 38.719 37.033 36.223 40.237 41.909 41.935 43.097 44.666 45.031 45.339 45.592 45.899 46.247 46.566 46.918 47.232 47.602 47.934 48.24 48.332 47.979 47.73 47.353 47.014 46.675 46.391 45.997 45.735 45.387 45.066 44.513 42.948 37.714 38.845 45.429 45.906 46.23 46.547 46.946 47.283 47.443 47.161 46.779 46.596 46.182 45.779 45.506 45.215 44.825 43.338 36.605 36.298 36.212 36.194 36.129 36.058 36.042 35.992 35.969 35.978 35.99 35.997 36.01 36.049 36.1 36.715 36.763 37.697 42.588 43.659 43.806 43.954 44.207 44.426 44.685 44.748 44.976 44.732 44.598 44.453 44.212 43.998 43.875 43.68 43.495 43.311 43.096 42.617 37.699 40.384 40.65 41.398 41.449 40.625 40.135 36.378 35.69 35.775 38.351 36.495 42.827 58.562 54.914 41.055 40 40.656 38.951 38.874 40.708 40.868 39.87 39.879 39.894 39.852 40.235 41.894 43.677 41.945 42.184 42.631 43.094 43.421 43.716 43.864 44.048 44.141 44.225 44.395 44.472 44.534 44.449 44.338 44.285 44.219 44.062 43.96 43.921 43.766 43.699 43.651 43.586 43.636 43.609 43.636 43.481 44.367 49.323 45.676 44.629 48.791 47.504 43.466 45.642 44.392 49.273 43.583 43.414 43.324 43.446 43.317 43.306 43.335 43.306 43.333 43.361 43.717 43.756 43.808 48.911 49.613 48.699 50.079 46.496 46.151 50.249 48.677 46.963 43.7 43.78 43.704 43.878 43.909 44.342 44.029 44.017 44.065 44.138 44.211 44.249 44.276 44.236 44.19 44.215 44.408 44.438 44.361 44.33 44.242 44.162 44.136 44.181 44.17 44.242 44.211 44.181 44.153 44.122 44.064 44.053 43.92 43.873 43.88 43.768 43.714 43.613 43.573 43.564 43.6 43.494 43.542 43.634 43.645 43.657 43.638 43.732 43.754 43.754 43.843 43.886 43.861 43.975 44.047 44.103 44.177 44.1 44.179 44.202 44.207 44.241 44.309 44.381 44.399 44.406 44.444 44.47 44.405 44.437 44.49 44.519 44.477 44.516 44.558 44.666 44.684 44.668 44.767 44.843 44.86 44.958 45.589 45.602 45.694 45.334 45.219 45.212 45.335 45.357 45.396 45.381 45.427 45.407 45.493 45.511 45.539 45.619 45.605 45.607 45.572 45.995 46.722 46.882 45.756 45.826 45.772 45.736 46.158 46.352 46.389 46.174 46.108 45.96 45.966 45.863 46.284 46.219 46.175 45.951 46.025 46.341 45.916 45.977 46.263 45.82 46.366 46 46.137 45.847 46.019 46.187 46.639 47.063 46.845 46.2 46.225 46.121 46.163 47.2 47.647 47.775 46.591 46.003 46.19 46.006 46.154 46.095 46.14 47.225 46.43 45.942 46.092 46.006 46.336 46.172 46.553 46.639 46.61 46.458 47.421 46.307 46.55 46.537 47.239 46.605 46.488 47.251 46.69 46.664
37.937 37.925 37.848 37.784 37.715 37.705 37.634 37.612 40.033 41.686 40.799 38.398 38.54 38.221 37.581 36.862 36.837 36.784 36.981 36.678 36.693 36.685 36.705 36.698 36.679 36.657 36.627 36.616 36.708 40.167 41.363 42.028 42.668 42.585 41.987 41.27 41.148 41.534 40.976 39.683 36.652 36.64 36.575 36.531 36.597 36.544 36.51 36.56 36.647 36.7 36.625 36.656 36.677 36.676 36.693 36.68 36.693 36.703 36.702 36.72 36.728 36.721 36.726 36.787 36.793 36.806 36.827 36.838 36.868 36.853 36.885 36.922 37.251 41.143 37.397 38.488 42.06 41.689 36.919 37.106 36.772 36.7 36.632 36.555 36.507 36.382 36.322 36.337 36.366 36.337 36.488 39.999 41.402 39.651 36.474 36.185 37.518 41.826 41.97 41.966 43.941 44.736 45.147 45.52 45.74 46.067 46.412 46.653 47.003 47.388 47.758 48.091 48.298 48.244 47.902 47.554 47.168 46.881 46.604 46.251 45.923 45.67 45.353 45.024 43.332 44.714 45.018 45.414 45.788 46.014 46.359 46.627 47.022 47.337 47.381 47.027 46.748 46.427 46.023 45.746 45.437 45.087 44.667 38.788 36.304 36.278 36.195 36.146 36.15 36.074 36.031 35.951 35.954 35.971 35.985 36.02 36.01 36.011 36.043 36.434 36.632 39.222 43.867 44.099 44.341 44.502 44.599 44.891 44.832 44.744 44.568 44.322 44.113 43.985 43.789 43.586 43.351 43.183 43.012 39.238 36.981 36.287 41.572 43.008 36.33 37.568 38.867 35.874 35.761 35.698 35.788 35.839 36.462 38.299 47.427 52.674 38.545 38.587 38.885 38.793 38.628 39.288 40.074 40.014 40.076 39.95 39.91 40.489 42.631 43.42 42.783 42.738 42.716 43.119 43.425 43.564 43.839 43.912 44.076 44.263 44.415 44.469 44.561 44.5 44.387 44.332 44.291 44.094 43.912 43.864 43.757 43.711 43.636 43.679 43.645 43.601 43.576 43.538 45.618 48.751 47.168 45.993 43.9 43.38 43.972 49.462 45.108 48.656 46.493 43.946 43.344 43.398 43.431 43.295 43.331 43.303 43.289 43.323 43.28 43.221 44.082 47.556 46.613 47.196 48.893 46.048 48.898 46.509 47.739 47.447 45.006 43.727 43.926 44.598 44.595 44.02 47.133 44.184 44.083 44.216 44.252 44.198 44.175 44.162 44.204 44.272 44.348 44.332 44.368 44.338 44.234 44.175 44.219 44.186 44.231 44.268 44.286 44.23 44.21 44.163 44.094 44.02 43.896 43.949 43.909 43.781 43.698 43.692 43.641 43.673 43.643 43.61 43.545 43.597 43.743 43.746 43.696 43.76 43.831 43.871 43.927 44.017 44.047 44.083 44.073 44.17 44.258 44.23 44.238 44.201 44.27 44.321 44.391 44.457 44.479 44.506 44.532 44.526 44.54 44.544 44.598 44.584 44.611 44.654 44.751 44.833 44.836 44.847 44.906 44.882 45.115 45.115 45.932 45.796 45.894 45.563 47.173 45.399 45.455 45.406 45.471 45.481 45.578 45.557 45.566 45.572 45.558 45.571 45.557 45.638 45.574 45.71 45.668 45.665 45.705 45.717 45.737 45.772 45.833 45.852 45.814 45.832 45.787 45.813 45.783 45.84 45.911 45.855 45.893 45.888 45.925 45.923 45.945 45.897 45.921 45.94 46.003 45.997 46.018 46.03 46.01 46.064 46.119 46.123 46.249 46.263 46.237 46.082 46.588 47.549 47.075 46.729 46.258 46.356 46.245 46.275 46.256 46.786 46.391 46.943 46.463 46.451 46.242 46.362 47.112 46.98 47.108 46.627 47.458 46.533 46.617 46.51 47.455 46.497 47.328 46.795 47.439 46.862 46.662 46.62
38.095 38.28 37.855 37.811 37.743 37.675 37.652 37.597 38.853 40.168 39.887 40.194 38.847 38.326 40.853 41.877 41.189 38.159 36.717 36.725 36.696 36.719 36.71 36.695 36.696 36.708 36.637 36.634 36.633 36.693 40.792 41.801 42.471 42.756 42.332 41.593 38.677 37.085 36.62 36.621 36.606 36.603 36.547 36.555 36.496 36.507 36.768 40.139 39.828 37.421 36.828 36.66 36.679 36.696 36.704 36.716 36.72 36.721 36.712 36.728 36.748 36.738 36.763 36.751 36.816 36.79 36.849 36.863 36.87 36.898 36.915 37.102 41.386 42.433 40.072 36.979 37.763 37.355 36.923 36.829 36.765 36.668 36.6 36.552 36.494 36.463 36.35 36.381 36.366 36.317 36.427 37.668 39.589 36.758 36.128 36.035 36.153 36.701 41.765 41.922 42.398 44.464 44.869 45.199 45.5 45.833 46.154 46.472 46.836 47.152 47.447 47.851 48.162 48.404 48.077 47.908 47.467 47.128 46.766 46.507 46.179 45.839 45.543 45.17 44.897 44.719 44.889 45.265 45.519 45.774 46.125 46.493 46.774 47.124 47.432 47.309 46.925 46.622 46.289 46.027 45.623 45.273 45.065 43.465 37.009 36.298 36.268 36.243 36.138 36.12 36.1 36.017 35.944 35.947 35.965 35.949 35.992 36.042 36.037 36.105 36.456 38.027 42.69 44.223 44.54 44.82 44.945 44.763 44.663 44.405 44.198 44.118 43.898 43.652 43.399 43.221 43.192 42.841 36.921 36.419 39.796 41.375 38.093 37.809 38.986 45.056 35.766 35.761 36.581 35.739 35.781 36.794 48.995 48.302 57.49 53.633 42.694 38.552 38.863 38.821 38.884 39.877 42.724 43.159 40.516 40.002 41.368 40.936 44.511 46.86 47.385 45.062 42.82 43.095 43.236 43.575 43.695 43.866 44.096 44.25 44.426 44.428 44.521 44.54 44.424 44.352 44.308 44.093 43.906 43.825 43.706 43.746 43.725 43.659 43.608 43.577 43.616 43.536 43.437 46.144 49.604 48.365 43.561 44.554 48.597 47.876 44.104 45.194 43.413 43.32 43.338 43.363 43.336 43.315 43.3 43.321 43.326 43.284 43.303 43.306 43.584 44.334 44.543 46.843 44.47 44.498 48.866 45.495 45.285 47.163 44.582 43.715 43.881 49.589 48.53 47.152 49.727 49.302 44.879 44.081 44.216 44.252 47.392 45.52 44.203 44.315 44.321 44.391 44.358 44.307 44.269 44.248 44.228 44.251 44.291 44.253 44.291 44.232 44.22 44.111 44.109 44.055 44.012 43.97 43.89 43.861 43.755 43.731 43.711 43.731 43.65 43.704 43.715 43.626 43.711 43.821 43.839 43.845 43.831 43.893 43.982 44.069 44.05 44.166 44.224 44.243 44.317 44.343 44.431 44.426 44.45 44.431 44.53 44.548 44.525 44.515 44.632 44.653 44.672 44.695 44.714 44.78 44.838 44.911 44.941 44.966 44.942 45.183 45.12 45.412 45.46 45.479 45.903 45.993 46.142 45.846 45.632 45.393 45.518 45.539 45.616 45.554 45.279 45.82 45.904 46.002 45.953 45.58 45.61 45.583 45.673 45.64 45.667 45.688 45.686 45.77 45.785 45.804 45.77 45.861 45.87 45.86 45.86 45.895 45.988 45.977 45.863 45.941 45.945 46.002 45.899 46 45.919 45.992 45.957 46.07 46.104 46.07 46.036 46.157 46.044 46.119 46.075 46.169 46.083 46.212 46.113 46.197 46.173 46.178 46.263 46.276 46.138 46.247 46.184 46.303 46.214 46.309 46.266 46.351 46.235 46.317 46.209 46.323 46.252 46.304 46.551 46.452 46.434 46.469 46.418 46.48 46.81 46.781 46.939 46.879 46.962 46.635 46.598 46.765
38.31 38.099 38.471 37.901 37.746 37.693 37.7 37.614 37.539 38.172 41.327 43.613 43.765 43.09 43.432 43.352 41.92 38.87 36.729 36.731 36.726 36.715 36.71 36.693 36.681 36.673 36.666 36.645 36.638 36.63 39.418 41.295 42.087 42.722 42.594 38.188 36.653 36.642 36.619 36.61 36.573 36.53 36.531 36.547 36.58 36.6 38.09 41.391 39.634 37.3 36.705 36.982 38.605 36.746 36.752 36.734 36.738 36.733 36.757 36.749 36.745 36.754 36.781 36.81 36.804 36.843 36.855 36.872 36.872 36.918 36.939 36.568 38.532 40.973 41.7 38.716 36.979 36.971 36.905 36.831 36.741 36.662 36.615 36.532 36.511 36.449 36.374 36.372 36.405 36.391 36.436 36.539 36.63 36.52 36.31 36.006 36.066 36.147 40.899 42.113 42.862 42.481 44.158 44.975 45.319 45.58 46.001 46.303 46.581 46.915 47.259 47.575 47.963 48.216 48.297 47.973 47.627 47.373 47.017 46.689 46.442 46.058 45.818 45.47 45.065 44.755 44.64 44.992 45.233 45.625 45.805 46.257 46.497 46.907 47.297 47.421 47.199 46.872 46.499 46.234 45.885 45.486 45.201 44.856 43.988 36.964 36.275 36.243 36.192 36.161 36.109 36.017 35.998 35.933 35.965 36.048 36.024 36.038 36.043 36.081 36.097 36.491 38.38 43.708 44.887 44.89 44.757 44.499 44.299 44.15 43.981 43.707 43.526 43.366 43.245 42.984 37.778 38.273 35.944 35.897 41.687 42.617 40.021 35.919 35.981 38.976 37.79 38.986 36.679 36.26 35.845 35.786 46.333 44.324 48.007 44.9 39.177 39.879 39.054 38.777 38.759 40.73 42.213 43.583 41.222 39.945 42.947 42.58 44.474 47.913 47.813 47.46 43.666 43.043 43.312 43.62 43.724 43.917 44.148 44.221 44.292 44.43 44.494 44.489 44.377 44.34 44.26 44.149 43.963 43.791 43.679 43.647 43.632 43.592 43.561 43.573 43.637 43.548 45.016 47.418 48.491 45.777 43.933 45.284 48.496 45.559 45.719 46.009 43.695 43.383 43.53 43.449 43.402 43.365 43.332 43.316 43.376 43.353 43.318 43.263 43.782 43.955 43.488 43.514 43.536 43.664 48.306 45.859 49.413 49.656 46.274 43.77 43.891 44.864 47.267 49.137 47.841 49.406 44.604 44.133 47.941 48.322 48.8 47.984 44.305 44.286 44.297 44.374 44.332 44.33 44.361 44.28 44.23 44.209 44.184 44.213 44.216 44.136 44.103 44.076 44.074 44.073 44.02 43.958 43.922 43.869 43.766 43.741 43.764 43.784 43.799 43.71 43.761 43.802 43.757 43.841 43.894 43.905 43.942 43.989 44.116 44.129 44.197 44.253 44.287 44.346 44.432 44.504 44.496 44.501 44.526 44.627 44.645 44.717 44.697 44.723 44.781 44.727 44.786 44.851 44.888 44.911 44.973 45.061 45.138 45.161 45.119 45.23 45.299 45.762 45.865 45.8 46.138 46.229 46.135 46.13 45.775 45.594 45.601 45.642 45.649 46.097 46.141 45.944 45.825 45.91 46.237 46.149 46.026 45.82 45.858 45.786 45.83 45.798 45.782 45.778 45.961 45.803 45.883 45.805 45.921 45.922 45.921 45.975 45.934 45.992 45.938 45.979 45.954 46.033 46.009 45.997 45.992 46.091 46.022 46.205 46.251 46.069 46.069 46.074 46.092 46.212 46.171 46.167 46.192 46.222 46.214 46.246 46.262 46.308 46.256 46.258 46.278 46.321 46.308 46.283 46.349 46.401 46.356 46.429 46.398 46.422 46.304 46.396 46.336 46.42 46.357 46.404 46.443 46.465 46.447 46.49 46.479 46.486 46.548 46.625 46.634 46.623 46.663 46.77
38.086 38.053 37.996 37.871 39.058 37.775 37.681 37.627 37.567 37.6 41.689 44.178 44.722 43.791 43.773 43.816 43.394 41.028 36.767 36.739 36.723 36.716 36.69 36.664 36.672 36.647 36.671 36.639 36.618 36.656 37.28 39.974 41.56 38.797 37.162 36.639 36.618 36.6 36.598 36.558 36.533 36.517 36.563 36.573 36.654 36.634 39.151 41.303 40 37.293 36.597 36.707 37.288 38.076 36.784 36.723 36.758 36.777 36.789 36.769 36.755 36.774 36.763 36.839 36.854 36.853 36.875 36.885 36.894 37.083 37.975 36.474 36.642 37.187 36.789 37.303 36.92 36.844 36.885 36.818 36.778 36.682 36.641 36.543 36.541 36.527 36.434 36.397 36.447 36.383 36.407 36.526 36.598 36.494 36.316 36.129 36.059 36.067 36.155 41.23 42.078 38.044 41.648 44.754 45.075 45.512 45.677 46.086 46.325 46.709 47.047 47.356 47.726 48.051 48.356 48.393 47.861 47.575 47.193 46.974 46.723 46.317 45.924 45.144 45.353 45.027 44.731 44.683 44.994 45.354 45.715 46.158 46.404 46.749 47.055 47.346 47.345 47.15 46.833 46.433 46.064 45.799 45.451 45.077 44.685 39.388 36.332 36.302 36.224 36.167 36.146 36.083 36.016 35.883 35.931 36.016 35.987 36.07 36.056 36.062 36.088 36.778 36.708 41.144 44.91 44.674 44.513 44.263 44.112 43.848 43.699 43.569 43.322 42.995 42.323 38.713 38.919 36.053 35.928 36.145 39.119 42.079 40.253 36.889 40.085 37.247 36.618 38.561 37.502 41.403 36.189 35.858 35.982 45.727 49.454 41.577 39.444 39.346 38.947 38.719 39.006 39.682 40.034 40.56 39.997 39.951 40.808 42.473 45.139 47.557 48.736 45.239 42.967 43.1 43.383 43.546 43.638 43.88 44.028 44.193 44.367 44.426 44.497 44.572 44.487 44.409 44.368 44.138 43.961 43.895 43.698 43.658 43.676 43.609 43.582 43.603 43.627 43.498 43.447 44.24 43.896 43.366 44.989 45.997 48.621 48.206 45.756 45.471 43.489 43.456 43.378 43.326 43.345 43.338 43.329 43.322 43.336 43.324 43.402 43.317 43.35 43.482 43.483 43.769 43.637 44.745 46.46 47.981 49.304 45.54 44.714 45.289 46.676 46.682 43.784 47.036 44.642 44.832 44.257 44.985 47.554 49.215 48.397 45.645 44.296 44.235 44.237 44.392 44.374 44.324 44.3 44.284 44.208 44.24 44.249 44.211 44.135 44.166 44.126 44.065 44.039 44.019 44.039 43.965 43.927 43.87 43.808 43.787 43.794 43.81 43.824 43.855 43.868 43.86 43.861 43.791 43.967 44.003 44.003 44.105 44.267 44.235 44.304 44.319 44.465 44.558 44.588 44.581 44.655 44.594 44.731 44.723 44.792 44.823 44.88 44.956 44.95 45.003 44.906 45.002 45.08 45.192 45.265 45.29 45.324 45.323 45.343 45.425 45.392 45.572 45.783 46.258 46.532 46.252 46.335 46.154 45.788 45.71 45.693 45.75 45.789 45.751 45.847 45.919 46.271 46.342 46.285 46.266 46.223 46.229 46.29 46.246 46.045 46.005 46.178 46.137 46.382 46.93 46.173 46.11 46.057 46.096 46.616 47.467 50.802 49.026 46.223 46.096 46.708 46.457 46.242 46.072 46.192 46.273 46.619 46.672 46.672 46.272 46.172 46.455 46.341 46.819 46.555 46.226 46.845 46.559 46.381 46.347 46.439 46.318 46.268 46.282 46.322 46.3 46.378 46.308 46.397 46.383 46.525 46.47 46.375 46.364 46.429 46.419 46.435 47.063 46.719 46.395 47.128 47.148 46.527 46.51 46.524 46.606 46.581 46.622 46.578 46.65 46.704 46.677
37.966 37.997 38.06 37.877 37.833 37.762 37.699 37.651 37.597 38.824 41.653 43.366 44.402 44.095 42.609 42.033 41.927 38.067 36.797 36.773 36.722 36.701 36.716 36.694 36.677 36.697 36.684 36.651 36.666 36.65 36.735 38.119 38.458 36.703 36.635 36.62 36.609 36.585 36.541 36.541 36.547 36.556 36.619 36.652 36.685 37.359 37.383 39.801 39.56 36.554 36.534 36.536 36.565 36.718 36.831 36.786 36.775 36.802 36.789 36.797 36.814 36.803 36.821 36.789 36.815 36.866 36.899 36.896 37.399 38.997 40.267 36.757 36.673 36.757 36.774 36.801 36.789 36.799 36.842 36.816 36.745 36.702 36.618 36.573 36.588 36.574 36.469 36.427 36.484 36.419 36.467 36.558 36.624 36.544 36.571 36.154 36.072 36.067 36.042 36.346 36.999 36.253 36.709 44.279 44.648 45.143 45.509 45.847 46.128 46.48 46.909 47.165 47.479 47.785 48.07 48.389 48.103 47.831 47.519 47.09 46.793 46.506 45.935 44.359 45.561 45.211 44.895 44.551 44.817 45.158 45.469 45.847 46.153 46.498 46.85 47.119 47.419 47.239 46.919 46.716 46.3 45.98 45.594 45.378 45.023 44.343 37.722 36.404 36.288 36.255 36.186 36.098 36.054 35.97 35.96 35.954 35.991 36.013 36.056 36.036 36.046 36.126 36.266 37.232 41.724 44.252 44.204 43.967 43.718 43.604 43.378 43.242 42.977 38.601 38.872 41.945 43.479 38.238 35.969 37.614 40.462 39.989 38.843 38.609 40.742 38.947 41.06 40.563 41.448 42.808 37.731 38.212 40.811 39.306 43.948 40.795 39.189 38.773 38.948 38.709 39.714 39.948 40.088 40.105 40.084 40.006 40.345 41.722 45.04 47.541 48.46 46.188 43.34 43.173 43.314 43.511 43.643 43.884 44.029 44.164 44.274 44.456 44.544 44.607 44.572 44.45 44.378 44.24 43.946 43.965 43.88 43.67 43.588 43.605 43.557 43.592 43.58 43.575 43.49 43.42 44.461 46.182 46.734 46.192 47.464 44.683 48.136 46.891 44.248 43.341 43.459 43.432 43.353 43.341 43.36 43.376 43.368 43.349 43.374 43.375 43.358 43.469 43.408 43.555 45.456 48.207 48.553 44.497 48.701 49.487 44.15 44.218 43.885 44.087 43.84 43.758 47.853 47.628 46.079 48.567 44.841 44.088 45.024 44.142 44.256 44.324 44.317 44.323 44.377 44.344 44.292 44.28 44.23 44.176 44.193 44.29 44.239 44.204 44.074 44.047 44.041 44.046 44.033 43.9 43.911 43.897 43.853 43.79 43.765 43.852 43.887 43.942 43.983 44.031 44.007 43.948 43.993 44.127 44.186 44.272 44.269 44.309 44.423 44.634 44.621 44.682 44.703 44.713 44.764 44.758 44.795 44.898 44.903 44.971 44.989 45.177 45.138 45.212 45.093 45.198 45.238 45.361 45.469 45.55 45.597 45.638 45.586 45.769 45.613 45.65 45.786 45.954 46.395 46.421 46.305 47.475 45.89 45.793 45.723 45.813 45.898 45.816 45.85 46.667 46.439 46.335 46.457 46.463 46.475 46.461 46.404 46.446 46.274 46.345 47.151 47.149 46.723 46.756 46.306 46.292 46.293 46.525 46.598 46.623 47.481 47.213 46.517 46.335 46.589 46.571 47.263 46.417 46.603 46.47 46.583 46.745 46.882 46.549 46.298 46.278 46.724 47.003 47.292 46.699 46.57 46.598 46.674 47.5 46.892 46.575 46.464 46.438 46.48 46.626 46.665 46.671 46.68 46.868 47.042 46.562 47.065 46.707 46.641 46.413 47.158 46.612 47.388 46.655 47.007 46.902 46.697 46.547 46.976 47.278 46.503 46.927 46.684 46.623 46.655 46.707
38.019 37.977 38.482 38.004 37.935 37.833 37.835 37.689 37.625 37.725 39.09 43.429 44.271 44.531 42.446 39.466 37.933 37.07 36.767 36.714 36.704 36.694 36.675 36.702 36.678 36.666 36.685 36.653 36.651 36.643 36.655 36.652 37.511 36.956 36.618 36.609 36.573 36.552 36.556 36.611 36.632 36.653 36.675 36.729 36.83 36.856 36.769 36.814 36.503 36.54 36.497 36.467 36.498 36.505 36.736 36.922 36.818 36.824 36.812 36.842 36.836 36.84 36.841 36.843 36.836 36.877 36.897 37.496 37.654 36.625 39.729 38.857 36.658 36.744 36.682 36.736 36.763 36.763 36.81 36.787 36.722 36.703 36.718 36.657 36.638 36.6 36.453 36.406 36.498 36.497 36.404 36.531 36.658 39.598 40.778 36.746 36.278 36.024 36.072 36.118 36.232 36.205 36.244 37.895 43.751 44.99 45.227 45.62 45.939 46.315 46.554 46.862 47.199 47.561 47.971 48.182 48.316 47.984 47.672 47.347 47.013 46.691 46.388 45.991 45.719 45.423 45.116 44.809 44.703 44.931 45.267 45.559 45.972 46.283 46.579 46.941 47.227 47.458 47.208 46.76 46.493 46.218 45.847 45.536 45.213 44.863 42.943 37.021 36.398 36.333 36.228 36.165 36.062 36.038 35.999 35.948 35.953 35.999 36.001 36.029 36.045 36.096 36.178 36.352 38.085 43.452 43.864 43.681 43.513 43.321 43.054 38.517 39.525 37.329 38.636 41.854 43.956 37.218 36.842 38.668 38.864 38.769 38.579 38.886 39.264 36.404 42.48 40.208 40.683 42.858 43.982 40.777 44.488 44.687 45.106 40.035 39.603 38.911 38.929 38.69 39.282 40.03 40.026 40.106 40.003 39.964 40.352 43.891 44.846 45.823 47.199 44.521 43.576 43.109 43.259 43.493 43.685 43.852 43.936 44.105 44.293 44.444 44.525 44.536 44.492 44.505 44.428 44.255 44.075 43.937 43.862 43.735 43.628 43.537 43.548 43.663 43.619 43.559 43.472 43.508 45.068 47.751 44.404 46.557 43.777 46.035 45.527 44.487 43.495 43.395 43.483 43.481 43.393 43.356 43.349 43.379 43.359 43.318 43.349 43.382 43.498 43.459 43.459 43.896 48.474 47.768 49.506 49.877 47.833 43.941 44.151 43.801 45.139 44.815 47.732 43.97 44.898 48.56 45.268 49.078 48.402 44.189 44.055 44.2 44.341 44.298 44.314 44.26 44.361 44.315 44.309 44.26 44.305 44.256 44.329 44.242 44.271 44.198 44.088 44.125 44.082 44.046 44.016 43.952 43.9 43.891 43.842 43.862 43.913 43.906 43.933 44.033 44.113 44.161 44.098 44.07 44.107 44.097 44.326 44.313 44.438 44.455 44.549 44.652 44.74 44.772 44.856 44.821 44.872 44.921 44.974 45.061 45.002 45.106 45.149 45.29 45.309 45.338 45.39 45.38 45.468 45.561 45.569 45.68 45.847 45.839 45.821 45.932 46.398 46.392 46.3 46.608 46.517 46.5 47.685 47.001 46.029 45.993 45.914 45.938 45.948 45.917 46.075 46.792 46.748 46.562 46.61 46.691 46.893 46.821 46.729 46.533 46.549 46.578 47.562 46.994 46.788 46.77 46.705 46.71 46.746 46.913 46.88 46.937 46.835 47.251 46.674 46.723 46.729 46.749 46.897 46.756 46.651 46.732 46.611 46.908 46.869 46.688 46.491 46.57 46.814 46.853 47.084 46.929 46.749 46.624 47.375 48.042 46.856 46.809 46.609 46.887 46.594 46.714 46.837 46.673 46.644 46.753 46.79 46.857 47.132 47.11 46.813 46.73 46.6 46.74 46.701 47.078 47.086 47.051 47.027 46.777 47.811 47.661 47.722 48.378 47.376 48.481 47.232 46.721
38.043 37.988 38.017 38.032 37.982 38.487 39.52 37.746 37.636 37.561 38.096 41.335 44.291 44.155 40.475 42.642 39.097 38.447 38.825 36.764 36.734 36.717 36.677 36.698 36.718 36.684 36.662 36.696 36.684 36.655 36.657 36.65 36.63 37.178 36.622 36.584 36.556 36.622 36.617 36.639 36.661 36.69 36.729 36.992 36.885 36.729 36.595 37.577 36.658 36.454 36.419 36.42 36.469 36.527 36.48 36.597 36.755 38.588 36.97 36.857 36.855 36.847 36.873 37.134 36.855 37.299 39.481 37.79 36.586 36.628 38.742 38.632 36.816 36.648 36.649 36.692 36.759 36.71 36.778 36.827 36.785 36.733 36.722 36.68 36.673 36.665 36.614 36.465 36.521 36.513 36.478 36.55 37.208 41.763 41.759 41.552 37.695 36.074 36.043 36.075 36.15 36.14 36.164 36.503 41.814 44.749 45.042 45.466 45.711 46.043 46.381 46.682 47.008 47.298 47.691 48 48.39 48.243 47.939 47.597 47.236 46.87 46.679 46.322 45.98 45.633 45.366 45.076 44.688 44.833 45.015 45.303 45.68 46.022 46.347 46.588 46.94 47.344 47.377 47.153 46.778 46.405 46.04 45.8 45.459 45.096 44.751 39.841 38.084 36.367 36.308 36.214 36.069 36.019 36.04 36.018 35.948 35.957 35.985 36.271 36.108 36.107 36.153 36.251 37.141 38.661 43.02 43.446 43.194 42.872 42.671 36.091 36.524 38.099 38.167 37.06 37.349 37.263 37.547 37.494 37.76 39.19 38.045 38.37 38.355 37.008 37.089 36.75 36.765 43.314 43.392 41.282 44.689 45.217 43.355 40.722 40.204 39.797 39.159 38.972 41.152 40.016 40.353 40.055 39.99 39.98 42.502 44.061 43.669 46.256 47.079 43.21 43.027 43.155 43.323 43.491 43.549 43.803 43.926 44.1 44.275 44.382 44.55 44.537 44.526 44.505 44.365 44.196 44.001 43.936 43.904 43.749 43.652 43.615 43.549 43.536 43.498 43.471 43.452 43.348 43.313 43.32 43.699 43.554 43.591 49.688 46.803 43.641 43.47 43.394 43.378 43.423 43.323 43.324 43.255 43.345 43.336 43.377 43.314 43.394 43.336 43.337 43.358 43.409 44.826 46.593 44.38 47.811 44.987 43.877 43.712 43.704 44.29 44.94 46.674 43.878 44.936 43.865 43.867 45.112 44.829 44.531 44.018 44.124 44.133 44.281 44.259 44.28 44.295 44.318 44.322 44.293 44.305 44.275 44.269 44.242 44.212 44.178 44.138 44.077 44.106 44.062 44.01 43.91 43.899 43.95 43.883 43.934 44.017 44.005 44.086 44.149 44.145 44.2 44.276 44.265 44.261 44.209 44.3 44.399 44.463 44.57 44.671 44.788 44.821 44.852 44.912 44.999 45.005 45.115 45.117 45.161 45.257 45.268 45.355 45.434 45.517 45.54 45.547 45.622 45.678 45.791 45.855 45.95 46.016 46.034 46.095 48.229 49.03 49.133 47.128 46.812 46.647 46.613 47.795 48.583 46.275 46.074 45.986 46.08 46.063 46.048 46.239 46.824 47.043 47.095 46.857 49.716 52.962 51.602 47.7 46.866 47.267 47.079 47.129 50.964 47.306 50.407 48.223 47.283 47.461 48.329 47.522 47.773 50.923 48.149 46.879 47.046 47.104 47.026 47.097 47.041 47.105 46.895 46.945 46.995 46.903 46.84 46.828 46.833 46.898 46.932 47.147 47.081 46.916 46.851 47.244 47.452 47.067 46.939 46.838 47.152 46.786 47.068 46.904 46.859 46.82 47.103 47.175 47.801 47.286 47.185 47.035 47.203 46.944 47.012 46.896 46.989 47.016 47.069 47.058 47.132 46.976 47.042 47.605 48.08 47.209 47.384 47.156 47.216
38.078 38.029 37.988 38.005 38.148 37.954 38.602 38.181 37.657 37.642 37.539 38.011 44.277 45.2 44.489 42.948 39.988 38.492 37.56 36.732 36.704 36.728 36.721 36.698 36.668 36.677 36.695 36.708 36.652 36.675 36.631 36.59 36.607 36.593 36.601 36.592 36.618 36.633 36.669 36.715 36.76 36.792 38.05 36.93 36.72 36.637 36.668 36.68 40.507 39.005 37.43 36.454 36.398 36.45 36.436 36.455 36.675 36.945 36.899 36.89 36.872 36.872 36.881 37.384 37.121 39.401 41.757 40.256 37.405 40.251 40.778 37.472 36.667 36.694 36.68 36.687 36.697 36.733 36.77 36.809 37.091 36.793 36.756 36.726 36.72 36.7 36.667 36.559 36.525 36.55 36.478 36.549 39.022 41.552 40.868 42.185 37.588 36.158 36.08 36.06 36.095 36.07 36.171 36.192 36.293 42.665 44.66 45.171 45.472 45.845 46.169 46.434 46.767 47.157 47.466 47.722 48.074 48.389 48.124 47.746 47.454 47.117 46.896 46.49 46.247 45.923 45.542 45.194 44.824 44.583 44.842 45.136 45.455 45.741 46.059 46.413 46.83 47.075 47.402 47.334 47.008 46.654 46.329 45.964 45.561 45.402 45.028 44.364 40.22 36.505 36.349 36.252 36.173 36.123 36.089 36.029 35.955 35.94 38.393 40.011 37.749 36.174 36.164 36.188 36.782 36.309 40.651 43.041 41.516 36.354 37.28 38.864 38.266 38.63 37.232 40.329 43.336 42.982 44.053 39.839 43.482 42.858 37.781 37.795 38.091 38.32 37.26 37.269 37.596 39.841 40.616 36.825 37.523 38.423 38.427 39.789 40.412 40.803 40.689 39.032 39.089 40.04 40.404 40.161 40.053 40.16 40.617 44.203 43.916 46.099 44.989 42.986 44.074 43.269 43.327 43.428 43.59 43.785 43.868 44.028 44.262 44.466 44.94 44.907 44.705 44.537 44.384 44.25 44.111 43.933 43.89 43.77 43.703 43.616 43.611 43.666 43.601 43.555 43.476 43.358 43.349 43.244 43.267 43.325 43.36 45.726 44.412 43.406 43.421 43.307 43.342 43.311 43.252 43.235 43.305 43.313 43.331 43.292 43.323 43.383 43.365 43.502 43.523 43.528 44.47 46.429 45.32 48.734 49.073 43.903 43.736 43.782 46.126 46.265 48.377 46.262 43.884 43.911 44.024 47.795 45.127 44.16 44.104 44.158 44.299 44.344 44.277 44.29 44.257 44.273 44.293 44.231 44.241 44.195 44.227 44.167 44.158 44.134 44.204 44.146 44.102 44.074 44.023 44.007 43.966 43.977 43.984 44.025 44.106 44.049 44.132 44.231 44.303 44.334 44.404 44.371 44.446 44.354 44.351 44.405 44.557 44.649 44.722 44.81 44.982 45.011 45.057 45.077 45.148 45.221 45.268 45.334 45.373 45.446 45.492 45.534 45.653 45.804 45.785 45.916 45.989 46.063 46.161 46.209 46.144 46.187 46.492 49.522 48.587 46.943 46.866 46.843 46.839 46.795 49.075 48.016 46.531 46.176 46.05 46.164 46.129 46.155 46.371 47.031 47.096 47.197 47.372 52.006 53.499 53.851 52.308 48.214 47.75 47.738 47.392 53.211 53.573 53.747 53.554 53.55 53.702 53.474 53.637 53.282 53.277 48.554 47.087 52.43 52.947 52.772 52.941 51.761 52.83 51.22 50.521 51.106 48.745 48.207 47.113 47.033 47.084 47.178 47.18 47.107 47.152 47.068 47.246 48.672 47.302 47.098 48.392 47.328 47.046 48.043 47.027 46.984 47.246 47.382 47.35 47.43 47.466 47.329 48.26 47.492 47.197 47.349 47.172 47.217 47.067 47.095 47.38 47.419 47.457 47.393 47.74 47.613 47.469 48.154 47.403 47.489
38.132 38.056 38.016 38.141 37.958 38.104 38.589 38.415 37.75 37.662 37.609 39.756 43.129 44.32 43.57 41.547 38.546 36.914 36.811 36.74 36.72 36.713 36.708 36.687 36.697 36.701 36.705 36.683 36.662 36.64 36.628 36.604 36.59 36.6 36.627 36.615 36.639 36.689 36.736 38.885 37.039 37.437 36.801 36.639 36.691 36.796 37.809 41.651 42.046 41.256 37.745 37.165 38.456 36.496 36.426 36.418 36.603 36.63 36.659 38.067 38.578 36.893 36.894 36.892 40.341 41.808 40.869 41.862 37.122 39.611 39.823 38.26 36.65 36.666 36.713 36.731 36.722 36.732 36.771 37.073 39.735 36.902 36.757 36.726 36.765 36.746 36.732 36.593 36.568 36.602 36.526 36.546 36.855 38.644 39.955 40.17 36.866 36.218 36.144 36.065 36.03 36.069 36.138 36.186 36.268 38.194 42.696 44.952 45.237 45.653 45.894 46.251 46.637 46.928 47.184 47.538 47.934 48.227 48.33 48.037 47.685 47.307 47.097 46.792 46.452 46.139 45.875 45.47 45.102 44.715 44.603 44.829 45.245 45.544 45.893 46.151 46.469 46.865 47.245 47.366 47.261 46.944 46.505 46.18 45.86 45.61 45.202 44.948 42.606 37.087 36.342 36.267 36.154 36.142 36.108 36.072 39.079 38.125 39.967 37.475 36.507 36.186 36.21 36.239 36.876 37.137 37.676 37.589 36.795 39.758 40.726 40.298 39.097 38.854 37.772 38.838 44.699 45.204 45.463 45.844 46.232 46.578 44.411 46.297 45.768 41.862 39.831 42.426 38.727 38.346 37.429 37.37 37.367 37.369 37.486 39.106 40.369 41.175 40.646 39.321 39.096 40.493 40.494 40.36 40.054 40.124 40.79 42.609 44.861 46.09 44.699 44.862 45.47 43.237 43.2 43.332 43.464 43.705 43.844 44.03 44.299 44.47 44.917 45.171 44.764 44.501 44.376 44.245 44.103 43.957 43.86 43.736 43.719 43.688 43.676 43.687 43.682 43.653 43.553 43.48 45.839 48.11 43.57 43.509 43.479 43.504 43.523 43.5 43.495 43.444 43.536 43.427 43.352 43.337 43.343 43.342 43.374 43.54 43.382 43.504 43.434 45.051 47.169 47.81 49.339 46.862 48.882 50.622 48.858 45.421 43.81 44.674 50.346 49.572 48.985 45.326 43.92 46.621 47.997 49.311 49.309 50.395 44.893 44.289 44.216 44.249 44.335 44.33 44.335 44.355 44.4 44.334 44.3 44.304 44.279 44.184 44.161 44.198 44.149 44.062 44.047 44.037 44.066 43.993 44.007 44.009 44.1 44.13 44.157 44.241 44.236 44.29 44.377 44.434 44.485 44.519 44.486 44.441 44.452 44.481 44.587 44.665 44.872 44.92 45.038 45.077 45.103 45.201 45.251 45.256 45.327 45.464 45.485 45.515 45.651 45.798 45.914 45.989 46.044 46.184 46.231 46.331 46.339 46.471 46.617 46.546 46.859 47.296 47.151 47.057 46.977 46.953 46.927 47.308 49.018 46.732 46.739 46.342 46.191 46.221 46.261 46.272 46.416 47.215 47.142 47.169 50.909 53.162 54.502 54.652 53.958 51.921 47.243 47.265 48.2 53.425 54.444 54.996 54.759 54.763 54.684 54.838 55.354 54.671 53.566 48.204 47.049 51.695 54.284 54.92 54.604 54.402 54.432 54.206 54.281 55.333 53.985 52.085 47.246 47.216 51.356 50.871 51.306 50.395 51.426 50.312 51.214 49.051 49.059 50.002 47.704 47.311 49.102 47.892 47.345 47.33 47.269 47.349 47.439 47.945 47.419 47.56 47.526 47.368 50.336 51.756 52.208 49.605 51.449 51.397 48.544 47.59 49.905 50.923 49.77 50.954 50.166 49.707 47.669 49.528
38.109 38.069 38.053 38.015 37.975 38.089 38.495 38.573 38.221 37.659 37.613 37.536 38.046 38.971 44.031 43.685 37.339 36.863 37.132 36.995 36.762 36.818 36.714 36.711 36.687 36.738 36.672 36.69 36.643 36.617 36.624 36.586 36.635 36.644 36.662 36.672 36.689 36.726 36.83 40.494 40.288 37.586 36.652 36.705 39.68 41.833 42.511 42.302 42.088 41.956 39.711 39.443 39.401 38.108 36.399 36.43 36.489 36.474 36.447 36.642 37.375 37.264 36.891 37.014 40.236 42.234 41.864 42.351 38.458 36.731 36.667 36.644 36.679 36.687 36.732 36.723 36.758 36.77 36.94 39.919 39.926 37.503 36.783 36.725 36.722 36.73 36.717 36.677 36.568 36.599 36.558 36.528 36.654 36.808 36.915 37.124 36.598 36.276 36.221 36.123 36.02 36.048 36.099 36.139 36.209 36.253 37.835 44.373 45.034 45.358 45.649 45.962 46.314 46.632 47.003 47.248 47.695 48.029 48.329 48.183 47.94 47.595 47.302 46.94 46.61 46.344 46.011 45.659 45.379 45.152 44.754 44.678 45.037 45.311 45.682 45.965 46.319 46.656 46.995 47.307 47.349 47.069 46.73 46.401 46.095 45.743 45.456 45.138 44.879 38.653 36.322 36.326 36.267 36.155 36.103 36.977 39.931 39.779 37.443 36.117 36.108 36.156 36.204 36.217 36.329 36.586 38.928 38.528 38.869 40.47 41.926 41.228 40.33 37.793 37.449 41.711 44.861 45.272 45.609 45.997 46.242 46.621 47.019 47.273 47.584 47.624 47.28 46.812 45.66 44.51 44.088 43.345 39.767 41.14 37.578 39.724 40.782 41.59 41.002 39.027 39.53 40.285 40.429 40.17 40.04 40.553 41.388 41.977 43.948 45.248 43.691 46.119 44.016 43.13 43.167 43.275 43.44 43.661 43.895 44.124 44.315 44.519 44.749 44.786 44.644 44.519 44.375 44.278 44.182 43.964 43.896 43.795 43.728 43.709 43.762 43.73 43.668 43.682 43.549 43.55 46.83 48.481 49.031 46.574 47.227 43.551 43.637 43.512 43.58 43.493 43.441 43.365 43.28 43.313 43.331 43.391 43.426 43.407 43.403 43.417 43.452 44.421 49.771 49.233 44.022 48.255 50.018 47.217 49.021 47.33 43.869 43.805 47.176 48.651 44.837 46.762 43.912 43.867 43.986 48.759 49.256 50.805 50.265 45.327 44.262 44.376 44.295 44.341 44.339 44.364 44.427 44.394 44.353 44.342 44.341 44.324 44.258 44.239 44.294 44.289 44.271 44.165 44.097 44.087 44.078 44.03 44.049 44.079 44.194 44.233 44.217 44.316 44.452 44.505 44.505 44.548 44.559 44.583 44.58 44.586 44.722 44.863 44.999 45.042 45.19 45.189 45.257 45.327 45.424 45.48 45.586 45.646 45.681 45.779 45.876 45.976 46.124 46.25 46.332 46.371 46.434 46.492 46.755 47.109 47.272 47.144 47.196 47.169 47.139 47.14 47.061 47.042 46.96 46.85 46.721 46.643 46.573 46.395 46.4 46.355 46.379 46.331 46.568 46.96 47.266 47.237 52.578 53.782 54.335 54.571 53.391 52.219 49.109 49.324 47.524 53.029 53.263 53.511 53.441 53.688 53.7 53.692 53.512 53.858 53.354 47.671 47.153 52.364 53.743 54.348 54.326 54.577 54.327 54.301 54.456 54.605 53.994 50.032 47.185 51.07 53.781 54.143 54.371 54.004 54.253 53.965 53.884 53.89 53.763 53.185 48.18 48.439 53.234 53.559 53.548 53.589 52.616 53.278 52.656 53.34 51.671 53.3 48.606 47.479 51.689 54.02 54.31 54.037 53.924 53.726 47.511 47.63 53.001 54.116 54.036 54.05 54.239 52.944 47.737 50.627
38.179 38.168 38.067 38.076 38.055 38.767 38.285 37.966 38.451 37.711 37.614 37.604 37.52 39.648 44.805 45.583 38.891 36.921 36.783 36.819 36.722 36.689 36.702 36.678 36.707 36.67 36.669 36.627 36.612 36.612 36.641 36.654 36.67 36.684 36.716 36.725 36.757 37.141 36.886 37.73 37.129 36.875 36.956 41.381 42.05 42.297 42.402 42.413 42.257 42.07 41.864 39.538 39.412 39.253 36.493 36.359 36.366 36.484 36.531 36.554 36.462 36.69 36.693 36.664 40.356 41.473 41.722 40.609 36.832 36.686 36.683 36.669 36.75 36.738 36.737 36.76 36.795 39.225 39.563 39.904 39.942 39.343 36.86 36.773 36.752 36.751 36.798 36.724 36.575 36.59 36.583 36.587 36.615 36.776 36.864 36.802 36.73 36.51 36.238 36.139 36.069 36.037 36.096 36.122 36.163 36.237 36.342 39.416 44.75 45.141 45.497 45.778 46.075 46.353 46.705 47.107 47.404 47.841 48.108 48.349 48.178 47.825 47.564 47.144 46.965 46.557 46.199 45.916 45.595 45.268 44.975 44.661 44.775 45.164 45.501 45.762 46.113 46.438 46.785 47.029 47.382 47.324 46.917 46.604 46.272 45.971 45.694 45.348 44.997 43.959 39.892 36.601 36.345 36.713 38.994 40.019 37.448 36.072 36.07 36.126 36.137 36.185 36.197 36.257 36.536 36.529 39.136 39.708 40.061 40.636 41.521 41.741 40.007 37.624 37.458 43.934 44.945 45.301 45.606 45.983 46.332 46.687 46.978 47.366 47.699 47.536 47.257 46.89 46.506 46.091 45.831 45.484 44.995 44.709 44.46 44.018 45.507 41.622 42.589 39.589 39.326 40.471 40.795 40.252 40.074 40.408 40.566 41.951 43.952 46.385 46.762 47.338 50.444 43.27 43.132 43.275 43.421 43.607 44.934 44.106 44.295 44.726 44.677 44.555 44.514 44.434 44.39 44.284 44.157 44.046 43.899 43.843 43.742 43.727 43.725 43.774 43.742 43.627 43.581 43.475 46.747 48.99 49.083 44.869 47.695 44.636 43.918 43.478 43.479 43.47 43.392 43.455 43.382 43.355 43.359 43.332 43.389 43.345 43.403 43.44 45.712 47.138 50.725 46.133 43.777 45.255 50.601 50.633 50.639 44.636 43.86 43.896 44.036 45.63 48.294 49.211 47.012 44.676 46.771 48.481 48.544 49.981 47.929 45.725 44.263 44.301 44.33 44.388 44.354 44.388 44.444 44.395 44.427 44.436 44.373 44.36 44.258 44.321 44.331 44.326 44.278 44.28 44.227 44.242 44.175 44.191 44.272 44.271 44.332 44.263 44.31 44.358 44.485 44.463 44.532 44.559 44.614 44.601 44.726 44.806 44.885 44.934 45.103 45.309 45.385 45.366 45.377 45.502 45.607 45.603 45.704 45.851 45.931 45.993 46.1 46.163 46.394 46.458 46.513 46.702 46.937 46.868 47.311 47.425 47.302 47.326 47.321 47.325 47.281 47.194 47.073 46.976 46.906 46.837 46.871 46.755 46.727 46.532 46.441 46.351 46.53 46.469 46.624 46.664 47.326 47.187 47.182 52.636 53.508 53.43 52.786 52.657 49.422 49.45 47.461 48.087 48.74 48.846 48.059 48.304 48.799 49.219 52.03 52.139 52.572 48.964 47.949 51.765 52.757 52.716 51.928 52.822 52.879 52.117 52.95 53.031 53.12 48.987 47.287 51.213 53.909 54.813 54.646 54.709 54.733 54.776 54.882 55.039 54.695 51.053 47.365 47.725 53.593 55.253 54.833 55.081 54.682 54.791 54.784 55.064 54.626 53.729 48.477 47.376 52.068 54.612 55.173 55.595 54.892 53.637 48.645 47.653 53.646 55.125 55.263 55.365 54.542 50.497 47.695 48.743
38.183 38.334 38.243 38.111 38.229 38.232 37.957 38.119 37.794 37.767 37.693 37.593 37.551 37.484 42.523 43.038 39.375 37.564 36.909 36.806 36.69 36.699 36.683 36.694 36.663 36.648 36.641 36.614 36.596 36.662 36.66 36.679 36.708 36.76 36.777 36.849 37.348 36.835 36.74 36.752 36.715 40.463 42.196 42.033 41.997 42.167 42.357 42.506 42.352 42.151 41.979 40.196 39.448 39.376 38.749 36.44 36.423 36.465 36.423 36.407 36.565 37.391 36.673 36.68 36.754 37.686 37.693 36.756 36.679 36.68 36.724 36.741 36.779 36.779 36.84 36.806 37.081 39.903 39.911 39.965 39.938 39.899 36.998 36.817 38.047 36.75 36.662 36.778 36.641 36.631 36.651 36.589 36.668 36.717 36.875 36.854 36.858 37.001 36.429 36.202 36.099 36.093 36.065 36.083 36.121 36.195 36.245 37.671 41.794 44.953 45.256 45.558 45.812 46.204 46.576 46.991 47.168 47.484 47.892 48.142 48.411 48.072 47.69 47.424 47.14 46.745 46.444 46.097 45.788 45.513 45.203 44.834 44.653 44.873 45.219 45.593 45.934 46.244 46.605 46.873 47.295 47.447 47.235 46.888 46.518 46.198 45.927 45.6 45.256 44.891 42.617 37.193 36.413 36.333 36.583 38.983 36.216 36.132 36.105 36.136 36.149 36.208 36.213 36.293 37.19 38.863 39.142 39.448 40.124 40.875 40.823 40.426 40.91 37.987 37.481 42.075 44.999 45.349 45.729 46.033 46.388 46.696 47.095 47.41 47.667 47.534 47.175 46.766 46.478 46.149 45.77 45.437 44.986 44.738 42.471 47.144 46.426 43.845 40.432 38.998 40.068 40.551 40.562 40.309 40.136 40.279 40.697 43.817 46.066 47.267 47.404 49.576 44.318 43.011 43.135 43.298 43.668 46.056 46.465 44.663 44.282 44.412 44.727 44.622 44.522 44.395 44.323 44.295 44.177 44.023 43.864 43.819 43.807 43.808 43.815 43.773 43.656 43.672 43.584 43.619 46.204 47.204 44.906 44.738 43.972 45.314 44.972 47.699 43.611 43.594 43.406 43.305 43.271 43.381 43.354 43.339 43.34 43.439 43.547 43.437 44.046 44.761 45.426 45.925 43.733 44.645 47.371 47.138 46.302 43.858 43.837 43.96 44.097 47.617 48.699 48.116 46.805 43.85 47.103 48.468 49.978 45.06 48.313 47.868 44.232 44.34 44.386 44.379 44.331 44.308 44.399 44.413 44.384 44.371 44.38 44.354 44.347 44.347 44.373 44.405 44.374 44.327 44.272 44.276 44.292 44.314 44.285 44.364 44.388 44.382 44.448 44.526 44.613 44.639 44.622 44.73 44.813 44.787 44.869 44.911 45.033 45.118 45.211 45.393 45.517 45.513 45.543 45.641 45.692 45.839 45.953 46.038 46.109 46.25 46.403 46.523 46.568 46.747 46.827 47.041 47.203 47.35 47.398 47.416 47.394 47.387 47.312 47.216 48.164 47.216 47.233 47.215 47.194 47.158 47.147 47.09 46.977 46.719 46.712 46.523 46.585 46.584 46.53 46.802 47.43 48.144 47.41 47.302 48.824 52.512 51.653 48.054 48.846 49.424 48.777 48.58 47.581 47.946 47.327 47.338 47.118 47.074 47.73 48.343 49.397 48.076 48.562 48.855 47.323 47.702 49.786 47.805 47.709 47.289 47.265 47.216 47.295 47.705 47.551 51.202 53.225 53.314 53.342 53.162 53.533 53.355 53.404 53.41 53.654 53.163 48.952 48.268 53.587 53.705 53.896 54.046 54.136 54.118 54.172 54.305 54.256 53.607 48.062 47.427 51.607 53.936 54.298 53.993 54.26 53.426 48.115 47.587 53.669 54.402 54.731 54.485 54.538 50.167 47.724 51.668
38.195 38.205 38.198 38.111 38.05 37.989 38.062 38.017 37.837 37.755 37.681 37.652 37.579 37.5 37.427 39.273 38.82 38.912 37.299 36.715 36.723 36.664 36.674 36.63 36.633 36.626 36.621 36.628 36.639 36.671 36.744 36.741 36.762 36.873 37.339 37.192 36.759 36.762 36.75 39.725 41.816 42.459 42.329 42.125 41.863 42.068 42.26 42.413 42.447 42.249 42.063 41.887 39.54 39.459 37.806 36.411 36.335 36.339 36.385 36.389 36.514 37.071 36.698 36.849 36.751 36.808 36.767 36.62 36.661 36.724 36.774 36.742 36.797 36.79 36.845 36.829 36.837 39.238 40.017 40.298 40.029 41.366 37.701 36.825 38.567 37.099 36.745 36.791 36.668 36.656 36.684 36.623 36.657 36.74 36.886 36.877 36.867 37.669 36.74 36.282 36.212 36.093 36.025 36.039 36.097 36.151 36.192 36.265 41.211 43.295 45.025 45.335 45.665 46.043 46.279 46.646 46.961 47.263 47.613 47.949 48.314 48.243 47.945 47.647 47.273 46.944 46.667 46.374 46.052 45.741 45.384 45.029 44.703 44.613 45.109 45.292 45.724 45.944 46.362 46.65 46.947 47.282 47.313 47.153 46.791 46.435 46.11 45.791 45.502 45.201 44.876 38.608 36.451 36.344 36.29 36.209 36.147 36.151 36.168 36.198 36.215 36.211 37.322 38.577 38.84 39.092 39.177 39.407 41.047 42.132 42.333 43.733 41.179 40.232 38.345 44.569 45.056 45.384 45.694 46.055 46.407 46.778 47.056 47.409 47.736 47.416 47.054 46.774 46.374 45.953 45.624 45.357 45.01 44.604 46.014 47.162 46.414 44.164 40.364 39.167 39.682 40.655 40.453 40.32 40.138 40.342 42.599 44.908 48.023 47.287 45.526 46.766 44.58 43.02 43.12 43.212 45.292 47.758 47.856 45.568 44.446 44.63 44.7 44.638 44.484 44.512 44.416 44.244 44.174 44.05 43.9 43.842 43.837 43.799 43.754 43.818 43.713 43.698 43.716 45.307 49.425 48.025 43.571 45.638 48.645 47.094 46.641 44.826 45.082 43.556 43.414 43.356 43.255 43.22 43.408 43.419 43.403 43.853 46.611 45.199 43.574 43.942 45.902 43.925 44.502 45.42 47.971 45.52 43.861 43.949 43.907 43.937 43.982 47.09 49.458 47.994 43.914 43.919 47.276 46.241 49.07 44.691 44.899 44.551 44.282 44.267 44.322 44.414 44.464 44.404 44.368 44.316 44.345 44.321 44.344 44.343 44.41 44.429 44.429 44.406 44.367 44.388 44.363 44.33 44.311 44.321 44.362 44.393 44.385 44.444 44.514 44.563 44.605 44.67 44.81 44.808 44.879 44.89 45.027 45.105 45.179 45.253 45.341 45.494 45.611 45.624 45.694 45.735 45.871 46.062 46.175 46.295 46.418 46.525 46.547 46.923 46.791 46.966 47.268 47.408 47.47 47.46 47.367 47.374 47.401 47.31 47.375 47.422 47.46 47.413 47.425 47.724 48.851 47.453 47.356 47.34 47.215 46.918 46.764 46.566 46.663 46.72 46.706 46.886 48.881 47.184 47.175 47.326 48.878 47.75 47.613 48.762 49.383 51.164 49.95 49.171 48.638 48.418 48.164 48.348 48.132 48.22 48.109 47.669 49.237 49.759 49.997 48.749 47.467 47.834 47.928 47.392 48.716 47.872 47.366 48.121 47.897 47.821 47.387 47.165 47.234 48.161 48.214 48.182 47.833 48.895 48.095 48.792 48.869 47.99 48.052 48.556 50.211 51.109 52.606 51.324 51.773 52.795 49.795 52.55 52.977 52.966 49.163 47.496 48.854 50.2 49.801 52.808 52.515 52.986 48.196 47.582 52.064 52.444 53.314 53.348 53.348 51.064 47.795 51.591
38.27 38.166 38.171 38.122 38.277 38.145 38.181 37.952 37.841 37.799 37.724 37.679 37.6 37.558 37.483 37.963 39.449 40.266 36.842 36.769 36.7 36.73 36.654 36.64 36.653 36.679 36.686 36.693 36.718 36.743 36.754 36.79 37.138 37.434 36.976 37.488 36.681 39.616 41.23 42.135 42.27 42.471 42.382 42.25 41.991 41.902 42.137 42.271 42.463 42.357 42.174 42.061 40.255 39.241 36.431 36.326 36.325 36.386 36.408 36.51 36.455 37.041 36.675 36.747 36.821 36.71 36.666 36.665 36.698 36.76 36.784 36.806 36.84 36.851 36.857 36.851 36.843 37.563 41.617 41.944 42.243 42.207 36.807 36.654 36.798 37.25 36.749 36.797 36.775 36.623 36.694 36.641 36.656 36.739 36.901 36.925 36.805 36.968 37.167 36.592 36.245 36.152 36.058 36.078 36.044 36.08 36.175 36.259 36.505 44.105 44.657 45.095 45.382 45.753 46.096 46.433 46.732 47.054 47.351 47.744 48.123 48.317 48.179 47.818 47.518 47.218 46.927 46.589 46.186 45.99 45.568 45.266 44.933 44.673 44.825 45.237 45.469 45.733 46.048 46.458 46.811 47.067 47.362 47.305 47.026 46.754 46.355 45.993 45.718 45.353 45.082 44.001 39.893 36.532 36.27 36.218 36.196 36.226 36.216 36.216 36.264 37.172 43.761 39.676 38.905 39.343 39.304 39.296 40.506 42.036 43.37 46.627 50.711 46.354 40.793 44.474 45.083 45.375 45.789 46.159 46.481 46.773 47.222 47.555 47.972 47.405 47.033 46.678 46.321 46.044 45.63 45.289 44.883 43.082 44.96 47.356 46.312 44.797 42.49 39 39.686 40.53 40.635 40.223 40.185 41.078 41.659 44.237 44.948 45.819 43.41 43.652 42.991 42.956 43.102 43.338 46.339 47.496 47.533 46.902 45.921 44.538 44.668 44.583 44.529 44.439 44.431 44.27 44.14 44.033 43.871 43.858 43.841 43.845 43.781 43.816 43.783 43.617 43.61 45.517 48.67 49.167 46.808 47.768 45.653 43.455 45.329 44.653 43.412 43.529 43.447 43.353 45.049 43.881 44.14 43.736 43.258 43.423 44.274 43.806 43.712 43.734 43.7 45.2 47.147 50.355 48.96 46.701 43.943 43.903 43.899 44.997 48.371 47.755 45.471 43.953 43.949 43.942 43.977 44.077 44.423 44.432 44.231 44.236 44.226 44.281 44.331 44.386 44.387 44.349 44.359 44.401 44.316 44.304 44.37 44.456 44.449 44.495 44.501 44.47 44.413 44.391 44.389 44.405 44.416 44.417 44.361 44.435 44.472 44.511 44.603 44.646 44.761 44.819 44.905 45.035 45.023 45.055 45.176 45.219 45.344 45.444 45.517 45.513 45.698 45.825 45.9 45.979 46.071 46.257 46.388 46.512 46.581 46.717 46.912 47.227 47.162 47.614 47.563 47.494 47.619 47.505 47.569 47.553 47.622 47.613 48.765 47.548 47.516 47.787 47.603 48.715 48.18 47.642 47.669 47.59 47.396 47.192 46.847 46.73 46.781 46.735 46.795 46.892 48.588 47.629 47.564 48.383 48.148 48.764 50.667 47.83 48.403 51.701 52.559 51.679 49.961 48.754 48.501 48.714 48.679 48.662 50.119 48.8 49.72 50.177 49.951 49.441 48.832 48.788 47.701 47.252 47.755 47.704 47.861 48.154 48.054 48.082 48.528 48.28 47.746 47.862 48.883 47.77 48.128 47.789 47.772 48.898 47.746 47.789 48.741 47.923 48.339 49.202 49.827 48.125 47.362 47.616 47.716 49.409 49.897 48.613 47.358 47.824 47.789 47.723 48.061 49.897 49.105 49.118 48.036 47.821 47.994 47.73 48.908 50.262 48.218 47.774 47.841 47.917
38.793 38.223 38.172 38.206 38.181 39.287 38.289 37.936 37.873 37.834 37.76 37.7 37.633 37.592 37.504 37.474 37.911 39.529 36.845 36.714 36.713 36.72 36.671 36.663 36.648 36.666 36.714 36.751 36.758 36.78 38.129 37.428 36.857 36.646 38.57 36.998 40.715 42.082 42.006 42.044 42.229 42.354 42.451 42.305 42.135 41.959 42.089 42.152 42.4 42.491 42.335 42.17 41.908 40.146 37.085 36.348 36.34 36.373 36.438 36.466 36.486 38.264 36.81 36.729 36.679 36.672 36.658 36.692 36.759 36.776 36.8 36.858 36.845 36.866 36.875 37.849 40.407 41.557 42.261 42.328 42.404 42.508 41.11 36.767 36.656 36.672 36.754 36.816 36.769 36.661 36.724 36.691 36.701 36.742 36.962 39.904 40.597 41.766 38.442 36.707 36.362 36.215 36.108 36.053 36.054 36.081 36.102 36.169 36.269 38.151 42.243 44.896 45.224 45.601 45.903 46.158 46.534 46.812 47.143 47.46 47.827 48.253 48.393 48.082 47.687 47.437 47.11 46.83 46.443 46.105 45.81 45.535 45.215 44.797 44.724 44.966 45.259 45.604 45.855 46.198 46.465 46.901 47.185 47.488 47.258 46.926 46.579 46.21 45.911 45.612 45.349 44.937 42.574 36.505 36.288 36.244 36.26 36.232 36.238 36.753 46.601 48.148 42.868 39.829 37.515 37.629 39.62 38.948 39.484 40.706 40.421 43.002 42.887 40.318 40.059 44.803 45.164 45.44 45.836 46.132 46.546 46.876 47.181 47.633 47.644 47.281 46.985 46.667 46.224 45.929 45.505 45.268 44.783 39.007 44.681 46.376 45.876 44.874 40.659 39.396 42.104 43.252 40.422 40.24 40.606 43.954 44.48 44.581 46.948 45.714 45.497 44.945 43.294 42.973 43.064 43.634 47.339 45.532 47.508 48.324 45.251 44.682 44.698 44.625 44.535 44.471 44.367 44.262 44.136 44.014 43.923 43.829 43.867 43.822 43.87 43.774 43.8 43.712 43.736 44.188 45.329 48.046 47.385 46.882 44.994 43.535 43.458 43.488 43.464 43.447 43.371 44.424 45.952 46.863 44.568 43.532 43.347 43.406 43.509 43.601 43.556 43.741 43.767 45.266 48.638 49.182 45.966 46.709 46.156 44.077 43.947 44.871 49.562 46.867 45.84 44.967 44.621 46.037 47.254 47.787 44.71 44.145 44.204 44.25 44.256 44.24 44.35 44.363 44.391 44.392 44.333 44.301 44.324 44.31 44.379 44.402 44.516 44.588 44.553 44.54 44.454 44.456 44.47 44.45 44.437 44.434 44.536 44.517 44.541 44.556 44.659 44.754 44.828 44.883 45.084 45.115 45.089 45.153 45.407 45.429 45.489 45.516 45.682 45.766 45.82 45.96 46.049 46.199 46.395 46.582 46.64 46.734 46.892 46.943 47.345 47.813 47.594 47.546 47.731 47.567 47.747 47.761 47.903 47.913 47.936 47.745 48.839 47.946 47.665 47.677 47.745 47.869 48.116 47.891 47.871 47.79 47.569 47.323 47.014 46.869 46.859 46.828 46.884 46.929 47.414 47.182 47.503 51.777 53.007 54.28 53.911 49.23 48.081 48.726 49.476 49.345 48.624 48.75 48.715 48.887 49.055 49.034 50.067 48.583 47.957 49.632 49.779 49.355 49.021 49.184 48.391 48.369 49.608 48.671 48.744 48.523 48.064 48.07 48.357 49.384 48.048 48.472 48.808 48.175 48.638 48.05 47.958 48.36 47.791 49.288 49.029 49.715 47.861 48.368 48.059 47.541 47.983 47.769 47.543 48.577 47.681 49.089 50.022 48.389 48.05 47.825 47.821 48.326 48.252 48.117 48.86 49.364 48.207 48.021 48.707 48.676 48.03 48.063 48.678 49.103
40.176 38.82 38.2 38.165 39.589 38.999 38.017 37.959 37.894 37.871 37.818 37.775 37.696 37.621 37.561 37.524 37.489 42.47 44.791 42.612 38.21 36.687 36.712 36.714 36.714 36.741 36.769 36.825 36.886 36.988 36.943 36.736 36.608 36.671 40.62 42.497 42.409 42.238 42.112 41.979 42.119 42.294 42.48 42.367 42.227 42.112 41.969 42.107 42.258 42.447 42.421 42.218 42.072 41.855 38.886 36.531 36.404 36.453 36.397 36.494 36.454 36.643 36.762 36.715 36.695 36.735 36.731 36.744 36.778 36.807 36.84 36.887 36.876 40.287 41.582 42.267 42.315 42.388 42.441 42.493 42.552 42.636 41.236 36.791 36.678 36.717 36.739 36.818 36.86 36.715 36.706 36.74 36.698 36.709 36.885 42.489 44.185 43.865 43.029 37.698 39.048 36.477 36.238 36.1 36.031 36.103 36.104 36.164 36.259 36.464 37.325 44.385 44.969 45.286 45.646 45.939 46.274 46.602 46.909 47.292 47.53 47.942 48.238 48.314 47.999 47.677 47.312 47.016 46.672 46.369 45.976 45.674 45.336 45.093 44.725 44.697 45.025 45.374 45.674 45.996 46.286 46.618 46.948 47.29 47.425 47.096 46.808 46.439 46.098 45.78 45.555 45.192 44.874 39.409 36.399 36.254 36.275 36.77 46.505 48.269 50.78 48.919 40.184 37.278 37.219 37.706 39.572 38.461 38.953 38.238 40.66 41.025 39.386 37.581 43.763 44.945 45.199 45.546 45.877 46.249 46.522 46.935 47.297 47.714 47.445 47.24 46.922 46.515 46.161 45.893 45.573 45.186 44.789 43.655 42.919 44.136 45.005 43.125 39.316 39.26 43.839 43.849 41.433 40.202 41.757 43.643 45.597 45.306 47.426 48.007 47.773 45.968 46.747 43.115 43.067 44.233 45.41 48.221 47.805 45.917 44.819 44.476 44.65 44.674 44.615 44.537 44.386 44.296 44.109 44.008 43.88 43.828 43.85 43.84 43.826 43.82 43.799 43.758 43.633 44.008 47.751 49.385 46.915 45.066 47.926 44.478 44.769 43.494 43.407 43.364 43.332 43.304 45.854 45.575 44.327 43.271 43.318 43.364 43.46 43.59 43.651 43.723 43.705 48.223 51.073 50.607 49.451 49.365 49.93 45.014 43.95 43.902 44.769 47.317 47.394 47.263 47.658 46.931 49.157 47.908 44.181 44.234 44.214 44.204 44.244 44.251 44.328 44.346 44.376 44.362 44.344 44.313 44.375 44.342 44.378 44.458 44.553 44.537 44.621 44.658 44.602 44.52 44.449 44.521 44.559 44.51 44.56 44.546 44.632 44.689 44.765 44.847 44.954 45.07 45.134 45.126 45.148 45.353 45.46 45.465 45.611 45.717 45.919 45.964 45.961 46.028 46.253 46.471 46.61 46.776 46.968 47.024 47.094 47.392 48.026 47.769 47.586 47.82 48.01 47.998 48.041 47.867 48.158 48.595 51.888 50.097 48.784 47.772 48.846 48.744 48.203 47.891 47.998 48.152 48.07 47.946 47.741 47.502 47.113 46.993 46.954 46.974 47.047 47.067 47.167 47.707 47.947 52.046 54.821 55.267 54.338 49.848 48.047 51.146 48.812 48.952 48.921 49.09 50.041 50.072 49.814 49.132 50.918 48.61 48.237 49.924 49.862 49.238 49.344 49.444 49.411 50.609 50.02 48.911 49.572 48.922 48.5 48.209 48.756 48.672 48.194 48.078 49.113 48.894 49.252 48.504 48.35 48.084 48.064 47.795 48.962 48.706 48.12 48.039 48.242 47.646 48.067 47.77 47.82 48.284 48.099 49.035 50.129 48.225 48.126 48.006 48.166 48.298 48.42 48.264 48.371 48.907 48.143 48.047 48.103 48.878 48.532 48.842 48.323 48.854
38.638 38.839 39.665 38.861 39.189 38.077 38.009 37.917 37.929 37.899 37.83 37.791 37.749 37.692 37.634 37.565 37.649 43.93 46.532 46.086 43.226 36.961 36.749 36.761 36.759 36.797 36.9 37.434 37.208 36.717 36.643 36.654 39.508 41.384 42.196 42.386 42.486 42.353 42.166 42.005 42.029 42.193 42.35 42.446 42.361 42.157 41.973 41.98 42.199 42.396 42.474 42.301 42.126 41.951 40.474 37.321 36.387 36.395 36.45 36.509 36.519 38.42 36.789 36.743 36.74 36.784 36.795 36.818 36.833 36.84 37.291 40.924 40.765 42.255 42.317 42.452 42.463 42.545 42.59 42.662 42.731 42.791 42.886 37.938 36.742 36.726 36.756 36.815 36.829 36.756 36.714 36.763 36.738 36.754 38.749 42.891 44.089 44.169 42.255 39.859 44.06 40.3 36.489 36.17 36.067 36.061 36.121 36.15 36.227 36.291 36.406 42.04 44.749 45.088 45.398 45.752 46.105 46.463 46.747 47.025 47.359 47.717 47.991 48.299 48.25 47.9 47.496 47.194 46.921 46.559 46.184 45.965 45.594 45.263 44.922 44.612 44.763 45.117 45.39 45.602 46.056 46.421 46.778 47.082 47.378 47.364 47.066 46.71 46.382 46.045 45.736 45.355 45.068 43.059 36.402 36.303 37.202 44.674 50.737 50.425 43.057 37.93 37.308 37.272 37.206 37.425 39.441 37.737 37.711 37.632 38.73 41.473 38.895 37.951 42.796 44.96 45.312 45.698 45.928 46.275 46.636 47.047 47.39 47.675 47.529 47.182 46.867 46.586 46.22 45.841 45.425 45.127 44.753 37.793 37.994 41.869 43.721 43.153 39.247 39.105 40.778 42.339 40.478 40.253 40.444 44.242 46.377 47.798 47.372 45.015 45.371 45.074 49.274 46.539 43.158 44.226 46.202 45.783 46.107 44.333 44.524 44.483 44.594 44.692 44.598 44.556 44.421 44.256 44.077 44.027 43.925 43.829 43.835 43.863 43.827 43.817 43.75 43.686 43.627 43.977 49.755 45.223 43.517 48.415 49.881 49.77 48.449 43.488 43.393 43.361 43.316 43.289 43.273 44.02 43.314 43.276 43.411 43.384 43.491 43.581 43.635 43.698 43.678 45.662 45.407 47.109 45.033 49.215 48.995 45.628 43.939 43.992 43.935 48.108 48.037 45.592 48.436 45.186 47.628 44.544 44.218 44.193 44.175 44.227 44.229 44.283 44.274 44.303 44.371 44.398 44.336 44.259 44.298 44.397 44.495 44.497 44.603 44.633 44.661 44.683 44.568 44.54 44.549 44.591 44.523 44.599 44.654 44.706 44.779 44.813 44.904 45.054 45.095 45.154 45.16 45.182 45.326 45.366 45.537 45.713 45.784 45.891 46.07 46.16 46.199 46.263 46.31 46.658 46.799 47.132 47.124 47.181 47.774 47.73 47.67 47.697 47.746 48.014 48.116 48.223 52.387 53.132 54.009 54.08 54.507 51.909 48.621 47.861 47.968 48.05 48.119 48.22 48.337 48.406 48.411 48.134 47.852 47.565 47.204 47.152 47.035 47.115 47.066 47.036 47.231 47.673 47.647 52.1 55.712 55.942 54.523 52.506 48.387 48.518 48.653 48.849 50.265 49.768 50.27 50.437 51.236 51.445 51.039 50.095 48.751 50.019 49.795 49.399 49.491 50.881 49.796 51.268 49.952 49.177 49.811 49.352 49.733 49.289 48.455 48.153 48.241 49.114 49.493 49.421 49.698 49.138 49.225 49.417 49.003 49.161 50.299 48.583 49.607 48.54 48.564 48.314 48.828 48.017 47.996 48.642 48.743 48.74 50.036 50.083 48.833 48.183 48.298 49.764 50.401 50.611 50.93 49.732 48.25 48.076 48.77 49.13 48.973 51.205 50.783 50.528
38.43 38.276 38.455 38.272 38.382 38.088 38.038 37.968 37.943 37.923 37.869 37.801 37.778 37.716 37.69 37.647 37.779 43.552 46.061 46.515 46.032 39.035 36.812 36.789 36.804 37.091 37.445 36.738 36.665 36.577 39.738 41.616 42.116 41.987 42.12 42.279 42.47 42.451 42.278 42.077 41.931 42.086 42.278 42.464 42.42 42.251 42.124 41.97 42.072 42.228 42.457 42.401 42.267 42.044 38.552 36.57 36.435 36.434 36.47 36.499 36.532 36.649 37.077 36.774 36.83 36.85 36.855 36.853 37.369 41.513 42.255 42.29 42.363 42.421 42.519 42.569 42.65 42.693 42.617 39.715 42.831 42.932 42.977 41.461 36.884 36.745 36.814 36.829 36.841 36.744 36.722 36.767 36.75 36.743 37.146 42.008 43.172 43.082 42.965 44.065 44.543 43.077 37.583 36.251 36.116 36.067 36.058 36.12 36.181 36.261 36.33 36.38 42.705 44.91 45.213 45.544 45.887 46.133 46.5 46.917 47.14 47.482 47.851 48.157 48.314 48.167 47.736 47.374 47.05 46.833 46.426 46.1 45.852 45.511 45.256 44.814 44.66 44.945 45.212 45.538 45.914 46.146 46.46 46.862 47.134 47.464 47.236 46.879 46.617 46.243 45.962 43.611 40.93 37.33 42.029 38.94 50.205 49.304 47.522 39.63 38.309 37.344 37.278 37.251 37.163 37.187 37.286 37.301 37.305 37.324 37.626 38.122 38.482 37.898 44.551 45.049 45.301 45.673 45.981 46.444 46.708 47.034 47.469 47.689 47.473 47.13 46.763 46.466 46.103 45.817 45.453 45.068 44.314 40.281 40.417 42.441 43.068 40.607 39.324 39.206 40.081 40.298 40.409 40.243 40.902 44.974 47.187 48.929 47.919 45.489 45 43.613 49.43 48.073 43.166 43.301 44.005 43.999 43.848 44.143 44.199 44.443 44.611 44.634 44.598 44.558 44.393 44.265 44.109 44.013 43.94 43.859 43.835 43.847 43.822 43.813 43.748 43.665 43.658 45.27 45.804 49.085 46.309 46.001 49.178 50.315 45.728 44.53 43.363 43.378 43.343 43.258 43.242 43.327 43.314 43.508 43.391 43.408 43.496 43.609 43.562 43.602 43.62 43.687 46.25 44.503 43.853 44.931 43.875 43.998 43.99 43.997 43.966 44.774 46.521 46.769 48.437 44.667 44.135 44.12 44.19 44.113 44.247 44.27 44.286 44.273 44.26 44.36 44.35 44.394 44.405 44.384 44.359 44.459 44.495 44.577 44.597 44.601 44.644 44.658 44.658 44.605 44.58 44.573 44.703 44.729 44.818 44.788 44.837 44.963 45.055 45.161 45.26 45.264 45.233 45.223 45.334 45.524 45.698 45.802 46.053 46.168 46.303 46.433 46.488 46.543 46.587 46.901 47.322 47.587 48.097 47.774 47.709 47.715 47.824 47.791 47.768 48.032 49.468 54.233 54.393 54.749 55.11 55.467 55.678 55.012 48.944 47.922 48.033 48.228 48.441 48.559 48.492 48.89 49.914 48.346 48.145 47.962 47.481 47.299 47.22 47.138 47.236 47.227 47.247 47.745 47.85 51.552 54.09 55.485 54.745 50.464 48.347 48.453 48.715 49.016 50.056 50.486 50.434 49.627 50.641 50.636 51.266 51.612 51.54 51.799 50.888 50.094 50.873 50.948 50.875 50.923 49.756 49.42 49.93 49.52 51.105 51.332 49.26 48.944 48.578 49.322 49.654 49.682 51.015 49.54 49.533 49.869 49.48 49.492 52.029 48.957 50.215 49.599 48.557 49.168 48.572 49.988 48.058 49.227 48.457 48.316 48.272 50.495 49.385 48.681 48.8 51.003 52.733 52.82 51.208 50.216 48.96 48.683 49.597 48.868 49.158 51.267 50.761 50.432
38.349 38.772 38.389 38.195 38.162 38.144 38.065 38.028 37.992 37.891 37.899 37.832 37.81 37.758 37.852 38.805 37.604 38.826 44.841 45.671 44.913 38.062 36.923 39.039 38.989 36.853 36.686 36.601 39.647 41.78 42.54 42.353 42.169 41.965 41.961 42.174 42.371 42.494 42.367 42.141 42.063 41.999 42.188 42.367 42.448 42.315 42.226 41.982 42.009 42.175 42.348 42.446 39.218 38.045 36.496 36.537 36.527 36.498 36.524 36.529 36.61 36.737 37.175 36.832 36.82 36.952 40.335 41.603 42.242 42.321 42.372 42.462 42.526 42.588 42.642 42.739 40.343 42.345 37.963 42.322 42.933 42.852 42.803 42.473 37.066 36.825 36.789 36.806 36.832 36.85 36.75 36.766 36.816 36.757 36.78 37.532 40.139 39.22 43.372 45.321 40.201 38.619 41.704 37.075 36.164 36.077 36.044 36.1 36.151 36.222 36.289 36.455 37.906 44.39 44.986 45.309 45.666 45.956 46.299 46.596 46.902 47.237 47.609 47.868 48.238 48.242 48.077 47.654 47.246 46.966 46.688 46.374 46.029 45.675 45.361 45.129 44.761 44.628 45.015 45.263 45.637 46.049 46.335 46.564 46.921 47.238 47.401 47.138 46.876 46.479 45.687 36.573 36.31 38.52 47.399 50.125 48.719 47.371 38.9 37.439 37.302 37.298 37.293 37.274 37.177 37.205 37.255 37.312 37.309 37.373 37.406 37.423 38.071 38.249 44.614 45.013 45.387 45.781 45.988 46.365 46.774 47.155 47.431 47.666 47.409 47.075 46.7 46.452 46.051 45.744 45.384 45.03 44.732 40.437 41.797 42.656 44.071 42.784 39.503 39.481 42.03 40.852 40.353 41.778 46.254 47.795 43.446 47.339 46.749 45.847 46.734 47.344 47.697 44.743 45.288 44.713 45.88 44.485 45.884 46.358 44.658 44.508 44.606 44.536 44.521 44.443 44.294 44.187 44.153 44.069 43.986 43.859 43.774 43.845 43.877 43.835 43.801 44.035 43.605 43.625 43.606 46.756 47.787 49.376 46.778 48.855 45.724 43.465 43.319 43.279 43.316 43.347 43.316 43.318 43.348 43.43 43.358 43.433 43.507 43.504 43.592 43.582 43.536 43.916 49.434 49.981 45.525 43.958 44.002 44.013 43.989 43.997 43.961 43.958 43.995 43.969 44.007 43.959 44 44.101 44.152 44.147 44.188 44.276 44.332 44.265 44.261 44.278 44.431 44.397 44.415 44.381 44.414 44.52 44.527 44.634 44.569 44.615 44.67 44.603 44.644 44.642 44.696 44.701 44.764 44.845 44.865 44.934 45.017 45.065 45.226 45.322 45.304 45.298 45.329 45.396 45.501 45.623 45.933 46.062 46.175 46.241 46.329 46.591 46.691 47.01 47.019 47.201 47.654 47.881 48.222 47.949 47.837 47.997 48.013 48.03 47.87 48.108 50.072 55.266 55.606 55.618 55.606 55.433 55.005 53.571 50.34 48.025 48.088 48.31 49.841 50.781 52.518 54.648 54.492 53.814 48.542 48.095 47.71 47.345 47.297 47.215 47.307 47.266 47.487 47.797 47.815 51.517 54.016 54.612 54.653 53.632 48.246 48.132 48.853 50.601 50.969 50.369 49.643 49.43 49.856 52.121 50.765 50.179 51.1 51.679 51.713 51.591 51.723 50.221 50.977 52.057 50.649 51.453 49.683 51.536 50.159 50.038 51.337 50.415 49.881 51.108 51.644 51.364 51.425 50.6 50.259 51.628 51.41 53.141 54.176 54.335 52.877 52.742 49.902 49.863 49.598 51.88 50.521 50.619 49.286 48.457 48.426 50.718 50.402 50.077 49.581 51.833 53.023 54.865 53.833 52.58 50.734 50.678 51.386 50.724 49.805 50.969 50.399 49.785
38.44 40.595 38.703 38.166 38.161 38.127 38.108 38.05 38.007 37.971 37.941 37.91 37.841 37.811 37.772 37.734 38.508 41.934 38.472 43.691 42.675 38.148 39.053 40.796 39.497 36.708 36.832 40.351 42.103 42.242 42.449 42.436 42.274 42.122 42.022 42.071 42.247 42.433 42.486 42.312 42.089 41.983 42.062 42.23 42.406 42.446 42.278 42.092 41.955 42.086 42.05 41.045 36.587 36.529 36.486 36.565 36.576 36.493 36.546 36.53 36.572 36.731 37.305 36.855 36.877 40.714 42.316 42.399 42.447 42.478 42.522 42.649 42.676 42.226 42.774 42.627 41.173 43.163 42.113 42.255 42.837 42.761 42.674 42.64 38.97 36.853 36.811 36.85 36.867 36.868 36.764 36.788 36.822 36.815 36.782 36.845 37.143 42.512 43.119 41.068 43.066 43.422 44.048 42.904 37.575 36.176 36.125 36.078 36.09 36.144 36.243 36.281 36.48 43.384 44.759 45.099 45.344 45.691 46.047 46.407 46.639 47.035 47.341 47.67 47.98 48.342 48.171 47.8 47.499 47.203 46.891 46.531 46.217 45.975 45.613 45.339 44.987 44.68 44.757 45.125 45.435 45.724 46.05 46.404 46.76 47.02 47.338 47.35 46.513 44.166 38.363 37.279 40.112 48.965 49.465 48.454 38.979 37.459 37.4 37.357 37.311 37.274 37.271 37.213 37.143 37.216 37.262 37.333 37.307 37.362 37.399 37.454 37.469 37.521 44.404 45.17 45.449 45.762 46.099 46.494 46.779 47.142 47.549 47.66 47.261 47.011 46.678 46.375 46.009 45.692 45.381 44.93 40.583 38.809 42.382 44.691 44.313 42.869 39.163 39.767 42.371 41.308 40.456 40.868 46.986 48.282 47.915 47.729 46.152 45.761 47.04 45.268 45.892 49.418 45.217 46.477 46.791 45.924 47.151 46.362 46.521 44.605 44.577 44.562 44.483 44.427 44.282 44.203 44.215 44.086 43.96 43.902 43.822 43.854 43.835 45.137 46.977 45.332 43.67 43.582 43.545 45.851 49.555 47.1 44.074 43.375 43.387 43.457 43.369 43.334 43.267 43.372 43.265 43.342 43.375 43.386 43.347 43.43 43.475 43.502 43.511 43.561 43.54 43.602 48.291 46.527 44.194 43.92 43.925 43.968 44.037 44.045 43.973 43.96 43.955 44.029 44.066 44.095 44.108 44.129 44.17 44.176 44.263 44.301 44.257 44.216 44.258 44.303 44.377 44.415 44.425 44.483 44.455 44.558 44.558 44.601 44.644 44.639 44.643 44.656 44.674 44.678 44.647 44.756 44.883 44.943 44.929 44.994 45.092 45.227 45.324 45.361 45.331 45.343 45.426 45.52 45.68 45.935 46.09 46.144 46.351 46.491 46.574 46.773 46.91 47.426 47.512 47.747 47.687 47.858 47.882 47.978 47.964 48.141 48.235 48.161 47.932 47.965 48.448 54.163 55.049 54.767 54.49 54.155 53.884 53.547 50.027 48.028 48.443 48.357 50.177 53.115 55.055 56.127 55.509 53.326 49.998 48.277 47.937 47.507 47.395 47.299 47.405 47.39 47.517 48.005 47.84 47.826 51.708 52.527 50.502 48.749 49.436 49.948 49.739 49.493 50.34 49.955 50.956 49.895 49.712 52.261 50.624 49.844 51.124 51.646 51.767 49.774 49.716 49.78 50.253 50.92 51.27 52.118 52.178 52.083 49.651 49.507 51.781 51.567 49.942 49.686 49.835 49.919 50.619 52.102 52.168 51.593 50.709 53.504 53.63 55.183 55.034 54.37 50.51 50.028 50.061 52.114 50.622 51.654 52.549 53.379 51.12 52.842 52.358 52.816 52.239 51.894 52.232 54.884 54.95 53.378 52.202 50.389 50.819 50.629 50.315 50.212 51.253 52.059
38.492 38.222 38.251 38.222 38.147 38.127 38.109 38.093 38.062 38.013 37.954 37.913 37.899 37.848 37.878 38.694 46.072 46.626 45.435 44.827 43.452 39.026 37.028 38.418 37.662 40.841 42.202 42.033 41.976 42.146 42.375 42.5 42.368 42.193 42.052 41.97 42.181 42.317 42.487 42.355 42.177 41.997 41.999 42.176 42.311 42.469 42.343 42.228 41.936 39.062 36.587 36.487 36.509 36.551 36.582 36.601 36.475 36.507 36.54 36.582 36.75 36.682 36.824 36.847 36.946 38.053 42.396 42.515 42.595 42.643 42.67 41.615 38.446 37.781 41.959 42.201 43.073 42.86 42.726 42.669 42.579 42.616 42.533 42.412 42.095 36.932 36.887 36.865 36.969 37.395 36.874 36.762 36.831 36.868 36.793 36.843 39.802 43.252 44.746 43.357 41.609 42.885 44.747 39.158 36.71 36.408 36.353 36.095 36.037 36.106 36.138 36.172 36.279 36.319 42.706 44.898 45.239 45.537 45.838 46.21 46.454 46.86 47.114 47.458 47.727 48.21 48.33 48.092 47.771 47.412 47.034 46.898 46.458 46.118 45.826 45.537 45.178 44.901 44.515 44.884 45.128 45.501 45.907 46.116 46.443 46.852 46.908 47.443 39.451 37.225 39.165 41.824 42.152 43.002 42.985 39.039 37.663 37.418 37.397 37.364 37.349 37.332 37.271 37.216 37.187 37.22 37.273 37.3 37.35 37.694 37.483 37.409 37.469 42.933 44.76 45.148 45.506 45.923 46.166 46.495 46.896 47.253 47.588 47.721 47.347 46.921 46.516 46.314 45.959 45.575 45.144 44.925 44.439 44.616 45.394 42.898 42.81 39.448 42.723 43.012 43.194 42.688 40.429 43.087 47.42 47.529 47.396 46.341 45.314 44.307 45.731 46.887 44.504 49.069 47.218 44.463 47.551 48.109 48.557 47.512 44.691 44.461 44.743 44.534 44.462 44.341 44.176 44.213 44.178 44.071 43.964 43.907 43.828 43.764 43.812 44.281 46.111 44.812 43.609 43.565 43.531 44.059 48.187 44.222 43.383 43.384 43.362 43.369 43.357 43.358 43.242 43.287 43.271 43.34 43.364 43.454 43.392 43.334 43.394 43.411 43.48 43.552 43.601 43.667 43.827 44.258 43.859 43.886 43.938 43.928 43.926 43.902 43.911 43.936 44.024 44.094 44.08 44.061 44.119 44.101 44.123 44.123 44.141 44.175 44.194 44.264 44.25 44.268 44.341 44.402 44.416 44.479 44.446 44.589 44.628 44.658 44.687 44.72 44.676 44.71 44.711 44.767 44.828 44.917 45.092 45.075 45.094 45.123 45.221 45.293 45.41 45.433 45.422 45.453 45.552 45.73 45.935 46.071 46.209 46.393 46.604 46.613 46.778 46.991 47.396 47.751 47.979 48.341 47.827 47.854 47.974 48.13 48.198 48.275 48.319 48.314 48.076 48.006 49.191 50.692 53.928 53.542 53.232 49.688 48.274 48.701 48.91 48.217 48.222 48.453 48.63 49.66 54.636 56.052 55.66 54.74 48.725 48.389 48.083 47.674 47.563 47.402 47.474 47.486 47.468 47.67 47.78 47.783 48.068 48.342 48.968 49.128 49.479 49.344 49.271 49.224 50.133 50.56 50.126 49.58 49.852 51.786 50.538 50.07 51.461 51.81 51.695 49.678 49.684 49.813 49.835 49.905 49.966 50.211 50.224 50.422 49.556 50.002 51.971 51.827 50.834 49.894 50.126 50 51.225 52.162 52.163 51.335 50.149 52.068 51.118 51.503 52.116 51.156 50.595 51.217 50.224 51.704 50.229 51.652 52.426 53.314 53.084 53.913 52.094 50.308 51.465 51.241 52.248 50.786 50.606 51.664 50.226 50.234 50.241 50.329 50.202 50.239 51.247 52.407
38.232 38.222 38.202 38.183 38.15 38.177 38.159 38.101 38.095 38.148 39.394 43.949 39.584 38.74 38.018 43.055 46.029 46.522 44.91 46.023 44.697 38.472 36.777 36.892 41.754 42.475 42.307 42.129 42.013 42.068 42.209 42.445 42.441 42.294 42.135 41.883 42.02 42.248 42.404 42.47 42.318 42.162 41.925 42.035 42.242 42.368 42.331 39.234 36.558 36.517 36.481 36.481 36.531 36.58 36.564 36.585 36.532 36.62 36.619 36.686 36.709 36.885 37.356 36.891 36.898 37.01 42.415 42.691 42.77 42.665 40.894 40.864 43.087 41.701 42.235 42.838 42.704 42.675 42.609 42.539 42.455 42.434 42.358 42.281 42.156 36.988 36.952 37.021 40.284 41.448 37.077 36.793 36.809 36.866 36.845 36.862 39.959 43.635 45.267 45.014 40.967 41.019 40.34 37.835 36.603 36.535 36.446 36.242 36.035 36.071 36.119 36.169 36.254 36.308 37.98 44.409 44.999 45.289 45.606 45.913 46.237 46.563 46.902 47.219 47.592 47.905 48.226 48.244 47.965 47.731 47.392 47.049 46.726 46.421 46.017 45.727 45.472 45.095 44.758 44.542 44.931 45.211 45.537 45.948 46.237 46.659 44.89 41.99 38.735 40.616 40.613 40.983 41.54 40.931 39.301 38.613 37.449 37.438 37.4 37.394 37.349 37.317 37.253 37.196 37.183 37.219 37.273 37.307 37.343 37.389 37.944 37.691 37.779 40.594 44.876 45.258 45.532 45.883 46.228 46.652 46.86 47.239 47.721 47.591 47.17 46.912 46.565 46.191 45.868 45.544 45.214 45.713 45.528 46.325 46.031 44.898 42.807 39.95 42.229 42.185 43.818 43.177 40.736 40.347 45.501 46.74 46.559 48.78 48.012 45.96 44.418 47.15 48.331 48.106 43.17 44.881 46.234 49.336 46.915 46.551 44.239 44.663 44.696 44.526 44.446 44.339 44.198 44.163 44.127 44.07 43.955 43.905 43.85 43.748 43.807 43.785 44.185 43.801 43.571 43.585 43.562 43.413 43.475 43.432 43.365 43.334 43.404 43.318 43.347 43.337 43.311 43.218 43.268 43.253 43.38 43.456 43.378 43.433 43.436 43.465 43.499 43.532 43.538 43.634 43.678 43.872 43.855 43.893 43.922 43.861 43.909 43.956 43.963 43.986 44.036 44.037 44.067 44.174 44.187 44.128 44.085 44.139 44.17 44.182 44.236 44.207 44.263 44.354 44.398 44.495 44.545 44.561 44.542 44.567 44.624 44.678 44.739 44.715 44.717 44.777 44.836 44.912 44.965 45.055 45.164 45.22 45.263 45.198 45.3 45.377 45.403 45.447 45.532 45.616 45.75 45.907 46.126 46.467 46.533 46.652 46.754 46.94 47.027 47.398 47.561 47.869 47.89 47.942 47.962 47.995 48.19 48.314 48.332 48.336 48.465 48.399 48.253 48.132 48.232 50.472 51.101 48.172 48.246 48.347 48.343 48.299 48.362 48.37 48.482 48.483 48.711 50.967 54.482 55.63 55.898 54.915 50.303 48.491 48.232 47.787 47.704 47.538 47.496 47.659 47.575 47.648 48.45 48.02 50.3 49.296 50.287 49.757 49.508 49.443 49.436 50.266 50.052 50.39 51.827 49.682 49.768 51.096 50.155 50.026 50.4 51.15 50.196 49.94 49.873 49.85 49.886 49.877 49.87 49.699 49.577 49.792 49.451 49.906 51.98 52.076 51.98 49.79 50.412 50.029 49.882 52.123 52.149 51.245 49.998 51.197 50.354 49.964 52.813 52.57 52.449 50.49 50.635 50.903 50.629 50.803 51.951 52.727 50.782 54.448 52.181 50.346 51.014 51.112 52.108 50.675 50.288 50.631 50.178 52.002 51.443 50.339 50.267 50.32 51.262 50.544
38.205 38.215 38.644 38.244 38.173 38.161 38.127 42.666 43.481 45.26 45.75 46.985 46.461 43.569 38.002 38.827 45.294 44.941 44.407 42.57 38.508 38.404 41.646 42.114 42.268 42.517 42.421 42.249 42.051 41.902 42.167 42.319 42.518 42.386 42.231 42.051 41.976 42.136 42.307 42.498 42.382 42.188 42.06 42.041 42.175 42.113 37.133 36.502 36.429 36.464 36.466 36.531 36.501 36.548 36.553 36.531 36.574 36.6 36.644 36.696 37.001 38.139 37.914 36.964 36.947 36.926 39.369 42.878 42.892 42.907 43.064 43.073 42.811 42.751 42.717 42.617 42.58 42.501 42.464 42.369 42.309 42.194 41.765 38.992 37.594 36.938 36.946 36.897 38.157 39.361 36.963 36.785 36.824 36.87 36.841 36.808 38.683 42.201 44.147 42.692 40.965 40.512 37.352 36.78 36.717 36.639 36.559 36.316 36.133 36.109 36.065 36.108 36.159 36.277 36.524 38.665 44.402 45.034 45.398 45.688 46.02 46.395 46.694 46.954 47.342 47.669 48.01 48.278 48.217 47.894 47.562 47.277 46.983 46.578 46.36 46.006 45.723 45.372 45.061 44.706 44.669 45.077 45.464 45.69 45.812 39.667 36.381 40.647 40.5 41.564 44.467 46.414 42.753 40.511 38.332 38.56 37.57 37.441 37.406 37.369 37.328 37.294 37.272 37.248 37.193 37.202 37.25 37.314 37.375 37.409 37.595 37.582 37.771 43.369 44.848 45.275 45.661 46.018 46.24 46.627 46.982 47.387 47.651 47.559 47.179 46.82 46.389 46.175 45.866 45.48 45.136 44.786 44.597 45.622 40.082 43.118 43.449 39.352 39.701 43.356 42.37 41.045 40.623 41.835 47.461 47.543 47.186 46.406 51.232 50.187 49.317 48.24 43.406 43.559 43.305 46.737 44.46 45.082 44.463 45.254 44.571 44.305 44.487 44.448 44.35 44.351 44.253 44.141 44.09 44.083 43.98 43.916 43.878 43.812 43.785 43.781 43.691 43.667 43.516 43.484 43.535 43.566 43.484 43.414 43.382 43.37 43.393 43.285 43.318 43.242 43.29 43.254 43.358 43.396 43.335 43.335 43.428 43.365 43.396 43.413 43.523 43.522 43.6 43.643 43.715 43.713 43.763 43.79 43.918 43.938 43.938 43.982 43.919 43.974 44.004 44.117 44.136 44.192 44.144 44.183 44.199 44.188 44.185 44.176 44.283 44.266 44.325 44.432 44.539 44.589 44.531 44.532 44.586 44.625 44.702 44.757 44.764 44.841 44.901 44.904 44.973 45.056 45.128 45.159 45.195 45.335 45.324 45.305 45.328 45.389 45.469 45.581 45.669 45.736 45.945 46.106 46.339 46.423 46.673 46.835 46.97 47.109 47.429 47.654 47.92 47.865 47.829 47.966 48.035 48.016 48.219 48.337 48.397 48.413 48.422 48.448 48.439 48.296 48.34 48.63 48.353 48.391 48.412 48.451 48.449 48.469 48.393 48.383 48.261 48.594 48.748 48.806 54.371 55.599 56.089 55.309 53.894 48.603 48.364 48.052 47.711 47.617 47.624 47.725 47.74 47.843 48.738 49.246 49.655 49.841 51.662 54.756 50.176 49.696 50.083 50.212 49.992 50.923 51.738 50.24 49.952 51.458 50.152 50.563 51.897 50.423 50.053 50.115 49.897 50.613 50.436 49.894 50.385 49.999 49.659 50.465 49.53 49.428 50.77 50.917 50.542 49.708 50.719 50.233 50.16 50.059 51.726 51.326 50.101 50.882 50.196 50.117 52.88 52.773 52.104 51.496 50.978 50.953 50.826 50.454 51.57 52.368 50.435 55.162 53.841 50.41 52.015 52.384 50.837 50.442 50.308 50.567 50.162 51.798 51.324 50.985 50.335 50.352 50.413 50.693
38.228 38.259 39.156 38.888 38.189 38.264 45.489 47.943 47.359 47.504 47.83 47.015 46.204 43.037 37.782 38.299 39.933 42.349 39.181 40.444 40.52 41.58 41.976 42.039 42.195 42.372 42.492 42.351 42.154 42.003 42.03 42.237 42.425 42.481 42.315 42.182 42.002 42.01 42.214 42.381 42.476 42.363 42.12 41.721 38.496 36.487 36.479 36.479 36.439 36.51 36.513 36.519 36.513 36.511 36.542 36.593 36.665 36.666 37.969 37.755 38.421 38.647 38.145 36.946 36.983 36.963 37.089 42.732 42.9 42.827 42.762 42.721 42.673 42.585 42.516 42.484 42.393 42.351 42.337 42.037 38.939 38.806 37.765 38.173 37.306 36.924 36.907 36.898 37.165 36.896 36.88 36.835 36.852 36.882 36.899 36.907 36.884 37.657 38.832 39.794 43.933 44.29 39.99 36.971 36.79 36.672 36.564 36.367 36.19 36.071 36.036 36.054 36.127 36.22 36.332 36.909 42.307 44.857 45.223 45.395 45.879 46.121 46.43 46.749 47.074 47.437 47.755 48.098 48.403 48.131 47.846 47.494 47.137 46.902 46.58 46.185 45.892 45.556 45.245 44.891 44.568 44.867 45.174 40.698 38.004 38.464 38.98 39.808 40.432 41.956 45.182 45.506 46.485 41.477 39.949 38.691 37.474 37.453 37.42 37.393 37.364 37.335 37.283 37.223 37.233 37.219 37.288 37.319 37.371 37.411 38.407 38.08 37.924 44.342 44.947 45.35 45.622 45.968 46.292 46.676 47.11 47.384 47.72 47.489 47.092 46.845 46.444 46.085 45.736 45.447 45.073 44.674 42.757 44.155 45.12 44.242 42.856 40.199 41.377 41.915 42.33 44.317 40.361 45.911 48.835 48.831 45.252 50.279 50.694 51.909 51.779 47.163 45.325 45.903 43.284 44.058 46.423 43.987 46.554 45.047 45.548 44.389 44.377 44.406 44.302 44.317 44.181 44.11 44.097 44.077 43.998 43.925 43.908 43.806 43.719 43.776 43.697 43.631 43.574 43.531 43.474 43.599 43.533 43.422 43.336 43.305 43.335 43.269 43.251 43.216 43.205 43.207 43.309 43.266 43.283 43.328 43.331 43.323 43.354 43.424 43.486 43.595 43.619 43.596 43.65 43.698 43.798 43.829 43.913 43.924 43.921 43.971 43.903 44.03 44.065 44.2 44.108 44.13 44.191 44.21 44.187 44.171 44.183 44.235 44.304 44.301 44.38 44.406 44.52 44.511 44.513 44.547 44.668 44.74 44.709 44.798 44.838 44.923 44.964 45.064 45.156 45.206 45.226 45.251 45.31 45.401 45.403 45.357 45.415 45.542 45.632 45.649 45.786 45.917 46.101 46.247 46.537 46.675 46.813 47.054 47.247 47.365 47.753 47.849 47.762 48.062 48.155 48.236 48.272 48.198 48.293 48.407 48.44 48.485 48.532 48.557 48.453 48.388 48.539 48.477 48.498 48.499 48.522 48.512 48.534 48.462 48.477 48.461 48.333 48.443 48.726 48.702 53.195 55.17 56.324 55.254 51.456 48.61 48.335 48.001 47.873 47.625 47.72 47.839 47.782 47.899 48.207 48.915 49.224 49.688 55.051 56.501 55.963 52.199 51.805 50.256 51.551 52.023 50.312 51.781 50.387 50.955 49.732 51.568 51.996 51.081 51.497 50.009 51.718 52.651 51.521 50.219 50.479 49.876 49.707 49.987 50.336 49.879 50.054 50.028 50.039 50.173 50.67 50.091 50.041 50.221 50.476 50.755 50.131 51.318 50.306 50.283 50.879 51.192 50.905 50.79 51.389 52.118 50.223 50.225 51.366 50.909 50.389 54.294 51.828 50.367 52.057 50.992 50.198 50.263 51.193 50.38 50.434 51.93 52.377 52.264 50.677 50.358 50.595 50.504
42.435 39.633 38.207 38.353 39.699 43.94 47.614 48.098 46.503 46.552 42.611 44.607 43.622 39.971 40.531 37.503 38.642 39.635 40.552 42.453 42.424 42.241 42.118 42 42.115 42.301 42.425 42.426 42.286 42.114 41.917 42.135 42.32 42.447 42.42 42.242 42.126 41.949 42.101 42.253 42.492 42.196 39.154 36.998 36.469 36.494 36.517 36.485 36.527 36.459 36.497 36.483 36.559 36.567 36.597 36.66 37.383 38.417 38.973 39.038 37.882 38.861 38.912 37.494 36.957 36.976 36.925 40.739 42.765 42.706 42.605 42.595 42.508 42.447 42.37 42.352 42.17 39.496 38.076 38.848 41.933 44.793 38.194 38.04 37.81 36.986 36.879 36.869 36.789 36.831 36.829 36.861 36.857 36.882 36.935 36.933 36.918 36.999 37.145 39.009 42.463 42.426 41.013 36.963 36.791 36.63 36.458 36.357 36.245 36.073 36.059 36.082 36.132 36.217 36.261 36.329 38.182 44.171 44.986 45.294 45.555 45.945 46.22 46.505 46.892 47.176 47.56 47.823 48.277 48.32 48.054 47.72 47.391 47.054 46.787 46.374 46.172 45.768 45.455 45.109 44.769 44.48 40.243 36.353 37.411 40.767 41.725 43.527 42.184 44.863 46.489 43.611 43.181 41.3 40.468 37.766 37.461 37.454 37.424 37.41 37.38 37.309 37.263 37.219 37.197 37.228 37.284 37.333 37.341 37.944 38.387 37.635 37.554 44.259 44.991 45.371 45.779 46.154 46.38 46.729 47.102 47.517 47.616 47.453 47.064 46.75 46.49 46.139 45.735 45.372 44.946 43.399 37.571 42.031 42.173 43.344 42.433 39.35 42.36 49.951 51.599 43.953 42.747 40.581 44.621 47.435 45.9 49.074 49.353 50.725 49.912 47.4 48.171 43.874 43.195 43.754 47.943 47.995 47.697 46.083 44.396 45.304 45.131 44.456 44.282 44.25 44.151 44.052 44.067 44.097 44.035 43.966 43.853 43.811 43.72 43.745 43.732 43.66 43.559 43.519 43.506 43.505 43.452 43.383 43.387 43.356 43.33 43.283 43.228 43.272 43.237 43.231 43.299 43.221 43.282 43.379 43.42 43.445 43.471 43.432 43.517 43.55 43.537 43.65 43.693 43.795 43.737 43.875 43.874 43.899 43.917 43.947 44.015 43.978 44.047 44.135 44.172 44.171 44.204 44.193 44.205 44.22 44.275 44.265 44.313 44.363 44.315 44.388 44.48 44.572 44.591 44.64 44.687 44.777 44.792 44.837 44.851 44.943 45.104 45.173 45.211 45.28 45.321 45.36 45.381 45.396 45.398 45.493 45.596 45.623 45.743 45.824 45.947 46.034 46.347 46.599 46.741 46.894 47.042 47.234 47.482 47.814 47.872 47.957 48.134 48.23 48.343 48.457 48.764 48.217 48.259 48.452 48.511 48.554 48.625 48.588 48.627 48.526 48.624 48.581 48.615 48.639 48.623 48.559 48.578 48.542 48.495 48.514 48.486 48.567 48.644 48.661 53.394 55.101 55.869 55.76 50.664 49.016 48.296 48.017 47.948 47.838 47.817 47.917 47.945 47.923 48.09 48.483 49.63 52.823 56.375 57.564 57.498 55.68 53.295 50.266 52.112 50.503 49.861 52.916 52.928 50.981 49.849 50.281 50.025 50.215 52.972 53.067 52.916 54.313 56.054 53.785 51.367 50.029 50.817 49.995 53.138 55.618 53.775 50.638 53.468 54.668 51.408 50.139 50.145 50.106 50.11 50.158 50.195 51.2 50.248 51.122 50.233 50.24 51.755 52.203 51.211 52.23 51.447 50.456 50.709 52.451 51.412 52.381 50.927 50.465 51.456 51.42 50.139 50.233 50.468 50.444 50.131 52.372 52.356 52.471 50.653 50.344 50.454 50.425
47.01 45.925 38.494 38.38 38.047 38.127 41.97 46.92 46.282 40.484 37.715 38.858 41.052 42.604 42.095 38.533 39.791 41.727 42.208 42.411 42.53 42.35 42.18 42.017 42.03 42.206 42.348 42.499 42.369 42.156 42.047 42.005 42.182 42.376 42.501 42.32 42.157 42.015 42.02 42.208 39.187 37.057 36.485 36.477 36.505 36.469 36.573 36.573 36.469 36.457 36.491 36.508 36.614 36.68 36.703 37.69 38.488 38.023 37.825 37.677 37.205 37.466 38.586 37.434 36.947 36.982 37.92 38.087 42.544 42.53 42.46 42.428 42.353 42.32 39.582 38.579 38.138 40.355 44.902 45.307 45.382 45.518 40.245 37.372 37.054 36.96 36.88 36.784 36.783 36.792 36.854 36.886 36.883 36.907 36.908 36.977 36.929 36.934 37.106 37.267 37.74 38.217 37.097 36.973 36.814 36.643 36.501 36.389 36.295 36.186 36.094 36.047 36.122 36.147 36.197 36.274 36.301 42.015 44.644 45.016 45.357 45.677 46.041 46.295 46.605 46.999 47.233 47.646 47.921 48.334 48.268 47.948 47.592 47.361 47.015 46.589 46.34 45.977 45.655 45.372 44.718 39.074 38.013 40.336 41.149 45.096 45.953 45.933 42.523 43.468 43.292 43.144 42.5 41.374 41.013 39.068 37.496 37.461 37.389 37.416 37.328 37.293 37.241 37.189 37.212 37.246 37.317 37.34 37.366 37.601 38.012 37.876 39.4 44.715 45.146 45.454 45.773 46.011 46.419 46.814 47.08 47.467 47.721 47.375 46.972 46.74 46.326 45.966 45.667 45.349 44.985 44.454 39.554 39.577 40.068 42.605 40.532 39.528 44.905 49.873 50.275 50.743 45.236 40.516 41.891 44.946 45.322 50.587 52.288 49.143 45.164 48.097 48.479 46.986 43.483 47.342 47.6 49.116 45.747 46.358 44.736 44.769 44.536 44.487 44.259 44.189 44.107 44.061 44.087 44.15 44.048 43.968 43.865 43.782 43.736 43.658 43.691 43.667 43.606 43.499 43.471 43.513 43.46 43.369 43.304 43.307 43.346 43.278 43.27 43.212 43.217 43.277 43.25 43.305 43.398 43.335 43.443 43.433 43.419 43.465 43.542 43.516 43.529 43.662 43.669 43.679 43.735 43.825 43.852 43.862 43.911 43.949 44.009 44.075 44.159 44.172 44.139 44.19 44.228 44.22 44.177 44.233 44.262 44.33 44.332 44.381 44.352 44.343 44.43 44.515 44.496 44.642 44.822 44.806 44.848 44.891 45.014 45.015 45.159 45.197 45.309 45.368 45.418 45.382 45.38 45.459 45.519 45.561 45.685 45.802 45.986 46.027 46.057 46.364 46.557 46.858 46.906 47.3 47.424 47.471 47.791 47.772 47.866 48.15 48.253 48.48 48.515 48.628 48.439 48.475 48.338 48.525 48.589 48.572 48.641 48.659 48.674 48.608 48.664 48.687 48.728 48.672 48.615 48.591 48.588 48.574 48.651 48.708 48.717 48.568 48.727 48.728 51.037 50.341 50.235 50.445 48.963 48.469 48.222 48.137 47.99 47.881 47.962 48.055 48.085 47.999 48.21 49.104 49.646 52.51 55.601 56.685 57.516 57.084 56.139 51.562 53.039 51.507 50.381 55.329 56.028 55.707 54.924 54.74 50.909 50.018 54.986 55.517 55.889 55.472 56.051 53.481 50.575 53.094 51.408 52.953 54.341 56.438 53.988 50.368 54.655 54.876 54.071 50.807 50.456 51.178 50.189 50.239 50.272 50.649 50.308 50.247 50.217 50.331 52.718 53.291 51.832 52.177 53.641 52.71 51.342 53.849 53.507 52.983 50.96 50.756 50.796 50.317 50.214 50.194 50.174 50.357 50.141 50.191 50.305 50.306 50.265 50.299 50.448 50.344
39.451 46.294 40.499 38.001 37.916 37.743 39.096 40.985 39.289 37.739 37.842 41.739 43.577 43.379 43.225 39.173 37.644 40.438 41.979 42.24 42.407 42.45 42.259 42.127 41.922 42.072 42.29 42.416 42.528 42.284 42.148 41.996 42.123 42.258 42.455 42.474 42.237 42.092 41.56 38.111 36.462 36.456 36.413 36.462 36.485 36.548 36.521 36.456 36.443 36.457 36.491 36.622 36.689 37.535 38.359 38.055 37.604 37.32 37.148 37.124 37.084 37.166 38.165 38.78 37.354 36.973 36.957 37.007 41.306 42.333 42.319 42.127 39.743 38.615 38.671 42.675 45.24 45.377 45.445 45.599 45.721 45.821 45.629 37.868 37.045 36.93 36.812 36.753 36.754 36.801 36.882 36.968 36.974 36.874 36.935 36.982 36.99 36.91 37.099 37.186 37.226 37.21 37.129 36.888 36.788 36.679 36.547 36.457 36.367 36.233 36.141 36.083 36.118 36.112 36.144 36.274 36.263 36.61 38.929 44.5 45.145 45.484 45.795 46.168 46.475 46.819 47.07 47.359 47.693 48.083 48.386 48.146 47.926 47.468 47.169 46.9 46.595 46.234 45.754 40.616 36.305 36.425 39.388 39.275 39.406 40.766 48.119 48.1 46.342 46.119 42.742 42.732 42.584 41.7 40.532 37.92 37.471 37.476 37.428 37.409 37.365 37.309 37.22 37.186 37.246 37.231 37.291 37.332 37.358 37.597 37.973 38.287 38.446 44.799 45.181 45.475 45.859 46.227 46.472 46.894 47.215 47.581 47.608 47.366 46.989 46.577 46.348 45.945 45.605 45.285 44.82 43.094 37.997 38.575 41.631 44.364 41.111 40.124 47.909 49.879 51.13 49.759 44.094 40.983 41.288 45.058 46.501 48.99 43.959 45.305 43.654 46.892 43.235 43.327 43.136 45.632 44.878 46.42 45.576 48.021 44.484 46.306 46.132 44.142 44.169 44.089 44.053 44.092 44.064 44.1 44.049 43.914 43.866 43.799 43.754 43.65 43.663 43.644 43.543 43.538 43.485 43.427 43.482 43.451 43.382 43.317 43.267 43.281 43.236 43.274 43.263 43.311 43.271 43.314 43.267 43.303 43.354 43.464 43.47 43.474 43.508 43.528 43.547 43.584 43.689 43.71 43.746 43.87 43.851 43.915 43.881 44.009 44.054 44.102 44.087 44.191 44.227 44.223 44.255 44.244 44.24 44.3 44.318 44.275 44.359 44.418 44.465 44.461 44.493 44.594 44.551 44.629 44.751 44.874 44.899 44.948 44.941 45.052 45.234 45.315 45.41 45.455 45.429 45.421 45.447 45.493 45.594 45.703 45.841 45.869 46.051 46.236 46.318 46.519 46.738 47.021 47.527 47.744 47.888 47.837 47.919 48.171 48.332 48.683 49.274 48.63 48.661 48.684 48.592 48.535 48.424 48.514 48.628 48.639 48.633 48.652 48.715 48.714 48.664 48.751 48.664 48.749 48.76 48.722 48.759 48.764 48.813 48.868 48.828 48.779 48.859 48.682 49.031 48.585 48.605 48.657 48.607 48.412 48.245 48.093 48.069 48.079 48.025 48.114 48.203 49.212 48.481 48.558 49.581 49.635 52.035 55.507 56.249 56.699 55.683 55.02 52.641 51.165 50.409 55.925 57.341 57.635 57.077 55.969 51.008 50.042 56.41 57.239 57.182 56.838 56.478 52.05 50.347 54.988 56.835 57.025 56.559 56.389 53.474 50.322 55.397 56.733 56.628 56.69 56.455 51.388 50.24 54.649 56.226 56.325 55.762 55.035 51.888 51.146 54.776 56.29 55.556 55.722 55.861 52.883 50.75 54.526 55.498 53.323 54.82 53.829 51.751 50.268 50.292 54.103 50.549 53.26 51.498 52.238 50.284 50.238 53.165 50.467 51.518 50.512
38.068 37.979 38.451 37.893 37.96 42.778 43.21 41.993 38.452 42.262 43.719 43.806 43.639 43.492 43.301 43.203 39.05 38.137 41.505 42.148 42.324 42.446 42.392 42.2 42.018 42.001 42.153 42.349 42.454 42.424 42.201 42.028 42.013 42.165 42.354 42.512 39.406 38.105 36.484 36.436 36.37 36.402 36.456 36.488 36.481 36.538 36.471 36.462 36.569 36.613 36.625 37.127 38.921 38.218 37.903 37.353 37.346 37.217 37.078 37.068 37.051 37.256 37.789 38.605 37.386 39.167 37.617 36.98 38.041 39.645 41.706 38.445 37.651 43.457 45.312 45.419 45.538 45.631 45.76 45.98 46.07 46.068 46.266 39.818 37.05 36.917 36.748 36.714 36.728 36.81 36.913 37.267 37.253 37.088 36.982 36.972 36.997 36.977 36.984 37.146 37.205 37.195 37.037 36.992 36.801 36.68 36.621 36.515 36.423 36.311 36.257 36.156 36.082 36.076 36.169 36.255 36.283 36.407 38.271 42.531 44.894 45.283 45.566 45.896 46.187 46.567 46.867 47.196 47.562 47.773 48.166 48.341 47.988 47.741 47.441 47.087 46.777 46.312 38.215 38.324 40.965 40.298 39.322 42.166 44.997 46.269 46.526 42.813 42.742 42.497 41.87 42.491 42.331 41.589 39.017 37.807 37.487 37.471 37.446 37.418 37.382 37.294 37.231 37.143 37.203 37.245 37.283 37.364 37.347 37.575 38.494 37.579 38.145 44.711 45.19 45.563 45.827 46.13 46.522 46.91 47.331 47.604 47.623 47.212 46.934 46.644 46.2 45.878 45.556 45.248 44.858 40.83 38.215 41.651 45.77 43.979 40.531 44.098 48.446 49.981 50.96 50.805 50.327 47.251 47.269 46.399 45.583 42.952 47.621 48.009 44.109 49.46 45.944 47.855 43.464 46.392 49.278 48.177 45.545 48.522 47.218 48.082 46.433 44.52 44.609 44.129 44.077 44.062 44.064 44.106 44.021 43.912 43.885 43.782 43.758 43.679 43.643 43.608 43.546 43.487 43.462 43.462 43.471 43.472 43.384 43.257 43.254 43.255 43.209 43.279 43.281 43.256 43.245 43.306 43.318 43.38 43.413 43.423 43.515 43.496 43.495 43.58 43.625 43.656 43.746 43.71 43.792 43.879 43.939 43.928 44.005 44.002 43.999 44.107 44.16 44.18 44.218 44.197 44.237 44.335 44.328 44.295 44.329 44.417 44.443 44.407 44.481 44.54 44.634 44.675 44.633 44.711 44.828 44.93 44.96 44.967 45.109 45.249 45.264 45.378 45.486 45.437 45.338 45.374 45.557 45.671 45.729 45.805 45.987 46.096 46.281 46.436 46.662 46.786 47.071 47.502 47.831 48.109 47.846 47.847 48.703 48.421 48.634 51.471 53.294 51.336 48.942 48.829 48.763 48.682 48.891 48.61 48.592 48.449 48.502 48.455 48.476 49.611 48.765 48.815 48.839 48.821 48.881 48.868 48.908 48.873 48.961 48.944 48.834 48.815 48.877 48.948 48.723 48.639 48.61 48.591 50.109 48.348 48.248 48.233 48.147 48.116 48.173 48.198 48.255 48.762 48.535 49.103 49.61 49.657 49.972 50.892 54.705 55.884 53.506 52.75 52.684 51.768 49.969 56.171 56.693 57.006 56.625 55.743 50.678 50.363 56.112 57.128 57.604 57.169 56.417 51.404 50.372 55.168 57.165 58.078 57.259 56.265 50.776 50.178 56.031 57.423 58.319 57.69 56.64 51.394 50.348 55.15 57.52 57.528 57.76 56.407 51.007 50.671 53.037 57.209 57.519 57.834 57.084 53.177 50.529 54.483 57.016 57.461 57.136 57.288 52.401 50.383 54.009 56.601 56.916 56.582 56.544 55.695 50.283 54.211 56.839 56.36 55.878 56.443
37.98 37.927 38.981 42.039 43.647 43.467 43.36 43.1 43.231 43.347 43.543 43.723 43.75 43.601 43.413 43.26 42.073 37.161 40.325 42.054 42.258 42.414 42.43 42.305 42.128 41.959 42.059 42.245 42.425 42.418 42.259 42.127 41.908 42.032 42.255 39.189 37.071 36.501 36.457 36.51 36.471 36.429 36.539 36.538 36.453 36.45 36.564 36.648 36.63 36.757 39.217 37.802 37.547 37.547 37.216 37.453 37.12 37.089 37.02 37.019 37.065 37.562 38.723 37.171 38.909 40.682 39.934 37.321 38.041 37.584 43.27 44.264 45.361 45.519 45.621 45.715 45.892 45.959 46.043 46.23 46.377 46.415 46.549 44.852 37.09 36.806 36.749 36.73 36.692 36.765 37.716 40.816 39.348 37.271 37.084 36.998 37.04 37.026 36.979 36.975 37.146 37.143 37.071 37.008 36.918 36.81 36.675 36.553 36.444 36.432 36.283 36.167 36.055 36.051 36.151 36.189 36.274 36.327 36.393 41.1 44.623 45.102 45.335 45.697 45.925 46.311 46.64 46.94 47.277 47.62 47.903 48.257 48.261 47.904 47.62 46.452 46.542 37.487 36.671 40.516 42.18 37.787 41.025 44.421 46.355 46.694 43.309 43.262 42.951 46.47 42.917 41.784 41.653 41.336 39.874 37.686 37.505 37.485 37.464 37.382 37.355 37.269 37.214 37.199 37.232 37.278 37.291 37.354 37.407 37.436 37.47 37.539 42.524 44.9 45.217 45.531 45.946 46.408 46.601 46.94 47.362 47.783 47.56 47.268 46.971 46.509 46.237 45.851 45.515 45.133 44.808 42.994 45.473 47.844 46.677 44.349 42.104 42.112 47.114 49.673 50.484 48.434 44.703 45.638 46.71 47.103 46.304 44.291 46.073 48.145 44.772 46.827 49.502 47.707 44.356 47.785 46.538 47.449 48.83 49.14 50.712 51.835 48.137 49.261 46.825 44.07 44.086 44.028 44.023 44.011 43.99 43.994 43.905 43.803 43.763 43.657 43.588 43.584 43.478 43.512 43.484 43.48 43.468 43.417 43.343 43.297 43.229 43.249 43.255 43.236 43.279 43.284 43.297 43.321 43.349 43.385 43.369 43.495 43.538 43.527 43.566 43.597 43.537 43.588 43.692 43.81 43.855 43.893 43.959 43.989 43.983 43.982 44.076 44.147 44.123 44.147 44.177 44.216 44.33 44.328 44.378 44.353 44.392 44.442 44.468 44.591 44.666 44.671 44.693 44.79 44.874 44.919 44.946 44.939 44.948 44.991 45.078 45.264 45.397 45.448 45.421 45.355 45.368 45.544 45.607 45.733 45.793 45.999 46.11 46.241 46.455 46.727 46.829 47.17 47.412 47.815 47.777 47.785 47.984 48.251 48.46 48.663 48.988 52.038 53.01 53.308 52.14 51.202 49.14 48.777 48.785 48.549 48.451 48.326 48.398 48.427 48.548 49.433 49.024 48.903 48.963 48.964 48.998 48.952 48.88 48.837 48.77 48.786 48.73 48.749 48.769 48.712 48.683 48.574 48.479 48.435 48.354 48.388 48.351 48.297 48.212 48.236 48.203 48.27 48.358 48.375 48.454 48.936 49.514 49.643 49.954 50.132 50.059 51.052 50.69 50.911 52.167 51.791 50.47 54.184 54.215 54.461 54.419 54.085 50.97 49.966 54.933 55.752 56.035 55.972 56.012 51.691 50.264 53.129 55.865 56.317 56.257 56.112 51.233 50.223 55.819 56.464 56.424 56.461 56.325 50.948 50.279 56.179 56.89 57.093 57.29 57.058 52.016 50.531 55.599 57.111 57.257 57.194 56.982 53.082 50.509 54.986 57.697 57.735 57.919 57.351 52.618 50.375 54.167 56.733 58.013 57.971 56.974 54.781 50.422 54.357 57.014 58.757 57.753 57.523
37.961 38.161 42.978 43.783 43.79 43.567 43.431 43.179 43.101 43.297 43.449 43.632 43.762 43.691 43.489 43.382 43.156 38.988 37.835 41.812 42.165 42.327 42.498 42.387 42.214 42.033 41.967 42.133 42.313 42.484 42.399 42.2 42.02 41.268 37.257 36.498 36.49 36.463 36.485 36.491 36.528 36.441 36.445 36.489 36.458 36.545 36.756 36.822 38.322 39.242 40.106 38.233 37.778 38.075 37.187 37.369 37.029 37.032 36.979 37.029 36.966 37.013 36.997 37.327 39.33 40.121 40.084 43.217 45.018 45.248 45.395 45.571 45.664 45.788 45.875 45.989 46.168 46.309 46.387 46.467 46.726 46.827 46.963 47.124 39.216 36.816 36.757 36.736 36.704 36.748 37.975 39.904 37.44 37.394 37.165 37.009 37.038 37.075 37.033 37.018 37.116 37.19 37.103 37.096 36.958 36.822 36.694 36.616 36.534 36.468 36.274 36.178 36.076 36.082 36.064 36.184 36.192 36.287 36.339 36.565 42.737 44.776 45.131 45.481 45.789 46.066 46.465 46.789 47.064 47.433 47.787 48.057 48.382 48.26 47.694 37.674 36.406 38.244 39.478 37.77 38.481 37.845 37.854 40.479 46.628 43.527 41.389 42.288 44.125 45.702 41.62 41.778 42.326 41.315 38.598 37.47 37.5 37.486 37.434 37.405 37.357 37.28 37.222 37.224 37.239 37.299 37.319 37.354 37.378 37.433 37.458 37.535 43.454 44.846 45.309 45.723 45.982 46.289 46.661 47.067 47.364 47.631 47.541 47.093 46.878 46.537 46.127 45.758 45.341 45.132 44.712 45.053 46.846 47.711 49.543 44.869 42.288 44.519 48.068 48.601 49.127 46.67 44.057 41.518 43.977 46.927 47.039 48.936 50.577 48.233 44.17 46.495 48.392 49.015 44.633 44.773 45.376 47.497 49.54 49.644 49.062 47.747 47.827 47.725 48.361 44.656 45.38 44.139 43.992 44.023 44.065 43.993 43.884 43.794 43.738 43.672 43.548 43.529 43.506 43.459 43.448 43.433 43.409 43.429 43.37 43.287 43.317 43.275 43.303 43.29 43.24 43.247 43.277 43.27 43.36 43.372 43.437 43.5 43.49 43.569 43.553 43.641 43.602 43.659 43.755 43.908 43.876 43.941 43.958 44.055 44.031 44.035 44.042 44.11 44.204 44.23 44.276 44.267 44.268 44.339 44.371 44.396 44.415 44.534 44.63 44.736 44.741 44.779 44.943 44.974 44.938 45.014 45.081 45.073 45.044 45.06 45.115 45.294 45.31 45.423 45.42 45.408 45.551 45.66 45.803 45.907 46.029 46.18 46.353 46.671 46.744 47.074 47.16 47.478 47.614 47.621 47.686 47.774 47.984 48.471 48.551 48.788 48.82 50.568 51.58 51.552 49.039 49.273 49.108 48.912 48.977 48.757 48.55 48.481 48.552 48.686 48.726 48.676 48.826 48.961 49.518 50.203 50.963 50.396 48.856 48.771 48.867 48.838 48.777 48.693 48.694 48.693 48.604 48.574 48.455 48.488 48.421 48.408 48.298 48.342 48.271 48.361 48.343 48.45 48.426 48.464 48.425 48.781 49.507 49.675 50.095 50.124 50.105 50.088 50.012 50.498 50.471 51.385 49.76 49.93 49.857 50.509 50.771 51.006 50.237 50.103 50.135 50.189 50.65 50.901 51.244 50.231 50.25 50.177 50.885 50.389 51.936 53.092 50.733 50.715 51.08 51.838 51.955 51.786 51.781 50.864 50.256 53.147 52.601 54.919 55.61 54.895 51.46 50.413 54.286 55.712 55.481 56.095 55.915 51.796 50.426 54.462 56.405 56.503 56.365 56.175 52.222 50.411 53.922 56.238 56.201 56.437 56.469 54.763 50.371 54.341 56.796 56.808 56.995 56.954
