ncols 385
nrows 31
xllcorner    430164
yllcorner    437070
cellsize     2
NODATA_value -9999
126.643 128.332 127.745 128.71 126.296 123.382 123.383 123.469 123.617 123.596 123.707 124.275 123.781 123.742 123.801 134.147 136.522 130.264 126.446 124.401 124.803 126.15 125.794 125.101 125.542 125.733 131.045 132.738 134.512 131.927 130.404 127.801 125.867 125.669 125.479 126.777 125.623 125.193 125.549 141.464 143.526 144.57 144.847 141.603 143.537 142.988 143.414 128.54 124.673 124.778 124.812 126.565 127.987 127.618 127.523 132.597 126.963 126.353 127.678 133.421 129.793 126.69 126.001 126.005 126.063 126.553 128.608 128.009 127.547 130.686 132.832 134.014 134.567 134.411 132.055 126.024 126.286 126.064 126.807 132.621 135.457 138.551 136.303 137.663 127.94 125.857 127.942 138.428 139.944 130.312 125.861 125.801 125.787 125.731 125.699 125.67 125.639 125.598 125.555 125.553 126.175 129.416 133.639 136.477 136.393 135.784 130.372 128.922 123.234 124.317 122.077 121.816 121.772 122.117 137.679 138.083 138.051 138.021 138.035 138.056 138.114 138.058 138.071 138.062 139.22 140.754 138.824 134.823 130.206 129.672 128.748 126.082 126.019 126.006 125.987 126.01 126.015 125.255 120.095 119.975 119.845 119.687 119.495 119.312 119.157 118.992 118.815 118.637 118.527 118.417 118.322 118.287 118.252 118.162 118.03 117.91 117.762 117.62 117.467 116.802 116.647 116.55 116.617 116.707 116.55 116.475 116.815 116.407 122.807 123.582 122.484 120.397 116.567 116.399 118.172 118.852 121.357 121.727 116.314 114.544 114.364 114.299 114.234 114.154 114.044 113.997 114.014 113.952 113.897 113.847 113.894 113.644 113.527 113.574 113.557 113.484 113.384 113.424 113.437 113.404 113.354 113.394 113.422 113.474 113.554 115.249 113.867 114.592 113.834 113.769 113.647 113.599 113.602 113.907 113.724 113.652 113.657 113.644 113.589 114.327 114.439 113.494 113.574 114.212 119.829 122.742 122.067 122.329 122.552 123.067 123.392 123.417 123.002 122.754 122.352 121.489 121.352 119.669 113.597 113.474 114.994 115.962 113.227 112.969 113.299 114.952 112.772 112.842 113.179 112.797 112.794 113.219 117.107 120.027 120.539 119.414 115.682 113.204 113.122 113.202 112.877 112.902 112.904 113.129 113.442 113.049 113.192 116.189 114.064 113.159 113.922 113.324 113.712 113.364 113.367 113.432 119.652 120.237 120.879 120.389 114.232 113.304 113.064 113.022 113.034 112.872 112.624 112.517 112.482 112.432 112.334 112.254 112.357 112.362 112.329 112.352 112.397 118.577 117.004 112.404 112.354 113.679 115.442 115.012 113.469 112.207 112.229 112.144 112.242 112.709 111.839 111.742 111.707 111.539 111.767 112.379 112.744 116.059 114.839 112.662 119.197 121.004 120.029 120.934 120.749 118.419 111.607 113.024 111.549 111.502 111.462 111.632 111.564 111.537 112.257 112.749 111.394 111.369 111.494 111.569 111.519 111.324 111.132 111.002 110.994 110.984 110.974 110.954 110.932 111.517 110.912 114.304 113.984 114.122 110.679 111.009 110.407 111.889 110.244 110.257 111.119 113.232 113.459 109.892 109.922 109.852 111.189 113.049 112.387 113.464 113.589 109.702 109.719 120.412 121.394 111.669 109.639 113.144 113.742 109.209 109.882 108.824 108.767 108.672 108.617
129.054 129.841 130.196 130.196 128.047 123.638 123.361 123.477 123.472 123.611 123.611 124.286 123.674 123.714 123.711 123.759 126.251 125.624 125.667 124.81 124.482 124.535 124.697 124.776 125.105 124.912 130.629 132.585 133.935 132.088 129.408 128.688 125.424 125.002 125.004 125.195 127.225 125.288 125.184 137.555 143.163 144.579 144.643 146.01 145.041 133.854 142.754 126.81 124.5 124.802 128.052 128.392 129.65 126.236 126.44 125.999 128.003 128.138 128.768 127.353 127.078 125.968 126.042 125.764 125.862 125.782 126.171 127.392 126.163 128.311 132.298 133.641 134.538 135.397 132.688 127.132 125.95 126.559 128.476 127.483 137.864 135.205 131.803 136.814 129.259 126.485 125.808 129.045 128.449 125.753 125.734 125.66 125.66 125.604 125.577 125.629 125.576 125.589 125.831 127.961 132.903 133.441 131.578 135.941 138.219 138.188 137.712 128.564 128.854 122.95 122.37 121.797 121.721 121.699 133.606 138.034 137.944 138.022 138.03 138.043 138.034 138.098 138.685 138.239 138.085 138.935 138.23 138.014 129.915 130.18 127.641 126.035 126.024 125.997 126.062 125.515 123.18 120.407 120.095 120 119.87 119.717 119.535 119.347 119.142 118.965 118.8 118.597 118.402 118.302 118.19 118.082 118.067 118.062 117.94 117.782 117.637 117.492 117.367 116.74 116.567 116.45 116.475 116.61 116.46 116.377 116.28 116.282 116.817 121.547 123.852 124.989 126.139 127.239 126.294 125.142 124.012 122.122 117.312 114.514 114.319 114.209 114.137 114.077 113.959 113.854 113.857 113.849 113.754 113.767 113.682 113.569 113.534 113.529 113.479 113.469 113.437 113.497 113.522 113.467 113.324 113.359 113.459 113.539 114.202 113.802 113.817 114.812 113.692 113.689 113.597 113.542 113.559 113.569 113.564 113.537 113.597 114.662 113.834 113.459 113.549 118.034 121.199 122.122 122.794 122.412 122.562 122.887 123.054 122.689 122.724 122.287 121.959 122.357 120.909 116.319 116.359 116.434 114.074 113.569 113.074 112.884 112.892 112.919 113.367 113.834 112.697 112.697 112.729 112.732 112.742 112.932 118.637 119.997 120.352 119.204 114.654 113.627 113.302 113.439 112.777 112.812 112.792 113.157 113.059 113.062 113.427 119.167 120.312 120.047 118.899 113.079 113.159 113.342 113.352 113.879 114.724 119.527 120.174 113.404 114.162 112.999 112.857 112.912 112.887 112.777 112.619 112.417 112.402 112.357 112.292 112.182 112.184 112.237 112.619 112.347 112.369 112.282 112.324 112.287 111.974 113.277 116.492 115.567 114.977 113.024 112.189 112.264 111.972 111.997 112.084 111.629 111.589 111.564 111.504 111.439 111.472 111.579 112.482 111.604 111.604 114.587 118.579 119.312 120.427 113.524 113.254 112.864 111.497 111.454 111.434 112.327 111.452 111.984 113.487 111.317 111.294 111.387 111.504 111.492 111.359 111.294 111.069 110.959 110.927 110.909 113.424 116.432 117.417 116.959 116.567 117.307 115.949 115.317 110.542 110.494 112.182 110.292 110.279 110.189 111.619 112.887 113.792 109.842 116.444 118.077 116.974 117.577 114.512 115.527 115.702 111.522 109.597 112.802 111.237 109.652 109.422 109.772 109.892 120.512 114.219 108.817 108.729 108.642 108.582
126.314 129.851 130.942 130.396 129.347 124.789 123.538 123.461 123.458 124.7 123.776 123.745 123.555 123.615 123.618 123.584 124.453 124.918 124.03 124.153 124.051 124.051 124.19 124.748 124.862 124.343 129.55 132.04 132.497 132.317 131.569 131.554 127.711 124.906 124.942 128.264 129.282 125.968 125.304 128.947 143.147 141.164 144.447 145.035 145.607 144.471 138.062 131.045 139.185 136.037 138.841 131.662 126.98 125.954 125.924 126.256 129.119 130.366 131.183 127.61 126.18 126.04 126.36 125.713 125.699 125.619 125.962 126.977 127.383 128.551 132.155 135.029 134.858 134.46 132.524 126.269 125.281 125.482 125.843 125.491 127.145 134.259 130.885 126.805 127.657 128.83 125.764 125.612 125.599 125.643 125.602 125.537 125.575 125.489 125.505 125.489 125.7 125.587 131.6 135.522 134.151 134.603 135.981 136.868 137.471 138.155 138.588 135.464 132.66 123.191 123.665 121.895 121.677 121.631 122.051 137.741 138.026 138.035 138.019 138.028 138.05 138.242 138.96 138.539 138.062 138.041 138.043 138.565 130.972 129.309 129.072 126.059 126.53 125.217 121.052 120.315 120.262 120.207 120.115 120.017 119.892 119.73 119.55 119.36 119.157 118.965 118.782 118.605 118.385 118.272 118.067 117.97 117.875 117.882 117.787 117.677 117.535 117.367 117.21 116.69 116.495 116.32 116.37 116.382 116.347 116.29 116.727 116.14 116.307 121.369 123.677 124.832 125.969 127.132 126.447 125.304 124.157 123.042 117.127 114.459 114.589 114.164 114.052 113.972 113.889 113.777 113.647 113.659 113.612 113.532 113.569 113.527 113.564 113.497 113.389 113.492 113.814 113.642 113.519 113.459 113.489 113.819 113.719 113.812 114.774 114.234 114.589 113.562 113.534 113.577 113.532 113.434 113.454 113.437 113.834 114.784 113.504 113.447 115.457 122.099 122.144 122.564 121.957 122.339 122.714 123.054 122.857 122.517 122.227 122.089 121.629 121.204 118.734 117.544 113.264 113.244 114.822 115.127 112.822 112.784 112.799 112.827 112.854 112.877 113.769 113.367 113.544 112.589 112.644 112.662 112.727 112.934 119.074 120.229 120.092 118.982 113.502 112.892 113.144 112.922 112.692 112.707 112.702 112.937 112.999 113.049 114.699 119.404 120.537 119.809 118.074 112.934 112.889 112.929 113.969 113.764 113.529 114.594 113.899 113.189 113.179 112.784 112.724 112.779 112.727 112.627 112.497 112.354 112.284 112.299 112.222 112.142 112.022 112.087 112.122 112.642 112.219 112.202 112.204 111.929 111.922 116.684 118.812 118.107 115.337 114.799 112.079 111.859 112.009 111.919 111.677 111.597 111.604 111.564 111.519 111.474 115.969 118.877 112.352 111.759 111.602 111.607 111.632 112.607 114.564 111.699 111.814 111.534 111.462 111.402 111.359 111.297 111.274 111.269 111.257 111.237 111.244 111.362 111.442 111.427 111.227 111.172 110.962 110.917 112.509 117.427 117.942 118.462 118.899 117.477 116.262 117.699 116.722 113.377 111.172 110.342 111.909 110.219 110.132 110.077 112.537 111.209 114.064 110.094 115.707 118.344 116.887 117.992 117.382 117.727 116.499 114.052 109.587 109.492 112.342 110.219 109.352 109.139 112.519 118.032 111.779 108.764 108.664 108.597 108.544
127.179 129.599 131.151 130.768 129.444 127.208 123.862 124.194 124.498 125.246 123.875 123.395 123.38 123.419 123.477 123.473 123.82 123.766 123.896 123.957 124.101 124.092 124.395 124.412 124.804 124.901 129.741 131.108 131.023 130.708 130.654 127.708 127.473 126.074 125.704 127.446 128.795 128.678 125.652 137.896 143.805 144.849 144.209 145.037 146.354 145.383 142.047 139.827 139.657 141.981 135.965 137.622 127.89 126.298 125.906 130.251 132.153 132.674 132.39 129.2 125.952 126.63 129.231 125.921 125.488 125.418 125.42 126.125 125.98 128.174 131.806 133.294 134.608 134.23 133.058 130.628 127.6 125.499 125.312 125.247 125.132 125.03 125.097 126.266 126.754 126.865 126.168 125.546 125.523 125.527 125.471 125.402 125.419 125.351 126.091 130.54 132.146 130.533 135.062 135.021 132.441 134.236 134.655 138.015 137.707 137.77 136.285 132.715 128.588 122.062 123.819 121.977 121.65 121.614 121.813 134.884 138 137.998 137.987 138.025 138.03 138.048 139.283 138.12 138.07 138.052 138.053 138.061 133.817 129.74 125.483 121.355 120.487 120.435 120.362 120.327 120.265 120.197 120.102 119.992 119.88 119.732 119.547 119.337 119.14 119.03 119.385 119.617 120.312 119.247 118.73 118.077 117.77 117.622 117.662 117.585 117.387 117.24 117.08 116.645 116.395 116.215 116.265 116.285 116.25 116.187 116.285 116.035 116.089 120.152 123.532 124.657 125.849 126.972 126.599 125.467 124.322 123.192 117.892 114.562 114.669 114.124 114.004 113.887 113.809 113.719 113.594 113.447 113.412 113.417 113.932 113.422 113.397 113.309 113.282 113.374 113.632 113.559 113.369 113.542 113.419 113.599 113.557 113.537 114.187 114.504 114.392 113.524 113.387 113.449 113.444 113.352 113.312 113.259 113.334 113.384 119.929 121.157 121.622 122.674 122.824 122.722 122.932 122.992 122.622 123.489 121.792 121.407 121.204 119.897 113.474 113.254 116.044 117.147 113.484 112.922 112.719 112.729 112.724 112.732 112.762 112.809 113.624 112.784 113.497 112.794 113.212 113.349 112.594 112.564 112.882 112.967 119.267 120.474 119.902 118.767 112.802 112.762 112.682 112.694 112.594 112.602 112.617 112.764 112.834 112.872 116.534 119.734 120.649 119.587 116.589 112.839 112.759 112.734 113.122 113.362 113.254 113.277 113.167 114.962 112.837 112.582 112.534 112.569 112.542 112.432 112.279 112.287 112.232 112.177 112.159 112.084 111.992 111.894 111.982 112.034 112.129 112.099 111.927 111.924 117.172 120.352 120.637 119.294 117.897 113.534 111.842 111.719 111.802 111.874 111.597 111.597 111.589 111.557 111.517 112.207 118.204 118.502 118.727 118.264 111.517 111.577 112.522 112.817 111.892 111.927 115.734 115.624 111.374 111.304 111.252 111.214 111.187 111.184 111.179 111.144 111.262 112.124 111.527 111.264 111.222 110.924 110.907 110.849 111.497 118.869 119.172 119.829 119.477 117.994 116.514 117.199 117.284 110.817 110.192 110.162 111.319 110.132 109.987 109.979 110.032 109.844 109.837 109.759 115.559 117.984 117.709 117.229 116.594 117.674 116.764 112.662 109.579 109.484 109.392 109.614 110.159 109.654 109.402 110.479 108.767 108.714 108.624 108.554 108.522
127.548 129.449 131.005 130.539 129.371 127.607 123.355 123.273 123.299 123.946 123.58 123.346 123.358 123.376 123.306 123.34 123.516 124.534 124.346 124.419 124.604 124.402 124.547 124.527 124.223 124.249 124.3 125.009 124.549 124.661 124.546 125.85 125.255 126.729 127.415 127.309 127.912 128.858 128.111 125.059 131.071 144.579 144.364 145.378 146.307 145.419 144.504 141.09 143.083 143.647 143.081 136.935 127.67 125.82 125.977 130.049 132.311 133.424 132.731 131.399 126.179 128.163 130.012 129.606 126.133 125.29 125.204 125.599 125.824 125.918 131.055 133.242 133.82 133.847 133.032 131.364 129.25 127.594 125.342 125.324 125.33 125.825 126.33 125.805 130.016 128.681 126.779 126.105 125.51 125.389 125.349 125.338 125.326 126.114 128.646 131.977 132.32 131.299 131.463 132.092 132.02 134.315 134.45 137.816 137.86 135.582 134.449 132.368 122.595 121.757 122.25 122.433 121.657 121.599 121.536 129.811 137.912 138.002 138.02 138.017 138.048 138.768 138.928 138.163 138.073 138.081 138.074 134.203 127.029 120.894 120.607 120.549 120.5 120.44 120.375 120.31 120.245 120.17 120.075 119.95 119.832 119.69 119.507 120.222 120.185 119.81 120.187 119.465 119.28 119.162 119.052 118.215 117.57 117.445 117.345 117.427 117.21 117.127 116.95 116.622 116.315 116.105 116.157 116.175 116.165 116.09 115.985 115.915 115.974 119.854 123.374 124.517 125.667 126.824 126.764 125.634 124.487 123.344 118.007 114.487 114.279 114.102 113.929 113.927 113.762 113.662 113.579 113.449 113.297 113.294 113.872 113.314 113.219 113.207 113.189 113.204 113.204 113.227 113.239 113.209 113.217 113.219 113.249 113.237 113.322 114.024 114.502 113.692 113.282 113.279 113.319 113.267 113.172 113.897 121.377 122.522 122.847 122.009 122.404 122.772 123.057 122.747 122.329 121.959 121.329 121.134 120.617 117.667 117.317 115.872 113.002 113.147 114.307 112.657 112.639 112.654 112.652 112.657 112.687 112.929 112.854 112.214 111.957 112.654 113.387 112.389 112.232 112.297 112.544 112.289 112.434 112.664 116.164 119.197 115.862 113.159 113.914 113.472 112.509 112.484 112.494 112.489 112.544 112.747 112.834 112.902 118.004 119.859 120.532 119.372 116.014 113.817 112.739 112.797 113.379 113.239 113.149 113.132 113.097 114.484 112.579 112.394 112.357 112.384 112.357 112.194 112.224 112.209 112.159 112.072 112.064 112.012 111.937 111.834 111.769 111.877 112.084 111.894 111.902 112.384 117.544 119.209 120.564 120.579 119.422 116.969 111.744 111.754 111.679 112.127 111.597 111.582 111.584 111.577 111.547 112.849 117.242 118.024 118.297 118.564 118.809 114.057 111.772 111.577 111.622 111.587 111.509 111.412 111.392 111.424 111.169 111.107 111.112 111.092 111.084 111.142 111.232 111.309 111.382 111.179 111.139 110.902 110.817 110.787 110.802 117.459 119.167 117.467 117.957 118.359 117.787 117.632 117.154 111.902 110.169 110.057 110.182 110.764 110.499 109.687 109.657 109.644 109.742 109.754 113.417 115.349 114.049 109.787 109.827 110.454 110.049 109.617 109.534 109.474 109.424 109.972 109.742 109.144 111.212 108.822 108.709 108.689 108.599 108.532 108.487
127.346 129.421 130.023 130.162 129.395 126.616 123.296 123.248 123.321 124.899 123.437 123.189 123.185 123.241 123.189 123.225 124.222 123.383 123.75 123.926 123.995 124.782 124.003 125.137 125.223 125.044 126.097 126.35 125.394 125.644 125.584 125.92 125.464 125.198 126.232 126.668 128.139 128.477 126.214 125.206 138.004 143.595 144.425 144.071 145.319 145.972 145.622 133.933 141.925 143.645 138.311 141.239 132.864 128.832 127.42 129.483 132.024 133.757 134.21 131.917 126.412 125.906 127.072 126.771 125.069 125.152 125.045 125.132 125.813 125.935 130.877 132.654 132.853 132.497 132.255 131.711 126.683 126.121 127.117 127.062 127.546 127.41 127.32 129.36 130.208 130.326 128.084 128.244 128.437 126.076 125.323 125.295 126.575 126.37 129.691 131.555 131.883 128.918 124.745 123.489 128.467 132.752 133.312 135.667 135.101 133.598 131.865 131.578 122.372 121.565 121.576 122.121 121.611 121.555 126.008 131.727 137.053 137.975 138.001 137.994 138.032 138.05 138.066 138.287 137.064 131.542 125.179 120.857 120.711 120.655 120.61 120.552 120.485 120.422 120.355 120.282 120.197 120.11 120.007 119.91 120.085 120.267 120.495 119.872 120.46 119.415 118.997 118.68 119.857 119.075 119.055 122.16 117.56 117.575 117.197 117.09 117.085 116.96 116.847 116.597 116.222 116.02 116.047 116.077 116.06 115.992 115.9 116.742 115.877 119.604 123.229 124.344 125.522 126.657 126.934 125.794 124.642 123.509 118.464 114.879 114.342 114.154 114.009 115.694 113.799 113.602 113.522 113.442 113.304 113.174 113.144 113.144 113.114 113.132 113.314 113.062 113.037 113.067 112.989 113.447 113.304 113.119 113.112 113.517 113.552 113.272 112.462 112.557 113.202 114.437 113.159 113.154 113.067 113.102 121.832 122.274 122.994 122.947 122.914 122.509 122.247 121.877 121.274 120.887 119.057 113.307 113.167 114.334 116.417 115.444 112.577 112.832 112.564 112.579 112.582 112.564 112.757 112.854 115.609 112.029 111.987 111.892 114.334 112.519 113.552 114.052 112.197 112.234 112.254 112.262 113.939 114.924 112.439 112.322 112.362 112.549 112.454 112.472 112.457 112.377 112.402 112.377 112.494 112.692 112.787 112.927 118.957 120.117 120.299 119.127 115.974 113.167 112.577 112.532 112.487 112.439 112.389 113.524 113.472 113.692 112.404 112.282 112.247 112.187 112.109 112.137 112.134 112.079 112.037 112.007 111.934 111.922 111.857 111.779 111.672 111.672 111.737 111.892 112.227 112.299 113.839 119.187 119.454 120.792 118.637 118.582 115.982 111.697 111.689 111.642 111.779 111.552 111.537 111.532 111.627 111.537 112.184 114.649 117.802 118.087 118.357 118.629 117.009 111.402 112.889 111.487 111.434 111.402 111.799 113.834 111.079 111.052 111.032 111.027 111.019 111.129 111.162 111.194 111.169 112.407 110.909 110.872 110.787 110.759 110.764 115.464 117.869 116.617 116.659 117.112 115.227 112.779 110.737 110.304 110.007 109.954 109.842 110.794 109.674 109.637 109.589 109.549 109.642 111.189 110.317 109.722 109.634 109.614 109.567 109.574 109.577 109.492 109.562 109.702 109.192 110.062 109.739 109.432 112.307 108.707 108.644 108.684 108.657 108.579 108.477
124.938 129.04 129.105 128.903 128.703 126.526 123.785 123.379 123.504 123.269 123.362 123.124 123.102 123.132 123.056 123.095 123.287 123.41 123.439 123.551 124.695 127.149 124.388 123.748 123.736 123.772 124.343 124.923 124.261 124.458 124.532 124.914 125.619 124.998 124.557 125.147 126.028 126.956 127.34 124.8 124.777 126.344 138.486 140.661 142.305 145.194 139.011 131.49 143.628 144.732 145.109 142.904 139.228 132.523 127.441 126.202 131.785 133.247 133.161 131.893 127.009 125.534 125.556 125.181 124.938 124.924 124.85 125.936 126.801 125.551 127.337 128.441 127.119 126.076 126.085 126.571 125.417 126.246 126.088 126.76 126.575 126.781 126.091 127.238 129.502 129.912 131.798 131.289 129.505 127.936 126.146 126.094 125.896 125.293 126.614 129.31 127.878 124.977 125.305 126.74 129.051 131.351 130.453 131.315 132.227 129.089 129.203 122.081 121.364 121.373 121.398 123.815 122.079 121.523 121.664 133.014 136.672 138.009 138.008 138.031 138.087 137.377 135.219 126.122 122.781 120.953 120.804 120.754 120.715 120.654 120.599 120.535 120.465 120.387 120.295 120.207 120.115 120.16 120.352 120.247 123.365 119.83 119.537 119.11 118.702 118.97 118.425 119.452 120.952 118.775 119.985 118.907 119.455 117.43 117.017 116.947 116.847 116.835 116.625 116.34 116.087 115.89 115.935 115.965 115.945 115.885 115.8 116.927 115.752 119.269 123.069 124.192 125.349 126.499 127.087 125.954 124.809 123.664 120.067 114.687 114.424 114.224 114.034 114.774 113.762 113.652 113.439 113.379 113.292 113.164 113.042 113.024 112.942 112.952 112.999 113.019 112.974 112.992 112.972 113.284 113.099 113.294 112.932 112.519 112.422 112.877 112.832 112.212 113.372 113.594 113.154 113.029 112.964 112.924 120.504 122.962 122.104 122.317 122.309 121.449 121.714 119.032 113.654 115.839 116.649 115.954 114.162 112.539 112.504 112.467 112.479 112.484 112.482 112.642 113.184 114.884 111.929 111.927 115.167 113.964 117.372 120.002 119.694 112.369 116.619 115.722 113.209 112.129 112.167 112.254 115.104 117.809 119.222 119.637 118.504 113.617 113.259 112.317 112.342 112.272 112.307 112.259 112.389 112.597 112.712 112.889 112.947 115.282 117.779 118.942 115.972 112.614 112.559 112.512 112.452 112.397 112.372 112.357 112.342 112.417 112.319 112.187 112.072 111.964 112.012 112.019 111.987 111.992 111.982 111.934 111.854 111.802 111.772 111.707 111.612 111.509 111.579 111.637 112.427 111.829 112.002 117.332 118.287 119.149 120.919 119.989 118.639 113.379 111.689 111.667 111.847 111.627 111.509 111.497 111.494 111.484 111.494 111.579 112.217 117.537 117.894 118.177 113.854 111.312 114.654 118.272 113.812 111.349 111.169 111.104 110.977 110.972 110.952 110.937 111.047 113.404 114.819 111.252 111.054 110.982 110.819 110.744 110.749 110.774 110.774 110.924 117.394 115.414 111.747 110.809 110.777 110.869 110.907 110.304 109.907 109.852 109.742 110.499 109.524 109.527 109.479 109.459 109.539 109.639 109.619 109.682 109.704 109.822 109.442 110.364 110.469 109.567 109.467 108.912 109.727 109.524 109.089 112.189 109.912 109.664 108.594 108.587 108.599 108.554 108.442
123.305 123.951 123.862 126.842 126.808 125.184 123.918 123.82 123.793 123.437 123.273 127.239 123.139 122.985 122.954 123.029 123.849 124.724 124.098 124.651 124.96 126.175 125.781 124.449 124.772 124.539 123.818 123.848 125.399 124.565 125.212 125.115 125.405 125.529 124.29 125.436 124.551 124.765 125.537 124.754 124.513 124.771 127.869 130.01 143.327 143.927 142.207 132.439 143.877 145.278 144.736 144.085 138.88 126.865 125.446 125.462 130.635 132.732 132.539 132.074 127.318 125.49 125.434 124.889 124.732 124.727 124.66 124.602 124.91 124.86 125.012 125.142 125.415 125.463 125.499 124.921 124.306 124.631 125.672 126.663 126.594 126.534 126.465 126.403 126.158 131.208 133.631 134.266 127.914 125.229 125.014 125.532 125.177 124.721 124.96 124.224 123.785 125.147 126.595 126.51 128.959 129.711 127.917 127.75 128.651 122.998 121.213 121.227 121.222 121.204 121.232 121.763 121.944 121.598 121.521 130.172 134.827 138.012 138.116 131.001 127.174 123.311 121.5 120.943 120.929 120.843 120.795 120.738 120.685 120.621 120.555 120.5 120.427 120.332 120.33 120.442 121.12 120.117 122.245 119.71 121.995 118.895 118.607 118.512 118.805 119.61 118.33 119.307 120.8 118.477 118.765 118.312 117.112 121.822 116.947 116.77 116.675 116.567 116.46 116.242 115.977 115.79 115.817 115.85 115.845 115.795 115.707 115.622 115.639 118.307 122.919 124.044 125.192 126.347 127.207 126.089 124.959 123.822 121.657 114.829 114.514 114.327 114.119 114.202 113.757 113.577 113.482 113.289 113.229 113.132 113.009 112.892 112.864 112.934 112.934 112.974 112.974 112.912 113.174 113.079 112.702 113.277 112.404 112.314 112.219 112.124 112.067 112.012 112.167 112.899 113.577 112.892 112.844 112.754 113.222 121.989 121.592 121.194 120.864 118.607 117.352 112.882 112.869 114.739 114.377 112.847 112.412 112.422 112.409 112.397 112.419 112.454 112.554 112.329 115.687 115.492 111.874 114.602 119.142 119.537 120.457 120.494 120.749 112.217 115.374 115.669 112.392 114.214 114.309 112.487 115.177 118.302 119.432 119.394 118.269 112.327 112.289 112.279 112.382 112.174 112.209 112.157 112.237 113.152 112.339 112.229 112.344 112.737 112.969 114.109 115.777 112.602 112.544 112.479 113.754 114.979 114.224 113.119 112.382 112.292 112.199 112.039 111.849 111.904 111.912 111.892 112.012 112.019 112.004 111.952 111.889 111.797 111.682 112.074 111.562 111.467 111.467 111.512 111.489 112.624 112.209 111.979 118.579 118.812 119.819 120.952 119.349 114.752 111.664 111.652 111.732 111.512 111.524 111.524 111.557 111.552 111.509 111.537 117.232 117.277 116.202 114.529 111.482 111.227 111.249 114.089 113.752 111.514 111.052 110.937 110.917 110.882 110.857 110.919 111.007 114.964 117.229 111.497 111.609 110.894 110.699 110.757 110.877 110.767 110.769 110.814 110.787 110.737 110.524 110.242 110.514 110.162 109.879 109.844 109.789 109.719 109.639 109.787 110.342 109.402 109.372 109.367 109.434 109.507 109.532 109.722 109.587 109.229 108.817 108.922 108.752 108.724 108.707 108.649 111.199 108.834 108.867 111.102 110.822 108.639 108.604 108.562 108.549 108.489 108.382
123.396 123.917 124.027 125.232 126.907 127.443 127.585 124.7 123.311 124.329 126.434 128.248 123.045 122.894 122.865 124.668 126.898 126.026 124.24 123.755 124.235 125.375 124.801 124.727 124 124.351 123.75 123.781 124.363 126.066 125.388 125.535 128.824 130.276 126.779 124.795 125.648 125.721 124.624 125.057 124.37 124.474 124.478 124.542 127.759 128.363 131.205 139.181 131.023 143.88 144.394 142.808 139.877 126.142 124.707 125.59 130.75 131.686 131.066 131.329 128.653 125.943 125.825 124.903 124.528 124.547 124.479 124.437 124.537 124.526 124.669 125.325 124.505 125.231 125.116 127.183 125.238 126.239 124.84 124.52 124.23 124.192 123.927 123.868 123.908 126.387 131.398 133.666 130.628 125.126 124.536 124.72 125.018 124.147 123.853 123.699 122.567 124.064 125.957 126.554 126.148 127.804 123.668 121.632 122.829 121.095 121.114 121.093 121.063 121.031 121.037 121.003 121.862 121.561 121.377 123.607 122.227 127.102 123.607 121.979 121.186 121.267 120.955 120.903 120.858 120.808 120.768 120.818 120.96 120.57 120.491 120.475 120.692 120.442 120.48 120.102 121.655 121.99 120.077 120.375 121.115 118.56 118.467 118.37 118.315 120.905 118.38 118.66 119.675 120.597 117.735 117.157 122.792 121.637 120.807 116.675 116.507 116.44 116.275 116.092 115.885 115.697 115.69 115.735 115.732 115.69 115.625 116.51 115.514 117.664 122.584 123.889 125.024 126.037 126.862 127.227 126.082 124.942 123.809 116.289 114.609 114.412 114.209 114.047 113.794 113.577 113.407 113.327 113.132 113.077 112.979 113.009 113.104 113.132 112.909 113.002 112.762 113.117 112.584 112.499 112.399 113.007 112.197 112.104 112.014 111.932 111.849 111.809 111.807 112.752 114.214 112.739 112.707 112.609 112.809 120.884 119.544 116.317 113.207 117.014 116.817 113.339 112.387 112.334 112.332 112.337 112.317 112.329 112.347 114.067 116.052 114.142 112.212 112.047 115.874 118.849 120.342 120.332 120.207 120.614 121.024 121.357 121.304 112.027 114.127 112.577 112.522 111.994 112.187 112.302 112.342 118.589 120.072 119.304 117.944 112.564 115.347 112.534 112.167 112.094 112.092 112.079 112.369 113.267 112.257 116.547 118.377 116.232 113.154 112.184 112.397 113.339 112.967 112.574 114.512 115.162 115.244 115.054 112.159 112.042 111.962 111.734 111.782 111.807 111.809 111.939 112.087 112.072 112.052 111.919 111.844 111.879 111.634 111.872 111.494 111.409 111.314 111.377 111.367 113.242 111.699 111.607 111.599 116.069 118.527 118.887 114.082 115.374 114.259 111.607 112.444 111.499 111.507 111.537 112.849 116.197 115.934 117.437 117.334 117.342 111.564 111.307 111.707 114.582 112.237 111.054 111.179 110.984 111.019 110.844 110.824 110.787 110.742 110.869 110.962 112.239 110.979 112.179 112.054 110.752 111.094 110.714 110.564 110.109 110.132 110.324 110.774 110.014 110.009 110.782 109.914 109.757 109.752 109.737 109.682 109.612 109.552 109.867 110.634 109.327 109.302 109.267 109.317 109.374 109.154 108.809 108.794 108.767 108.719 108.732 108.699 108.709 109.062 110.559 109.877 108.682 108.724 109.022 108.947 108.639 108.639 108.519 108.487 108.419 108.287
122.689 122.71 123.116 125.13 126.941 128.698 128.388 127.283 124.209 131.032 132.42 125.832 123.789 122.776 122.617 124.924 131.456 128.376 123.493 123.473 123.616 123.478 123.471 123.837 123.589 123.747 123.71 123.659 123.725 124.215 123.784 125.668 126.669 127.576 126.281 126.067 125.263 124.528 126.041 125.845 124.601 124.734 125.183 124.531 124.5 122.407 134.234 140.191 143.548 144.284 143.561 138.703 136.55 126.264 124.662 125.127 127.626 130.031 130.815 129.589 128.76 125.446 125.305 124.852 124.345 124.35 124.283 124.222 124.248 125.139 124.825 129.158 127.963 130.095 128.923 130.806 128.43 127.197 125.61 124.022 123.948 123.924 123.86 123.813 124.697 124.552 124.538 125.279 126.199 124.742 124.66 124.317 124.142 121.647 121.333 121.917 121.606 122.278 125.442 126.758 126.275 122.418 120.994 121.019 121.015 120.985 121 120.97 121.038 121.103 120.888 120.886 121.651 121.738 121.302 121.252 121.212 121.189 121.101 121.077 121.023 120.999 120.941 120.887 120.824 120.783 120.778 121.801 121.161 120.735 120.722 120.53 120.292 119.9 119.495 119.167 118.795 118.797 118.715 118.65 118.57 118.475 118.372 118.255 118.185 118.132 119.612 118.245 118.645 117.61 117.16 121.342 121.625 121.635 121.642 122.247 116.627 116.275 116.162 116.002 115.797 115.595 115.592 115.622 115.62 115.6 115.525 116.167 115.397 115.492 117.879 122.049 123.789 124.944 126.079 127.167 126.232 125.084 123.942 120.992 114.669 114.462 114.257 114.184 113.847 113.617 113.394 113.277 113.167 112.994 112.924 112.837 113.702 112.644 112.774 113.144 112.612 112.807 112.424 112.307 112.184 112.087 112.007 111.909 111.832 111.724 111.607 111.592 111.674 112.622 113.287 112.579 112.564 112.454 112.544 112.774 112.794 116.064 113.302 114.019 112.539 112.239 112.244 112.229 112.229 112.362 112.819 111.969 112.197 113.349 115.884 115.389 117.527 119.239 119.642 120.074 120.497 120.657 121.302 121.454 121.082 120.612 120.162 111.882 112.909 111.874 111.777 111.809 111.957 112.004 112.597 118.752 119.847 118.964 117.049 113.304 116.204 114.369 112.002 111.997 111.969 112.014 112.637 112.214 112.649 117.427 118.847 119.509 118.377 113.299 112.307 112.054 112.014 112.059 112.137 113.192 113.622 113.824 112.039 111.844 111.652 111.632 111.682 111.659 111.834 111.977 112.062 111.984 111.942 111.869 112.382 113.739 112.977 111.459 111.392 111.337 111.247 111.172 111.247 111.224 113.592 111.579 111.589 111.717 114.517 114.087 113.679 115.287 115.227 114.579 111.997 111.589 111.522 111.524 112.959 117.374 117.402 117.402 117.397 117.397 111.702 111.239 111.152 112.712 112.487 111.189 113.567 112.034 116.792 112.474 110.732 110.672 110.744 110.774 111.437 110.859 111.764 111.639 110.722 110.564 110.707 110.549 110.089 110.102 110.199 110.232 110.107 110.419 109.927 110.129 109.779 109.684 109.667 109.634 109.582 109.517 109.447 109.429 110.554 109.262 109.274 109.217 109.202 109.257 109.159 108.832 108.797 108.774 108.737 108.707 108.677 108.662 110.007 113.607 114.092 108.864 110.572 108.959 109.174 108.832 108.589 110.157 108.429 108.892 109.694
122.881 122.518 122.582 122.596 125.554 126.864 123.274 124.338 122.889 128.345 131.727 124.912 122.697 122.744 122.779 127.857 130.887 129.869 125.573 128.497 129.329 126.783 123.514 123.463 128.842 125.406 123.691 123.545 123.652 123.758 124.728 125.624 126.151 126.261 126.302 126.205 126.194 126.498 124.692 126.416 124.311 124.269 124.305 124.325 125.009 125.237 139.757 142.867 144.005 144.283 144.341 143.411 129.091 126.068 124.732 125.138 127.501 127.161 129.578 126.239 126.981 125.69 125.659 125.861 124.391 124.104 124.129 124.075 125.272 124.331 124.232 129.045 130.945 131.586 132.009 131.269 130.028 127.123 124.911 123.97 124.033 130.818 129.94 124.269 123.767 124.695 123.586 123.903 124.232 123.997 122.213 121.767 121.335 121.331 121.328 121.299 121.636 121.41 124.351 126.426 126.688 125.516 121.015 120.944 120.92 120.919 121.026 120.842 120.801 121.301 120.809 120.72 120.689 121.853 121.345 121.2 121.162 121.107 121.082 121.048 120.979 120.943 120.871 120.953 120.793 120.79 120.854 121.452 121.348 120.494 120.362 119.799 120.397 120.987 119.982 119.567 118.72 118.692 118.665 118.615 118.515 118.405 118.267 118.152 118.047 117.97 117.887 118.81 117.692 117.695 121.612 121.6 121.612 121.627 122.535 123.472 121.987 116.187 116.01 115.892 115.71 115.542 115.48 115.51 115.52 115.487 115.435 115.317 115.237 115.342 116.222 121.077 123.627 124.777 125.914 127.102 126.379 125.242 124.092 122.349 114.742 114.457 114.262 114.102 113.874 113.639 113.429 113.209 113.182 113.014 112.847 112.787 112.697 112.582 112.502 113.917 112.539 113.832 112.287 112.142 112.004 111.902 111.812 111.719 111.647 111.554 113.254 116.957 111.622 112.487 113.049 112.439 112.417 112.287 112.644 113.074 112.479 112.214 112.172 112.164 112.154 112.144 112.149 112.274 112.099 115.019 115.609 112.824 111.677 114.217 119.077 119.804 120.519 121.599 120.669 121.124 121.474 121.217 121.739 120.542 119.904 119.727 120.079 111.739 111.949 111.562 111.632 111.702 111.702 112.107 115.404 118.997 119.814 118.744 115.662 112.032 111.944 112.409 112.099 111.907 111.857 112.502 112.749 112.949 112.202 117.967 119.069 119.134 118.164 112.329 112.327 112.024 112.032 113.452 112.099 111.854 111.892 114.427 111.944 111.642 111.489 111.549 111.544 111.682 111.872 111.952 111.997 115.194 115.469 115.772 116.084 116.392 116.487 111.582 111.302 111.237 111.192 111.122 111.089 111.132 111.704 112.922 111.514 111.464 111.539 111.549 111.592 113.972 115.304 114.407 113.739 112.662 111.504 111.507 112.067 117.372 117.399 117.427 117.409 117.394 112.217 112.579 113.914 110.984 110.894 110.829 110.787 111.322 110.677 110.667 110.624 110.684 110.762 111.249 111.432 110.912 110.694 111.539 113.027 111.427 110.154 110.514 110.504 110.399 110.407 110.242 110.187 109.939 109.929 110.247 109.889 109.629 109.609 109.594 109.507 109.424 109.372 109.339 109.424 109.322 109.254 109.197 109.134 109.137 111.824 112.352 108.772 108.737 108.727 108.697 109.012 109.974 112.397 109.024 112.317 108.749 109.444 108.997 109.187 110.867 110.432 108.747 110.869 110.442 108.062
124.242 122.619 122.658 124.835 125.96 124.015 123.609 122.826 122.783 127.567 126.467 123.391 122.588 122.605 123.553 122.714 126.746 134.546 133.615 127.82 131.516 129.363 124.637 128.805 135.075 128.354 124.127 123.511 124.252 123.984 124.291 125.634 124.306 124.872 124.063 124.821 124.826 126.617 124.534 125.273 124.145 124.114 124.09 124.505 123.955 122.15 136.746 142.085 143.523 143.083 144.432 142.835 130.865 124.618 125.973 126.248 126.194 125.397 126.151 126.282 126.294 124.064 124.345 125.2 124.051 123.974 123.954 123.872 124.541 124.354 124.643 129.199 130.956 132.479 132.673 131.582 127.266 124.34 124.234 125.038 128.968 130.13 133.201 126.16 126.714 128.086 125.054 123.64 121.992 121.519 121.3 121.329 121.308 121.242 121.248 121.215 121.149 121.127 123.881 125.123 126.644 122.58 120.895 120.856 122.774 120.951 120.765 120.915 120.672 120.638 120.611 120.672 120.537 121.304 121.355 121.164 121.116 121.068 121.039 120.996 120.945 120.943 123.001 127.734 121.655 120.857 122.557 120.667 121.436 119.514 119.11 119.047 119.922 119.062 118.767 118.702 118.655 118.605 118.662 120.892 117.312 118.26 118.115 118.01 117.905 117.852 118.632 117.502 117.182 118.982 121.617 121.615 121.627 123.512 123.47 123.472 123.487 119.305 115.917 115.742 115.582 115.442 115.367 115.395 115.4 115.387 115.332 115.232 115.784 115.207 115.602 120.887 123.714 124.879 126.014 127.192 126.532 125.377 124.247 123.109 114.967 114.944 114.267 114.094 113.874 113.659 113.452 113.244 113.019 113.019 112.862 112.687 112.624 112.537 112.412 112.372 113.124 112.302 112.192 111.992 111.824 111.719 111.624 111.549 114.634 118.849 119.769 120.539 112.957 112.497 113.502 112.299 112.274 112.124 112.159 112.109 112.097 112.074 112.057 112.234 112.327 114.057 115.014 111.607 111.779 113.617 116.269 119.477 119.814 119.759 120.142 120.577 120.967 121.374 121.372 120.919 120.489 120.107 121.114 120.967 117.069 112.284 111.654 111.594 112.127 111.567 111.579 111.502 111.549 111.609 112.864 116.172 118.989 118.547 113.149 112.024 111.929 111.864 113.052 111.819 111.734 113.184 111.852 112.334 112.127 118.189 119.692 119.997 117.939 112.927 112.174 111.959 114.114 116.349 116.012 115.612 112.487 111.977 111.702 111.382 111.384 111.419 111.494 111.727 111.807 111.864 111.917 115.934 116.294 115.989 115.689 115.422 115.139 114.462 111.242 111.182 111.102 111.022 110.927 110.972 111.019 113.304 111.594 111.187 111.284 111.374 111.462 111.562 112.314 112.332 112.714 112.487 111.437 111.394 111.334 111.439 111.319 111.524 111.284 111.309 111.217 111.069 110.967 110.872 110.799 110.697 110.622 110.604 110.577 110.554 110.562 110.667 111.402 111.617 110.754 111.957 111.907 112.594 111.139 110.194 110.089 110.124 110.167 110.152 110.139 110.129 110.099 110.257 112.127 110.987 110.464 109.877 109.689 110.177 111.042 113.759 110.079 109.457 109.349 109.794 110.289 110.499 110.642 109.072 111.822 112.749 110.852 110.317 109.377 109.662 111.204 112.364 112.782 110.554 109.734 108.647 108.937 109.237 109.389 109.612 111.649 110.429 112.184 112.149 112.782
126.265 125.509 123.699 126.143 127.116 124.339 124.12 124.325 123.344 128.478 128.114 123.465 122.498 122.452 123.183 122.589 126.831 135.74 137.827 137.829 137.462 135.353 131.629 125.061 134.821 128.114 123.4 123.39 123.473 123.746 123.509 123.822 123.589 123.638 123.529 123.842 123.672 125.617 124.177 124.628 123.885 123.715 123.865 124.628 123.67 131.341 136.114 138.432 142.579 143.263 144.472 142.564 131.064 125.876 127.216 126.328 125.316 124.361 126.318 126.318 126.279 123.959 123.912 123.822 123.759 123.782 123.75 123.651 124.835 124.602 124.082 127.823 130.718 132.15 132.909 131.826 130.295 125.096 123.986 124.17 124.895 131.635 133.053 123.691 127.38 129.07 127.118 124.233 121.357 121.254 121.274 121.256 121.252 121.218 121.156 121.098 121.045 120.953 120.939 121.772 120.898 120.859 120.798 122.707 124.776 122.749 122.44 120.685 120.7 121.173 120.925 121.316 120.433 120.399 122.256 121.217 121.062 121.037 120.983 121.06 121.145 126.243 128.056 122.673 122.217 120.227 121.322 121.123 119.231 119.436 119.016 118.847 118.805 118.747 118.707 118.725 121.86 122.92 122.895 122.935 117.4 118.112 117.967 118.13 117.762 118.167 117.502 117.1 116.862 116.617 119.527 121.64 123.2 123.485 124.01 123.482 123.492 123.57 116.632 115.64 115.45 115.332 115.24 115.277 115.295 115.285 115.23 115.137 116.259 115.089 115.159 120.419 123.562 124.712 125.874 127.024 126.679 125.539 124.404 123.257 114.682 114.807 114.229 114.067 113.904 113.679 113.469 113.267 113.057 112.837 112.832 112.714 112.537 112.472 112.377 112.254 112.237 112.354 112.077 111.854 111.652 111.549 115.157 120.779 120.354 120.672 121.107 120.559 117.444 112.332 112.804 112.169 112.137 111.977 111.999 112.009 111.979 111.962 112.119 111.907 111.594 115.104 115.444 112.122 116.662 119.487 119.844 119.899 120.197 120.944 121.224 121.447 121.099 120.917 121.722 120.869 119.664 117.137 113.544 111.634 111.749 112.919 112.257 111.674 112.474 111.412 111.349 111.329 111.747 111.977 112.372 112.659 112.777 112.704 112.129 112.022 112.449 111.762 112.444 111.737 111.652 112.767 111.782 111.869 113.832 118.402 119.512 118.807 117.434 115.017 112.854 113.692 113.847 115.067 115.477 115.889 111.809 111.609 111.337 111.222 111.277 111.294 111.547 111.837 113.314 111.847 112.329 113.182 114.557 113.427 112.574 111.139 110.957 110.962 111.852 111.047 110.999 110.952 110.879 110.794 110.844 110.839 110.869 110.979 111.112 111.212 111.292 112.157 112.434 110.957 110.914 110.887 110.889 111.867 114.037 113.249 112.352 112.027 111.367 111.199 111.107 110.994 110.892 110.942 110.669 110.562 110.537 110.497 110.487 110.434 110.542 111.319 111.774 112.629 110.689 111.069 113.422 111.144 110.152 111.852 113.702 113.504 111.972 110.152 113.384 110.127 114.417 117.692 113.262 113.714 113.727 112.904 110.099 110.494 113.617 115.899 111.054 109.429 109.764 110.024 109.367 109.534 109.489 109.867 109.104 110.844 109.497 109.719 110.432 111.042 109.489 111.117 108.879 110.214 110.587 109.204 108.744 109.124 109.059 109.057 110.549 110.629 111.924 109.322 108.569
127.734 127.589 127.141 127.035 126.874 125.654 122.721 122.933 122.532 124.963 125.697 122.601 122.306 122.321 122.999 122.708 134.006 134.8 131.205 138.131 138.023 137.247 133.464 123.447 123.051 124.09 123.142 123.103 123.049 123.103 123.076 123.154 123.3 124.187 123.806 125.583 123.933 125.426 123.914 125.728 125.333 125.425 125.403 125.411 122.817 134.602 140.365 141.682 142.853 142.917 142.973 139.588 129.789 124.193 124.522 124.34 123.917 124.391 125.929 126.437 126.416 125.678 123.739 123.861 123.641 123.574 123.542 123.507 123.913 124.529 124.28 127.055 130.391 132.59 133.014 132.428 130.704 123.963 123.714 123.902 123.535 123.439 123.472 123.866 126.389 125.174 123.181 125.171 126.453 122.678 121.18 121.183 121.142 121.133 121.085 121.003 120.973 120.881 120.859 120.812 120.758 120.74 121.373 125.595 127.012 126.345 124.45 120.639 120.754 121.06 120.481 120.249 120.252 120.213 122.362 121.357 121.134 121.178 121.102 121.131 121.077 121.727 121.918 120.088 123.931 121.979 121.001 120.098 119.411 118.958 118.833 118.792 118.802 119.635 122.915 122.867 122.875 122.87 122.902 122.917 122.13 117.975 117.82 118.107 118.42 117.642 118.957 117.59 116.835 116.5 116.38 123.38 124.165 124.467 124.26 123.942 123.5 123.52 124.09 115.522 115.327 115.205 115.13 115.162 115.182 115.167 115.127 115.045 115.057 114.964 115.042 119.404 123.414 124.577 125.727 126.874 126.832 125.697 124.544 123.392 115.367 114.362 114.179 114.039 113.894 113.697 113.472 113.269 113.069 112.867 112.684 112.659 112.559 112.387 112.314 112.217 112.107 112.004 111.997 111.767 115.739 118.727 120.089 120.797 121.139 120.452 119.524 119.027 115.147 112.214 112.314 112.049 112.002 111.842 111.859 111.877 112.854 115.669 114.844 111.619 111.579 115.869 118.774 120.057 119.724 120.012 120.382 120.819 121.117 120.937 120.792 120.404 119.957 120.797 120.239 115.467 111.549 111.532 111.517 111.547 111.577 111.592 111.799 111.802 112.409 111.464 111.319 111.287 111.277 111.272 112.617 113.939 112.382 111.747 112.149 111.579 112.129 111.592 111.652 111.649 111.589 112.402 111.929 111.882 116.379 118.637 119.619 118.589 116.627 113.759 111.804 111.609 111.602 111.604 111.599 112.382 111.662 111.397 111.084 111.157 111.157 111.277 111.492 112.084 112.499 113.394 113.747 111.194 111.042 110.977 110.909 110.874 110.857 110.857 110.867 111.254 110.884 110.852 110.802 110.722 110.627 110.684 110.704 111.872 111.172 111.352 111.089 111.969 110.999 110.847 110.832 110.817 110.839 110.899 112.732 113.659 113.649 113.767 110.887 110.827 110.877 110.794 110.772 110.579 110.897 110.467 110.447 110.407 110.362 110.447 110.629 112.907 110.862 112.032 113.047 112.774 113.687 113.019 110.829 110.962 110.799 110.357 110.197 110.064 110.014 112.057 114.442 114.009 109.859 110.429 110.497 112.127 110.192 110.054 110.857 112.652 109.572 109.327 109.262 109.184 109.109 109.047 108.924 108.769 108.724 108.699 108.669 108.634 108.509 108.342 108.232 108.124 108.069 108.037 107.982 107.897 107.859 107.762 107.707 107.672 107.577 107.497 107.279 107.219 107.139
128.439 128.648 128.714 127.987 126.728 123.02 122.466 124.736 122.583 123.765 122.38 122.438 122.204 122.238 123.595 122.286 130.447 136.298 137.212 137.834 137.752 137.151 130.157 123.898 122.997 122.992 122.989 122.915 122.589 122.572 122.602 122.613 122.749 124.637 126.617 130.394 127.465 128.66 126.524 126.413 126.363 126.217 126.197 126.036 133.902 139.037 134.56 141.59 140.314 142.252 141.103 136.883 134.744 123.841 123.72 123.729 123.767 123.966 127.355 127.165 128.953 128.01 123.958 124.356 124.636 123.389 123.355 123.365 123.336 126.455 124.887 124.48 130.073 131.55 133.015 132.421 131.153 125.898 126.05 124.217 123.474 123.454 123.418 123.41 125.454 125.645 126.882 129.199 129.604 126.36 121.369 121.112 121.012 120.989 120.943 120.939 120.843 120.765 120.735 120.647 120.591 120.563 122.688 124.487 127.16 125.258 122.324 120.463 120.304 120.238 120.195 120.105 120.054 120.063 120.466 122.826 121.805 124.546 126.107 121.364 120.728 120.192 120.541 123.128 121.387 120.407 119.352 119.016 118.848 118.946 120.732 122.5 122.885 122.887 122.88 122.887 122.895 122.902 123.022 122.91 122.927 118.182 117.607 117.475 117.517 117.71 118.172 118.162 116.792 116.565 116.352 120.94 123.502 124.392 124.457 124.247 123.85 123.53 118.825 115.38 115.21 115.062 115.02 115.052 115.072 115.075 115.027 114.95 115.909 114.814 114.912 118.934 123.282 124.432 125.572 126.722 126.987 125.854 124.692 123.549 115.162 114.312 114.144 113.982 113.857 113.692 113.464 113.254 113.062 112.874 112.699 112.512 112.599 112.404 112.244 112.177 112.082 111.969 111.874 111.922 113.587 120.917 120.999 120.347 120.909 120.247 117.739 112.742 113.244 111.932 113.104 111.917 111.879 111.712 111.804 111.962 111.772 115.232 115.827 116.992 119.074 120.077 119.914 120.234 120.349 121.047 121.082 120.664 120.462 120.482 119.784 120.342 117.357 112.032 111.464 112.122 112.867 111.534 111.569 111.589 111.594 111.607 111.602 111.592 114.012 111.424 111.262 111.249 112.014 111.219 111.587 113.404 111.244 111.299 111.799 112.217 111.504 111.534 111.574 111.564 111.524 111.707 114.817 112.694 111.877 111.917 111.942 115.424 115.399 112.657 112.307 111.562 111.574 111.552 111.559 113.877 111.459 111.099 110.994 111.047 111.059 111.294 111.399 111.374 111.332 112.814 114.294 113.734 113.062 110.827 110.774 110.764 110.747 111.334 110.917 111.207 110.847 110.734 110.704 110.649 110.539 110.517 110.567 110.782 111.597 112.419 115.849 111.809 110.964 113.822 113.192 112.237 111.434 110.672 110.769 110.867 111.319 111.854 111.474 110.899 110.577 110.494 110.442 110.407 110.372 110.384 110.334 110.327 110.292 110.404 112.062 114.014 114.022 112.129 110.742 110.402 110.309 110.297 110.284 110.709 110.147 110.054 110.019 110.074 109.959 109.897 109.869 109.807 109.734 109.647 109.582 109.512 109.442 109.454 109.424 109.384 109.312 109.227 109.144 109.072 108.989 108.962 108.852 108.672 108.614 108.584 108.619 108.782 114.297 108.367 108.172 108.064 107.997 107.987 107.917 107.862 107.757 107.674 107.584 107.479 107.382 107.287 107.157 107.062 106.982
128.073 128.311 127.719 127.771 127.654 123.743 126.242 125.505 122.546 123.575 122.611 122.279 122.092 122.126 122.364 122.157 124.575 134.048 135.206 135.922 134.192 135.177 123.978 122.789 122.8 122.804 122.887 122.732 122.506 122.489 122.487 122.659 123.048 130.35 131.77 132.313 131.863 130.715 130.693 130.323 129.38 124.811 124.876 122.951 136.058 138.115 141.003 141.476 142.301 141.441 141.257 138.773 133.41 123.848 123.721 123.737 123.739 127.594 129.858 130.186 130.263 128.223 123.864 123.696 124.762 123.393 123.206 123.205 123.533 126.36 125.061 125.845 130.061 131.204 132.227 131.863 131.242 128.453 126.907 124.8 123.927 124.4 123.684 123.229 123.191 123.036 127.993 132.603 132.124 130.219 123.153 120.955 120.926 120.873 120.866 120.768 120.634 120.656 120.541 120.483 120.593 120.419 122.438 124.381 125.333 121.961 120.278 120.206 120.192 120.107 120.053 120.008 119.923 119.9 119.903 122.496 122.847 125.187 126.294 120.388 119.63 121.959 123.211 119.691 119.379 119.105 118.874 118.826 121.382 122.9 122.857 122.872 122.887 122.88 122.885 122.882 122.865 122.895 122.96 122.937 122.947 121.415 117.552 117.422 118.242 116.457 117.025 117.4 119.075 117.005 116.28 116.462 121.69 123.507 124.312 124.037 123.565 119.05 116.13 115.2 115.092 114.947 114.91 114.932 114.962 114.962 114.92 114.855 114.739 114.647 114.777 118.822 123.127 124.269 125.437 126.569 127.149 125.987 124.839 123.697 116.429 114.289 114.094 113.929 113.824 113.662 113.459 113.242 113.032 112.849 112.679 112.529 112.362 112.482 112.244 112.104 112.027 111.942 111.829 112.117 112.294 119.804 119.134 118.954 120.232 120.944 118.934 112.422 113.017 111.827 113.119 111.784 111.754 111.587 111.707 111.587 115.247 118.892 119.472 120.104 119.979 119.992 120.849 121.132 120.792 121.037 120.542 120.432 119.992 120.452 113.112 111.404 111.372 112.837 112.017 111.507 111.539 111.542 111.549 111.549 111.542 111.522 111.562 111.622 113.444 111.872 111.204 111.174 112.089 116.887 118.239 118.159 116.952 112.357 111.399 111.494 111.439 111.469 111.492 111.479 111.464 111.584 111.609 112.417 112.702 112.659 111.849 111.977 112.014 112.599 113.549 113.637 112.307 111.517 111.369 111.184 110.992 110.839 110.894 110.912 111.044 111.222 111.317 111.289 111.294 112.429 113.892 113.722 113.742 110.729 110.669 110.634 110.619 110.624 110.652 110.712 112.119 110.662 110.577 110.582 110.492 110.394 110.472 110.404 112.332 112.209 116.592 112.084 112.064 114.589 114.557 114.417 114.262 111.972 110.739 110.614 110.819 111.032 111.082 111.677 114.392 110.749 110.344 110.282 110.309 110.284 110.272 110.219 110.182 110.799 110.484 110.422 110.392 112.537 110.184 110.082 110.022 109.947 109.904 110.752 110.679 109.809 109.767 109.722 110.017 109.632 109.602 109.539 109.499 109.447 109.379 109.324 109.259 109.202 109.149 109.089 109.034 108.962 108.902 108.837 108.774 108.689 108.614 108.509 108.414 108.322 108.239 111.087 108.092 107.952 107.854 107.784 107.699 107.609 109.234 110.162 107.387 107.327 107.237 107.172 107.112 107.052 106.997 106.929 106.839
126.496 126.519 126.344 126.753 126.365 122.732 125.595 125.874 123.476 123.711 122.13 122.141 121.98 122.017 122.808 122.059 123.927 129.04 127.597 125.341 127.607 125.776 122.59 122.629 122.749 122.704 122.742 122.61 122.403 122.421 122.427 122.676 123.008 129.94 131.181 132.262 132.42 132.251 131.438 131.124 124.433 124.815 124.555 121.165 125.981 135.608 140.232 141.191 141.371 140.792 139.477 137.361 125.236 123.756 123.765 123.744 123.686 123.72 129.672 131.225 130.559 129.484 125.07 123.92 124.326 123.734 123.325 123.001 122.907 125.778 124.37 123.957 129.317 130.874 130.725 130.491 130.469 129.738 127.063 124.119 124.722 125.323 125.128 124.189 124.337 124.454 128.388 132.634 132.252 130.674 122.003 120.85 120.786 120.719 120.692 120.522 120.482 120.452 120.438 122.356 122.749 120.54 120.75 123.641 120.237 120.148 120.05 120.1 120.077 119.982 119.948 119.864 120.155 123.242 121.912 119.896 125.481 122.916 124.399 124.486 119.389 119.272 118.93 118.86 118.832 118.81 118.93 118.86 121.948 123.122 122.907 122.905 122.902 122.877 122.9 122.892 122.9 122.927 122.96 122.965 122.987 122.55 119.952 119.857 119.922 114.78 115.522 118.587 119.012 119.062 116.257 116.092 116.037 122.187 123.527 123.577 118.74 115.582 115.242 115.102 115.03 114.877 114.81 114.827 114.855 114.857 114.817 114.755 114.649 114.512 114.657 117.794 123.019 124.124 125.254 126.422 127.264 126.134 124.999 123.862 118.852 114.277 114.099 113.869 114.919 113.622 113.417 113.197 112.982 112.799 112.642 112.492 112.349 112.207 112.282 112.087 111.944 111.879 111.787 113.049 111.687 113.942 113.559 114.694 118.837 121.034 120.104 115.174 112.889 111.772 111.604 111.659 111.609 111.477 114.757 119.149 119.619 118.259 120.364 120.714 121.104 120.964 120.514 120.087 119.969 119.309 120.109 116.644 111.327 111.302 112.637 112.332 111.439 111.487 111.504 111.514 111.509 112.854 113.387 111.454 111.532 111.602 112.074 111.617 112.567 111.497 111.159 111.142 111.099 116.924 118.084 118.224 117.032 111.612 111.332 111.417 111.384 111.364 111.387 111.392 111.379 111.914 111.432 111.277 111.147 111.697 111.449 111.159 111.827 113.529 113.042 112.592 113.192 113.334 112.174 111.014 110.834 110.759 110.797 110.817 111.169 111.152 111.214 111.262 111.239 112.799 113.774 113.429 113.192 110.634 110.544 110.497 110.497 110.509 110.519 110.532 110.527 111.002 110.459 110.462 110.444 110.367 110.299 110.347 110.267 110.187 110.474 110.352 114.029 114.069 113.967 113.959 114.102 113.247 111.552 110.479 110.512 111.054 111.107 114.272 114.324 110.747 110.762 110.237 110.249 110.532 110.219 110.162 110.092 110.099 110.064 110.057 110.047 110.024 109.989 109.944 109.917 109.872 109.834 112.674 114.737 111.462 109.684 109.649 109.622 109.579 109.539 109.477 109.432 109.369 109.289 109.244 109.174 109.112 109.057 109.009 108.952 108.902 108.844 108.792 108.719 108.644 108.559 108.454 108.369 108.282 108.942 109.162 108.002 109.292 112.789 107.782 107.732 107.659 107.582 107.509 107.439 107.359 107.289 107.199 107.104 107.027 106.947 106.877 106.812
122.153 122.376 126.09 126.664 124.07 122.252 122.375 121.993 121.761 123.546 122.5 121.956 121.797 121.906 122.146 121.929 123.514 124.333 123.047 122.576 122.469 123.727 122.425 125.521 126.329 123.521 122.519 122.455 122.35 122.332 122.394 122.726 123.553 122.612 130.903 132.257 132.341 132.238 131.008 129.789 129.718 126.7 128.46 128.104 122.51 133.071 138.006 138.884 139.976 140.355 138.912 134.937 126.355 124.445 124.968 124.45 124.558 124.116 129.691 131.187 131.159 129.681 125.2 123.599 123.527 123.801 123.229 122.796 124.923 128.12 127.992 124.353 124.88 129.652 126.402 125.146 124.246 123.362 123.293 122.815 124.371 124.6 124.53 122.81 122.789 122.181 123.866 128.344 128.955 127.71 121.866 120.664 120.619 120.534 120.523 120.571 121.93 123.528 123.833 124.296 123.487 121.566 120.782 120.08 120.085 120.003 119.972 119.947 119.902 119.844 119.763 119.752 123.776 127.853 122.779 123.375 122.687 125.117 125.159 121.016 119.39 119.032 118.805 118.793 118.78 118.746 118.819 118.705 119.395 123.39 122.92 122.915 122.922 122.907 122.932 122.93 122.95 122.97 122.982 121.107 119.187 119.385 119.617 119.802 119.857 114.715 119.272 118.98 120.5 124.762 124.635 116.017 115.947 115.815 122.437 116.417 115.367 115.29 115.127 115.035 114.96 114.777 114.745 114.715 114.742 114.747 114.715 114.667 114.554 114.419 114.489 117.054 122.792 123.969 125.099 126.249 127.314 126.292 125.152 124.009 121.392 114.274 114.052 113.822 114.902 113.457 113.307 113.124 112.922 112.732 112.572 112.422 112.282 112.169 112.052 112.139 111.914 111.782 111.719 111.642 111.709 111.554 111.549 112.447 118.227 120.369 120.774 118.772 112.407 111.544 112.552 111.529 111.487 111.362 115.767 120.187 120.629 120.589 121.064 120.662 120.527 120.824 120.599 119.374 117.217 111.884 111.367 111.614 112.379 111.357 111.384 111.417 111.452 111.444 111.504 111.564 111.657 111.682 111.502 111.752 113.152 110.327 111.879 113.047 113.187 111.162 111.107 111.097 111.637 116.207 117.982 118.329 117.134 112.004 111.279 112.452 111.289 111.277 111.267 111.317 111.504 111.554 111.379 111.302 111.162 116.894 114.342 111.409 111.247 113.499 113.524 113.527 111.059 110.977 111.359 110.797 110.659 110.689 110.687 110.812 111.369 110.699 110.929 110.534 110.629 110.329 110.417 110.714 111.182 112.254 111.587 111.847 110.369 110.402 110.402 110.412 110.409 110.729 110.377 110.332 110.367 110.332 110.239 110.224 110.217 110.934 111.304 110.509 114.057 114.942 115.102 114.687 114.502 114.387 112.177 111.017 110.454 111.272 114.054 114.899 113.487 111.007 110.149 112.407 110.187 110.182 110.182 110.182 110.159 110.139 110.117 110.094 110.089 110.037 112.602 110.289 109.887 109.844 109.789 109.752 110.614 109.707 109.687 109.667 109.654 109.617 109.557 109.482 109.442 109.394 109.324 109.259 109.192 109.137 109.067 109.012 108.942 108.882 108.812 108.739 108.662 108.587 108.502 108.412 109.592 111.429 109.107 109.302 110.279 110.422 107.822 107.772 107.682 107.612 107.537 107.457 107.412 107.322 107.242 107.149 107.057 107.004 106.869 106.802 106.747
121.235 121.365 121.413 122.528 122.775 122.859 121.781 121.657 121.695 123.28 122.111 121.876 121.703 121.709 121.715 121.815 122.02 122.794 122.352 122.024 122.159 122.317 122.222 126.588 126.165 123.527 122.398 122.328 122.276 122.319 122.337 122.623 123.681 124.566 130.81 132.254 132.345 132.241 130.915 130.912 130.887 131.492 129.934 129.364 121.934 123.852 135.431 137.075 138.347 138.462 137.575 134.686 125.302 124.588 124.289 123.84 123.775 123.508 129.318 130.812 131.172 130.018 126.874 123.322 123.299 123.007 122.67 122.601 122.574 127.503 126.638 123.55 123.081 123.463 123.242 123.248 123.433 122.524 122.321 122.554 123.986 124.534 124.39 123.638 122.769 122.293 121.927 125.909 126.92 127.111 124.293 120.667 120.645 120.64 120.878 123.057 123.454 123.322 124.05 125.659 125.709 124.102 121.989 119.99 119.965 119.877 119.829 119.857 119.703 119.756 119.763 119.56 123.48 126.903 122.317 123.942 123.04 127.066 124.466 120.701 119.146 118.83 118.706 118.708 118.705 118.675 119.599 119.102 118.585 122.9 122.965 122.947 122.94 122.965 122.962 122.995 120.662 119.312 119.01 118.987 119.145 118.962 118.98 119.775 119.85 119.062 118.985 122.182 124.575 124.587 124.73 123.297 116.102 115.937 115.225 115.217 115.217 115.185 115.065 114.997 114.867 114.737 114.667 114.61 114.63 114.635 114.607 114.55 114.464 114.354 114.334 115.674 122.002 123.817 124.959 126.114 126.839 125.659 124.239 123.012 121.897 114.262 113.992 113.752 113.897 113.959 113.144 112.999 112.827 112.647 112.477 112.329 112.189 112.087 111.967 111.844 111.957 111.764 111.634 111.584 111.492 111.364 111.417 112.807 113.704 119.452 121.139 119.532 114.987 111.427 111.654 111.402 111.352 111.254 117.967 121.089 120.819 120.582 119.952 119.514 120.072 120.084 114.667 111.137 111.367 112.467 111.847 111.264 111.309 111.347 111.372 111.407 111.482 111.482 111.452 111.434 111.464 112.477 113.359 113.519 114.457 115.579 110.467 112.224 111.854 111.314 112.032 111.892 111.612 115.754 118.007 118.459 117.212 112.294 111.699 111.157 111.169 111.194 111.264 111.859 112.647 112.577 112.887 111.287 112.347 117.544 118.837 118.949 112.837 111.009 110.982 111.047 112.057 112.079 111.114 111.287 110.567 110.594 110.579 111.439 111.254 112.182 113.562 113.629 113.674 113.737 113.807 116.379 116.554 116.647 116.734 113.307 110.329 110.299 110.314 110.347 110.362 110.362 110.304 110.282 110.252 110.264 110.202 110.149 110.087 110.119 110.044 110.694 114.237 114.899 114.257 114.397 114.019 114.149 111.802 110.912 111.359 110.382 112.474 114.219 111.027 111.742 111.989 110.182 110.179 110.192 110.182 110.174 110.152 110.152 110.127 110.087 110.094 109.999 109.979 109.869 109.819 109.787 109.749 109.732 110.127 110.582 110.499 109.787 109.977 110.454 110.389 110.319 110.137 109.777 110.277 109.552 110.402 110.172 110.209 109.127 108.987 108.829 108.759 108.679 108.597 108.517 108.432 108.449 108.452 108.464 108.554 108.179 108.264 109.157 109.289 108.467 108.587 107.814 108.189 108.164 108.237 107.962 107.814 107.119 107.092 107.129 107.354 106.979 106.909
120.952 121.368 121.057 121.158 121.125 121.49 121.477 121.41 122.396 123.269 121.643 121.663 121.538 121.599 121.842 121.658 123.422 128.81 134.203 127.885 122.683 122.088 123.306 123.155 123.483 122.288 122.295 122.226 122.23 122.272 122.433 122.222 122.9 126.6 131.178 132.975 132.333 132.194 130.49 129.707 129.801 129.538 129.402 128.51 121.291 121.965 125.338 134.157 135.038 135.338 133.778 124.625 123.403 123.305 123.276 123.285 123.268 123.311 127.473 130.241 130.351 130.037 125.311 123.061 123.225 122.77 122.37 122.379 122.44 122.673 122.39 122.463 123.465 122.507 126.421 124.042 128.454 125.167 125.63 124.512 122.644 122.338 122.25 122.077 122.076 121.897 121.85 123.631 126.06 125.877 124.508 120.958 120.514 120.706 120.806 120.829 121.957 123.149 124.047 125.084 125.769 124.27 122.059 120.364 119.842 119.973 121.783 120.669 123.394 128.407 125.3 121.628 122.527 126.073 123.69 119.921 120.297 121.195 121.275 118.771 118.681 118.648 118.614 119.216 119.583 118.678 118.559 118.542 118.515 119.847 123.16 123 122.84 121.675 119.815 118.982 118.977 118.98 118.985 118.982 118.97 118.957 118.96 119.405 118.977 119 123.145 124.722 124.605 124.567 124.59 124.827 118.88 115.15 115.13 115.105 115.1 115.062 115.025 115.652 114.79 114.682 114.59 114.527 114.52 114.515 114.495 114.45 114.702 114.274 114.174 114.259 119.707 122.524 123.667 124.809 125.987 125.462 124.332 123.167 122.032 114.154 113.849 113.629 113.412 113.219 113.359 112.842 112.694 112.532 112.397 112.237 112.094 111.967 111.872 111.752 111.662 111.844 111.619 111.499 111.429 111.339 112.244 111.307 112.134 118.992 120.504 120.667 118.747 111.309 111.199 111.264 111.227 111.122 117.429 120.582 119.752 119.257 120.034 116.139 111.219 111.044 111.059 112.299 111.314 111.199 111.232 111.264 111.264 111.384 111.309 111.372 111.369 111.392 112.072 113.272 113.479 114.109 115.797 117.317 117.522 116.684 110.374 111.197 112.414 112.607 110.959 111.109 110.972 115.207 117.747 118.494 117.332 113.412 111.017 111.507 111.037 111.087 111.117 111.359 111.949 112.407 112.662 112.197 116.947 118.224 119.362 118.249 117.004 111.042 110.939 110.939 111.039 111.999 110.607 110.437 110.472 110.482 110.514 111.547 111.132 112.672 114.694 114.634 114.612 114.549 114.484 116.232 116.337 116.847 117.574 115.319 112.694 110.594 110.564 110.707 110.619 110.354 111.739 110.152 111.667 110.142 110.129 110.112 110.052 110.014 110.037 110.284 111.559 113.944 110.414 110.114 110.102 110.047 110.052 110.077 110.062 110.054 111.447 110.067 110.119 114.097 110.152 110.539 110.192 110.169 110.167 110.157 110.134 110.109 110.062 110.024 109.999 109.977 109.992 109.987 111.034 111.162 109.757 109.429 112.522 115.949 115.947 115.962 115.934 115.937 115.922 115.897 115.877 115.877 115.857 115.854 115.832 115.769 115.307 108.632 108.754 108.699 108.597 108.519 108.442 108.357 108.454 108.797 108.814 108.252 108.197 108.109 108.084 108.972 108.342 107.872 107.854 107.854 107.847 107.844 108.062 107.844 107.189 107.109 107.114 107.087 107.092 107.519 106.857
120.719 120.747 120.861 120.994 121.015 121.204 121.109 121.251 122.669 123.646 121.806 121.566 121.38 121.433 122.57 121.525 123.371 130.865 137.06 135.369 132.228 122.047 123.459 122.355 122.485 124.772 124.232 123.802 124.182 122.188 122.134 122.362 122.654 128.053 131.434 132.644 132.367 132.232 130.384 123.508 122.423 123.2 122.983 126.353 121.11 122.021 122.05 121.98 127.376 122.997 124.438 124.136 123.382 123.262 123.241 123.266 123.294 123.241 127.382 129.225 127.7 127.01 125.789 123.021 122.73 122.518 122.341 122.223 122.186 122.088 122.83 122.176 123.851 126.755 129.483 131.18 130.626 130.472 126.427 124.915 122.792 122.189 122.635 122.215 122.02 123.477 125.479 126.072 125.517 127.02 125.033 121.922 121.173 121.282 121.717 122.242 122.506 122.29 123.927 124.841 125.945 125.279 122.714 120.424 120.046 126.516 126.118 130.594 127.395 128.856 130.944 126.509 125.302 127.42 126.325 123.381 118.938 119.208 119.578 118.678 118.576 118.616 118.732 118.776 118.86 118.747 118.587 116.377 117.61 118.495 121.947 119.535 116.612 118.115 118.335 119.16 118.955 118.96 118.98 118.98 118.977 118.967 118.955 118.965 119.6 124.722 124.675 124.68 124.725 124.672 124.617 119.192 115.665 115.017 115.017 114.982 114.937 114.957 115.905 115.11 114.722 114.625 114.535 114.445 114.4 114.4 114.385 114.345 114.602 114.219 114.747 114.132 116.544 122.344 123.512 124.659 125.814 125.614 124.492 123.332 122.187 114.037 113.722 113.512 113.332 113.132 112.982 112.872 112.549 112.399 112.262 112.119 111.999 111.859 111.759 111.657 111.564 111.487 111.679 111.449 111.352 111.287 111.222 111.099 111.207 114.367 118.964 112.847 111.442 111.299 111.067 111.132 111.092 111.009 115.864 120.484 118.857 112.279 110.959 112.902 112.914 111.057 111.102 111.142 111.172 111.192 111.317 111.274 112.169 111.297 111.317 111.379 112.969 113.399 113.802 114.774 115.267 115.554 116.087 116.977 117.729 117.002 113.784 110.604 112.697 111.019 110.967 110.969 110.962 113.962 117.659 118.584 117.442 113.844 111.212 110.852 110.902 110.879 110.954 111.414 111.557 111.649 111.349 113.124 117.612 119.069 118.902 117.622 115.164 111.594 110.857 110.947 111.362 110.834 110.324 110.359 110.372 110.389 110.449 111.379 110.292 111.729 114.529 113.794 112.414 112.442 113.199 114.267 115.929 117.277 118.304 116.917 115.547 110.407 110.437 110.947 110.249 110.397 110.887 110.064 109.987 110.019 110.032 110.037 110.012 109.959 109.887 109.929 109.927 109.889 109.879 109.864 109.829 109.829 109.869 109.927 110.559 110.137 110.082 110.114 110.129 110.132 111.197 115.024 110.137 110.132 110.107 110.084 110.067 110.089 110.122 110.809 111.077 109.734 109.432 109.379 110.687 115.179 114.419 111.209 110.269 116.319 116.294 116.297 116.247 116.272 115.817 116.204 116.209 116.214 116.234 116.232 116.202 116.192 116.059 108.627 108.794 108.457 108.477 108.414 108.322 108.367 108.419 108.352 108.352 108.167 108.087 108.069 108.032 107.987 107.934 107.899 107.912 107.934 107.897 107.879 108.054 107.749 107.152 107.129 108.214 110.122 109.542 107.002 106.824
120.492 120.562 120.641 120.702 120.783 120.83 120.92 121.272 123.519 123.462 121.329 121.336 121.282 121.289 121.681 121.406 130.742 137.053 134.207 138.802 124.092 124.534 122.129 122.094 121.852 122.752 124.314 123.303 124.265 124.623 124.402 123.996 122.682 128.654 131.94 133.669 132.323 131.944 124.707 121.471 121.16 120.976 120.939 120.874 121.059 122.327 122.003 121.932 121.946 121.934 123.039 124.117 124.148 124.018 123.692 123.683 124.292 124.553 123.197 125.276 125.628 125.518 125.433 123.095 123.386 123.184 122.008 122.064 122.01 121.948 122.718 122.239 122.677 127.312 129.233 130.837 131.131 130.737 128.811 122.626 121.914 121.907 121.862 121.801 121.826 124.354 126.219 126.324 128.578 129.322 128.747 128.544 124.444 122.414 122.846 122.981 123.335 123.954 124.858 125.232 125.888 126.262 126.68 119.748 119.579 123.67 128.198 131.812 130.118 133.093 132.781 126.926 122.351 125.405 125.499 123.175 118.926 118.717 118.82 118.578 118.489 118.806 119.947 121.108 120.839 121.403 121.753 115.625 115.43 115.297 115.375 115.367 115.227 117.31 118.292 118.32 118.96 118.952 118.96 118.962 118.972 118.967 118.967 118.995 124.682 124.665 124.68 124.665 124.755 124.795 119.225 115.802 115.502 114.907 114.87 114.877 114.852 115.227 114.9 114.73 114.65 114.56 114.457 114.357 114.287 114.302 114.285 114.247 114.189 114.102 115.409 113.982 115.287 122.197 123.352 124.519 125.667 125.769 124.632 123.492 122.324 115.064 113.624 113.412 113.234 113.019 112.822 112.892 112.754 112.262 112.109 111.974 111.889 111.782 111.687 111.592 111.474 111.407 111.344 111.532 111.294 111.207 111.144 111.052 110.942 111.007 111.554 111.562 111.544 111.099 110.927 110.979 110.954 110.879 111.734 110.904 111.124 112.124 111.332 111.002 111.054 111.084 111.112 111.304 111.839 111.637 111.612 111.192 111.262 111.797 113.322 113.594 114.294 115.299 115.402 115.729 116.062 116.422 116.824 117.232 117.579 117.322 116.482 110.392 111.842 111.057 110.972 110.969 110.942 116.427 117.174 115.994 110.904 110.942 110.754 111.704 110.784 110.739 110.794 110.882 111.772 110.962 110.989 117.017 118.272 119.367 118.237 116.987 113.952 112.819 110.839 111.382 111.607 110.252 110.254 110.389 110.409 110.289 110.374 111.427 110.244 111.779 114.452 113.859 110.262 110.242 110.214 112.854 115.904 117.229 118.307 116.929 113.984 110.142 110.424 110.124 110.174 110.242 111.492 110.194 109.864 109.894 109.934 109.959 109.959 109.929 109.872 109.824 109.784 109.772 109.797 109.824 109.839 109.884 109.947 109.982 110.024 110.039 110.069 110.074 110.094 110.092 110.069 110.069 110.084 110.132 110.172 110.929 111.934 111.379 110.094 109.722 110.109 109.242 109.152 109.934 115.342 118.437 118.089 112.702 109.184 112.507 112.564 113.139 112.479 114.042 112.704 112.849 113.927 112.832 113.224 114.572 113.444 113.994 111.004 108.599 108.962 108.887 108.364 108.269 108.194 108.459 108.287 108.227 108.229 108.069 108.022 108.067 108.032 108.009 107.932 107.939 107.982 108.004 108.204 107.872 108.632 107.187 107.187 107.169 107.652 107.547 111.279 106.982 106.807
120.327 120.471 120.832 122.298 120.742 121.405 122.111 123.479 123.995 123.502 121.211 121.67 121.095 121.243 121.192 121.696 126.414 135.078 135.56 138.114 128.976 123.361 123.993 123.995 123.741 124.085 123.966 123.952 124.273 124.573 124.479 123.6 122.856 128.708 131.883 132.32 132.323 131.715 124.326 120.915 120.982 120.947 121.167 121.074 121.24 125.109 124.292 123.228 123.691 123.356 122.072 121.941 121.932 121.869 122.406 122.545 123.748 122.678 123.914 123.391 123.358 123.821 123.248 123.734 122.971 123.137 121.85 121.847 121.834 121.726 121.824 122.1 122.343 126.99 129.039 130.793 131.076 131.226 128.461 122.076 122.582 121.948 122.957 122.679 123.239 123.095 125.159 124.206 128.899 129.779 128.727 128.201 125.449 123.413 123.758 126.232 125.254 125.771 126.38 126.725 127.045 127.15 127.045 120.969 119.521 119.547 125.723 131.603 131.777 134.519 127.32 120.132 119.081 121.279 122.116 119.279 119.1 118.588 119.358 118.484 118.377 118.71 120.626 121.725 121.756 121.756 121.761 117.833 115.46 116.072 117.6 118.79 118.397 119.077 118.99 118.967 118.967 118.957 118.96 118.972 119.757 122.595 124.245 124.74 124.7 124.665 124.68 124.697 124.117 118.072 114.857 114.82 114.782 114.762 114.752 114.75 115.722 115.62 114.695 114.635 114.555 114.462 115.09 115.602 114.84 114.19 114.21 114.145 114.084 114.007 114.137 113.822 114.439 122.057 123.204 124.352 125.494 125.922 124.784 123.637 122.489 115.992 113.539 113.312 113.114 112.927 112.739 112.549 112.724 112.474 111.974 114.409 113.547 111.724 111.629 111.534 111.434 111.334 111.264 111.209 111.352 111.142 111.067 110.992 110.904 111.072 110.937 111.429 111.447 110.932 110.792 110.834 110.817 110.759 110.737 110.767 110.944 110.917 110.964 111.007 111.019 111.034 111.334 111.677 111.089 111.149 111.714 111.092 110.242 110.224 113.837 116.569 115.629 115.927 116.239 116.589 116.972 117.354 117.679 117.559 117.242 117.632 116.799 111.069 111.509 110.732 110.687 110.667 110.689 116.352 117.234 113.384 111.507 110.717 110.764 110.592 110.659 110.624 110.642 110.807 110.869 110.807 112.207 117.712 118.954 118.842 117.572 114.442 111.952 111.082 110.999 111.217 110.289 110.374 110.274 110.312 110.292 110.207 110.279 111.957 110.269 111.652 114.372 113.942 110.412 110.222 110.182 112.167 115.867 117.207 118.502 116.947 113.719 109.909 110.007 110.234 110.177 110.152 110.434 110.189 109.724 109.767 109.809 109.832 109.847 109.852 109.844 109.824 109.817 109.824 109.834 109.869 109.889 109.904 109.949 111.282 114.369 110.002 110.012 110.004 110.044 110.107 110.502 111.374 111.422 110.727 109.622 109.577 109.504 109.369 109.239 110.524 109.387 109.399 108.847 110.564 113.659 116.762 116.429 112.554 108.757 108.629 108.687 108.369 108.282 108.267 108.244 108.234 108.257 108.299 109.032 108.369 108.332 110.509 110.632 110.672 108.447 108.384 108.259 108.129 108.109 108.804 108.114 108.074 108.329 108.077 108.174 108.122 108.679 108.499 107.954 108.049 108.059 109.394 108.037 107.917 107.952 108.362 108.574 110.249 107.229 107.179 107.194 107.124 106.827
121.781 120.654 123.027 125.12 125.848 122.36 122.516 124.623 125.021 124.427 121.088 120.887 120.962 121.873 121.403 121.208 126.659 132.656 132.473 132.073 127.339 121.137 121.081 121.091 121.657 121.88 121.828 121.812 121.725 122.198 123.629 123.914 122.864 127.747 132.055 133.764 132.326 131.476 124.33 120.962 120.977 120.901 120.872 120.908 121.618 127.615 127.291 127.434 127.075 126.421 123.447 121.916 121.905 121.914 121.911 121.853 121.824 121.803 121.839 121.79 122.265 122.533 122.674 123.126 123.588 122.996 121.707 121.659 121.62 122.068 121.712 122.621 122.126 125.324 128.764 130.749 131.441 131.175 128.993 123.712 122.21 122.099 121.692 121.492 121.346 121.313 121.408 121.481 128.931 130.353 128.397 122.082 125.14 125.641 125.747 126.329 126.791 126.978 127.952 126.83 126.654 126.095 122.392 119.131 119.292 119.177 122.007 128.315 130.527 125.182 118.708 118.696 118.69 118.646 118.582 118.538 118.555 118.47 118.376 118.629 118.261 118.359 120.597 121.789 121.838 121.459 120.404 119.729 119.248 119.257 119.257 119.125 119.13 119.29 118.975 120.087 124.572 118.985 120.967 124.615 124.702 124.737 124.762 124.735 124.712 124.69 124.6 121.61 117.945 114.745 114.735 114.69 114.637 114.625 114.63 114.825 114.832 114.632 114.61 114.54 114.46 114.352 114.252 114.157 114.075 114.092 114.612 114.167 113.977 113.917 113.799 113.699 113.809 121.922 123.037 124.189 125.354 126.062 124.952 123.799 122.652 117.657 113.527 113.222 113.037 112.842 112.662 112.462 112.272 112.234 112.244 114.652 112.617 111.679 111.614 111.489 111.402 111.297 111.204 112.074 112.282 111.084 110.984 110.932 110.862 111.009 111.589 110.962 111.847 110.759 110.662 110.692 110.694 110.654 110.684 110.747 110.817 110.859 111.082 110.927 110.929 110.959 111.029 111.147 111.319 110.249 110.197 110.142 115.692 117.149 117.662 116.829 116.582 116.862 117.212 117.757 117.577 117.232 116.887 116.597 116.869 115.859 111.022 110.197 112.442 110.567 110.567 110.577 110.639 110.839 110.952 111.774 110.512 114.577 116.254 114.539 111.974 110.512 110.519 110.502 110.792 110.667 116.819 118.092 119.279 118.207 116.922 111.277 111.314 110.559 111.069 111.212 110.554 110.277 110.229 110.257 110.104 110.109 110.232 111.632 110.179 111.532 114.284 113.997 110.242 110.204 112.647 114.964 115.857 117.162 118.289 117.234 115.692 109.909 110.039 110.094 110.359 110.074 110.517 111.104 109.607 109.654 109.699 109.727 109.737 109.754 109.774 109.784 109.767 109.807 109.817 109.837 109.862 109.879 109.884 109.912 111.612 111.294 111.219 111.322 113.297 110.444 109.662 110.147 109.582 109.557 109.537 109.494 109.974 109.139 108.942 108.809 108.684 108.574 108.504 108.499 109.184 114.087 111.479 108.677 108.599 108.504 108.392 108.307 108.279 108.264 108.222 108.607 108.244 108.292 108.562 108.357 109.337 110.402 110.604 110.649 109.127 109.489 108.322 108.044 108.019 108.359 111.667 113.517 113.534 113.534 113.549 113.569 113.567 113.574 113.597 113.607 113.619 113.624 113.639 113.639 108.099 112.679 112.879 112.957 113.117 112.722 108.412 107.634 106.799
122.169 122.263 124.045 125.223 125.167 124.765 123.384 124.88 125.106 124.274 121.145 120.758 120.826 121.584 124.236 126.304 129.841 127.356 124.226 122.68 121.164 121.241 121.317 121.218 121.608 121.156 121.034 120.966 121.059 123.137 120.95 121.744 121.002 129.22 131.975 132.468 132.268 131.618 123.213 121.966 120.992 120.893 120.901 121.009 122.867 128.253 128.307 128.382 128.449 128.209 124.812 121.977 122.361 121.994 121.951 121.866 121.838 121.934 121.911 121.779 121.76 121.696 121.628 121.871 122.601 121.739 121.501 121.423 121.464 122.367 122.318 123.153 122.763 124.599 128.626 130.423 131.373 130.374 128.823 122.834 121.607 121.551 121.376 121.355 121.248 122.261 121.216 121.094 125.579 128.041 127.592 121.123 124.26 126.86 126.843 127.06 126.663 126.351 126.156 125.724 122.645 123.042 119.556 119.155 119.096 119.005 118.91 124.088 122.862 122.627 119.59 118.549 118.541 118.445 118.444 119.086 121.066 121.797 118.827 118.758 118.158 117.832 119.692 119.752 119.726 119.534 119.439 120.44 120.597 119.862 123.997 120.955 124.797 124.755 124.637 124.582 124.595 124.622 124.622 124.64 124.71 124.73 124.752 124.752 124.737 124.792 117.642 114.672 114.635 114.62 114.605 114.565 114.507 114.492 115.407 114.85 114.54 114.522 114.51 114.457 114.365 114.395 114.305 114.175 114.025 113.972 113.952 114.085 113.869 113.807 113.709 113.587 113.674 121.717 122.884 124.042 125.192 126.152 125.099 123.949 122.792 119.932 113.449 113.224 112.944 112.767 112.587 112.394 112.204 112.019 111.859 111.784 111.707 111.629 111.557 111.467 111.374 111.269 111.167 111.087 111.022 110.979 110.929 110.837 110.799 110.724 110.822 110.542 110.674 110.614 110.549 110.559 110.572 110.544 110.589 110.759 110.729 112.679 111.367 110.899 110.954 111.222 110.549 110.154 110.587 113.617 118.977 110.147 111.104 116.824 117.762 117.239 117.564 117.669 117.352 116.954 116.602 116.259 115.924 115.632 113.349 110.212 110.179 111.332 111.837 110.469 110.472 110.462 111.109 111.097 110.342 110.382 110.467 117.614 117.379 117.057 116.694 116.319 114.644 110.414 111.209 112.237 117.432 118.734 118.569 117.287 111.592 111.424 110.817 110.634 110.882 111.612 110.022 110.214 110.149 110.179 110.017 110.054 110.242 110.274 110.164 110.809 114.219 114.052 110.399 110.209 114.077 116.634 116.052 117.169 118.319 116.984 115.189 110.217 109.949 109.989 110.317 114.042 110.087 110.202 109.467 109.527 109.582 109.609 109.619 109.657 109.704 109.727 109.737 109.752 109.757 110.412 110.017 110.867 112.002 111.342 110.749 110.594 110.394 109.804 109.584 109.532 109.479 109.429 109.469 109.444 109.322 109.584 110.514 109.799 108.629 108.454 108.344 108.382 108.427 108.459 108.482 111.619 115.204 113.127 108.517 108.429 108.342 108.259 108.189 108.164 108.179 108.214 108.227 108.362 108.282 108.259 108.269 110.567 110.569 110.637 109.409 108.319 108.149 107.989 107.964 108.844 112.492 114.397 114.399 114.412 114.412 114.432 114.437 114.459 114.474 114.627 114.494 114.494 114.489 114.569 107.539 112.837 113.979 114.342 114.449 113.372 108.914 107.524 107.077
119.958 120.103 123.844 123.301 121.461 122.829 120.975 121.089 121.275 120.644 120.666 120.588 120.668 120.848 126.213 130.425 131.659 129.851 124.416 121.886 121.075 121.118 121.166 121.205 121.142 121.059 124.717 122.009 128.712 128.872 126.371 123.139 125.679 130.502 132.214 132.378 131.034 130.839 123.702 122.644 123.963 122.485 121.352 120.98 125.439 127.078 127.232 127.543 127.702 128.003 125.272 122.051 122.613 123.217 125.614 127.214 128.972 127.551 127.905 123.021 121.787 121.676 121.63 121.578 121.539 121.478 121.374 121.289 121.283 121.216 121.282 122.413 121.821 124.032 127.885 129.752 130.842 130.299 128.991 125.354 124.824 121.97 121.413 121.55 121.399 122.975 121.445 121.039 121.131 123.336 122.963 121.256 123.248 126.619 126.234 125.606 123.447 119.858 121.203 119.328 119.379 119.146 119.106 120.179 119.174 118.944 121.493 120.49 122.976 123.91 119.303 120.393 118.416 118.347 118.361 118.304 119.596 123.235 122.729 120.535 118.015 117.547 118.344 121.514 123.633 124.805 124.733 125.846 125.158 124.985 124.992 125.012 124.79 124.78 124.787 124.59 124.602 124.64 124.662 124.66 124.72 124.742 124.77 124.799 124.815 117.905 114.605 114.56 114.525 114.49 114.457 114.44 114.382 115.345 114.455 114.46 114.445 114.437 114.385 114.34 114.422 114.46 114.357 114.155 114.03 113.865 113.84 113.805 113.764 113.717 113.627 113.517 113.514 120.874 122.724 123.889 125.047 126.169 125.239 124.099 122.719 120.279 113.352 113.237 112.962 112.714 112.507 112.342 112.152 111.974 111.837 111.744 111.677 111.592 111.512 111.434 111.347 111.252 111.164 111.077 111.007 110.924 110.854 110.794 110.694 110.682 110.632 110.522 110.379 110.452 110.397 110.434 110.449 110.412 111.339 111.394 110.637 110.744 111.057 111.149 110.147 109.987 110.032 117.932 120.717 121.052 120.874 110.139 110.154 116.497 117.312 117.534 117.164 116.532 116.394 116.017 115.694 115.389 115.387 110.734 110.144 110.149 110.147 110.294 111.404 111.147 110.419 110.764 110.249 110.262 110.297 110.847 113.944 117.619 117.964 118.139 117.842 117.467 117.122 110.372 112.094 113.967 114.189 112.507 117.692 115.972 110.489 110.297 110.302 110.287 110.352 110.482 110.227 109.879 110.044 109.919 109.952 110.089 110.259 110.234 110.142 110.732 114.159 114.132 110.474 110.182 112.632 117.607 117.614 117.657 118.247 116.934 115.972 111.897 109.999 109.944 110.484 117.882 111.762 109.257 109.352 109.412 109.462 109.474 109.509 109.554 109.627 109.654 109.642 109.649 109.654 111.839 110.034 109.979 109.999 110.127 110.047 109.847 109.739 109.662 109.554 109.459 109.314 109.204 109.742 109.717 110.519 109.574 111.594 110.342 108.362 108.319 108.344 108.362 108.379 108.397 109.429 115.169 115.539 113.394 108.437 108.389 108.299 108.187 108.067 108.052 108.107 108.169 108.179 108.212 108.237 108.217 108.472 109.744 110.529 110.604 109.942 108.282 108.102 107.939 107.902 108.082 112.584 115.254 115.289 115.289 115.289 115.312 115.314 115.349 115.344 115.367 115.349 115.377 115.369 115.234 107.554 112.372 112.739 115.022 115.564 115.562 108.224 112.817 112.849
119.949 120.049 120.103 122.137 129.89 129.834 128.473 122.244 120.675 120.534 120.473 120.455 120.473 121.537 130.342 132.813 134.686 132.711 130.592 122.361 120.908 120.942 121.05 121.073 121.019 120.867 125.764 129.68 129.707 131.093 129.627 128.562 128.489 130.103 130.882 128.606 124.994 122.597 121.172 120.956 120.784 121.405 120.928 120.878 120.954 121.883 121.964 125.034 126.044 126.121 126.439 122.069 122.027 121.899 125.916 128.472 129.638 129.323 128.186 125.601 121.865 121.704 121.668 121.612 121.53 121.509 121.904 121.104 121.098 120.986 120.972 121.618 121.675 122.354 127.21 129.232 129.499 129.044 128.868 127.894 125.02 122.484 122.419 123.381 123.338 123.284 121.104 121.312 121.184 121.248 123.209 120.782 125.151 126.842 126.073 124.736 120.51 119.305 119.563 119.244 119.153 119.165 120.293 119.964 119.373 119.131 123.963 124.051 124.391 127.947 125.343 119.059 118.154 118.225 118.216 118.142 118.579 125.017 125.185 123.941 119.674 117.29 117.773 125.22 125.51 126.026 125.609 125.083 125.122 125.043 125.039 125.052 124.845 124.812 124.807 124.617 124.627 124.667 124.7 124.69 124.745 124.17 122.24 117.595 114.942 114.62 115.93 114.467 114.412 114.36 114.352 114.487 115.215 114.4 114.37 114.37 114.37 114.332 114.29 114.375 114.572 114.575 114.477 114.18 113.917 113.75 113.712 113.695 113.667 113.614 113.542 113.437 113.369 119.829 122.334 123.077 123.792 122.539 119.762 112.809 112.007 111.902 112.494 112.949 113.147 112.737 112.584 112.409 112.154 111.994 111.902 111.784 111.679 111.609 111.482 111.399 111.319 111.237 111.149 111.069 110.992 110.917 110.847 110.787 110.664 110.589 110.559 110.472 110.364 110.299 110.292 110.304 110.294 110.262 110.357 110.502 111.002 110.649 109.982 109.967 111.662 120.507 120.779 121.097 121.437 121.797 121.187 118.679 110.109 114.144 116.982 117.697 116.974 116.027 115.512 115.187 112.674 110.134 110.162 110.152 110.154 110.137 110.109 110.207 111.184 110.914 110.219 110.159 110.177 110.227 110.269 110.597 114.964 116.482 116.814 117.494 117.517 117.882 117.044 110.344 111.232 113.924 113.919 113.689 111.179 110.799 110.404 110.804 110.527 110.734 112.812 110.007 109.812 111.529 109.849 109.877 109.954 110.179 110.139 110.164 110.134 110.094 114.092 114.199 111.079 110.127 111.727 117.364 117.254 117.139 118.307 116.999 115.597 111.527 109.977 110.047 110.147 115.774 109.372 109.214 109.282 109.314 109.339 109.359 117.459 110.364 109.487 109.549 109.549 109.507 109.579 109.812 111.889 109.859 110.187 110.019 109.887 109.574 109.602 109.547 109.492 109.299 109.117 108.982 108.874 109.199 109.117 108.444 108.407 108.384 108.347 108.317 108.332 108.329 109.292 108.349 108.404 114.952 115.969 116.189 108.632 108.337 108.282 108.164 108.054 108.019 108.062 108.134 108.142 108.174 108.182 108.812 108.454 109.457 109.882 110.389 110.244 108.139 108.062 107.872 107.829 107.992 113.012 115.599 115.369 115.039 114.999 115.009 114.994 114.989 114.977 114.979 114.947 114.962 114.927 114.867 107.842 107.484 108.407 114.142 114.454 115.139 107.244 114.277 114.177
120.18 120.338 120.61 130.534 131.198 133.276 131.654 128.106 121.366 120.497 120.429 120.261 120.36 122.918 128.715 130.77 134.323 132.133 129.914 122.36 120.69 120.753 120.794 120.879 120.845 120.728 127.105 128.93 130.012 130.61 131.187 129.792 129.73 129.804 129.91 131.113 130.459 130.243 126.991 127.304 126.917 126.32 126.742 122.25 121.047 121.249 121.886 124.887 125.637 125.022 123.652 121.869 121.939 121.939 126.355 128.46 129.669 129.396 128.19 124.514 121.796 121.713 121.678 121.618 121.602 121.548 123.217 121.247 120.92 120.874 120.839 121.249 121.582 121.664 126.498 128.032 126.991 124.525 123.461 122.867 122.622 121.526 121.284 123.067 122.408 122.347 121.238 120.593 119.649 120.653 122.835 124.82 125.907 125.963 126.29 122.171 120.756 126.677 131.035 124.41 119.19 118.902 119.283 120.802 121.502 119.518 121.274 124.039 125.733 131.731 130.205 121.309 118.899 118.008 117.961 117.898 118.908 125.35 124.983 124.454 121.647 117.191 117.101 123.98 125.81 126.988 125.339 125.209 125.137 125.165 125.092 125.131 125.08 124.867 122.485 124.152 120.41 118.345 120.827 119.555 117.585 115.622 115.21 115.292 114.645 114.615 114.69 114.367 114.29 114.352 114.482 115.34 114.282 114.302 114.312 114.305 114.257 114.242 114.335 114.602 114.6 114.52 114.365 114.11 113.817 113.702 113.61 113.602 113.572 113.537 113.447 113.349 113.227 114.469 121.512 122.649 123.637 122.574 119.624 113.737 111.987 111.879 113.534 117.917 114.772 115.107 115.179 115.432 116.239 115.689 114.804 115.442 112.812 111.234 111.257 111.287 111.157 111.154 111.049 111.044 110.952 110.919 110.892 110.782 110.729 110.637 110.467 110.397 110.314 110.254 110.204 110.177 110.339 110.139 110.394 110.402 109.982 109.969 113.369 120.574 120.902 121.187 121.504 121.844 122.222 122.304 121.519 120.762 110.329 110.157 116.677 112.322 110.357 112.369 110.367 111.269 110.199 110.199 110.194 110.179 110.162 110.127 110.087 110.147 110.999 111.412 110.457 110.079 110.067 110.047 110.029 110.277 110.322 110.872 113.374 114.484 116.204 116.717 111.267 110.314 110.627 112.497 111.927 111.119 110.224 110.134 110.324 110.832 110.392 112.644 112.104 109.902 110.754 109.807 109.809 109.849 110.067 110.174 110.154 110.117 110.114 110.067 110.317 110.112 110.102 110.087 112.817 117.344 117.277 113.314 110.852 111.544 109.937 109.959 110.064 110.164 110.259 109.074 109.124 109.147 109.182 110.527 111.769 118.142 116.794 109.527 109.477 109.404 109.442 109.409 109.447 110.294 109.939 112.519 109.694 109.692 109.624 109.507 109.474 109.419 109.297 109.154 109.042 108.957 108.849 108.652 108.497 108.377 108.327 108.317 108.294 108.234 116.639 116.989 116.577 115.689 116.627 116.619 117.372 117.542 112.517 108.277 108.224 108.197 108.152 108.094 108.084 108.122 108.129 108.114 108.102 108.097 108.104 108.964 110.209 110.379 110.459 108.154 108.029 107.857 107.794 107.929 111.007 114.164 114.154 114.152 114.124 114.122 114.114 114.119 114.102 114.102 114.072 114.079 114.049 113.964 108.382 107.864 107.362 112.509 113.022 113.174 107.049 114.984 115.092
122.362 121.315 123.777 128.979 131.513 133.351 130.752 128.025 122.908 120.355 120.226 120.184 120.267 124.172 131.652 134.327 134.906 132.878 123.505 121.202 120.57 120.625 120.722 120.75 120.722 120.551 122.574 128.327 130.041 131.164 131.747 131.166 130.885 130.686 130.757 131.299 131.666 130.834 128.733 127.514 128.478 128.69 128.394 125.276 123.462 122.676 123.114 124.537 123.22 125.137 123.083 121.814 121.893 121.873 125.745 128.476 129.588 129.522 128.267 125.907 121.778 121.697 121.677 121.625 121.558 121.501 123.222 121.112 120.641 120.672 120.595 120.562 120.925 121.276 122.706 123.174 122.486 121.738 121.551 121.39 121.351 121.056 120.818 120.527 120.231 119.8 119.717 119.694 119.361 120.561 121.039 119.598 123.989 125.069 125.826 126.253 125.144 124.774 132.064 130.727 120.87 118.732 118.765 120.837 121.547 120.189 121.448 121.754 127.895 128.292 127.918 125.004 117.984 117.879 117.817 117.827 118.06 123.923 123.856 123.432 119.987 117.335 116.508 119.199 126.24 126.147 125.026 125.395 123.985 121.369 123.182 118.77 118.785 117.642 118.037 118.39 118.247 115.53 115.66 114.865 116.227 114.685 114.675 114.71 115.42 114.597 114.465 114.317 114.26 115.185 114.207 114.237 114.25 114.27 114.237 114.195 114.207 114.287 114.485 114.582 114.53 114.422 114.292 114.032 113.772 113.892 113.51 113.495 113.477 113.429 113.362 113.259 113.147 113.089 120.139 122.472 123.592 120.967 120.014 118.962 111.992 111.869 114.124 119.049 119.067 119.064 119.074 119.069 119.077 119.074 119.087 119.102 115.137 114.482 114.617 114.599 114.642 114.622 114.609 114.617 114.592 114.602 114.599 114.599 114.572 110.644 110.504 110.327 110.254 110.192 110.147 110.099 110.064 109.992 110.389 111.144 119.342 120.664 120.964 121.307 121.652 121.964 122.289 122.634 122.439 122.117 121.779 121.072 115.909 110.059 110.017 110.019 110.077 110.127 110.804 110.177 110.199 110.187 110.167 110.157 110.137 110.109 110.072 110.117 112.217 112.384 110.099 110.009 109.974 109.889 109.822 109.774 110.017 110.319 110.472 110.234 110.497 110.339 110.547 110.089 113.094 111.864 110.994 111.404 110.437 110.309 110.484 112.687 111.894 113.192 110.507 109.664 109.727 109.764 109.762 109.944 110.179 110.139 110.112 110.102 110.104 110.049 110.032 110.052 110.054 110.022 109.984 112.972 112.909 109.997 110.117 110.134 110.097 110.147 118.467 117.124 108.974 109.012 109.059 109.069 109.059 109.204 116.162 116.989 111.552 109.572 109.429 109.367 109.312 109.319 109.289 109.667 109.729 110.599 109.919 110.247 109.439 109.357 109.272 109.289 109.192 109.057 108.984 108.932 108.869 108.712 113.277 109.179 108.239 108.269 108.244 108.167 115.187 117.734 117.237 116.454 117.194 116.674 117.372 117.529 116.124 108.222 108.169 108.144 108.144 108.142 108.099 108.102 108.109 108.077 108.069 108.287 108.799 108.427 109.969 110.337 110.447 108.187 108.004 107.842 107.762 107.857 110.542 110.982 110.674 110.282 110.969 110.754 111.262 111.037 111.207 110.564 110.474 109.684 108.867 109.189 107.747 107.819 107.297 107.317 108.269 109.852 106.994 114.534 114.267
122.654 120.332 120.474 121.715 129.079 131.002 130.668 127.861 122.797 121.152 120.087 120.021 120.133 124.001 125.077 134.781 135.616 131.757 124.503 120.656 120.335 120.436 120.578 120.568 120.524 120.464 126.004 129.17 129.99 130.911 131.026 131.037 131.071 131.109 131.112 131.246 131.763 130.729 128.488 127.51 127.796 128.807 128.338 124.941 122.022 123.304 123.938 124.6 123.125 125.212 123.83 121.796 121.793 121.78 125.609 128.403 129.508 129.456 128.228 123.506 121.789 121.768 121.862 122.3 122.231 121.584 123.419 122.431 120.529 120.55 120.463 120.466 120.757 121.097 122.117 122.37 122.692 122.33 124.263 122.12 122.11 120.377 121.603 120.238 119.963 119.711 119.597 119.526 119.408 119.534 121.29 120.077 119.948 120.805 120.325 121.918 126.65 129.87 133.001 133.11 121.354 118.633 118.7 119.551 119.648 119.405 119.222 121.68 125.092 127.791 127.447 124.404 118.646 118.375 117.714 117.65 117.567 117.45 118.871 118.419 117.303 117.452 116.219 116.884 122.9 120.699 119.28 118.851 116.931 116.957 115.869 115.344 115.257 117 117.992 118.317 118.287 116.822 117.302 114.822 115.06 114.695 114.627 114.55 115.322 114.447 114.32 114.275 114.275 114.257 114.222 114.232 114.235 114.2 114.137 114.142 114.237 114.477 114.495 114.495 114.41 114.307 114.177 113.972 113.712 113.525 113.412 113.387 113.372 113.342 113.264 113.174 113.057 112.977 117.257 122.242 122.599 121.162 120.202 119.524 112.949 111.869 114.174 120.204 120.214 120.232 120.224 120.234 120.229 120.242 120.232 120.247 117.167 114.552 115.892 116.094 116.087 116.107 116.102 116.094 116.084 116.084 116.164 115.947 114.594 110.664 110.527 110.392 110.189 110.137 110.079 110.017 110.267 109.882 110.399 116.507 120.882 121.394 121.704 122.109 122.459 122.597 122.257 121.889 121.602 121.299 121.019 120.712 119.889 109.812 109.844 109.919 109.992 110.079 110.114 110.127 110.144 110.159 110.132 110.109 110.104 110.142 110.339 110.167 110.839 111.787 110.037 109.969 109.922 109.834 109.762 110.587 110.579 109.747 110.942 109.747 109.714 109.754 110.169 112.174 111.259 111.939 111.907 109.637 111.242 111.139 111.777 113.742 112.192 110.092 109.604 109.629 109.694 109.707 109.839 110.142 110.139 110.124 110.104 110.099 110.079 110.062 110.017 110.004 110.002 109.989 110.449 109.974 110.029 110.092 110.147 110.142 110.279 110.364 116.424 115.589 108.919 108.954 108.922 109.014 109.747 109.899 109.874 110.917 109.854 109.467 109.342 109.277 109.197 109.214 109.179 109.252 109.374 110.194 115.107 115.264 110.769 109.237 109.182 109.192 109.109 108.982 108.929 108.872 108.899 110.102 116.789 116.502 108.312 108.222 108.192 108.107 112.479 117.322 117.537 116.412 117.042 116.672 116.872 116.839 116.464 108.227 108.122 107.987 108.114 111.192 110.104 108.104 108.074 108.077 108.077 108.087 108.094 108.139 109.519 110.284 110.397 108.952 107.942 107.794 107.729 107.742 107.837 107.762 107.749 107.714 107.659 107.612 107.689 107.697 108.344 107.719 107.724 107.787 107.682 107.674 107.849 107.694 107.339 107.444 107.687 108.504 106.914 111.257 112.189
125.936 126.786 128.155 126.604 129.007 123.985 120.065 120.118 121.365 120.591 119.928 119.836 119.938 120.061 128.253 133.174 132.919 124.94 123.797 120.601 120.153 120.291 120.353 120.387 120.388 120.372 125.835 128.711 129.876 130.652 130.155 130.221 130.277 130.253 130.58 131.439 131.67 130.69 128.234 127.824 128.037 128.669 128.189 124.899 123.817 123.599 123.869 124.334 125.449 126.478 125.418 123.929 121.892 121.63 125.639 128.385 129.585 129.478 128.389 123.594 122.469 122.435 122.541 122.473 122.502 121.673 122.913 122.842 120.38 120.28 120.268 120.189 120.333 120.33 120.533 122.77 122.699 122.201 126.356 123.895 122.409 122.566 121.783 120.263 119.832 119.699 119.49 119.333 119.284 119.173 119.595 119.049 119.231 119.249 119.379 120.1 130.3 123.562 128.247 127.872 120.655 118.526 118.415 118.45 118.311 118.325 118.28 123.125 123.826 124.804 121.109 124.928 119.026 117.598 117.571 117.505 117.437 117.286 117.197 121.122 122.052 119.246 116.517 115.899 115.957 118.317 117.069 118.167 116.98 116.581 116.938 115.35 115.259 115.648 117.947 118.257 118.362 118.032 117.735 114.875 114.747 114.675 114.595 114.512 114.432 114.327 115.065 114.975 114.202 114.21 114.23 114.215 114.167 114.095 114.01 114.082 114.332 114.465 114.427 114.337 115.172 115.52 114.017 113.85 113.572 113.422 113.327 113.292 113.264 113.239 113.184 113.097 112.992 112.857 113.402 121.767 119.887 120.789 120.832 119.952 118.099 111.862 115.089 119.872 121.367 121.382 121.369 121.382 121.382 121.382 121.379 121.392 118.414 116.117 116.187 117.567 117.767 117.767 117.767 117.764 117.764 117.752 117.604 116.109 114.624 110.694 110.752 110.354 110.267 110.062 110.027 109.962 109.852 109.772 109.817 110.864 121.257 121.464 122.092 122.574 122.187 121.832 121.454 121.119 120.837 120.559 117.962 110.087 109.679 109.692 109.779 109.847 109.929 109.994 110.039 110.084 110.119 110.132 110.119 110.089 110.077 110.194 110.579 110.164 111.147 111.212 109.947 110.464 111.992 109.987 109.737 110.257 110.064 109.754 109.737 109.712 109.657 109.642 110.704 112.402 111.259 111.837 111.812 109.584 109.399 109.397 110.639 112.322 109.492 109.482 109.544 109.614 109.649 109.772 110.079 110.154 110.142 110.122 110.112 110.094 110.059 110.027 109.974 109.969 109.979 109.974 109.914 109.939 110.002 110.052 110.092 110.222 110.669 109.082 108.764 108.832 108.847 108.812 109.232 109.902 109.579 109.474 110.619 109.372 109.377 109.357 109.367 109.177 109.139 109.072 109.089 109.074 109.472 115.034 114.142 115.124 112.887 109.127 109.124 109.079 109.039 108.954 108.834 108.717 109.794 115.729 118.264 117.192 109.562 108.152 108.152 108.077 109.549 117.072 118.899 116.617 116.837 116.907 116.614 117.654 117.039 114.247 116.349 116.592 116.849 117.097 115.079 108.094 108.049 108.052 108.047 108.079 108.089 108.154 109.477 110.042 110.159 110.167 108.817 107.782 107.679 107.644 107.912 107.732 107.742 107.752 107.697 107.642 107.652 107.694 108.192 107.637 107.664 107.802 107.637 107.609 107.759 107.642 107.437 107.297 107.242 107.257 106.989 107.967 106.814
