ncols 427
nrows 32
xllcorner    430060
yllcorner    434840
cellsize     2
NODATA_value -9999
57.677 62.802 63.32 63.785 59.355 56.662 56.362 56.265 55.742 55.172 54.602 53.937 58.84 59.682 60.362 59.652 58.597 53.402 53.23 52.487 51.742 51.872 51.722 51.682 51.677 51.53 51.235 50.712 50.495 50.487 55.992 56.655 55.907 50.355 50.085 50.242 49.027 49.22 48.832 48.82 48.807 48.827 49.377 51.255 51.295 48.862 48.112 47.78 47.927 47.762 49.405 51.877 53.44 53.392 52.87 52.197 46.942 46.8 46.595 46.232 46.06 45.915 45.77 45.737 49.135 45.325 45.045 44.877 44.665 45.995 50.18 50.665 50.37 45.672 44.54 44.712 44.752 44.7 44.8 44.99 44.8 44.687 44.73 44.71 44.647 44.585 44.61 44.57 44.5 44.357 44.15 43.98 43.845 43.65 43.567 43.575 43.63 43.577 43.197 42.72 48.112 48.837 49.28 48.677 46.417 42.692 42.587 42.475 42.405 42.08 41.802 41.727 41.642 42.34 43.187 43.252 42.91 41.077 40.97 41.627 40.689 40.554 40.399 40.264 40.154 40.052 40.117 42.204 40.302 40.257 39.322 44.502 45.142 45.602 44.999 43.924 39.107 38.987 38.977 38.694 38.254 38.002 37.849 37.992 42.794 40.882 37.759 37.747 40.002 43.352 44.012 44.002 43.349 38.324 37.769 37.572 38.492 37.362 37.292 37.264 37.214 37.137 37.069 37.884 37.022 37.837 39.464 37.509 37.232 37.239 37.207 37.399 38.739 42.439 42.947 43.424 43.072 42.544 41.489 38.687 36.697 36.554 36.257 36.184 36.139 36.062 35.974 35.789 35.737 35.697 35.669 35.674 35.677 35.649 35.652 35.634 35.592 35.942 35.629 35.587 35.594 35.722 35.749 35.797 35.604 35.637 43.522 43.669 43.819 43.979 44.129 44.297 44.464 44.607 44.484 44.327 44.179 36.597 35.624 35.532 35.332 35.494 35.477 35.384 35.429 35.487 35.522 35.557 35.612 35.609 35.629 35.612 35.742 35.859 40.814 42.057 42.184 41.867 35.607 35.517 35.439 35.382 35.327 35.274 35.204 35.239 35.719 35.072 34.967 34.524 31.879 31.389 32.484 36.574 36.697 36.852 36.849 36.969 37.049 41.119 41.602 42.084 42.507 42.877 43.192 43.447 43.664 43.834 43.944 44.019 44.024 43.992 43.899 43.767 43.579 43.339 43.054 42.714 42.347 41.882 41.374 39.519 37.002 36.812 36.644 36.627 36.587 36.567 36.602 35.772 36.292 35.892 35.624 35.554 35.599 35.847 36.059 36.247 36.364 36.439 36.477 36.389 36.484 36.577 36.649 36.812 36.932 37.337 37.832 38.292 38.377 38.254 38.294 38.324 38.359 38.494 38.494 38.382 38.447 38.517 38.577 38.639 38.697 38.784 38.842 38.942 38.932 38.957 39.004 39.047 39.079 39.114 39.304 39.282 39.237 39.267 39.252 39.204 39.197 39.314 39.362 39.437 39.997 40.887 41.902 42.014 42.052 42.069 42.067 42.309 42.682 42.479 42.127 42.204 42.644 42.504 42.112 41.979 42.774 42.164 42.089 42.134 42.212 42.647 43.609 44.242 44.162 43.627 43.199 43.359 43.626 43.714 43.886 44.086 44.359 44.711 45.056 45.321 45.341 45.132 44.849 44.651 44.356 43.996 43.559 43.521 43.486 43.296 42.946 42.626 42.359 42.126 41.979 41.869 41.756 41.604 41.417 41.284 41.134 40.966 40.821 40.671 40.571 40.402 40.224 40.134 40.056 39.976 39.864 39.796 39.686 39.606 39.551 42.519 50.257 50.879 50.839 50.809 50.756 50.719 50.679 50.641 50.601 50.556 50.504 50.456 50.411
57.647 58.337 57.925 59.55 56.765 56.612 56.455 56.13 55.622 55.055 54.572 53.56 58.957 59.792 60.355 59.567 58.372 56.1 53.017 52.525 51.925 54.515 51.712 51.705 51.72 51.65 51.28 50.577 50.42 50.715 56.09 56.655 55.817 50.487 50.767 50.52 48.977 50.117 48.867 48.835 48.832 48.857 49.585 51.255 51.272 48.96 48.062 47.72 47.777 47.722 52.687 53.575 53.835 53.342 50.697 46.992 46.87 46.712 46.547 46.402 46.052 45.907 45.86 45.905 45.567 45.35 45.302 44.777 48.5 50.302 50.822 50.657 50.827 50.24 44.602 44.655 44.705 44.707 44.652 44.867 44.975 44.765 44.687 44.725 44.702 44.63 44.602 44.652 44.63 46.857 44.472 44.127 43.95 43.802 43.62 43.565 43.65 43.657 43.555 43.15 43.572 48.332 48.997 49.162 48.527 44.592 42.667 42.635 42.51 42.607 41.935 41.76 41.837 41.695 42.972 43.21 43.265 42.2 41.845 41.255 40.774 40.607 40.462 40.309 40.179 40.089 40.014 40.104 42.397 40.154 39.517 39.349 44.644 45.287 45.517 44.839 40.914 39.389 39.372 38.802 38.452 38.112 37.979 37.842 42.567 40.084 37.757 38.224 38.562 41.747 43.502 44.139 43.869 43.212 37.784 37.584 39.504 37.962 37.274 37.232 37.179 37.097 37.057 37.102 39.862 37.549 37.252 37.307 37.299 37.227 37.442 39.732 42.562 43.074 43.377 42.934 42.417 37.759 36.984 36.759 36.584 36.307 36.257 36.704 36.144 36.054 35.869 35.802 35.739 35.677 35.712 35.842 35.762 35.672 35.747 35.902 35.587 35.537 36.642 36.054 35.534 35.657 36.342 35.509 35.762 36.239 36.459 43.562 43.712 43.877 44.029 44.179 44.349 44.509 44.609 40.649 35.619 35.627 35.607 35.362 35.322 35.359 35.312 35.354 35.429 35.482 35.514 35.539 35.557 35.559 35.539 35.729 35.732 35.182 41.229 40.819 39.792 42.704 38.784 35.339 35.267 35.219 35.164 35.149 35.109 35.034 35.027 35.012 34.809 34.454 31.869 31.522 33.719 36.567 36.749 36.857 37.034 37.017 39.667 41.382 41.909 42.389 42.794 43.159 43.494 43.744 43.957 44.139 44.242 44.322 44.327 44.292 44.197 44.062 43.884 43.642 43.357 43.022 42.619 42.189 41.684 41.127 37.032 36.979 36.769 36.647 36.617 36.577 36.569 37.084 35.677 35.969 35.607 35.582 35.507 35.769 35.932 36.087 36.207 36.284 36.444 36.417 36.417 36.502 36.594 36.742 36.857 37.157 37.612 38.064 38.337 38.167 38.214 38.237 38.272 38.369 38.442 38.317 38.387 38.447 38.504 38.564 38.624 38.719 38.789 38.837 38.859 38.887 38.929 38.979 39.012 39.047 39.197 39.209 39.172 39.199 39.189 39.147 39.124 39.242 39.304 39.384 39.899 40.762 41.922 42.362 43.337 42.039 42.032 42.044 43.129 42.944 42.089 42.337 43.577 42.909 42.072 41.912 41.952 42.004 42.054 42.102 42.182 42.639 43.547 44.354 44.089 43.502 43.159 43.384 43.579 43.674 43.806 44.044 44.286 44.601 44.956 45.196 45.294 45.139 44.864 44.646 44.421 44.044 43.604 43.366 43.094 42.736 42.441 42.204 42.109 41.991 41.796 41.676 41.472 41.364 41.184 41.061 40.921 40.774 40.589 40.391 40.269 40.176 40.081 40.019 39.931 39.834 39.686 39.559 39.491 42.619 50.464 50.874 50.832 50.801 50.774 50.729 50.689 50.641 50.604 50.561 50.519 50.484 50.424 50.359 50.334
57.985 57.702 57.147 56.945 56.835 56.652 56.355 55.775 55.33 54.785 54.215 54.107 59.04 59.87 60.3 59.467 56.887 53.905 53.13 52.307 54.064 57.099 56.292 51.882 51.697 51.642 51.262 50.389 51.022 53.224 56.162 56.552 55.734 50.427 50.312 49.927 48.927 49.579 48.879 48.854 48.859 48.882 48.969 50.272 51.334 48.527 48.032 47.729 47.732 51.882 53.697 53.709 53.209 48.574 47.634 46.804 46.932 46.587 46.442 46.159 46.027 46.164 45.772 45.652 45.519 45.557 45.144 49.394 50.437 50.872 50.507 50.042 50.567 50.749 49.829 44.589 44.634 44.704 44.697 44.724 44.944 44.817 44.709 44.689 44.714 44.672 44.609 44.639 44.679 44.582 44.424 44.229 44.044 43.867 43.759 43.619 43.577 43.649 43.557 43.487 43.004 44.374 48.449 49.107 49.027 48.389 43.127 42.752 42.459 42.349 43.722 42.672 41.774 41.769 41.599 43.152 43.217 43.264 41.599 40.957 40.829 40.669 40.499 40.334 40.187 40.102 40.049 40.059 40.092 40.077 39.999 39.977 41.352 44.772 45.422 45.352 44.679 40.502 38.989 38.902 38.727 38.372 38.147 37.912 37.827 39.722 37.944 37.759 37.952 39.034 42.482 43.624 44.217 43.714 42.349 37.927 37.564 39.482 37.372 37.242 37.169 37.134 37.142 39.459 39.322 37.352 37.234 37.492 37.679 37.374 42.529 43.144 43.687 43.312 42.792 42.267 37.494 36.864 36.767 36.549 36.372 36.349 37.007 36.387 36.127 35.942 35.884 35.824 35.772 35.837 35.869 35.914 35.824 35.722 35.627 35.837 35.784 35.542 35.477 35.627 35.422 35.492 35.892 35.459 35.427 36.092 35.657 40.202 43.609 43.772 43.919 44.082 44.237 44.417 35.559 35.589 35.589 35.514 35.332 35.294 35.184 35.267 35.317 35.364 35.424 35.457 35.474 35.507 35.492 35.564 35.657 35.512 34.984 35.929 41.274 42.599 43.399 43.144 40.462 35.162 35.104 35.059 35.049 35.059 35.022 34.962 35.012 35.242 34.742 34.259 31.807 31.594 34.332 36.579 36.782 36.814 36.887 36.997 41.062 41.639 42.154 42.617 43.044 43.397 43.737 44.009 44.214 44.382 44.499 44.562 44.577 44.539 44.447 44.309 44.132 43.892 43.597 43.267 42.872 42.429 41.929 41.387 38.909 37.139 36.829 36.687 36.624 36.604 36.572 36.497 35.794 35.572 35.757 35.584 35.537 35.662 35.814 35.949 36.054 36.174 36.372 36.422 36.327 36.432 36.524 36.604 36.799 36.982 37.332 37.772 38.212 38.244 38.107 38.142 38.172 38.189 38.367 38.249 38.302 38.362 38.429 38.494 38.551 38.694 38.776 38.759 38.779 38.799 39.529 38.911 39.921 38.986 39.114 39.144 39.086 39.124 39.126 39.084 39.034 39.429 39.239 39.329 39.771 40.774 41.864 43.206 43.129 42.051 41.986 42.009 43.399 42.054 42.056 42.064 42.056 42.064 42.066 41.876 41.986 41.974 42.026 42.076 42.149 42.346 43.501 44.476 44.036 43.689 43.174 43.366 43.519 43.629 43.734 43.969 44.244 44.536 44.881 45.114 45.219 45.094 44.876 44.604 44.226 43.761 43.326 42.944 42.554 42.316 42.201 42.031 41.914 41.769 41.586 44.379 41.226 41.091 40.964 40.844 40.679 40.514 40.329 40.176 40.091 40.039 39.976 39.884 39.774 39.669 39.531 42.541 50.946 50.894 50.834 50.804 50.766 50.739 50.699 50.649 50.606 50.561 50.519 50.486 50.436 50.406 50.344 50.286 50.261
59.527 58.165 57.375 57.17 56.945 56.737 56.21 55.43 54.845 54.32 54.24 53.48 54.66 57.09 59.88 59.392 55.887 53.142 52.722 52.16 54.922 57.949 57.857 53.042 53.507 51.594 51.152 50.507 50.364 51.124 56.237 56.457 53.424 50.632 49.739 49.507 48.967 48.854 48.912 48.852 48.894 48.907 49.027 48.787 49.657 48.607 47.989 47.774 47.737 47.674 52.399 53.084 47.654 47.557 47.357 46.952 46.629 46.479 46.267 46.169 47.812 46.304 46.079 45.519 45.677 45.344 50.452 50.592 50.859 50.399 49.514 44.742 49.627 50.709 50.647 49.129 44.607 44.649 44.659 44.674 44.802 44.899 44.754 44.657 44.692 44.702 44.644 44.584 44.642 44.672 44.514 44.347 44.119 43.979 43.837 43.737 43.622 43.562 43.647 43.614 43.402 42.892 46.929 48.589 49.259 48.889 48.247 43.747 42.537 42.784 42.144 44.112 41.799 41.779 41.689 41.489 43.172 43.234 43.294 41.039 40.934 42.352 41.194 40.309 41.432 40.067 40.044 40.332 39.999 40.094 40.329 40.152 39.314 41.989 44.894 45.549 45.227 44.584 39.327 38.959 38.842 38.592 38.357 38.032 37.882 37.839 37.857 37.844 37.707 38.229 37.649 43.114 43.782 44.222 43.619 42.044 37.589 37.557 37.469 37.327 37.264 37.627 37.687 37.257 37.344 37.299 37.342 37.364 37.544 42.727 43.277 43.809 43.629 42.967 40.842 36.839 36.779 36.789 36.587 36.472 36.454 36.437 36.374 36.189 36.042 35.982 35.917 35.897 35.962 35.999 35.742 35.729 35.867 35.784 35.697 35.589 35.512 35.514 35.482 35.437 35.384 35.387 35.444 35.459 35.402 35.397 35.489 35.494 37.992 43.209 43.814 43.964 43.684 35.559 35.527 35.487 35.329 35.267 35.182 35.194 35.229 35.274 35.319 35.352 35.369 35.409 35.429 35.412 35.527 35.617 35.242 34.809 41.039 41.259 41.387 42.384 43.637 41.699 38.869 34.967 34.967 34.969 34.974 34.957 34.954 34.912 35.644 34.889 35.607 34.592 31.774 31.724 34.759 36.634 36.792 36.799 36.987 37.462 41.257 41.824 42.344 42.819 43.234 43.607 43.924 44.189 44.414 44.577 44.687 44.752 44.764 44.727 44.652 44.514 44.329 44.097 43.797 43.447 43.067 42.622 42.124 41.579 40.587 36.992 36.872 36.717 36.637 36.629 36.609 36.544 36.989 35.644 35.649 35.569 35.547 35.507 35.724 35.819 36.017 36.124 36.272 36.367 36.277 36.364 36.469 36.559 36.752 36.869 37.132 37.524 37.962 38.199 38.044 38.059 38.077 38.114 38.184 38.154 38.254 38.287 38.359 38.424 38.474 38.539 38.689 38.769 38.701 38.749 40.114 38.836 39.151 38.919 39.104 39.079 39.006 39.046 39.036 39.014 38.969 39.089 39.159 39.249 39.729 40.684 41.746 42.644 43.019 41.931 41.946 41.974 43.231 42.331 42.024 42.021 42.784 42.706 41.999 42.394 42.514 41.949 41.996 42.041 42.119 42.309 43.411 44.754 44.021 43.719 43.114 43.331 43.494 43.559 43.716 43.951 44.204 44.434 44.749 44.966 45.134 45.049 44.809 44.486 43.969 43.309 42.744 42.406 42.166 42.134 42.004 41.809 41.626 41.516 41.326 41.189 41.099 40.981 40.876 40.726 40.529 40.311 40.151 40.041 39.971 39.921 39.859 39.756 39.609 42.844 50.939 50.884 50.854 50.806 50.771 50.724 50.679 50.639 50.619 50.566 50.524 50.476 50.439 50.404 50.366 50.321 50.271 50.214 50.166
58.062 57.975 57.62 57.415 57.077 56.922 56.467 55.792 55.13 54.535 54.237 53.832 53.435 56.272 59.477 59.282 54.81 53.182 52.725 52.02 57.004 58.784 58.689 54.914 54.567 51.649 50.864 52.999 51.234 53.097 56.334 56.379 52.672 50.334 49.587 49.259 48.984 48.914 48.912 48.844 48.924 48.942 49.882 50.474 49.892 48.549 47.979 47.854 47.894 47.774 48.064 47.582 47.519 47.349 47.294 46.924 47.212 46.372 46.412 46.247 46.219 46.014 46.632 45.959 46.574 50.772 51.279 51.359 50.272 45.889 46.824 45.502 44.737 50.192 50.824 50.492 47.132 44.582 44.602 44.652 44.687 44.894 44.852 44.737 44.637 44.689 44.672 44.604 44.594 44.647 44.572 44.447 44.239 44.037 43.917 43.787 43.704 43.587 43.584 43.649 43.587 43.419 42.809 48.042 48.744 49.297 48.737 47.629 42.517 42.892 42.127 42.109 41.969 41.777 41.752 41.619 41.477 43.217 43.772 43.769 40.987 40.804 40.544 40.452 40.474 40.097 39.979 39.987 39.954 40.007 40.107 40.092 39.992 39.279 44.352 45.054 45.634 45.094 43.549 38.959 38.802 38.709 38.509 38.287 38.107 37.874 37.827 37.862 38.167 37.822 37.734 38.382 43.267 43.939 44.117 43.472 40.194 37.574 37.489 37.352 38.824 37.464 37.442 37.319 37.469 37.517 37.287 40.392 42.912 43.439 43.864 43.484 42.964 41.154 36.959 36.864 36.777 36.627 36.544 36.582 36.549 36.467 36.287 36.149 36.099 36.042 35.984 36.022 35.979 35.857 35.787 35.704 35.997 35.814 35.759 35.634 35.554 35.449 35.457 35.437 35.389 35.342 35.317 35.364 35.394 35.297 35.364 35.412 35.339 35.297 35.334 36.404 35.507 35.479 35.397 35.192 35.172 35.122 35.164 35.209 35.247 35.309 35.314 35.317 35.339 35.349 35.369 35.454 35.522 35.069 34.759 41.119 41.314 41.429 41.544 41.669 42.164 40.917 37.892 34.859 34.864 34.887 34.889 34.879 34.864 34.834 34.999 34.807 35.237 33.844 31.724 31.782 35.359 36.699 36.752 36.914 37.194 39.277 41.402 41.977 42.494 42.962 43.377 43.749 44.067 44.339 44.557 44.714 44.829 44.897 44.922 44.879 44.794 44.657 44.472 44.229 43.947 43.602 43.214 42.767 42.267 41.714 41.102 37.019 37.129 36.737 36.644 36.602 36.614 36.594 36.517 35.704 35.532 35.539 35.549 35.489 35.649 35.754 35.839 36.057 36.169 36.259 36.322 36.279 36.392 36.494 36.622 36.767 36.967 37.317 37.687 38.032 38.087 37.982 37.994 38.034 38.064 38.097 38.147 38.207 38.276 38.346 38.409 38.456 38.521 38.681 38.634 38.674 38.894 38.761 38.809 38.909 39.069 39.004 38.939 38.971 38.969 38.934 38.894 39.034 39.089 39.169 39.629 40.606 41.659 42.166 42.151 41.889 41.894 41.911 41.944 41.964 41.986 41.991 41.994 41.999 41.971 42.976 43.036 42.056 41.959 42.011 42.086 42.281 43.386 44.014 43.971 43.554 43.116 43.281 43.406 43.509 43.669 43.919 44.136 44.371 44.609 44.874 45.036 44.994 44.766 44.379 43.726 43.009 42.409 42.156 42.056 41.974 41.801 41.579 41.424 41.306 41.229 41.134 40.994 40.859 40.776 40.631 40.421 40.244 40.051 39.954 39.924 39.839 39.679 39.466 42.156 50.891 50.851 50.826 50.789 50.744 50.694 50.661 50.599 50.564 50.524 50.491 50.441 50.404 50.359 50.314 50.289 50.236 50.196 50.146 50.114
58.165 58.03 57.877 57.63 57.297 57.02 56.497 55.805 55.075 54.435 54.255 54.347 53.802 58.165 59.545 59.18 56.427 54.165 52.777 51.812 58.279 58.367 58.454 57.642 57.559 57.484 56.107 55.977 55.879 55.822 56.422 56.292 52.267 50.282 49.767 49.469 48.979 48.967 48.914 48.857 48.954 48.964 50.309 50.899 50.997 48.559 47.954 47.917 47.957 47.812 47.592 47.359 47.369 47.324 46.899 47.694 46.562 46.444 46.317 46.347 46.124 45.994 45.872 48.819 50.889 51.394 51.234 50.707 45.957 44.877 44.817 44.734 44.684 45.832 50.319 50.877 50.357 46.344 44.559 44.612 44.642 44.697 44.839 44.777 44.669 44.652 44.684 45.084 44.784 44.617 44.677 44.504 44.337 44.114 43.977 43.849 43.749 43.659 43.577 43.607 43.604 43.544 43.234 42.754 47.457 48.897 49.244 48.612 47.552 45.394 42.137 42.077 41.977 41.877 41.622 41.664 41.492 42.524 43.787 43.757 40.889 40.639 40.654 40.684 40.219 40.127 39.962 39.929 39.939 40.299 40.007 40.317 40.229 40.257 40.242 44.529 45.179 45.584 44.954 42.712 38.659 38.682 38.647 38.447 38.252 38.027 37.877 37.852 37.912 37.937 37.879 39.339 39.687 43.399 44.059 43.989 43.319 37.794 37.434 37.479 39.792 38.562 37.507 37.399 37.312 37.279 40.732 43.032 43.589 43.829 43.354 42.827 38.249 37.189 37.027 36.854 36.702 36.652 36.697 36.654 36.517 36.347 36.282 36.209 36.152 36.074 36.034 35.992 35.924 35.892 35.904 37.082 35.667 35.594 35.767 35.712 35.589 35.504 35.409 35.407 35.394 35.344 35.289 35.254 35.319 35.322 35.269 35.237 35.282 35.259 35.264 35.329 35.397 35.227 35.154 35.067 35.094 35.134 35.179 35.219 35.237 35.254 35.272 35.282 35.252 35.347 35.424 35.269 34.837 38.224 41.244 41.367 41.487 41.594 41.707 41.837 41.962 38.929 36.247 34.802 34.784 34.799 34.804 34.809 34.777 34.762 34.914 35.512 34.789 33.944 31.704 31.719 34.854 36.649 36.774 36.857 37.007 39.992 41.489 42.064 42.594 43.059 43.469 43.839 44.159 44.424 44.644 44.809 44.924 44.997 45.012 44.972 44.889 44.752 44.562 44.327 44.024 43.694 43.292 42.852 42.354 41.799 41.202 36.974 36.967 36.729 36.644 36.609 36.629 36.634 36.582 36.772 35.622 35.504 35.549 35.512 35.502 35.717 35.824 35.967 36.059 36.114 36.234 36.217 36.319 36.422 36.507 36.702 36.849 37.104 37.469 37.854 37.989 37.917 37.919 37.964 38.002 38.027 38.357 38.144 38.211 38.326 38.414 38.391 38.454 38.516 38.559 38.601 38.651 38.691 38.724 38.874 38.981 38.911 38.856 38.899 38.894 38.856 38.814 38.939 39.024 39.116 39.519 40.391 41.634 41.869 41.899 41.831 41.844 41.999 42.444 42.234 41.951 41.949 41.956 41.954 41.906 41.796 41.841 41.879 41.919 41.979 42.064 42.274 43.339 44.614 43.901 43.539 43.096 43.201 43.366 43.429 43.586 43.844 44.116 44.344 44.591 44.844 45.051 45.006 44.796 44.454 43.801 43.071 42.431 42.056 41.871 41.659 42.116 41.391 41.299 41.209 41.111 41.036 40.896 40.769 40.661 40.579 40.344 40.141 39.951 39.864 41.166 39.579 39.251 38.884 38.649 49.009 50.786 50.754 50.721 50.671 50.634 50.571 50.531 50.479 50.449 50.399 50.364 50.316 50.271 50.239 50.201 50.166 50.116 50.076 50.039
58.49 58.192 58.09 57.66 57.472 57.035 56.445 55.735 54.98 54.345 54.2 54.455 53.992 58.825 59.632 59.077 53.545 53.357 52.767 51.747 57.274 57.537 57.622 57.694 57.772 57.854 56.637 56.647 56.654 56.602 56.582 56.209 51.287 49.964 49.544 49.139 49.012 49.029 48.959 48.927 48.972 49.107 49.264 48.982 48.822 48.617 47.954 47.947 47.982 47.814 47.584 47.337 47.294 47.049 46.844 46.712 46.602 46.449 46.552 46.202 46.427 45.889 50.302 51.627 51.434 51.099 50.484 47.917 45.184 45.052 44.872 44.702 44.677 44.684 47.487 50.444 50.842 50.259 44.624 44.624 44.709 44.744 44.807 44.837 44.714 44.614 44.652 44.669 44.712 44.539 44.607 44.637 44.457 44.262 44.104 43.934 43.772 43.769 43.642 43.572 43.562 43.477 43.477 43.084 44.127 48.379 49.049 48.437 48.474 47.837 43.012 42.162 42.832 41.727 41.757 41.499 41.547 41.404 42.777 40.934 40.784 46.539 45.099 40.699 40.494 42.392 40.044 39.892 39.909 39.917 39.882 39.979 42.297 41.697 39.559 39.687 44.632 45.279 45.052 44.374 40.292 38.707 38.699 38.549 38.389 38.129 37.979 37.874 37.899 37.894 38.092 37.917 37.824 42.439 43.542 44.194 39.754 37.874 37.547 37.527 37.587 37.604 37.587 37.462 37.319 42.652 43.192 43.732 43.704 43.199 42.444 37.287 37.254 37.142 36.927 36.779 36.769 36.799 36.754 36.619 36.449 36.404 36.334 36.289 36.197 36.104 36.042 35.989 35.927 35.912 35.907 35.834 36.392 36.914 35.734 35.714 35.657 35.527 35.459 35.504 35.597 35.339 35.294 35.249 35.197 35.229 35.224 35.194 35.149 35.132 35.109 35.094 35.094 34.982 35.027 35.059 35.104 35.137 35.187 35.197 35.194 35.209 36.367 35.207 35.299 35.412 35.032 34.759 40.177 41.294 41.412 41.527 41.639 41.764 41.882 42.002 42.052 41.479 34.799 34.784 34.727 34.694 34.697 34.727 34.732 34.754 34.754 35.267 34.797 34.247 31.864 31.712 34.384 36.682 36.759 36.977 37.162 40.774 41.537 42.122 42.639 43.114 43.522 43.892 44.212 44.467 44.697 44.862 44.972 45.039 45.057 45.022 44.917 44.784 44.602 44.362 44.064 43.727 43.327 42.877 42.399 41.847 41.259 37.494 37.069 36.737 36.659 36.604 36.602 36.614 36.549 36.419 35.639 35.489 35.517 35.517 35.449 35.607 35.727 35.889 35.959 36.007 36.104 36.157 36.257 36.349 36.442 36.654 36.712 36.937 37.252 37.657 37.899 37.979 37.849 37.879 37.912 37.944 37.994 38.062 38.129 38.241 38.734 38.324 38.381 38.441 38.474 38.529 38.581 38.621 38.651 38.809 38.899 38.854 38.781 38.814 38.819 38.784 38.741 38.864 38.944 39.029 39.396 40.216 41.506 41.811 41.766 41.784 41.801 41.924 41.911 42.024 41.899 41.914 41.919 41.919 41.856 41.749 41.796 41.854 41.899 41.944 42.019 42.291 43.329 43.961 43.846 43.594 43.324 43.134 43.306 43.381 43.506 43.749 44.026 44.304 44.604 44.804 44.979 44.999 44.839 44.601 44.096 43.386 42.746 42.126 41.696 41.606 41.446 41.316 41.236 41.139 41.044 40.966 40.834 40.689 40.601 40.444 40.291 40.036 39.806 39.656 41.169 39.234 38.921 38.606 38.369 39.221 50.724 50.681 50.636 50.611 50.556 50.511 50.449 50.401 50.356 50.321 50.284 50.226 50.196 50.156 50.126 50.086 50.031 50.116 50.411
58.282 58.355 58.202 57.84 57.49 56.95 56.332 55.595 54.942 54.257 54.212 54.317 53.94 58.937 59.657 58.985 53.29 53.015 52.687 51.78 51.717 51.934 52.152 54.547 54.572 55.469 55.207 55.927 56.024 56.109 56.212 56.134 50.357 49.759 49.312 49.147 49.112 49.057 49.012 48.987 48.984 48.962 48.974 48.927 48.749 48.364 47.972 47.989 47.984 47.862 47.617 47.352 47.059 47.314 46.819 46.727 46.534 46.369 46.227 46.014 46.354 51.232 51.747 52.087 51.559 49.242 45.354 46.384 45.262 45.082 44.882 44.714 44.682 44.664 44.687 49.167 50.574 50.739 50.137 44.717 44.762 44.749 44.827 44.709 44.689 44.672 44.604 44.654 44.662 44.574 44.572 44.634 44.572 44.389 44.227 44.072 43.927 43.834 43.784 43.594 43.544 43.487 43.404 43.342 42.902 44.887 43.784 47.909 48.562 48.337 47.694 42.754 42.099 41.934 41.717 41.784 41.429 41.364 41.057 41.107 47.124 47.339 46.669 42.894 40.872 40.902 40.382 40.004 39.859 39.889 39.882 39.912 40.424 40.097 39.864 39.434 40.672 44.332 44.992 44.909 44.204 38.999 38.607 38.602 38.444 38.304 38.124 37.969 37.894 37.914 37.899 38.209 37.854 37.737 42.927 37.597 37.604 39.194 38.437 37.629 37.634 37.654 37.687 38.364 42.792 43.322 43.837 43.592 43.072 41.764 37.669 37.222 37.194 36.959 36.874 36.914 36.922 36.819 36.707 36.577 36.519 36.452 36.594 37.587 38.497 36.119 36.047 35.974 35.932 35.914 35.884 35.897 36.412 36.224 37.197 35.517 35.659 35.612 35.474 35.422 35.572 36.184 35.289 35.249 35.212 35.159 35.079 34.992 34.914 34.924 34.912 34.922 34.979 34.967 35.029 35.064 35.112 35.124 35.134 35.147 35.144 35.677 35.219 35.407 35.259 34.859 35.867 41.229 41.352 41.479 41.577 41.692 41.812 41.929 42.052 41.994 41.874 41.767 37.012 34.797 34.709 34.649 34.597 34.689 34.752 34.762 34.762 34.844 35.074 34.267 32.274 32.692 36.149 36.689 36.707 36.792 36.999 40.552 41.532 42.099 42.622 43.094 43.494 43.867 44.194 44.467 44.697 44.842 44.964 45.037 45.072 45.014 44.919 44.777 44.592 44.342 44.067 43.712 43.324 42.879 42.392 41.844 41.242 37.254 37.024 36.732 36.687 36.632 36.619 36.557 36.397 36.239 36.629 35.582 36.714 35.517 35.467 35.467 35.629 35.704 35.859 35.972 36.029 36.182 36.177 36.279 36.379 36.532 36.619 36.802 37.082 37.479 37.807 37.854 37.782 37.802 37.832 37.872 37.909 37.987 38.056 38.171 38.729 38.249 38.296 38.354 38.409 38.446 38.506 38.541 38.579 38.739 38.811 38.769 38.704 38.736 38.739 38.709 38.669 38.779 38.876 38.944 39.289 40.031 41.459 42.561 42.879 41.726 41.759 41.784 41.801 41.834 41.856 41.869 41.879 41.884 41.819 41.714 41.766 41.819 41.869 41.919 41.986 42.194 43.246 44.676 43.849 43.659 43.221 43.091 43.221 43.384 43.494 43.716 43.974 44.239 44.504 44.789 44.914 44.999 44.909 44.679 44.306 43.794 43.134 42.479 41.904 41.499 41.416 41.276 41.164 41.066 40.956 40.844 40.746 40.609 40.471 40.331 40.151 39.969 39.706 39.454 39.254 39.024 38.771 38.489 38.281 38.151 47.819 50.611 50.569 50.524 50.486 50.426 50.381 50.321 50.276 50.246 50.199 50.161 50.109 50.079 50.029 50.121 50.409 50.374 49.199
58.367 58.532 58.187 57.97 57.417 56.842 56.202 55.46 54.907 54.215 54.197 55.062 53.445 58.992 59.655 58.887 53.34 53.092 52.652 51.662 51.724 51.544 51.602 51.644 51.507 51.724 50.517 50.544 50.414 50.397 50.572 50.344 49.989 49.464 49.297 49.204 49.174 49.117 49.122 49.159 49.077 48.992 48.864 48.687 48.517 48.252 48.017 48.039 48.042 47.862 47.599 47.367 47.184 47.047 46.879 46.737 46.509 46.247 46.039 46.194 51.354 51.887 51.969 51.474 49.567 45.807 45.502 45.439 45.289 45.109 45.012 44.839 44.684 44.664 44.654 44.732 50.007 49.827 44.687 44.652 44.769 44.717 44.647 44.629 44.687 44.679 44.619 44.612 44.667 44.624 44.532 44.592 44.652 44.479 44.309 44.144 44.029 43.942 43.862 43.782 43.607 43.807 43.434 43.287 43.179 42.624 42.522 46.174 48.049 48.669 48.199 47.122 42.102 42.069 41.879 43.987 41.387 41.257 41.184 43.042 46.589 47.244 47.214 46.569 42.164 40.749 40.412 42.107 40.719 40.417 39.877 40.759 40.064 39.962 39.944 39.797 39.079 42.137 44.482 45.132 44.759 44.107 39.302 38.572 38.512 38.379 38.209 38.067 37.952 37.949 37.924 37.889 37.922 37.834 37.669 37.757 38.167 37.719 37.757 38.987 37.692 37.702 39.397 43.419 43.527 43.874 43.429 42.947 40.744 37.309 37.272 37.194 37.004 36.947 37.012 37.014 36.929 36.729 36.689 36.647 36.559 36.889 38.834 38.634 36.514 37.254 36.217 37.059 35.949 35.942 35.934 35.937 35.879 36.532 35.717 35.549 35.797 35.562 35.572 35.434 35.372 35.227 35.629 35.244 35.207 35.159 35.104 35.044 34.947 34.894 34.912 34.942 34.987 35.007 35.034 35.067 35.084 35.084 35.077 35.077 35.092 35.222 35.342 35.187 34.787 40.297 41.284 41.392 41.519 41.629 41.749 41.869 41.984 42.059 41.939 41.827 41.719 41.587 41.327 34.837 34.729 34.682 35.777 34.702 34.744 34.749 34.772 34.767 35.074 35.057 31.789 32.209 33.137 36.704 36.707 36.759 37.052 39.907 41.472 42.042 42.569 43.032 43.449 43.809 44.134 44.412 44.632 44.794 44.907 44.967 44.984 44.944 44.859 44.714 44.529 44.292 43.989 43.644 43.264 42.824 42.327 41.772 41.169 36.977 36.952 36.694 36.692 36.647 36.599 36.507 36.367 36.234 36.217 35.597 35.862 35.479 35.487 35.414 35.577 35.642 35.782 35.907 36.009 36.162 36.094 36.207 36.312 36.412 36.562 36.712 36.949 37.302 37.624 37.799 37.819 37.719 37.759 37.789 38.167 37.919 37.986 38.046 38.191 38.174 38.239 38.284 38.334 38.369 38.439 38.466 38.509 38.689 38.729 38.684 38.626 38.671 38.671 38.644 38.591 38.709 38.801 38.849 39.181 39.989 41.394 42.594 42.994 41.679 41.719 41.746 43.209 42.529 41.811 41.826 41.841 41.849 41.806 41.686 41.731 41.796 41.839 41.889 41.966 42.336 43.121 44.334 46.726 43.624 44.399 43.029 43.164 43.309 43.459 43.659 43.879 44.126 44.351 44.644 44.826 44.889 44.836 44.694 44.491 44.064 43.501 42.959 42.379 41.901 41.446 41.199 41.074 40.954 40.819 40.699 40.616 40.511 40.344 40.179 40.049 39.856 39.616 39.326 39.089 38.906 38.704 38.491 38.296 38.176 40.054 50.534 50.489 50.459 50.409 50.359 50.309 50.256 50.204 50.161 50.111 50.079 50.294 50.116 50.376 50.389 51.151 50.171 50.369
58.462 58.585 58.315 58.072 57.317 56.765 56.125 55.335 54.822 54.195 54.097 53.8 53.44 59.08 59.62 58.46 54.557 53.532 52.765 51.625 51.454 51.357 51.314 51.187 51.007 51.094 50.642 50.577 50.532 50.344 50.264 49.882 49.637 49.422 49.322 49.287 50.049 49.397 49.247 49.219 48.897 48.692 48.642 48.562 48.414 48.254 48.099 48.109 48.057 47.849 47.669 47.414 47.249 47.222 46.984 46.784 46.447 46.129 47.117 51.494 52.009 51.864 51.344 46.774 48.269 45.914 45.667 45.497 45.347 45.269 45.152 45.022 44.844 44.662 44.644 44.642 44.689 44.674 44.692 44.639 44.642 44.607 44.592 44.564 44.652 44.744 44.682 44.564 44.629 44.652 44.592 44.542 44.577 44.599 44.409 44.267 44.109 43.979 43.972 43.937 43.717 43.549 43.387 43.254 43.189 43.012 42.489 42.179 47.544 48.189 48.649 48.057 46.877 42.087 42.067 41.844 41.442 41.309 41.367 41.234 45.479 46.724 47.389 47.094 46.429 41.394 40.684 40.707 41.734 41.864 39.827 39.849 39.929 39.887 40.134 40.079 39.637 38.627 42.667 44.627 45.177 44.614 43.564 38.622 38.517 38.467 38.349 38.219 38.109 37.984 37.947 37.909 37.857 37.779 37.812 37.822 37.902 37.809 37.729 37.859 38.632 41.769 43.544 44.082 44.282 43.324 42.812 38.957 37.389 37.337 37.252 37.069 37.049 37.124 37.102 37.044 36.842 36.819 36.757 36.692 37.772 39.072 37.227 36.522 38.397 42.592 38.507 36.087 36.037 36.112 35.957 35.942 35.929 35.902 35.832 36.349 36.739 35.394 35.512 35.507 35.379 35.314 35.182 35.192 35.204 35.157 35.117 35.049 34.994 34.962 34.929 34.974 34.967 35.014 35.032 35.042 35.047 35.017 35.002 35.124 35.197 35.182 35.352 35.584 41.209 41.334 41.449 41.564 41.679 41.799 41.922 42.042 42.007 41.889 41.787 41.657 41.544 41.422 41.304 40.367 34.727 34.697 35.294 35.437 34.732 34.752 34.757 34.772 34.784 35.819 31.862 31.299 34.052 36.719 36.712 36.884 37.182 38.994 41.362 41.942 42.467 42.922 43.332 43.704 44.024 44.302 44.524 44.689 44.802 44.862 44.877 44.837 44.744 44.624 44.419 44.177 43.887 43.552 43.159 42.709 42.219 41.679 41.072 36.989 37.127 36.709 36.682 36.629 36.559 36.477 36.349 36.217 36.499 36.957 35.547 36.267 35.477 35.442 35.454 35.614 35.697 35.804 35.947 36.104 36.039 36.144 36.237 36.347 36.572 36.622 36.779 37.094 37.444 37.714 37.712 37.644 37.689 37.717 39.304 37.854 37.916 37.961 38.034 38.096 38.159 38.209 38.254 38.301 38.364 38.609 38.631 38.631 38.666 38.619 38.554 38.589 38.601 38.574 38.524 38.619 38.726 38.776 39.104 39.906 41.259 41.566 41.591 41.624 41.671 42.024 42.761 42.439 41.769 41.791 43.011 42.689 41.816 42.191 42.704 41.929 41.806 41.856 41.926 42.204 43.069 44.199 43.899 43.531 43.136 42.989 43.134 43.259 43.394 43.609 43.781 43.984 44.179 44.464 44.621 44.716 44.709 44.636 44.496 44.254 43.839 43.434 42.949 42.421 41.824 41.249 40.986 40.826 40.689 40.574 40.464 40.344 40.176 40.049 39.934 39.771 39.529 39.266 39.011 38.854 38.674 38.479 38.289 38.136 38.031 48.134 50.416 50.371 50.331 50.284 50.239 50.191 50.116 50.084 50.021 50.386 51.349 50.399 48.949 51.456 49.439 52.276 50.921
58.595 58.647 58.47 57.962 57.26 56.707 56.037 55.222 54.772 54.18 54.032 53.81 53.657 59.17 59.555 58.195 55.067 53.172 52.8 51.57 51.422 51.287 51.162 51.039 50.892 50.734 50.569 50.422 50.292 50.104 49.924 49.747 49.549 49.472 49.397 49.399 49.667 49.377 49.617 49.107 48.717 48.469 50.362 51.029 48.444 48.302 48.194 48.232 48.117 48.014 47.844 47.464 47.309 47.207 47.042 46.842 46.514 47.092 48.824 51.802 51.959 51.342 48.562 46.194 45.864 45.824 45.684 45.607 45.487 45.374 45.289 45.184 44.999 44.814 44.647 44.632 44.634 44.614 44.609 44.579 44.582 44.574 44.544 44.622 44.624 44.719 44.767 44.644 44.587 44.654 44.627 44.549 44.569 44.642 44.524 44.387 44.244 44.762 44.017 44.039 43.897 43.599 43.424 43.247 43.129 43.049 42.807 42.314 42.477 47.667 48.337 48.574 47.914 44.149 42.347 41.669 41.562 41.442 41.289 41.292 41.979 46.194 46.854 47.454 46.969 45.519 40.797 40.669 40.179 40.207 39.834 39.819 39.829 39.792 39.882 40.002 39.902 39.417 39.579 44.097 44.767 45.119 44.469 41.857 38.524 38.474 38.427 38.382 38.259 38.057 37.974 38.184 37.919 37.894 37.912 37.877 37.867 37.839 37.817 37.859 42.992 43.692 44.192 44.139 43.652 43.112 37.427 37.392 37.374 37.289 37.157 37.217 37.247 37.227 37.114 36.944 36.944 36.894 36.827 37.277 39.107 37.237 36.404 42.754 43.079 42.784 42.524 36.494 36.839 36.234 36.757 35.974 35.929 35.929 35.907 35.857 35.644 35.594 35.369 35.442 35.449 35.312 35.202 35.127 35.154 35.149 35.109 35.059 34.997 34.962 34.957 34.937 34.957 34.974 34.987 35.002 34.984 35.009 35.094 35.132 35.139 34.777 39.827 41.272 41.394 41.504 41.617 41.739 41.847 41.974 42.074 41.959 41.847 41.717 41.607 41.497 41.377 41.257 41.212 41.334 37.444 34.717 34.724 35.447 34.804 35.314 42.162 34.764 34.769 35.559 32.112 31.382 31.799 36.347 36.737 36.779 36.969 37.279 41.214 41.772 42.292 42.759 43.172 43.539 43.869 44.147 44.359 44.524 44.632 44.704 44.719 44.684 44.594 44.454 44.269 44.017 43.734 43.397 43.004 42.564 42.062 41.502 40.177 37.152 36.972 36.869 36.692 36.619 36.547 36.459 36.302 36.202 36.004 36.062 35.569 36.189 35.454 35.462 35.389 35.567 35.604 35.737 35.874 36.039 36.034 36.077 36.172 36.284 36.474 36.527 36.612 36.967 37.282 37.614 37.637 37.704 37.609 37.629 39.169 37.779 37.841 37.901 37.964 38.036 38.086 38.144 38.186 38.236 38.281 38.366 38.361 38.554 38.596 38.544 38.461 38.509 38.521 38.494 38.449 38.544 38.646 38.694 39.004 39.844 41.156 42.431 42.104 41.684 41.619 41.651 42.476 42.076 41.734 41.754 41.774 41.776 41.791 42.421 43.166 41.729 41.774 41.819 41.904 42.274 42.949 43.816 43.811 43.526 43.046 42.964 43.116 43.281 43.451 43.581 43.736 43.871 44.031 44.204 44.391 44.516 44.501 44.474 44.419 44.294 44.011 43.686 43.324 42.924 42.301 41.576 40.919 40.671 40.539 40.426 40.294 40.161 40.064 39.934 39.834 39.681 39.456 39.204 38.961 38.821 38.671 38.484 38.324 38.184 38.099 39.524 50.331 50.284 50.244 50.199 50.136 50.096 50.034 50.091 50.384 50.474 50.721 50.701 48.369 50.911 51.661 50.206 49.086
58.722 58.732 58.54 57.857 57.25 56.657 55.917 55.11 54.682 54.16 54.12 53.857 54.45 59.267 59.472 56.465 53.44 53.08 52.572 51.672 52.997 52.102 51.114 50.969 51.754 51.969 50.487 50.332 50.167 50.017 49.864 49.762 49.642 49.539 50.877 49.697 49.502 49.462 49.359 49.062 48.492 51.494 54.077 54.592 49.722 48.377 48.259 48.304 48.224 48.169 48.039 47.747 47.482 47.227 47.124 46.997 47.657 46.222 45.957 50.719 51.924 51.787 50.169 45.899 45.837 45.822 45.784 45.679 45.602 45.467 45.372 45.262 45.114 44.947 44.747 44.627 44.604 44.582 44.537 44.564 44.559 44.549 44.517 44.519 44.604 44.634 44.734 44.702 44.572 44.607 44.657 44.597 44.529 44.559 44.602 44.409 44.304 44.139 44.072 43.977 43.919 43.802 43.514 43.487 43.144 43.014 42.972 42.692 42.249 44.927 47.814 48.487 48.424 41.982 41.862 41.819 41.682 41.574 41.399 41.279 41.407 41.429 45.904 46.994 47.469 46.844 43.872 40.857 40.704 42.244 39.904 40.044 39.804 39.799 40.107 39.862 42.169 39.809 39.167 38.959 44.242 44.889 45.009 44.337 40.824 38.554 38.539 38.427 38.189 38.444 40.974 38.404 38.127 37.917 37.942 37.964 37.944 37.939 37.999 43.297 43.824 44.292 44.022 43.499 41.057 37.902 37.524 37.482 37.322 37.259 37.319 37.354 37.312 37.207 37.109 37.072 37.044 37.019 37.197 36.812 36.777 36.387 43.599 43.579 43.284 43.014 42.739 42.469 36.149 37.397 36.149 36.034 36.007 35.944 35.942 35.897 35.809 35.754 35.404 35.309 35.319 35.284 35.212 35.299 35.059 35.092 35.107 35.062 35.012 34.949 34.919 34.917 34.922 34.932 34.937 34.952 34.994 35.059 35.072 35.084 35.117 34.849 40.217 41.444 41.557 41.672 41.789 41.904 42.037 42.019 41.912 41.792 41.672 41.557 41.434 41.332 41.142 41.269 41.384 41.512 41.639 34.932 34.777 34.814 36.429 41.992 41.872 38.009 35.742 34.924 33.492 31.684 31.632 32.384 36.787 36.807 37.069 37.219 40.977 41.554 42.082 42.557 42.964 43.334 43.662 43.924 44.152 44.312 44.427 44.494 44.507 44.469 44.392 44.252 44.062 43.817 43.529 43.189 42.792 42.352 41.849 41.312 38.512 37.207 37.012 38.602 36.654 36.514 36.462 36.394 36.227 36.097 35.949 35.907 36.329 35.494 35.774 35.449 35.419 35.437 35.577 35.664 35.799 35.987 36.057 36.004 36.117 36.209 36.367 36.577 36.624 36.854 37.142 37.404 37.537 37.619 37.517 37.567 37.637 37.719 37.769 37.841 37.894 37.961 38.006 38.079 38.109 38.159 38.209 38.256 38.296 38.484 38.504 38.471 38.384 38.424 38.446 38.419 38.369 38.381 38.584 38.634 38.891 39.679 41.096 41.519 41.591 41.511 41.556 41.634 41.869 41.679 41.689 41.711 41.739 41.944 41.749 41.724 42.499 41.861 41.734 41.774 41.851 42.051 42.884 43.971 43.751 43.486 43.014 42.911 43.089 43.224 43.424 43.514 43.624 43.716 43.861 44.016 44.216 44.294 44.279 44.256 44.216 44.131 43.921 43.666 43.389 43.001 42.449 41.674 40.981 40.511 40.404 40.256 40.159 40.029 39.891 39.796 39.681 39.541 39.379 39.199 38.959 38.801 38.644 38.479 38.344 38.204 38.136 38.064 48.679 50.199 50.146 50.106 50.284 50.276 50.376 50.409 49.961 50.491 48.649 51.201 50.111 51.584 48.816 50.086 50.459
58.9 58.87 58.465 57.772 57.19 56.555 55.835 55.025 54.517 54.152 54.035 54.187 55.172 59.355 59.357 54.012 53.412 52.985 52.49 51.53 51.377 51.264 51.147 51.014 50.867 50.712 50.549 50.392 50.232 50.087 49.947 49.827 49.729 49.622 49.652 49.667 49.539 49.334 49.134 48.987 53.482 54.187 54.647 54.252 53.727 48.417 48.339 48.369 48.284 48.229 48.059 47.984 47.722 47.787 47.142 48.009 46.792 46.472 46.144 45.882 51.409 52.054 51.682 49.764 45.919 45.847 45.824 45.759 45.672 45.574 45.412 45.307 45.189 45.039 44.832 44.702 44.622 44.594 44.557 44.567 45.727 49.867 47.547 44.497 44.554 44.612 44.652 44.707 44.637 44.559 44.629 44.622 44.552 44.517 44.572 44.494 44.352 44.579 44.077 43.949 43.789 43.779 44.159 43.739 43.342 43.027 42.909 42.849 42.477 42.642 45.032 46.512 42.024 41.999 42.014 41.912 41.769 41.689 41.509 41.339 41.299 41.379 42.104 46.487 47.122 47.362 46.702 42.747 41.192 40.497 40.767 40.534 40.172 39.784 40.172 40.189 40.222 41.899 39.747 39.089 40.664 44.399 45.032 44.842 44.189 38.587 38.492 38.269 40.299 38.407 38.707 38.557 38.552 38.129 37.897 37.949 37.989 37.969 40.927 43.952 44.332 43.889 43.377 40.492 37.654 37.644 37.594 37.389 37.339 37.427 37.424 37.429 37.317 37.264 37.232 37.184 37.124 37.554 37.189 36.924 39.594 43.097 43.369 43.642 43.502 43.234 42.954 42.669 41.939 36.169 36.134 36.082 36.069 36.032 35.979 35.922 35.847 35.664 35.494 35.342 35.279 35.272 35.662 35.162 35.102 35.022 35.049 35.044 35.009 34.954 34.907 34.882 34.877 34.884 34.897 34.894 35.009 35.009 35.019 35.037 35.037 34.977 34.769 41.247 41.727 41.834 41.954 42.062 41.974 41.869 41.737 41.619 41.502 41.387 41.262 41.127 41.329 41.449 41.567 41.692 41.807 41.837 34.872 41.229 41.934 41.814 41.702 41.589 36.144 34.742 34.819 31.817 31.239 31.869 36.767 36.802 36.887 37.009 38.392 41.304 41.817 42.292 42.722 43.089 43.394 43.674 43.889 44.047 44.169 44.229 44.252 44.209 44.114 43.989 43.802 43.557 43.279 42.932 42.542 42.082 41.594 41.047 37.074 36.889 36.694 36.724 36.562 36.307 36.302 36.219 36.127 36.002 35.924 35.894 36.882 35.552 36.317 35.419 35.427 35.372 35.519 35.579 35.714 35.909 35.992 35.932 36.047 36.157 36.269 36.534 36.664 36.792 37.017 37.267 37.444 37.482 37.547 37.494 37.569 37.649 37.711 37.769 37.834 38.029 37.939 38.004 38.049 38.089 38.131 38.184 38.216 38.404 38.434 38.409 38.301 38.351 38.366 38.346 38.301 38.304 38.481 38.549 38.764 39.476 40.841 41.776 41.846 41.456 41.506 41.551 41.676 41.726 41.649 41.676 41.764 41.889 41.711 41.546 41.884 41.636 41.689 41.719 41.796 41.869 42.771 43.786 43.684 43.411 42.961 42.879 43.049 43.161 43.351 43.464 43.544 43.589 43.694 43.869 44.009 44.029 43.979 43.929 43.886 43.794 43.666 43.434 43.161 42.766 42.166 41.486 40.831 40.444 40.279 40.149 40.039 39.891 39.749 39.611 39.561 39.441 39.311 39.169 38.949 38.806 38.661 38.509 38.364 38.241 38.151 38.109 39.466 50.104 50.029 50.086 50.456 51.471 50.041 48.696 51.254 52.324 48.381 50.674 49.994 49.909 50.461 50.159 50.016
59.087 58.927 58.307 57.65 57.135 56.46 55.715 54.967 54.415 54.157 54.11 53.762 56.337 59.437 59.285 54.91 53.355 52.982 52.17 51.65 51.439 51.284 51.177 51.059 50.919 50.784 50.637 50.479 50.319 50.164 50.037 49.944 49.879 49.869 49.822 50.767 49.372 49.199 49.014 54.397 54.917 55.092 54.124 53.067 48.522 48.467 48.359 48.404 48.362 49.737 48.172 48.087 47.859 47.467 47.329 47.079 46.962 46.704 46.259 45.899 45.947 51.557 52.102 51.537 48.127 48.214 45.829 45.822 45.702 45.637 45.524 45.342 45.267 45.144 44.949 44.822 44.719 44.612 44.584 46.834 49.969 50.502 50.109 44.614 44.512 44.607 44.559 44.692 44.639 44.579 44.574 44.617 44.582 44.497 44.549 44.589 44.417 44.242 43.982 43.787 45.604 49.764 49.107 45.819 43.652 43.172 42.924 42.814 42.719 42.402 42.222 42.072 42.174 42.157 42.094 41.967 41.872 41.754 41.592 41.464 41.292 41.394 41.632 42.029 46.599 47.262 47.239 46.574 41.094 40.814 40.072 40.262 39.827 39.867 39.744 40.182 39.774 39.854 39.837 39.719 39.269 42.274 44.512 45.132 44.704 43.794 38.354 38.319 38.659 38.462 38.662 40.164 44.219 42.189 38.027 37.884 37.997 38.009 37.947 43.927 43.752 43.002 38.989 37.747 37.662 37.629 37.472 37.444 37.427 37.462 37.527 37.604 38.857 37.377 37.327 37.277 37.237 37.234 38.232 38.092 42.592 42.869 43.149 43.422 43.682 43.442 43.164 42.894 42.619 40.374 36.184 36.142 36.134 36.097 35.999 35.934 35.854 35.707 35.544 35.369 35.277 35.224 35.207 35.189 35.174 35.114 34.984 35.004 34.992 34.959 34.912 34.859 34.854 34.839 34.834 34.924 34.977 34.969 34.962 34.992 34.984 34.982 34.834 35.519 41.889 42.007 42.044 41.927 41.807 41.684 41.572 41.454 41.334 41.179 41.249 41.372 41.499 41.624 41.734 41.847 41.969 42.082 42.007 41.887 41.762 41.629 41.519 41.422 41.139 34.709 34.739 32.477 31.549 31.649 34.314 36.789 36.824 36.982 37.134 40.782 41.509 41.992 42.414 42.774 43.089 43.364 43.577 43.742 43.859 43.919 43.939 43.904 43.809 43.679 43.487 43.267 42.962 42.614 42.217 41.777 41.284 38.937 37.097 36.777 36.602 36.424 36.624 36.162 36.142 36.377 35.979 35.919 37.209 40.962 41.362 37.782 35.459 35.502 35.424 35.387 35.414 35.522 35.699 35.807 35.934 35.879 35.992 36.102 36.212 36.452 36.617 36.734 36.897 37.122 37.382 37.409 37.472 37.424 37.504 37.577 37.631 37.699 37.771 37.931 37.939 37.924 37.966 38.021 38.054 38.106 38.151 38.339 38.344 38.346 38.231 38.289 38.299 38.281 38.234 38.274 38.341 38.479 38.674 39.406 40.694 41.309 42.496 41.414 41.459 41.501 41.536 41.561 41.604 41.626 42.444 42.009 41.676 41.576 41.674 41.594 41.629 41.661 41.729 42.226 42.726 44.099 43.636 43.319 42.904 42.856 43.006 43.101 43.211 43.384 43.466 43.534 43.604 43.661 43.744 43.699 43.674 43.616 43.524 43.431 43.309 43.104 42.749 42.261 41.661 41.071 40.546 40.296 40.199 40.064 39.899 39.756 39.626 39.531 39.441 39.331 39.234 39.104 38.959 38.831 38.701 38.574 38.401 38.286 38.191 38.114 38.086 46.936 50.181 50.446 49.934 50.349 49.869 50.256 50.851 48.411 49.244 50.244 50.459 50.186 50.029 50.061 50.094
59.252 58.885 58.187 57.577 57.04 56.362 55.592 54.887 54.307 54.19 53.862 53.707 58.402 59.535 59.195 56.78 54.48 53.215 51.84 51.485 51.504 51.327 51.222 51.117 50.987 50.852 50.704 50.537 50.384 50.457 50.399 50.149 50.072 49.974 49.809 49.604 49.599 49.647 54.509 55.042 55.104 54.579 50.119 50.922 48.639 48.382 48.337 48.364 53.032 53.997 48.517 48.277 48.062 47.724 47.974 47.112 47.052 46.894 46.567 46.182 45.967 48.274 51.664 52.052 51.424 45.909 45.884 45.834 45.799 45.702 45.619 45.452 45.304 45.189 45.059 44.934 44.932 44.744 47.527 50.089 50.612 50.522 50.614 49.974 45.267 44.524 44.549 44.587 44.747 44.617 44.512 44.574 44.589 44.527 44.477 44.529 44.477 44.234 43.897 47.437 49.819 50.259 49.642 47.589 43.732 43.464 43.042 42.804 42.727 42.492 42.357 42.367 42.379 42.314 42.214 42.044 41.912 41.782 41.667 41.532 41.434 41.279 41.289 41.207 44.709 46.757 47.392 47.089 46.432 41.039 40.842 40.264 39.917 40.812 39.697 39.727 39.704 39.782 40.232 40.524 39.454 38.669 43.737 44.634 43.307 38.399 38.427 38.517 38.519 38.652 40.709 44.364 44.874 45.267 38.707 37.977 37.899 37.989 37.972 37.927 42.724 37.922 37.822 37.812 37.664 37.554 37.579 37.637 37.662 37.559 37.594 38.049 37.474 37.457 37.424 37.377 37.337 37.304 37.402 37.349 41.554 42.659 42.932 43.212 43.482 43.662 43.377 43.102 42.834 42.557 39.134 36.154 37.149 36.329 36.022 35.957 35.849 35.734 35.607 35.412 35.279 35.239 35.187 35.179 35.264 35.149 35.084 34.944 34.944 34.954 34.919 34.869 34.827 34.779 34.804 34.954 34.947 34.927 34.922 34.907 34.839 34.992 35.199 34.749 40.824 41.992 41.879 41.749 41.639 41.527 41.412 41.282 41.127 41.292 41.432 41.532 41.669 41.782 41.912 42.032 42.074 41.949 41.832 41.707 41.584 41.472 41.359 41.237 41.252 40.089 34.714 34.869 31.849 31.219 31.869 36.804 36.817 36.942 37.004 37.037 41.154 41.612 42.052 42.414 42.732 43.004 43.224 43.379 43.502 43.557 43.572 43.542 43.444 43.317 43.139 42.897 42.607 42.262 41.867 41.409 40.419 37.002 36.997 36.774 36.524 36.197 36.157 36.867 36.119 35.947 36.694 41.047 41.402 40.722 39.294 39.057 35.472 35.367 35.414 35.399 35.327 35.492 35.552 35.704 35.899 35.862 35.922 36.047 36.157 36.384 36.494 36.657 36.814 37.022 37.267 37.357 37.404 37.352 37.427 37.514 37.559 37.819 37.704 37.874 37.886 37.841 37.891 37.959 37.981 38.024 38.054 38.264 38.224 38.169 38.161 38.209 38.216 38.206 38.156 38.141 38.259 38.401 38.596 39.229 40.881 41.226 41.294 41.349 41.406 41.961 42.929 42.266 41.539 41.566 41.581 41.584 41.604 42.129 42.244 41.671 41.559 41.601 41.669 41.851 42.634 43.661 43.574 43.274 42.856 42.786 42.936 43.001 43.106 43.216 43.301 43.359 43.391 43.421 43.449 43.399 43.344 43.306 43.234 43.116 42.931 42.654 42.204 41.729 41.141 40.669 40.396 40.201 40.091 39.926 39.799 39.694 39.531 39.441 39.346 39.276 39.176 39.031 38.994 38.839 38.706 38.581 38.469 38.351 38.261 38.204 38.116 39.944 49.609 48.751 48.384 48.611 49.606 50.169 51.021 50.949 50.471 50.179 50.014 50.059 50.096 50.139 50.186
59.42 58.805 58.03 57.5 56.925 56.267 55.48 54.802 54.24 54.097 53.917 53.715 58.585 59.615 59.097 53.477 53.37 52.727 51.577 51.557 52.262 51.979 51.227 51.139 51.037 50.917 50.782 50.629 50.544 50.742 50.349 50.319 50.197 49.864 49.727 49.594 51.392 55.164 55.127 54.982 54.457 49.242 48.787 48.424 48.347 48.364 48.367 52.244 54.267 54.517 53.544 48.624 48.132 47.937 47.602 47.214 47.094 46.999 46.804 46.557 46.102 45.884 50.517 51.794 51.942 51.307 45.919 45.887 45.837 45.777 45.699 45.549 45.382 45.292 45.132 45.107 47.714 48.994 50.207 50.707 50.364 49.939 50.484 50.507 49.482 44.502 44.527 44.579 44.744 44.694 44.572 44.497 44.557 44.534 44.469 44.502 44.504 44.337 44.309 43.872 49.319 49.964 50.164 49.504 46.522 43.689 43.377 42.889 42.714 42.672 42.579 42.929 44.067 42.364 42.244 42.097 41.954 41.854 41.734 41.597 41.512 41.412 41.254 41.272 41.004 45.452 46.864 47.467 46.977 45.159 40.689 40.357 40.104 39.842 40.027 39.727 39.722 39.689 39.744 41.417 39.664 39.102 38.919 40.497 38.714 40.572 38.579 38.674 38.692 43.079 44.499 45.014 45.174 44.669 44.164 38.317 37.964 37.917 37.962 37.954 37.939 37.837 37.837 37.727 37.659 37.717 37.757 37.789 37.944 37.807 37.677 37.589 37.547 37.539 37.509 37.472 37.452 37.414 37.384 37.942 36.657 42.457 42.717 42.989 43.259 43.542 43.602 43.312 43.039 42.779 42.497 36.654 36.277 36.879 36.069 35.972 35.884 35.757 35.614 35.477 35.339 35.252 35.217 35.154 35.249 35.214 35.112 35.037 34.914 34.894 34.904 34.862 34.812 34.767 34.757 34.889 34.907 34.884 34.874 34.852 34.827 35.607 34.864 34.792 34.747 41.799 41.704 41.584 41.467 41.359 41.202 41.222 41.354 41.474 41.592 41.709 41.834 41.962 42.089 42.027 41.897 41.779 41.657 41.539 41.434 41.309 41.204 41.302 41.427 41.547 37.197 34.774 32.947 31.659 31.692 35.884 36.782 36.797 36.834 37.159 38.562 41.212 41.634 41.997 42.329 42.604 42.817 42.979 43.087 43.152 43.167 43.132 43.027 42.889 42.709 42.482 42.202 41.852 41.437 40.992 37.432 36.982 36.804 36.769 36.332 36.174 36.182 36.529 36.004 35.879 35.677 40.179 35.539 38.284 39.007 39.044 36.324 35.572 36.232 35.387 35.344 35.369 35.552 35.639 35.849 35.892 35.857 35.982 36.107 36.309 36.429 36.592 36.714 36.937 37.154 37.292 37.352 37.422 37.359 37.452 37.496 38.191 37.629 37.809 37.796 37.754 37.981 38.759 37.919 37.936 37.964 38.121 38.131 38.196 38.089 38.126 38.149 38.121 38.084 38.124 38.284 38.324 38.521 39.159 41.461 41.179 41.261 41.304 41.359 41.409 42.636 42.229 41.496 41.584 42.971 42.421 41.531 42.281 42.799 41.564 41.501 41.534 41.606 41.809 42.519 43.599 43.516 43.239 42.819 42.694 42.776 42.861 42.974 43.056 43.091 43.101 43.134 43.129 43.159 43.084 43.006 43.001 42.871 42.674 42.406 42.066 41.661 41.214 40.859 40.564 40.294 40.109 39.971 39.834 39.726 39.654 39.514 39.349 39.216 39.076 39.064 39.036 38.984 38.886 38.736 38.589 38.501 38.371 38.289 38.209 38.129 38.084 46.976 49.729 50.539 52.174 50.601 51.244 50.461 50.214 50.036 50.056 50.101 50.139 50.181 50.211 50.256
59.482 58.61 57.955 57.44 56.82 56.095 55.34 54.765 54.167 54.4 53.882 53.7 58.91 59.66 59.017 53.292 53.097 52.945 51.652 51.812 51.549 51.352 51.262 51.174 51.089 50.997 50.854 50.724 51.192 50.594 50.549 50.279 50.192 49.914 49.662 53.359 55.337 55.799 55.227 53.769 51.747 49.377 48.789 48.459 48.369 48.339 48.382 51.072 52.484 54.392 54.389 53.512 48.239 48.137 47.782 47.427 47.192 46.984 46.947 46.789 46.354 45.974 45.867 49.827 51.934 51.827 50.672 47.569 46.402 45.837 45.759 45.654 45.514 45.459 45.272 45.112 49.977 50.932 50.949 50.252 48.244 45.497 49.967 50.597 50.367 49.512 44.472 44.554 44.542 44.589 44.567 44.457 44.487 44.519 44.489 44.429 44.509 46.544 44.337 43.847 45.547 49.447 50.084 50.027 49.364 44.632 43.667 43.199 42.752 42.639 42.679 42.592 42.477 42.364 42.252 42.142 42.032 41.912 41.804 41.657 41.559 41.602 41.307 41.274 41.142 40.969 46.369 47.022 42.664 40.932 40.764 40.444 40.244 40.009 41.067 39.747 39.762 39.727 39.654 39.712 39.752 39.377 38.947 38.714 38.709 38.684 38.737 38.989 44.107 44.627 45.144 45.069 44.537 44.027 40.237 38.529 38.177 37.934 37.927 37.962 37.977 37.894 37.772 37.757 37.834 37.849 37.904 37.959 38.209 38.199 37.844 37.707 37.602 37.589 37.587 37.559 37.534 37.512 37.457 37.422 37.524 37.152 42.489 42.772 43.054 43.322 43.604 43.532 43.257 42.984 42.724 42.434 37.004 36.267 37.029 35.997 35.874 35.764 35.637 35.529 35.409 35.309 35.337 36.694 35.204 35.177 35.172 35.067 34.987 34.864 34.847 34.852 34.832 34.767 34.749 34.782 34.872 34.842 34.819 34.809 34.789 34.927 34.874 34.837 34.782 35.452 41.529 41.417 41.302 41.124 41.292 41.414 41.529 41.639 41.759 41.887 42.007 42.084 41.972 41.852 41.732 41.609 41.487 41.372 41.247 41.207 41.339 41.459 41.582 41.714 41.847 35.042 34.572 31.784 31.184 31.822 36.829 36.737 36.797 36.949 37.159 38.227 41.174 41.549 41.879 42.154 42.357 42.514 42.624 42.687 42.704 42.662 42.577 42.417 42.247 42.017 41.734 41.384 40.979 37.024 37.024 36.992 36.774 36.659 36.247 36.172 36.422 36.137 36.632 35.864 35.527 35.539 35.519 36.102 38.987 39.014 39.059 35.459 36.089 35.374 35.364 35.289 35.512 35.554 35.754 35.862 35.797 35.922 36.059 36.207 36.384 36.524 36.659 36.864 37.072 37.237 37.307 37.342 37.282 37.482 37.399 38.531 37.554 37.701 37.691 37.819 37.906 38.539 37.839 37.869 37.881 37.946 38.031 38.124 38.004 38.054 38.074 38.054 37.999 38.051 38.204 38.254 38.466 39.006 40.914 41.124 41.199 41.261 41.309 41.411 42.164 41.704 41.454 41.586 42.309 42.269 41.456 41.809 42.261 41.391 41.431 41.469 41.536 42.131 42.384 43.151 43.424 43.189 42.754 42.579 42.616 42.664 42.776 42.874 42.884 42.894 42.854 42.884 42.861 42.811 42.689 42.536 42.326 42.079 41.854 41.536 41.214 40.999 40.776 40.496 40.239 40.026 39.911 39.904 39.579 39.466 39.266 39.091 39.061 39.061 39.039 39.094 39.084 38.911 38.771 38.639 38.531 38.434 38.366 38.304 38.189 38.046 38.939 49.999 48.844 51.394 50.471 50.199 49.991 50.059 50.089 50.136 50.181 50.214 50.259 50.296 50.346
59.39 58.482 57.952 57.367 56.727 55.995 55.252 54.755 54.117 53.965 53.855 53.632 59 59.677 58.885 53.327 53.155 52.952 51.602 52.777 51.432 51.867 51.309 51.249 51.162 51.069 50.957 50.824 50.819 50.817 50.434 50.169 50.172 50.159 54.949 55.459 55.777 55.267 52.892 49.129 49.094 48.902 48.677 48.497 48.369 48.369 48.392 49.239 48.492 53.887 54.509 54.257 51.752 48.289 48.042 47.694 47.314 47.119 46.967 46.844 46.584 46.224 45.974 46.962 51.409 52.042 51.699 50.332 45.894 45.877 45.837 45.732 45.664 48.054 47.167 50.559 51.054 51.199 50.712 46.909 46.289 46.687 44.799 50.082 50.687 50.259 46.234 44.484 44.604 44.592 44.649 44.502 44.429 44.494 44.504 44.444 44.464 44.527 44.487 44.059 43.839 46.344 49.577 50.199 49.884 49.232 43.992 43.814 43.349 42.662 42.574 42.592 42.497 42.367 42.262 42.147 42.064 41.959 41.829 41.704 41.552 41.417 41.372 41.239 41.029 40.962 41.584 40.979 41.004 40.952 40.817 40.557 40.472 40.182 40.107 39.822 39.824 39.809 39.724 39.629 40.039 39.429 39.262 39.077 38.944 38.792 39.424 44.247 44.769 45.234 44.919 44.397 41.522 39.379 38.682 38.604 38.332 38.092 37.934 37.964 37.919 37.812 37.834 37.922 37.942 38.017 37.977 37.942 37.927 38.069 38.207 37.857 37.787 37.629 37.637 37.622 37.604 37.577 37.544 37.507 37.579 39.159 38.462 42.549 42.834 43.109 43.374 43.664 43.479 43.204 42.932 42.659 41.609 36.659 37.032 36.322 35.874 35.764 35.664 35.549 35.459 35.364 35.384 35.227 36.592 35.159 35.194 35.127 35.007 34.944 34.837 34.802 34.812 34.784 34.734 34.702 34.764 34.797 34.772 34.779 34.777 35.002 34.934 34.857 34.797 34.747 39.117 41.247 41.174 41.332 41.457 41.577 41.694 41.809 41.934 42.067 42.037 41.909 41.792 41.674 41.567 41.444 41.322 41.364 40.197 41.394 41.504 41.607 41.739 41.874 42.004 40.272 32.042 31.969 31.639 31.687 35.634 36.687 36.747 36.844 36.932 37.172 38.007 41.027 41.344 41.624 41.839 41.994 42.109 42.174 42.184 42.154 42.069 41.919 41.732 41.497 41.219 40.344 37.037 37.119 36.814 36.764 36.704 36.647 36.492 36.177 36.189 36.149 36.689 36.254 35.554 35.479 35.677 36.244 38.587 39.007 39.049 36.854 35.374 35.574 35.357 35.304 35.397 35.699 35.617 35.797 35.729 35.877 35.989 36.124 36.307 36.454 36.582 36.789 36.992 37.142 37.199 37.329 37.217 37.289 37.351 37.414 37.474 37.539 37.571 37.619 37.686 37.729 37.759 37.794 37.804 37.844 37.896 38.051 37.939 37.984 37.991 37.969 37.934 37.974 38.119 38.184 38.284 38.834 41.829 41.071 41.156 41.214 41.266 41.301 41.729 41.689 41.401 41.404 41.419 41.431 41.386 41.336 41.371 41.326 41.361 41.399 41.469 41.699 42.761 43.126 43.361 43.121 42.691 42.439 42.409 42.441 42.534 42.614 42.629 42.589 42.564 42.536 42.506 42.411 42.249 42.016 41.824 41.604 41.444 41.269 41.081 40.919 40.734 40.426 40.186 40.256 39.931 39.369 39.174 39.196 39.099 39.069 39.026 39.001 38.961 39.046 39.084 38.859 38.746 38.634 38.519 38.469 38.406 38.329 38.244 38.099 38.009 46.539 50.249 50.211 50.009 50.046 50.091 50.136 50.179 50.214 50.254 50.289 50.334 50.386 50.426
59.145 58.44 57.957 57.37 56.675 55.952 55.26 54.692 54.102 54.072 53.715 53.49 59.09 59.637 58.717 53.407 53.265 52.947 51.675 52.47 51.604 51.442 51.399 51.332 51.254 51.157 51.052 50.949 50.999 50.477 50.157 50.129 51.219 55.657 56.132 55.654 55.147 51.012 49.532 49.337 49.049 48.929 48.734 48.677 48.462 48.384 48.369 48.444 48.497 48.702 54.009 54.574 54.112 50.109 48.254 47.989 47.657 47.317 46.989 46.887 46.737 46.462 46.292 46.329 47.639 51.534 52.102 51.577 46.522 45.882 45.829 45.764 45.709 48.642 51.254 51.762 51.099 50.572 46.004 46.684 45.957 45.307 45.044 47.972 50.204 50.712 50.134 46.199 46.289 44.609 44.654 44.487 44.369 44.447 44.492 44.444 44.389 44.487 44.507 44.764 44.112 43.867 48.742 49.709 50.272 49.762 49.099 43.727 43.504 43.734 42.574 42.504 42.492 42.367 42.124 42.074 42.074 41.949 41.802 41.647 41.552 41.514 41.292 41.094 45.492 46.864 41.057 41.119 41.082 40.987 40.772 40.699 41.587 40.329 40.144 39.969 39.939 39.897 39.794 39.647 39.709 39.692 39.582 39.332 39.149 38.984 39.554 44.904 45.254 44.787 44.244 41.272 38.659 38.674 38.667 38.522 38.332 38.207 38.042 37.939 37.867 37.934 37.947 37.987 38.079 38.017 37.854 37.819 37.867 38.519 37.919 37.899 37.814 37.709 37.679 37.662 37.654 37.637 37.607 37.632 37.767 40.077 36.982 40.932 42.614 42.889 43.174 43.447 43.679 43.419 43.147 42.872 42.599 40.322 36.502 37.507 36.249 35.727 35.619 35.524 35.464 35.379 35.307 35.287 35.172 35.164 35.229 35.219 35.057 34.979 34.907 34.802 34.749 34.764 34.737 34.702 34.667 34.714 34.742 34.747 34.727 34.859 34.862 34.877 34.887 34.832 34.752 41.227 41.392 41.507 41.624 41.749 41.872 41.989 42.089 41.982 41.859 41.739 41.622 41.509 41.387 41.272 40.442 39.822 39.927 40.489 41.657 41.769 41.907 42.027 42.174 42.187 36.522 32.079 31.837 31.217 31.817 36.637 36.734 36.802 36.877 36.892 37.027 37.102 38.492 41.047 41.259 41.429 41.534 41.609 41.614 41.587 41.499 41.349 41.169 40.689 37.472 37.049 36.997 36.927 36.792 36.774 36.702 36.679 36.437 36.192 36.124 36.014 35.929 36.402 35.644 36.759 38.122 37.947 36.289 38.987 39.032 39.079 35.459 36.684 35.329 35.322 35.269 35.544 35.537 35.727 35.667 35.802 35.937 36.062 36.239 36.382 36.489 36.687 36.922 37.094 37.089 37.079 37.162 37.207 37.266 37.711 37.386 37.449 37.496 37.556 37.609 37.661 37.679 37.721 37.719 37.771 37.799 37.961 37.886 37.911 37.916 37.896 37.859 37.879 38.044 38.116 38.221 38.846 40.856 41.034 41.114 41.169 41.219 41.259 41.449 41.491 41.361 41.364 41.366 41.339 41.319 41.839 41.746 41.264 41.306 41.331 41.406 41.714 42.161 42.959 43.286 43.019 42.579 42.251 42.109 42.094 42.179 42.249 42.301 42.271 42.216 42.111 42.114 42.011 41.829 41.631 41.531 41.434 41.296 41.144 40.971 40.794 40.591 40.546 40.251 39.629 39.091 39.076 39.051 39.051 39.049 39.019 38.986 38.951 38.919 38.871 38.846 38.821 38.719 38.639 38.561 38.511 38.459 38.371 38.279 38.166 38.091 38.919 50.019 50.064 50.094 50.134 50.161 50.211 50.254 50.296 50.331 50.381 50.416 50.464 50.509
58.93 58.415 57.91 57.297 56.58 55.89 55.212 54.63 54.105 53.835 53.662 53.47 59.172 59.545 57.495 55.715 53.292 52.917 51.74 52.287 51.829 51.632 51.537 51.542 51.339 51.252 51.152 51.072 51.054 50.187 50.154 52.562 55.799 56.297 56.109 55.482 49.639 51.702 49.514 49.302 49.164 49.004 48.864 48.782 48.639 48.479 50.314 48.374 48.437 49.927 52.127 54.134 54.582 53.982 49.737 48.344 48.067 47.567 49.779 46.907 47.179 48.202 46.459 45.979 45.827 47.882 51.644 46.017 45.907 45.877 45.897 45.794 48.402 51.387 51.859 51.559 50.157 45.129 45.132 45.544 46.554 45.089 45.254 44.884 48.372 50.349 50.602 49.972 44.547 44.614 44.609 44.437 44.319 44.399 44.449 44.462 44.407 44.374 44.459 44.912 44.679 43.812 43.752 49.069 49.844 50.257 49.642 47.649 43.637 43.142 42.844 42.472 42.404 42.234 42.132 41.999 42.014 41.909 41.727 41.672 41.724 41.639 41.079 46.464 46.979 47.477 47.432 41.132 41.104 40.952 41.839 41.364 40.524 40.509 40.154 40.087 40.044 39.949 39.854 39.884 39.912 39.982 39.654 39.502 39.324 39.157 38.944 41.844 44.657 44.152 40.622 38.719 38.789 38.634 38.562 38.479 38.397 38.307 38.069 37.977 37.952 38.024 38.009 38.044 38.057 37.887 37.849 37.812 37.814 37.889 37.907 37.824 37.822 37.789 37.724 37.704 37.692 37.682 37.619 37.759 37.759 37.629 37.352 36.349 42.399 42.679 42.967 43.239 43.509 43.632 43.364 43.082 42.807 42.537 37.142 36.137 37.254 35.769 35.599 35.517 35.462 35.389 35.322 35.267 36.557 36.594 35.432 35.274 35.247 35.054 34.949 34.874 34.754 34.794 34.722 34.707 34.667 34.617 34.694 34.687 34.634 34.789 34.812 34.917 34.949 34.857 34.829 35.162 41.554 41.677 41.789 41.922 42.049 42.062 41.927 41.807 41.689 41.574 41.447 41.334 41.142 39.699 39.872 39.982 40.087 40.199 41.067 41.924 42.057 42.179 42.102 41.999 41.474 32.302 31.944 31.679 31.547 32.792 36.769 36.742 36.832 36.912 36.972 36.979 36.997 37.159 38.162 39.534 40.772 41.002 41.007 40.977 40.297 38.652 36.997 37.012 36.999 37.089 36.827 36.774 36.717 36.712 36.707 36.614 36.519 36.182 36.082 36.047 36.004 36.094 35.884 35.699 37.969 38.104 36.287 38.542 39.012 39.047 36.529 35.372 35.282 35.317 35.284 35.359 35.584 35.652 35.659 35.739 35.877 36.014 36.192 36.299 36.429 36.612 36.832 36.992 36.997 37.007 37.087 37.137 37.191 37.261 37.316 37.359 37.411 37.474 37.529 37.581 37.606 37.641 37.656 37.696 37.731 37.814 37.809 37.839 37.841 37.954 38.116 37.801 37.976 38.051 38.161 38.744 40.939 41.124 41.849 41.216 41.184 41.206 42.066 41.994 41.316 41.306 41.306 41.269 41.241 41.829 41.666 41.246 41.234 41.269 41.341 41.536 42.041 42.859 43.171 42.881 42.414 42.089 41.856 41.719 41.739 41.829 41.894 41.894 41.831 41.741 41.744 41.649 41.589 41.551 41.439 41.351 41.224 41.034 40.839 40.714 40.481 39.779 39.144 39.074 39.036 39.056 39.014 38.976 38.981 38.966 38.934 38.901 38.866 38.846 38.789 38.776 38.709 38.624 38.569 38.546 38.499 38.394 38.299 38.179 38.111 38.009 45.461 50.151 50.179 50.209 50.246 50.286 50.331 50.374 50.416 50.454 50.501 50.541 50.579
58.902 58.385 57.845 57.215 56.542 55.807 55.105 54.5 54.095 54.205 53.78 53.905 59.267 59.46 56.102 53.415 53.252 52.357 51.815 52.275 51.984 51.707 51.649 51.569 51.429 51.334 51.237 51.174 50.879 50.144 54.544 55.922 56.377 56.004 55.494 50.179 49.832 49.652 49.549 49.399 49.234 49.094 48.969 48.814 48.734 50.452 50.384 50.449 48.382 48.502 48.462 52.499 54.267 54.504 53.792 48.422 48.289 47.862 47.487 47.149 46.852 46.832 46.587 46.299 45.857 45.859 45.937 45.912 45.902 45.962 45.974 45.932 45.757 51.889 51.422 50.272 45.634 47.334 45.312 45.359 46.384 45.512 45.459 45.167 44.747 49.822 50.469 50.477 49.104 44.702 44.512 44.372 44.304 44.324 44.402 44.444 44.427 44.339 44.402 44.464 44.994 46.682 43.887 44.749 49.312 49.972 50.137 49.489 47.159 43.042 42.784 42.569 42.367 42.244 42.134 42.017 41.899 41.814 41.822 41.812 41.722 43.107 47.217 47.269 47.607 47.299 46.772 44.447 41.082 42.447 41.192 41.037 40.504 40.367 40.287 40.189 40.109 40.039 40.027 39.974 39.902 40.262 39.677 39.627 39.477 39.277 39.079 38.867 42.889 40.187 38.754 38.724 38.692 38.652 38.577 38.512 38.409 38.194 38.112 38.112 38.027 38.057 38.044 40.549 40.064 37.972 37.869 37.824 37.789 37.797 37.814 37.827 37.854 37.834 37.802 37.817 37.742 37.772 37.652 37.607 37.759 37.697 37.622 37.384 36.247 42.472 42.734 43.002 43.289 43.569 43.572 43.299 43.004 42.737 42.487 36.114 35.822 35.729 35.634 35.534 35.457 35.404 35.342 35.282 35.214 35.144 35.229 35.397 35.207 35.169 35.019 34.912 34.819 34.722 34.649 34.674 34.662 34.627 35.417 34.869 34.619 35.469 35.009 34.852 38.454 34.897 34.942 34.774 37.597 41.839 41.959 42.094 41.997 41.884 41.759 41.642 41.527 41.402 41.279 40.484 39.809 39.922 40.037 40.139 40.247 40.352 40.467 42.092 42.132 42.014 41.912 41.812 41.702 41.254 32.069 31.829 31.277 31.772 37.474 36.707 36.779 36.857 36.922 36.867 36.822 37.077 36.969 37.167 36.994 36.984 37.127 37.019 37.174 36.989 36.974 37.037 36.829 36.784 36.742 36.699 36.692 36.692 36.669 36.617 36.564 36.459 36.329 36.207 36.042 35.929 35.827 35.697 37.139 38.112 37.734 35.719 38.997 39.037 38.947 35.409 36.572 35.284 35.299 35.239 35.539 35.554 35.614 35.684 35.822 35.947 36.169 36.252 36.384 36.707 36.744 36.922 36.872 37.277 37.004 37.054 37.116 37.186 37.231 37.286 37.336 37.391 37.449 37.499 37.531 37.571 37.599 37.644 37.669 37.689 37.739 37.769 37.774 37.904 38.279 37.704 37.894 37.959 38.049 38.541 40.409 41.136 42.204 41.436 41.119 41.166 41.204 41.246 41.256 41.451 42.409 41.616 41.166 41.814 42.489 41.364 41.164 41.209 41.284 41.446 41.974 42.739 43.069 42.759 42.311 41.951 41.701 41.569 41.501 41.496 41.536 41.526 41.539 41.546 41.551 41.531 41.509 41.489 41.379 41.261 41.061 40.741 40.394 39.899 39.291 39.361 39.034 38.991 38.986 39.014 38.961 38.976 38.931 38.926 38.906 38.864 38.844 38.804 38.761 38.701 38.636 38.611 38.591 38.554 38.506 38.441 38.361 38.256 38.186 38.091 38.104 50.244 50.261 50.294 50.329 50.366 50.409 50.461 50.491 50.541 50.586 50.621 50.664
58.87 58.38 57.84 57.187 56.49 55.767 55.04 54.432 54.08 53.98 53.67 54.245 59.35 59.372 54.105 53.447 53.202 52.707 51.857 52.04 51.894 51.794 51.677 51.592 51.514 51.409 51.307 51.287 50.794 54.724 56.022 56.374 55.882 54.699 51.679 51.557 49.952 49.802 49.654 49.522 49.394 49.222 49.107 48.922 48.809 48.737 48.644 48.442 48.402 48.417 49.199 48.472 53.749 54.387 54.349 53.269 48.462 48.264 47.817 47.379 47.044 46.849 46.719 46.532 46.259 46.157 45.989 45.932 45.904 46.819 50.142 45.884 46.049 46.309 47.312 45.667 45.597 46.192 47.439 46.129 45.289 45.239 45.332 45.042 44.794 44.512 49.942 50.594 46.179 44.587 44.487 44.347 44.317 44.299 44.337 44.762 44.427 44.377 44.279 44.312 44.444 46.707 45.989 43.784 45.397 49.462 50.099 50.024 44.897 43.062 43.009 43.022 42.404 42.272 42.147 42.022 41.954 42.007 41.959 42.634 45.092 47.342 47.857 48.252 47.164 46.629 41.839 41.229 41.387 41.179 41.447 40.692 40.594 40.482 40.374 40.279 40.222 40.259 40.084 39.989 39.912 39.782 39.982 39.629 39.539 39.362 39.164 39.014 38.894 38.822 38.804 38.764 38.727 38.679 38.639 38.507 38.334 38.269 38.204 38.122 38.359 38.117 38.117 38.262 38.199 37.919 37.869 37.832 37.799 37.809 37.834 37.869 37.877 37.897 37.954 37.972 38.047 38.002 37.689 37.627 37.587 37.672 37.637 37.367 37.169 37.604 42.527 42.797 43.082 43.352 43.629 43.509 43.244 42.474 36.029 35.887 35.777 35.722 35.629 35.544 35.479 35.427 35.367 35.307 35.199 35.137 35.289 35.262 35.254 35.099 34.997 34.974 34.864 34.792 34.692 34.612 34.632 34.624 34.602 35.074 34.532 34.549 35.582 34.779 34.822 34.837 34.869 34.814 34.762 40.487 42.062 41.944 41.829 41.717 41.594 41.482 41.349 41.202 40.109 39.862 39.969 40.084 40.202 40.312 40.407 40.524 40.634 40.767 41.949 41.829 41.727 41.617 41.522 41.419 37.052 31.964 31.757 32.627 38.972 36.919 36.687 36.754 36.839 36.852 36.847 36.839 36.842 36.959 36.859 36.837 36.962 36.779 36.977 36.857 36.834 36.804 36.767 36.702 36.674 36.667 36.662 36.682 36.632 36.612 36.624 36.589 36.432 36.289 36.209 36.097 35.972 35.772 35.557 35.749 35.389 35.409 38.947 39.014 39.049 35.862 35.669 35.702 35.289 35.249 35.324 35.572 35.589 35.627 35.762 35.899 36.122 36.214 36.364 36.547 36.712 36.834 36.797 37.337 36.932 36.979 37.041 37.116 37.174 37.226 37.281 37.329 37.379 37.416 37.441 37.501 37.521 37.564 37.606 37.629 37.651 37.694 37.696 37.686 37.654 37.621 37.809 37.886 37.954 38.464 39.986 41.396 42.016 41.486 41.071 41.114 41.151 41.181 41.189 41.186 41.146 41.139 41.104 41.506 41.786 41.194 41.106 41.139 41.219 41.461 41.899 42.616 43.049 42.691 42.214 41.801 41.574 41.454 41.419 41.414 41.436 41.429 41.424 41.469 41.476 41.466 41.459 41.359 41.226 40.836 40.436 39.841 39.321 39.141 38.999 39.009 40.221 38.964 38.914 38.896 38.954 38.921 38.916 38.894 38.846 38.861 38.826 38.756 38.681 38.644 38.641 38.609 38.586 38.576 38.496 38.429 38.386 38.336 38.276 38.239 38.216 45.804 50.354 50.379 50.409 50.449 50.484 50.534 50.576 50.616 50.656 50.699 50.736
58.905 58.392 57.812 57.235 56.512 55.722 54.987 54.327 54.065 54.045 53.54 56.4 59.44 59.317 54.24 53.442 53.2 52.477 51.96 51.875 51.894 51.859 51.744 51.664 51.582 51.492 52.677 51.402 50.784 50.524 55.632 56.259 56.072 55.187 51.844 50.114 50.002 49.897 49.782 49.644 49.477 49.312 49.172 49.004 48.884 48.787 48.694 49.569 48.514 48.414 51.127 53.547 54.157 54.562 54.094 51.632 48.339 48.359 48.077 47.622 47.229 46.922 46.779 46.609 46.427 46.229 46.069 45.979 46.774 52.027 51.679 49.437 45.862 45.807 46.349 45.677 45.647 46.009 45.824 45.342 45.272 45.194 45.417 45.064 44.932 44.694 44.817 44.787 44.632 44.527 44.392 44.342 44.324 44.292 44.259 44.329 44.804 44.389 44.317 44.834 44.502 44.422 46.584 44.239 43.772 46.632 49.602 49.304 48.654 43.109 43.102 42.934 42.784 42.289 42.174 42.114 42.179 42.149 42.192 47.179 47.777 47.999 48.184 47.647 47.117 41.954 41.129 41.254 41.397 41.089 40.859 40.784 40.667 40.562 40.452 40.474 40.472 40.234 40.037 39.959 39.887 39.789 39.677 39.802 39.574 39.472 39.264 39.109 39.009 38.989 38.882 38.857 38.804 38.747 38.592 38.464 38.422 38.309 38.227 38.277 38.139 38.144 38.172 38.242 38.814 38.707 38.727 37.854 37.862 37.864 37.887 37.899 37.957 38.062 38.027 38.002 38.134 38.094 37.929 37.647 37.607 37.609 37.692 37.487 37.212 36.747 38.914 42.599 42.864 43.144 43.412 43.684 42.552 36.107 35.932 35.809 35.764 35.714 35.627 35.557 35.494 35.452 35.404 35.319 36.632 35.814 35.364 35.407 35.214 35.114 35.032 35.032 34.929 34.819 34.754 34.652 34.569 34.594 34.584 34.559 34.502 34.467 34.534 34.704 34.764 34.814 34.814 34.987 34.849 34.757 41.894 41.767 41.647 41.539 41.427 41.304 40.972 39.792 39.909 40.032 40.147 40.254 40.364 40.484 40.594 40.649 40.514 40.377 40.824 41.657 41.552 41.439 41.342 41.222 38.787 33.799 31.847 31.472 35.562 38.114 37.467 36.692 36.724 36.749 36.767 36.794 36.792 36.789 36.812 36.807 36.782 36.767 36.747 36.749 36.737 36.704 36.702 36.712 36.749 36.709 36.642 36.614 36.632 36.609 36.684 37.299 36.957 36.344 36.267 36.247 36.127 35.957 35.767 35.574 35.434 35.377 39.272 39.002 38.567 35.897 35.372 35.889 35.254 35.257 35.222 35.462 35.557 35.574 35.704 35.839 36.042 36.139 36.242 36.397 36.619 36.789 36.737 36.794 36.864 36.909 36.979 37.046 37.096 37.154 37.211 37.264 37.309 37.349 37.376 37.451 37.449 37.501 37.521 37.549 37.574 37.609 37.636 37.616 37.581 37.549 37.736 37.794 37.871 38.389 39.884 40.851 40.926 40.966 40.999 41.036 41.059 41.089 41.126 41.056 40.984 40.879 41.041 41.041 41.051 41.016 41.046 41.081 41.144 41.516 41.826 42.254 42.936 42.684 42.226 41.766 41.499 41.419 41.356 41.329 41.334 41.351 41.361 41.391 41.409 41.381 41.336 41.124 40.641 39.984 39.249 39.119 38.934 39.014 38.971 38.969 38.944 38.914 38.864 38.881 38.911 38.866 38.861 38.804 38.819 38.834 38.806 38.754 38.694 38.654 38.631 38.591 38.609 38.546 38.489 38.441 38.411 38.384 38.341 38.301 38.226 38.161 50.441 50.464 50.481 50.534 50.566 50.599 50.659 50.694 50.746 50.761 50.804
58.962 58.417 57.825 57.235 56.52 55.707 54.932 54.207 54.032 53.872 53.545 57.99 59.527 59.227 56.31 53.907 53.347 52.26 52.117 51.947 51.927 51.919 51.832 51.752 51.667 51.569 52.479 51.514 50.959 50.682 50.454 55.754 56.357 55.967 54.644 52.617 50.052 49.962 49.842 49.754 49.579 49.432 49.279 49.149 49.022 48.934 48.809 48.804 48.832 48.847 53.739 54.247 54.472 53.949 50.427 48.252 48.177 48.219 48.154 47.677 47.182 46.947 46.754 46.642 46.474 46.284 46.139 46.007 46.512 51.514 52.074 51.567 47.869 45.837 45.857 45.912 45.612 45.502 45.417 45.327 45.247 45.174 45.114 45.119 45.029 44.807 44.819 44.672 44.547 44.412 44.369 44.337 44.282 44.244 44.189 44.247 44.324 44.412 44.329 44.254 45.089 44.384 44.804 44.277 44.712 47.777 49.069 49.679 49.172 48.422 43.272 43.072 42.844 42.584 42.267 42.222 42.264 42.287 47.702 48.214 48.729 48.102 47.529 46.742 41.974 43.947 42.967 41.384 41.239 41.194 40.992 40.849 40.742 40.669 40.669 40.627 40.589 40.384 40.079 39.967 39.829 39.802 39.747 39.672 39.614 39.529 39.362 39.179 39.089 39.029 39.014 39.164 38.947 38.734 38.609 38.554 38.382 38.364 38.224 38.119 38.137 38.192 38.314 38.179 38.759 38.759 37.929 37.922 37.914 37.939 37.937 37.939 38.052 38.194 38.817 37.987 38.117 39.707 38.049 37.829 37.622 37.582 37.639 37.627 37.957 37.057 36.389 40.717 42.647 42.914 43.204 37.862 36.107 36.014 35.932 35.882 35.789 35.714 35.644 35.584 35.522 35.459 35.447 35.419 35.412 35.509 35.387 35.327 35.267 35.332 35.217 35.167 34.989 34.879 34.799 34.712 34.622 34.542 34.547 34.547 34.514 34.464 34.534 34.489 34.702 34.734 34.784 34.874 34.864 35.239 36.907 41.602 41.479 41.364 41.244 39.999 39.849 39.954 40.079 40.207 40.322 40.424 40.534 40.664 40.602 40.474 40.339 40.212 40.092 41.267 41.372 41.269 41.107 41.294 41.422 40.797 32.019 31.772 34.649 36.499 36.799 36.857 36.697 36.679 36.712 36.762 36.754 36.752 36.767 36.769 36.739 36.694 36.677 36.659 36.654 36.639 36.724 36.809 40.989 41.257 37.864 36.577 36.877 37.889 36.734 39.402 36.412 36.389 36.347 36.289 36.322 36.139 35.947 35.749 35.582 35.482 36.394 35.289 35.264 35.192 35.482 35.742 35.284 35.252 35.214 35.424 35.522 35.517 35.644 35.784 35.982 36.127 36.269 36.372 36.539 36.707 36.657 36.709 36.789 36.839 36.914 36.964 37.024 37.081 37.141 37.191 37.246 37.286 37.314 37.356 37.379 37.414 37.444 37.449 37.494 37.536 37.566 37.546 37.516 37.479 37.651 37.716 37.789 38.379 39.896 40.936 41.271 40.886 40.916 40.771 40.481 40.379 40.436 40.466 40.454 40.654 40.974 41.186 41.241 41.004 40.979 41.014 41.064 41.316 41.689 42.064 43.904 42.741 42.299 41.819 41.466 41.341 41.271 41.259 41.254 41.269 41.319 41.329 41.329 41.301 41.074 40.324 39.586 39.049 38.916 38.916 39.196 39.944 39.346 38.966 38.911 38.859 38.836 38.881 38.846 38.806 38.769 38.711 38.729 38.784 38.786 38.801 38.754 38.704 38.651 38.614 38.576 38.559 38.516 38.451 38.436 38.411 38.376 38.329 38.264 38.141 47.641 50.544 50.576 50.606 50.651 50.684 50.729 50.776 50.804 50.844 50.884
58.962 58.412 57.777 57.15 56.46 55.68 54.89 54.142 53.99 53.932 53.515 58.797 59.597 59.117 54.135 53.877 53.395 52.405 52.062 52.232 53.094 52.457 51.927 51.839 51.757 51.649 51.557 51.619 50.814 50.624 51.252 54.242 55.869 56.389 55.817 53.992 50.324 50.092 49.947 49.804 49.687 49.594 49.412 49.252 49.164 49.019 49.279 51.399 50.619 54.507 54.717 54.319 53.809 48.877 48.244 48.124 48.034 47.934 47.854 47.399 47.177 46.959 46.802 46.652 46.524 46.369 46.204 46.087 46.094 47.964 51.654 52.059 51.442 46.457 45.842 45.729 45.617 45.497 45.389 46.232 45.157 45.187 45.022 45.044 45.032 44.922 44.779 44.594 44.449 44.387 44.332 44.294 44.237 44.209 44.172 44.119 44.244 44.892 44.347 44.274 44.209 44.704 44.379 45.537 44.264 43.174 48.559 49.204 49.664 49.047 48.199 43.069 42.947 42.697 42.479 42.284 42.859 47.832 48.354 48.817 48.502 47.979 45.684 41.692 42.229 43.944 42.489 41.392 41.644 41.372 41.027 40.912 40.807 40.864 41.007 41.237 40.754 40.584 40.142 40.017 39.844 39.789 39.804 39.759 39.639 39.557 39.482 39.332 39.187 39.119 39.102 39.154 38.864 38.767 38.684 38.474 38.329 38.282 38.129 38.077 38.117 38.162 38.247 38.824 38.162 38.029 37.992 37.982 37.982 37.984 37.969 37.962 37.947 38.367 37.967 37.967 37.994 38.139 38.107 38.249 37.859 37.587 37.549 37.619 37.569 37.239 36.782 36.547 42.424 42.717 37.252 36.422 37.034 36.002 35.962 35.919 35.822 35.739 35.677 35.617 36.242 35.527 35.507 35.507 35.529 35.542 35.432 35.404 35.739 35.537 35.392 35.294 35.164 35.019 34.842 34.749 34.672 34.597 34.507 34.517 34.504 34.472 34.649 35.634 34.439 34.637 34.699 34.737 34.792 34.794 35.262 40.279 41.302 41.439 39.762 39.894 40.017 40.139 40.244 40.364 40.494 40.607 40.679 40.554 40.429 40.312 40.184 40.062 39.929 39.809 41.199 41.162 41.317 41.452 41.579 41.707 39.727 31.917 31.964 36.424 32.317 36.862 36.644 36.699 36.684 36.687 36.704 36.707 36.699 36.692 36.662 36.639 36.597 36.602 36.662 37.239 41.952 45.382 45.539 45.702 36.414 36.584 37.764 38.647 38.104 36.332 36.197 36.812 37.457 36.169 36.304 36.214 36.084 35.889 35.694 35.572 35.577 35.509 35.332 35.114 35.687 35.322 35.197 35.224 35.227 35.212 35.464 35.464 35.604 35.729 35.899 36.119 36.287 36.339 36.499 36.612 36.644 36.629 36.767 36.767 36.839 36.901 36.946 37.011 37.069 37.116 37.174 37.214 37.246 37.281 37.309 37.346 37.364 37.361 37.416 37.464 37.499 37.489 37.434 37.389 37.579 37.629 37.686 38.459 39.626 39.706 39.851 40.139 40.216 40.239 40.266 40.656 40.356 40.424 40.606 40.586 40.939 40.939 41.099 40.999 40.894 40.929 40.984 41.141 41.439 41.879 42.491 43.119 42.389 41.869 41.476 41.274 41.214 41.199 41.194 41.206 41.214 41.256 41.259 41.236 40.834 39.371 39.006 38.981 38.901 38.916 39.016 38.974 41.121 38.946 38.899 38.871 38.854 38.884 38.804 38.789 38.759 38.746 38.716 38.716 38.766 38.794 38.739 38.689 38.641 38.619 38.571 38.529 38.536 38.499 38.449 38.416 38.404 38.376 38.274 38.126 38.036 50.644 50.664 50.686 50.726 50.761 50.791 50.844 50.886 48.944 38.904
58.877 58.307 57.675 57.027 56.402 55.602 54.832 54.08 54.005 53.872 53.49 58.9 59.647 59.032 53.452 53.44 53.417 52.295 52.137 52.88 53.922 52.302 52.024 51.934 51.847 51.747 51.629 51.709 51.029 50.787 50.499 51.797 54.484 56.004 56.314 55.694 50.189 50.159 50.059 49.917 49.784 49.697 49.487 49.374 49.309 49.244 48.949 53.997 54.612 55.089 54.809 53.657 48.379 48.294 48.164 48.079 47.929 48.132 47.574 47.402 47.224 47.014 46.852 46.672 46.589 46.444 46.287 46.159 46.127 46.072 50.349 51.802 51.977 51.317 46.162 45.709 45.592 45.454 45.304 45.212 45.732 45.042 44.952 44.894 44.929 44.854 44.652 44.552 44.452 44.567 44.372 44.414 44.372 44.332 44.297 44.237 44.144 44.314 44.312 44.292 44.207 44.907 44.349 44.369 44.447 43.449 43.264 48.684 49.342 49.574 48.914 44.789 42.949 42.819 42.782 45.604 47.969 48.467 48.852 48.364 47.817 44.109 43.047 41.994 41.902 41.714 41.939 41.649 41.299 41.192 41.082 40.964 40.899 41.244 41.387 41.179 41.069 40.814 40.427 39.939 39.882 39.834 39.812 39.807 39.787 39.574 39.497 39.432 39.309 39.232 39.129 39.009 38.917 38.822 38.662 38.469 38.474 38.277 38.107 38.089 38.189 38.714 44.804 45.379 39.524 38.149 38.027 38.062 38.052 38.042 38.014 37.969 37.957 37.964 37.957 39.054 38.252 38.152 38.132 38.057 38.064 37.632 37.552 37.532 37.577 37.374 37.054 36.679 37.027 37.102 36.239 36.184 36.822 36.219 35.964 35.892 35.819 35.744 35.697 35.652 35.644 39.459 35.584 35.612 35.782 35.629 35.487 35.464 35.509 35.492 35.512 35.484 35.347 35.267 35.049 34.804 34.714 34.637 34.567 34.474 34.484 34.462 34.437 34.474 34.369 34.409 34.607 34.647 35.194 36.894 34.972 34.742 40.912 39.834 39.944 40.057 40.182 40.304 40.409 40.537 40.662 40.654 40.514 40.387 40.259 40.144 40.017 39.902 39.774 39.662 39.679 41.354 41.487 41.622 41.752 39.832 34.832 33.289 31.779 31.409 31.592 35.324 36.654 36.634 36.667 36.677 36.624 36.654 36.639 36.597 36.582 36.609 36.617 36.709 41.912 45.387 45.549 45.702 45.847 46.019 41.479 36.429 36.522 38.537 38.012 36.347 36.154 36.184 36.137 36.162 36.412 36.102 36.099 35.979 35.857 36.682 35.532 35.539 35.277 35.142 35.149 35.582 35.222 35.174 35.217 35.192 35.402 35.417 35.557 35.687 35.827 36.044 36.197 36.309 36.482 36.527 36.522 36.587 36.967 36.714 36.966 36.819 36.876 36.954 37.004 37.044 38.556 37.141 37.546 37.209 37.244 37.276 37.299 37.309 37.331 37.394 37.434 37.421 37.371 37.309 37.496 37.554 37.616 38.309 38.904 39.259 39.499 39.919 42.841 43.386 43.564 43.644 40.789 40.356 40.426 40.351 40.416 40.941 41.369 40.961 40.814 40.844 40.901 41.011 41.224 41.589 42.119 43.449 42.459 41.991 41.551 41.281 41.171 41.129 41.131 41.126 41.114 41.149 41.171 41.144 40.759 39.639 38.986 39.496 38.919 38.876 38.949 38.986 38.974 38.966 40.391 42.166 41.391 39.089 38.811 38.784 38.754 38.731 38.724 38.711 38.716 38.749 38.766 38.709 38.646 38.634 38.594 38.589 38.571 38.541 38.516 38.466 38.441 38.414 38.346 38.164 38.049 45.909 50.736 50.776 50.804 50.839 50.876 50.076 38.819 38.439 38.416
58.907 58.305 57.65 56.967 56.292 55.575 54.835 54.012 53.915 53.737 53.565 55.632 57.8 57.565 53.447 53.525 53.515 53.12 52.817 52.382 52.502 52.194 52.104 52.032 51.934 51.837 51.739 51.769 51.694 51.022 50.687 50.432 53.049 55.349 56.147 56.197 55.244 51.492 51.204 50.002 49.879 49.719 49.609 49.542 49.452 49.474 54.634 54.722 55.089 54.664 52.924 48.839 48.284 48.684 48.094 47.994 47.964 47.729 47.582 47.592 47.157 47.022 46.894 46.729 46.612 46.494 46.337 46.247 46.157 46.129 46.032 50.387 49.214 46.262 45.769 45.682 46.159 45.389 45.292 45.209 45.124 45.004 44.939 44.874 44.824 44.759 44.649 44.724 45.699 44.579 44.569 44.632 44.552 44.519 44.462 44.357 44.257 44.182 44.264 44.302 44.232 44.137 44.139 44.299 44.432 44.044 43.397 45.659 48.829 49.474 49.442 48.797 43.054 42.882 47.232 48.704 48.697 48.752 48.239 47.724 43.392 42.272 42.154 42.344 41.882 41.632 42.137 41.469 41.357 41.237 41.132 41.124 41.009 41.172 41.037 40.989 41.007 41.002 40.709 40.437 40.057 39.882 39.784 39.787 39.782 39.744 39.577 39.457 39.392 39.249 39.122 39.052 38.932 38.859 38.707 38.644 38.592 38.469 38.089 38.154 39.177 45.617 47.357 46.222 45.119 38.184 38.159 38.109 39.634 38.319 38.047 37.997 37.974 37.982 38.024 38.242 38.162 38.199 38.274 38.097 37.789 37.597 37.554 37.537 37.534 37.532 37.227 36.864 36.487 36.562 37.819 36.214 36.149 36.054 35.974 35.917 35.847 35.792 35.744 35.687 35.677 35.679 35.759 36.149 36.149 35.894 35.629 35.557 35.532 35.569 35.622 35.619 35.599 35.557 35.394 35.074 34.769 34.684 34.594 34.549 34.429 34.442 34.434 34.404 34.399 35.812 34.379 34.534 34.602 34.912 36.272 34.804 37.114 39.997 40.114 40.224 40.342 40.469 40.587 40.689 40.579 40.472 40.344 40.217 40.094 39.982 39.864 39.734 40.337 36.692 34.829 39.859 41.662 41.797 35.359 34.824 35.562 35.054 32.079 31.752 31.134 32.234 36.404 36.632 36.674 36.679 36.627 36.634 36.624 36.594 36.619 36.662 43.434 45.397 45.547 45.707 45.862 46.019 46.159 46.314 46.467 36.194 40.907 37.352 36.872 36.187 36.107 36.092 36.099 36.104 35.992 36.032 36.019 36.064 37.169 36.664 35.989 35.477 35.332 35.157 37.592 37.309 35.267 35.149 35.194 35.202 35.364 35.372 35.507 35.627 35.767 35.989 36.129 36.277 36.469 36.389 36.444 36.517 36.587 36.664 36.891 36.759 36.816 36.881 36.939 36.974 38.194 37.069 37.189 37.134 37.176 37.204 37.229 37.234 37.254 37.319 37.366 37.356 37.309 37.239 37.424 37.486 37.534 38.299 38.649 38.824 40.894 43.559 43.726 43.781 43.809 43.866 43.771 43.271 43.646 40.199 40.331 40.434 40.501 40.871 40.834 40.766 40.816 40.864 41.034 41.336 41.764 42.309 43.451 42.139 41.694 41.326 41.129 41.071 41.066 41.056 41.026 41.069 41.099 41.069 40.894 40.099 39.069 41.584 40.591 38.884 38.939 38.971 40.809 42.519 42.379 42.234 42.084 39.211 38.844 38.799 38.744 38.734 38.719 38.709 38.734 38.739 38.731 38.716 38.659 38.629 38.611 38.629 38.599 38.571 38.559 38.541 38.486 38.414 38.394 38.269 38.094 38.554 50.826 50.844 50.891 50.731 39.919 38.421 38.374 38.354 38.356
58.885 58.297 57.607 56.852 56.177 55.47 54.81 54.187 54.16 53.955 53.717 53.77 53.587 53.472 53.497 53.555 53.63 53.675 53.257 53.647 52.537 52.259 52.197 52.119 52.022 51.922 51.859 51.854 51.764 51.469 51.072 50.644 50.607 50.222 55.609 56.254 56.082 54.779 50.439 50.069 49.967 49.844 49.669 51.764 51.307 54.937 55.447 55.272 54.527 51.189 48.757 48.677 48.599 50.352 48.032 47.917 47.749 47.707 47.592 47.502 47.172 47.047 46.927 46.847 46.612 46.517 46.937 48.977 46.749 48.374 46.074 46.364 46.207 45.839 45.737 46.659 45.482 47.027 45.314 45.227 45.132 45.037 44.962 44.884 44.817 44.739 44.652 44.572 44.637 45.059 44.712 44.702 44.752 44.717 44.619 44.532 44.347 44.212 44.192 44.254 44.252 44.152 44.862 44.309 44.627 46.132 44.137 43.134 45.017 48.954 48.974 43.017 42.937 48.327 48.832 49.354 49.239 48.112 46.734 42.369 42.412 42.354 42.249 42.034 41.804 41.732 41.624 41.509 41.384 41.287 41.094 40.989 40.834 41.077 40.927 40.972 41.017 40.982 40.957 40.962 40.842 40.247 39.792 39.774 39.787 39.774 39.659 39.549 39.387 39.272 39.172 39.087 39.022 38.922 40.734 38.709 42.767 38.357 38.164 41.829 46.779 48.109 48.202 47.102 45.992 44.902 38.249 38.539 38.237 38.244 38.119 38.012 37.987 37.997 38.012 38.177 38.319 38.429 38.249 37.742 38.777 37.609 37.714 37.532 37.509 37.547 37.409 37.129 38.012 36.682 38.932 37.284 36.154 36.082 36.012 35.957 35.892 36.417 35.912 36.824 35.839 36.472 36.574 36.524 36.472 36.174 36.814 36.264 35.562 35.562 35.654 35.699 35.804 35.842 35.684 35.474 35.074 34.734 34.652 34.552 34.509 34.389 34.397 34.397 34.364 34.352 34.772 34.289 34.487 34.607 34.677 34.912 39.517 40.169 40.284 40.392 40.512 40.632 40.649 40.532 40.404 40.289 40.182 40.062 39.939 39.814 39.652 39.477 35.014 35.079 34.792 34.732 40.814 34.837 34.804 36.012 35.014 34.819 34.859 31.852 31.694 31.082 37.577 37.639 37.094 36.697 36.627 36.542 36.582 36.542 43.009 45.404 45.547 45.707 45.852 46.017 46.174 46.319 46.462 46.329 46.184 45.862 46.684 36.262 36.162 36.184 36.079 36.049 36.022 36.169 36.207 35.977 37.789 36.039 36.392 35.767 35.742 36.404 35.554 35.232 36.074 35.779 35.137 35.087 35.164 35.207 35.364 35.309 35.454 35.579 35.714 35.947 36.152 36.227 36.384 36.304 36.372 36.447 36.519 36.587 36.649 36.686 36.754 36.819 36.859 36.911 36.956 36.999 37.569 37.104 37.256 37.134 37.164 37.174 37.181 37.249 37.281 37.299 37.236 37.181 37.341 37.416 37.459 38.114 38.264 38.436 43.384 43.764 43.896 44.006 44.036 44.069 43.964 43.884 43.626 40.326 40.244 40.369 40.434 40.566 40.816 40.709 40.711 40.751 40.869 41.056 41.436 41.896 42.946 42.234 41.904 41.431 41.166 41.051 41.009 40.981 40.961 40.991 41.016 40.974 40.909 40.426 39.584 39.066 38.879 38.879 39.371 42.139 42.294 42.449 42.471 42.306 42.151 40.976 38.694 38.794 38.751 38.729 38.709 38.719 38.709 38.739 38.709 38.699 38.654 38.606 38.616 38.599 38.554 38.599 38.581 38.571 38.524 38.456 38.446 38.401 38.256 38.049 47.909 49.809 39.419 38.419 38.399 39.404 38.939 38.271 38.369
58.812 58.167 57.49 56.797 56.057 55.505 54.927 54.565 54.71 54.605 54.582 54.77 55.125 55.217 54.777 54.487 54.077 53.71 53.11 53.592 52.849 52.327 53.687 52.197 52.117 52.647 51.982 51.969 51.817 51.747 51.569 51.079 50.749 50.384 50.162 55.717 56.339 55.937 51.892 50.139 50.072 50.257 50.064 52.324 55.057 55.579 55.499 54.977 49.677 48.729 48.599 48.517 48.434 48.394 48.012 47.877 47.712 47.494 47.297 46.922 46.852 47.072 46.979 46.784 46.624 46.524 49.439 48.962 52.297 51.774 46.699 45.999 45.929 45.852 45.644 45.742 46.537 45.402 45.314 45.237 45.159 45.069 44.997 44.912 44.827 44.752 44.697 44.757 44.757 44.702 44.649 44.852 45.037 45.039 44.909 44.654 44.457 44.249 44.127 44.202 44.244 44.187 44.082 45.034 44.184 45.004 44.597 43.607 43.812 47.059 43.217 43.162 43.044 48.952 49.424 49.094 48.567 47.227 42.367 42.489 42.474 42.357 42.194 43.454 42.107 41.794 41.664 41.612 41.509 41.152 40.829 40.837 40.774 40.807 40.862 40.934 40.967 40.949 41.027 41.014 40.962 40.794 39.982 39.737 39.719 39.734 39.732 39.527 39.347 39.229 39.304 39.164 39.054 38.977 39.062 38.814 38.564 38.197 38.169 45.042 46.157 47.267 48.342 47.952 46.859 45.767 44.362 39.114 38.309 38.147 38.067 38.022 38.004 38.007 38.132 38.227 38.194 37.962 37.732 37.662 37.639 38.377 37.859 37.877 37.509 37.479 37.474 37.294 38.132 39.229 36.979 36.462 37.579 36.127 36.064 36.012 36.244 36.644 36.032 36.412 36.367 36.722 36.824 36.642 36.554 37.422 35.897 35.747 36.067 35.594 35.647 35.704 35.829 35.974 35.932 35.799 35.447 35.042 34.702 34.622 34.514 34.474 34.362 34.364 34.357 34.329 34.367 35.227 34.227 34.567 34.602 35.227 34.734 40.504 40.454 40.567 40.672 40.592 40.479 40.364 40.239 40.119 40.012 39.899 39.772 40.647 37.237 35.244 34.987 34.702 35.544 34.674 34.739 34.752 34.752 34.759 34.772 35.292 35.622 34.637 31.797 32.414 37.344 38.942 38.064 36.917 36.639 36.619 37.054 37.294 40.179 45.714 45.877 46.019 46.184 46.327 46.452 46.314 46.167 46.002 45.862 44.884 36.612 36.219 36.137 36.077 36.047 36.007 35.989 36.037 36.032 35.982 36.134 35.997 35.989 35.749 35.589 35.957 36.804 35.274 35.297 35.124 35.112 35.104 35.122 35.189 35.332 35.264 35.399 35.529 35.659 35.872 36.044 36.152 36.319 36.232 36.317 36.377 36.434 36.504 36.594 36.646 36.671 36.731 38.161 36.824 36.881 36.911 37.534 37.074 37.166 37.071 37.096 37.124 37.134 37.179 37.201 37.214 37.174 37.101 37.304 37.331 37.376 37.689 37.649 39.926 43.704 43.879 44.066 44.211 44.254 44.236 44.169 43.931 43.706 42.194 40.201 40.291 40.359 40.389 40.764 40.694 40.639 40.656 40.696 40.844 41.086 41.414 41.871 42.986 42.029 41.601 41.244 41.076 40.949 40.881 40.886 40.911 40.906 40.889 40.844 40.699 40.046 39.214 38.909 38.896 38.981 42.064 42.211 42.361 42.504 42.389 42.231 42.079 38.781 38.774 38.756 38.731 38.714 38.721 38.699 38.744 38.729 38.706 38.656 38.601 38.601 38.604 38.546 38.591 38.579 38.564 38.536 38.479 38.519 38.541 38.476 38.311 38.676 38.436 38.389 38.359 38.349 38.349 38.399 38.356 38.451
58.74 58.14 57.38 56.677 56.132 55.54 55.105 54.887 55.155 55.117 55.175 55.352 55.33 56.012 55.277 54.895 54.385 53.972 53.6 53.19 52.457 52.402 52.912 53.424 52.204 52.637 52.104 52.107 51.942 51.859 51.707 51.404 51.042 50.637 50.254 50.522 55.857 51.832 50.217 50.179 50.509 52.747 54.742 55.689 55.662 55.372 54.844 49.427 49.227 48.739 48.524 48.389 48.264 48.107 48.012 47.807 47.579 47.339 47.112 46.887 46.859 52.257 47.119 46.862 46.702 46.509 47.857 49.402 53.637 50.962 46.097 46.004 45.887 46.724 46.157 45.582 45.479 45.407 45.344 45.257 45.182 45.137 45.039 44.937 44.837 44.847 44.877 44.804 44.732 44.644 44.604 44.697 44.872 45.007 45.004 44.849 44.532 44.364 44.207 44.142 44.204 44.199 44.109 44.009 44.157 44.177 44.319 44.002 43.694 43.554 43.367 43.299 43.167 43.082 48.899 48.444 43.692 42.892 42.719 42.532 42.697 42.717 42.174 42.092 41.954 41.827 41.814 41.762 40.999 40.819 41.074 40.797 40.797 40.802 40.817 40.852 40.882 40.907 41.004 41.014 40.969 41.002 40.834 40.044 39.614 39.687 39.684 39.634 39.479 39.269 39.214 39.257 39.114 39.027 38.964 38.867 38.702 38.659 38.169 39.974 45.284 46.414 47.492 48.484 47.739 46.629 45.524 44.139 38.522 38.107 38.044 38.032 39.779 38.152 39.324 38.139 37.972 38.989 37.687 37.674 38.349 37.747 38.509 37.532 37.499 37.484 37.477 37.434 37.187 36.892 36.767 38.057 38.787 36.467 36.137 36.647 36.122 36.179 36.079 36.489 36.784 36.569 36.394 36.327 36.307 36.137 36.022 35.804 35.857 36.982 35.612 35.639 35.779 35.922 36.027 36.034 35.779 35.394 35.042 34.669 34.592 34.477 34.442 34.332 34.319 34.312 34.289 34.247 35.184 34.412 34.497 34.589 34.649 36.174 40.632 40.669 40.549 40.422 40.309 40.192 40.069 39.952 39.844 39.719 39.562 34.864 35.087 34.787 34.557 35.929 34.602 34.714 34.667 34.694 34.697 34.707 34.729 34.982 35.322 35.222 34.059 31.742 31.602 34.009 37.747 36.769 36.642 36.779 36.752 36.572 36.689 44.754 46.189 46.354 46.429 46.294 46.139 45.982 45.832 45.684 45.539 45.402 37.499 36.632 36.089 36.044 36.802 36.029 35.939 35.942 36.007 35.994 36.017 36.542 35.872 35.749 35.609 35.434 35.319 35.097 35.074 35.104 35.102 35.124 35.277 35.197 35.304 35.227 35.357 35.487 35.587 35.819 35.999 36.169 36.182 36.157 36.244 36.312 36.369 36.444 36.609 36.631 36.606 36.659 37.854 36.746 37.324 36.849 36.884 37.109 37.126 37.024 37.039 37.046 37.059 37.101 37.119 37.139 37.106 37.051 37.189 37.261 37.301 37.606 37.584 43.691 43.799 44.011 44.189 44.396 44.491 44.439 44.231 44.009 43.791 43.589 40.221 40.216 40.274 40.314 40.449 40.701 40.574 40.569 40.594 40.659 40.904 41.026 41.451 42.034 42.021 41.784 41.396 41.091 40.916 40.826 40.784 40.811 40.794 40.789 40.759 40.714 40.424 39.681 38.934 38.906 39.106 39.809 42.136 42.286 42.444 42.461 42.324 42.154 41.374 38.669 38.779 38.729 38.716 38.719 38.699 38.699 38.736 38.706 38.669 38.604 38.574 38.601 38.606 38.591 38.591 38.586 38.611 38.584 38.589 38.621 38.604 38.656 38.481 38.401 38.366 38.316 38.339 38.389 38.429 38.494 38.531
58.687 58 57.042 56.657 56.275 55.882 55.42 55.292 55.505 55.48 55.775 55.342 55.367 55.787 60.472 56.815 54.807 54.515 54.4 53.895 53.242 52.599 52.442 53.119 52.299 52.217 52.219 52.609 52.329 51.977 51.737 51.659 51.347 50.999 50.592 50.184 50.199 50.244 50.212 50.199 50.159 55.437 55.942 56.289 55.667 53.487 49.487 49.399 49.069 48.964 48.539 48.382 48.217 48.152 47.884 47.697 47.322 47.257 46.842 47.984 52.352 52.887 52.902 46.857 46.762 46.524 47.392 48.909 49.677 48.454 46.114 45.947 45.842 45.754 45.829 45.579 45.499 45.424 45.354 45.267 45.302 45.289 45.087 44.969 44.927 45.522 44.827 44.757 44.697 44.634 44.572 44.582 44.587 44.709 44.894 44.937 44.702 44.459 44.259 44.127 44.159 44.187 44.152 44.034 44.147 44.204 44.242 44.172 43.889 43.649 43.512 43.407 43.274 43.097 44.257 42.862 42.894 42.942 42.874 42.617 42.979 43.292 42.244 42.122 42.027 41.999 41.799 41.134 40.852 40.832 41.024 40.809 40.819 40.834 40.824 40.819 40.822 40.827 40.877 40.944 40.994 41.479 41.124 40.822 39.784 39.589 39.602 39.634 39.574 39.412 40.854 39.669 39.457 39.147 39.074 38.964 38.834 38.902 38.562 38.169 43.192 45.547 46.629 47.699 48.464 47.512 46.397 45.292 40.507 38.179 38.094 40.009 40.692 40.704 39.087 38.237 40.394 39.602 38.004 38.299 38.444 38.714 37.559 37.522 37.499 37.477 37.462 37.484 40.127 41.224 36.874 37.079 38.234 38.787 36.424 36.172 36.349 36.702 36.587 36.812 36.562 36.224 36.109 36.047 36.064 36.069 37.939 35.982 35.994 36.027 36.407 35.594 35.664 35.807 36.034 36.174 36.119 35.744 35.399 35.022 34.644 34.554 34.459 34.414 34.282 34.277 34.294 34.262 34.229 35.547 34.234 34.577 34.624 34.699 38.589 40.509 40.384 40.259 40.139 40.027 39.904 39.789 40.557 38.427 35.164 34.829 34.452 34.464 35.454 34.769 34.542 34.567 34.572 34.599 34.629 34.647 34.669 34.707 34.934 35.504 34.832 32.654 31.679 30.934 36.669 38.529 37.044 36.712 37.037 37.609 36.479 39.007 46.454 46.284 46.127 45.962 45.819 45.669 45.517 45.352 40.159 36.122 36.117 36.114 36.687 35.989 35.989 36.394 35.892 35.897 36.022 36.102 36.862 36.839 35.812 35.714 35.584 35.424 35.227 35.047 35.099 35.082 35.147 36.659 35.299 35.202 35.194 35.174 35.314 35.429 35.552 35.709 35.834 35.932 36.034 36.097 36.184 36.247 36.304 36.367 36.539 36.564 36.526 36.586 37.344 36.681 36.986 36.779 36.814 37.061 37.111 36.984 36.964 36.964 36.991 37.021 37.051 37.069 37.054 36.979 37.116 37.179 37.214 37.586 37.599 43.574 43.806 44.019 44.241 44.506 46.071 44.534 44.294 44.066 43.834 43.609 40.309 40.241 40.666 40.384 40.904 40.599 40.619 40.491 40.481 40.511 40.621 40.821 41.099 41.479 43.186 41.836 41.546 41.174 40.921 40.804 40.734 40.714 40.739 40.709 40.684 40.626 40.579 40.101 39.151 38.921 38.954 38.939 42.059 42.209 42.374 42.511 42.386 42.231 42.074 38.651 38.796 38.739 38.861 38.724 38.714 38.724 38.746 38.734 38.659 38.611 38.624 38.651 38.646 38.616 38.599 38.616 38.624 38.594 38.729 38.606 38.579 38.486 38.499 38.411 38.389 38.396 38.414 38.494 38.536 38.524 38.499
58.642 57.017 56.84 56.742 56.605 56.385 55.707 55.682 55.547 55.7 55.345 55.365 56.405 60.88 61.357 61.572 55.822 54.837 54.63 53.917 53.334 52.664 52.569 52.532 52.462 52.359 53.014 52.872 52.452 52.184 51.982 51.717 51.659 51.362 51.149 50.549 50.309 50.239 50.207 51.332 55.617 56.042 56.257 55.732 52.684 49.574 49.322 49.229 49.029 48.772 48.704 48.302 48.267 48.047 47.727 47.499 47.314 46.867 51.482 52.484 52.977 52.757 52.249 47.194 46.729 47.029 46.499 48.057 46.284 46.244 46.167 46.087 45.892 45.774 45.679 45.604 45.527 45.457 45.369 45.454 45.419 45.329 45.237 45.139 45.132 45.644 44.877 44.707 44.649 44.634 46.364 44.542 44.514 44.489 44.642 44.859 44.862 44.552 44.372 44.302 44.084 44.152 44.159 44.064 44.042 44.169 44.294 44.179 43.974 43.769 43.599 43.537 43.394 43.257 43.144 43.159 45.407 42.929 42.787 42.594 42.502 42.397 42.277 42.207 42.169 41.722 40.944 40.824 40.819 40.807 40.807 40.829 40.819 40.832 40.819 40.792 42.922 40.779 40.804 40.807 40.929 41.324 40.949 41.177 40.867 40.587 39.624 39.584 41.577 39.634 39.497 39.169 39.212 39.129 39.087 39.157 38.927 40.324 38.792 38.174 38.189 44.252 45.762 46.844 47.939 48.324 47.274 46.174 45.062 38.349 40.324 40.692 40.617 38.209 37.949 38.719 39.232 37.704 37.877 38.667 38.054 37.599 37.562 37.539 37.509 37.477 37.724 37.477 37.462 37.312 37.064 36.832 36.734 38.804 38.777 36.349 36.434 36.752 37.172 36.644 36.507 36.419 36.249 36.087 36.064 36.052 36.049 36.067 35.977 35.829 35.982 35.887 35.587 35.687 35.937 36.217 36.339 36.154 35.742 35.372 36.094 34.614 34.529 34.412 34.374 34.257 34.262 34.254 34.232 34.199 34.944 34.202 34.427 34.919 34.737 40.424 40.227 40.087 39.969 39.854 39.729 40.372 34.999 34.767 34.489 35.332 34.394 34.417 34.439 34.467 34.477 34.489 34.517 34.534 34.567 34.577 34.607 34.664 35.117 34.779 35.672 34.899 31.727 31.564 34.364 38.904 37.304 36.682 36.819 36.782 36.547 36.404 43.914 45.967 45.814 45.659 45.489 45.334 41.792 36.064 36.194 36.219 36.029 36.092 35.954 35.927 35.904 35.864 35.859 35.862 35.872 35.872 35.849 35.812 35.762 35.684 35.567 35.419 35.292 35.192 35.127 35.174 35.504 35.504 35.319 35.197 35.172 35.139 35.787 35.379 35.479 35.674 35.787 35.937 35.967 36.039 36.114 36.182 36.227 36.294 36.531 36.544 36.449 36.526 37.146 36.601 36.661 36.694 36.741 36.991 37.016 36.981 36.901 36.899 36.914 36.949 36.976 36.999 36.969 36.899 37.031 37.084 37.184 37.581 37.579 43.574 43.781 43.994 44.199 44.434 44.559 44.436 44.241 44.079 43.836 43.591 40.294 40.221 40.266 40.486 41.166 40.274 40.374 40.406 40.394 40.384 40.394 40.499 40.734 41.084 42.081 41.779 41.671 41.371 41.016 40.836 40.759 40.724 40.701 40.679 40.604 40.546 40.514 40.369 39.646 38.926 39.056 38.924 40.094 42.136 42.286 42.436 42.464 42.301 42.146 41.281 38.661 38.769 39.534 39.924 38.751 38.729 38.706 38.726 38.666 38.681 38.766 38.781 38.749 38.711 38.666 38.836 39.006 38.576 38.514 38.516 38.516 38.506 38.539 38.531 38.444 38.456 38.524 38.521 38.481 38.479 38.456
