ncols 430
nrows 31
xllcorner    430034
yllcorner    433826
cellsize     2
NODATA_value -9999
72.736 72.63 72.606 72.639 72.672 72.733 72.78 68.873 68.828 68.926 69.021 69.118 69.188 66.29 52.607 52.487 52.419 52.274 56.556 52.214 52.271 52.316 52.326 52.324 52.309 52.259 52.651 52.521 58.521 74.746 79.606 79.341 79.361 79.384 79.431 79.679 60.714 58.806 58.724 58.716 58.729 58.741 58.774 58.839 59.191 60.641 54.006 54.006 54.711 63.389 61.291 52.651 54.651 55.696 59.024 58.709 58.706 58.704 66.769 73.806 73.809 73.716 71.476 73.781 71.249 57.171 57.176 57.181 57.171 52.426 52.421 52.794 52.536 53.051 52.501 52.421 52.214 52.056 51.979 51.901 51.824 51.771 51.719 51.711 51.686 51.661 51.656 51.646 51.661 51.664 51.694 51.709 51.764 51.764 51.751 51.764 51.749 51.726 51.701 51.639 51.574 51.516 51.501 51.521 51.404 51.384 51.374 51.466 53.071 54.774 54.764 58.284 60.464 60.119 60.861 61.104 61.479 61.676 61.806 61.819 58.601 60.209 60.356 60.331 58.451 61.714 61.446 61.269 61.071 60.891 60.736 60.314 55.044 50.441 56.236 59.651 60.678 61.383 61.336 61.331 61.321 49.536 47.596 47.486 47.426 47.418 47.431 47.413 47.514 47.456 47.416 47.368 47.346 57.836 58.741 58.141 55.641 54.506 54.403 54.016 53.781 53.573 53.348 53.126 52.886 52.666 52.441 51.376 49.549 46.856 44.903 44.736 44.589 44.461 44.341 44.201 44.123 44.011 43.893 43.743 43.611 43.476 43.981 43.806 43.191 43.186 43.186 43.976 45.521 49.686 51.908 51.483 50.858 41.976 41.873 41.886 41.828 41.838 41.831 41.781 41.823 41.793 41.761 41.841 47.091 47.986 48.761 47.753 46.731 45.701 44.696 44.598 44.766 42.816 41.256 39.093 38.883 38.993 38.276 38.593 38.233 38.196 38.158 42.496 46.236 48.848 46.831 39.783 39.793 39.856 39.848 39.456 39.258 39.086 38.936 38.806 38.663 38.623 38.591 38.528 38.476 38.421 38.371 38.281 38.176 38.051 37.933 37.796 37.681 37.591 37.493 37.398 37.288 37.213 37.091 36.946 36.778 36.693 36.663 36.483 36.288 36.151 36.023 35.878 35.746 35.611 35.493 35.381 35.268 35.186 35.153 34.631 33.466 33.336 33.318 33.306 33.351 33.383 33.423 33.478 33.523 33.581 33.638 33.698 33.751 33.828 33.936 34.063 34.126 34.173 34.143 34.131 34.156 34.196 34.226 34.266 34.293 34.316 34.343 34.386 34.421 34.458 34.528 34.636 34.708 34.931 35.393 35.311 35.043 34.893 34.811 34.731 34.651 34.566 34.481 34.393 34.328 34.243 34.158 34.103 34.103 34.076 34.038 33.991 33.951 40.221 40.763 41.881 43.376 43.386 43.378 43.348 43.343 43.353 43.366 43.371 43.346 43.333 43.346 43.351 43.361 43.373 43.836 47.298 47.426 47.263 47.256 44.673 41.648 40.931 40.908 40.881 40.856 40.833 40.826 40.813 40.783 40.766 40.761 40.733 40.713 40.713 40.696 40.731 40.763 40.741 40.786 29.603 29.716 29.631 30.571 30.948 30.848 30.933 30.813 30.828 30.831 30.853 30.851 30.851 30.848 31.668 38.863 37.881 31.116 29.696 29.703 29.763 29.826 29.941 30.528 29.758 29.683 29.618 29.608 29.648 38.651 38.598 38.596 38.568 38.546 38.548 38.543 38.528 39.241 40.758 35.748 30.081 29.906 29.926 29.948 30.061 30.748 30.581 30.293 30.336 30.401 30.478 30.541 30.718 34.556 30.893 30.846 30.923 30.998 30.988 30.983 31.013 31.111 32.653
72.884 72.459 72.186 72.228 72.305 72.364 71.893 68.776 68.843 68.945 69.032 69.103 69.191 65.434 53.352 52.384 52.341 52.196 56.376 52.559 52.196 52.244 52.266 52.261 52.254 52.201 53.374 52.736 60.411 77.696 79.701 79.511 79.561 79.509 79.484 79.589 60.339 58.996 59.371 58.691 58.696 58.714 58.704 58.719 58.741 60.249 55.149 54.014 54.006 59.096 55.871 54.049 53.534 52.544 58.706 58.684 58.674 58.781 68.766 73.821 73.806 73.804 73.794 73.789 72.561 57.434 57.434 57.434 57.424 52.436 52.399 52.371 52.299 52.469 52.686 53.174 53.416 53.204 52.586 52.144 51.981 51.731 51.666 51.731 51.546 51.476 51.386 51.304 51.261 51.251 51.281 51.321 51.374 51.439 51.464 51.479 51.516 51.554 51.576 51.569 51.546 51.519 51.461 51.376 51.361 51.354 51.444 51.594 53.476 54.686 54.859 54.689 55.099 53.819 55.711 56.834 59.226 59.196 61.029 60.061 58.486 60.291 60.364 60.174 58.276 62.684 62.521 62.316 62.104 61.916 61.226 60.136 50.409 51.606 58.436 59.251 60.159 60.736 59.991 60.521 61.784 47.508 47.506 47.388 47.398 47.393 47.394 47.401 47.456 47.401 47.346 47.323 56.588 58.313 59.226 56.131 55.843 55.621 55.383 55.131 54.911 54.688 54.476 54.243 54.001 53.788 53.531 53.326 53.091 52.863 52.651 50.799 49.468 47.956 45.876 44.159 44.011 43.861 43.703 43.573 43.456 43.338 43.226 43.376 42.968 42.841 42.716 42.596 42.488 42.428 42.393 42.281 41.998 41.841 41.833 41.801 41.768 41.791 41.773 41.726 41.743 41.741 41.743 41.823 47.026 48.213 48.616 47.596 46.571 45.551 44.643 44.313 43.978 43.433 40.696 41.006 40.603 40.081 39.348 38.486 38.363 38.263 38.186 44.258 45.226 48.748 42.661 39.828 39.851 39.926 39.646 39.396 39.201 39.031 38.888 38.773 38.638 38.611 38.566 38.496 38.436 39.256 38.566 38.228 38.153 38.026 37.903 37.803 37.708 37.616 37.481 37.381 37.283 37.186 37.078 36.961 36.806 36.631 36.488 36.383 36.293 36.301 36.118 35.923 35.761 35.621 35.483 35.363 35.251 35.136 35.026 34.916 34.808 34.798 34.203 33.573 33.461 33.436 33.413 33.451 33.501 33.558 33.603 33.661 33.738 33.793 33.868 33.938 33.991 34.071 34.201 34.263 34.306 34.313 34.281 34.318 34.341 34.373 34.411 34.441 34.476 34.521 34.593 35.276 34.716 34.693 34.808 34.891 34.991 35.256 35.108 34.813 34.673 34.583 34.501 34.423 34.341 34.266 34.176 34.098 34.023 33.951 33.901 33.898 33.873 33.826 33.771 33.726 37.446 38.723 43.381 43.368 43.348 43.356 43.391 43.386 43.351 43.351 43.351 43.366 43.353 43.358 44.478 47.291 47.256 47.226 47.231 44.051 43.941 43.991 43.158 41.623 40.928 40.893 40.876 40.861 40.841 40.828 40.798 40.771 40.761 40.746 40.738 40.728 40.756 40.748 36.823 29.601 29.598 29.631 29.668 29.701 29.843 31.591 30.853 31.173 30.811 30.836 30.821 30.828 30.843 31.731 39.043 38.598 29.906 29.683 29.741 29.808 29.863 29.931 31.003 29.786 29.726 30.058 29.673 29.706 38.633 38.613 38.616 38.601 38.556 38.541 38.518 38.561 38.553 36.513 29.883 29.936 29.973 29.948 37.433 35.368 30.258 31.146 30.758 30.426 30.498 30.566 30.611 30.648 30.733 30.823 30.916 30.978 30.996 31.391 31.686 31.068 32.598 33.041
71.354 71.96 71.868 71.889 71.934 71.969 70.875 68.795 68.862 68.963 69.035 69.118 69.201 64.926 52.317 52.279 52.251 52.109 54.824 55.369 52.149 52.174 52.201 52.191 52.186 52.144 52.236 52.299 61.031 76.206 79.576 80.186 80.189 80.261 80.251 79.356 59.666 60.056 59.549 58.654 58.671 58.666 60.019 59.606 58.731 59.874 58.419 58.021 58.226 52.419 53.546 53.326 51.444 55.931 58.726 58.666 58.651 58.659 58.689 72.181 73.801 73.791 73.804 73.909 62.784 57.711 57.696 57.691 57.694 52.456 52.429 52.369 52.316 52.266 52.206 52.154 52.094 52.036 51.966 52.224 52.579 52.954 52.899 52.869 51.569 51.469 51.524 51.274 51.139 51.084 51.021 50.986 50.984 51.014 51.071 51.136 51.234 51.311 51.344 51.381 51.379 51.339 51.364 51.329 51.321 51.381 51.801 51.584 54.469 54.819 54.641 54.764 51.464 50.761 49.831 50.114 50.626 58.889 61.161 58.881 58.809 59.906 60.246 59.926 61.549 61.751 61.959 62.121 62.346 62.164 61.086 60.009 46.864 53.616 58.868 59.761 60.668 60.264 59.343 58.081 49.878 47.441 47.356 47.336 47.371 47.358 47.346 47.411 47.401 47.358 47.308 50.563 57.938 59.041 58.523 56.916 56.273 56.491 56.426 56.258 56.016 55.806 55.571 55.363 55.123 54.886 54.671 54.438 54.208 53.991 53.748 49.863 52.598 51.781 50.993 50.706 50.403 50.153 47.238 45.018 43.386 43.233 43.093 42.941 42.801 42.683 42.563 42.431 42.343 42.211 42.088 41.966 41.811 41.676 41.721 41.796 41.718 41.731 41.721 41.683 41.721 41.678 41.686 42.036 47.228 48.433 48.418 47.423 46.363 45.373 44.523 44.163 43.973 41.968 40.601 40.716 40.533 40.506 40.518 40.633 40.378 39.696 40.036 40.356 43.093 49.448 40.701 39.858 39.908 39.993 39.546 39.326 39.158 38.998 38.873 38.743 38.626 38.598 38.543 38.486 38.428 38.918 39.648 38.166 38.076 38.741 37.891 38.893 37.703 37.608 37.498 37.411 37.316 37.178 37.048 36.936 36.783 36.658 36.501 36.373 36.253 36.121 35.973 35.873 35.868 35.703 35.513 35.381 35.261 35.131 35.006 34.893 34.791 34.678 34.598 34.526 34.508 34.501 33.926 33.593 33.568 33.548 33.588 33.641 33.703 33.771 33.843 33.906 33.968 34.026 34.091 34.136 34.223 34.331 34.351 34.376 34.411 34.438 34.476 34.518 34.543 34.578 34.621 34.693 34.746 34.731 34.763 34.788 34.841 34.926 35.006 35.096 35.143 34.766 34.563 34.443 34.361 34.278 34.191 34.113 34.043 33.963 33.893 33.811 33.743 33.693 33.696 33.653 33.601 33.558 33.931 38.293 41.118 43.378 43.391 43.383 43.366 43.368 43.371 43.378 43.368 43.461 46.526 47.273 47.253 47.213 47.061 43.966 43.928 43.971 43.991 43.961 43.991 43.453 41.343 40.941 40.893 40.876 40.858 40.831 40.818 40.786 40.778 40.778 40.771 40.778 32.698 29.598 29.623 29.663 29.698 29.733 29.766 29.798 30.396 31.063 30.868 30.813 30.796 30.791 30.823 30.808 31.083 30.968 29.826 29.721 29.791 29.853 29.918 29.936 30.603 30.193 29.751 30.596 29.716 31.441 38.628 38.603 38.601 38.591 38.558 38.553 38.551 38.576 38.238 30.631 31.421 30.256 30.026 33.501 38.078 38.091 37.276 30.443 30.531 31.878 30.578 30.616 30.661 30.723 30.808 30.898 30.963 30.998 31.031 33.518 31.051 32.516 32.973 33.281
51.295 51.703 52.234 54.52 59.2 66.957 64.785 63.179 66.133 66.206 67.748 69.08 69.268 65.049 52.194 52.166 52.179 52.021 51.984 56.321 52.074 52.109 52.131 52.131 52.106 52.071 52.179 52.231 61.366 77.184 79.694 80.151 80.136 80.836 81.256 79.609 59.876 60.051 58.639 58.641 58.661 58.656 59.521 59.206 58.666 59.214 60.286 58.279 58.009 57.261 54.011 52.359 56.531 58.896 58.791 58.684 58.669 58.671 58.681 58.681 70.154 73.801 73.794 73.851 59.594 57.986 57.944 57.949 57.944 52.559 52.424 54.821 52.339 53.161 52.231 52.196 52.144 52.089 52.029 51.961 51.896 51.834 51.761 51.804 51.651 51.724 51.649 51.549 51.319 51.134 51.136 50.894 50.919 50.926 50.936 50.976 51.019 51.066 51.101 51.156 51.226 51.264 51.271 51.301 51.294 51.469 51.799 51.666 55.099 54.729 54.896 54.759 51.454 50.591 49.821 49.756 49.696 51.334 54.586 56.271 52.344 54.984 58.811 59.576 59.131 60.776 60.934 61.111 61.304 61.526 60.864 58.911 55.179 59.301 59.263 60.133 60.648 59.771 58.941 57.159 47.418 47.383 47.818 48.251 47.339 47.308 47.293 47.368 47.333 47.308 47.301 58.063 58.659 59.081 57.191 56.231 55.163 55.418 55.641 55.861 56.096 56.333 56.471 56.406 56.229 56.003 55.783 55.561 55.341 55.089 54.893 46.633 44.306 51.456 51.473 51.698 51.738 51.498 50.591 50.278 50.006 49.699 49.726 46.748 43.218 42.613 42.446 42.298 42.173 42.046 41.916 41.808 41.693 41.578 41.551 41.631 41.673 41.696 41.711 41.626 41.703 41.626 41.658 42.458 47.406 48.601 48.261 47.233 46.228 45.198 44.453 44.021 43.961 43.331 42.998 40.966 40.511 40.473 40.421 40.371 40.298 40.193 40.133 40.101 40.161 40.058 40.016 39.936 39.948 40.078 39.511 39.306 39.121 38.963 38.831 38.688 38.623 39.693 38.536 39.716 38.643 38.333 38.218 38.128 38.541 38.001 37.876 39.411 37.708 37.618 37.496 37.393 38.266 37.188 37.061 36.933 36.778 36.623 36.481 36.371 36.256 36.128 35.963 35.808 35.661 35.501 35.371 35.443 35.398 35.196 35.028 34.908 34.791 34.691 34.603 34.528 34.443 34.356 34.296 34.303 34.383 34.006 33.741 33.703 33.688 33.726 33.806 33.868 33.933 34.001 34.058 34.131 34.181 34.241 34.286 34.356 34.433 34.486 34.546 34.618 34.621 34.651 34.688 34.711 34.753 34.788 34.818 34.853 34.883 34.908 34.936 34.961 35.063 35.146 35.236 35.063 34.461 34.326 34.218 34.136 34.061 33.981 33.903 33.826 33.746 33.676 33.596 33.516 33.461 33.471 33.433 33.391 33.338 33.288 39.386 43.441 43.406 43.373 43.388 43.398 43.368 44.193 44.661 47.268 47.261 47.086 44.398 43.911 43.891 43.906 43.906 43.893 43.893 43.918 43.936 43.998 42.871 41.241 40.916 40.893 40.866 40.841 40.836 40.831 40.828 40.836 29.611 29.603 29.643 29.686 29.726 29.766 29.796 29.821 29.853 30.483 30.796 30.808 30.608 30.718 30.828 31.763 32.421 31.173 29.801 29.763 29.833 29.896 29.996 30.003 30.141 30.178 29.776 29.923 29.773 35.048 38.623 38.606 38.601 38.583 38.558 38.558 38.571 38.588 31.468 30.021 30.043 30.056 32.443 38.106 38.096 38.078 40.008 40.281 30.761 30.603 31.551 30.656 30.718 30.783 30.856 30.941 31.001 30.973 32.276 31.046 32.148 32.818 33.251 33.401
51.179 51.292 51.433 51.548 51.625 51.69 51.754 51.826 51.881 53 53.267 52.796 53.564 61.376 52.106 52.101 53.556 52.866 52.731 51.946 52.001 52.044 52.059 52.061 52.041 52.006 52.114 52.164 61.264 76.094 79.634 80.104 80.139 80.669 81.036 78.654 58.956 58.706 58.679 58.676 58.686 58.754 59.121 59.119 58.704 60.609 59.294 60.569 59.679 60.281 59.026 59.644 59.016 60.781 59.819 59.014 58.696 58.694 59.794 58.734 58.711 73.094 73.911 73.804 58.339 58.244 58.211 58.194 58.194 52.859 52.501 52.399 52.356 52.304 52.261 52.231 52.191 52.139 52.081 52.036 51.976 51.919 51.859 51.784 52.206 52.749 51.986 51.669 51.546 51.404 51.294 50.761 50.774 50.789 50.896 51.124 51.099 51.094 51.101 51.119 51.144 51.191 51.224 51.264 51.264 51.366 51.659 52.024 51.444 51.616 51.541 54.211 50.746 51.646 50.979 49.906 49.691 49.606 49.521 49.501 49.421 49.749 50.296 51.366 51.996 55.981 59.241 60.149 60.339 60.509 60.581 59.904 56.999 58.861 59.771 60.656 60.174 59.293 58.368 48.493 47.371 47.281 50.931 47.808 47.781 47.266 47.233 47.313 47.283 47.264 55.973 60.321 59.881 59.424 59.028 56.943 54.046 54.271 54.481 54.726 54.979 55.491 55.916 55.701 55.913 56.111 56.348 56.453 56.416 56.201 55.421 49.151 49.571 50.781 50.481 50.446 50.628 50.866 50.519 50.813 51.056 51.058 50.678 49.861 49.571 49.268 49.008 50.196 45.406 42.558 41.856 41.708 41.593 41.496 41.506 41.573 41.606 41.653 41.633 41.591 41.631 41.551 41.641 43.213 47.351 48.776 48.048 47.023 45.986 44.996 44.376 43.971 43.953 42.176 41.583 40.561 40.488 40.416 40.341 40.268 40.211 40.168 40.116 40.088 40.098 40.023 39.961 39.931 39.981 40.048 39.471 39.271 39.098 38.936 38.798 38.663 38.681 38.731 38.591 38.946 39.481 38.793 38.186 38.083 37.996 37.918 38.193 37.983 37.701 37.603 37.501 37.388 39.113 37.176 37.066 36.936 36.788 36.643 36.483 36.348 36.233 36.128 35.986 35.811 35.656 35.493 35.336 35.153 34.951 34.826 35.018 35.043 34.851 34.713 34.628 34.536 34.441 34.373 34.306 34.238 34.198 34.146 34.158 34.258 34.163 34.061 33.916 33.858 33.893 33.943 34.041 34.096 34.161 34.223 34.286 34.338 34.388 34.443 34.513 34.626 34.733 34.776 34.821 34.818 34.816 34.838 34.878 34.898 34.941 34.978 34.996 35.031 35.063 35.081 35.101 35.183 35.248 35.308 34.923 34.241 34.101 34.006 33.923 33.838 33.771 33.691 33.616 33.533 33.456 33.378 33.306 33.248 33.256 33.213 33.173 33.118 33.548 39.348 43.421 43.393 43.383 41.618 33.103 33.093 37.996 45.968 43.881 43.853 43.891 43.916 43.901 43.881 43.881 43.906 43.898 43.911 43.928 43.938 44.008 43.358 40.923 40.916 40.903 40.891 40.886 37.886 29.601 29.613 29.658 29.701 29.743 29.788 29.841 29.871 29.896 30.446 30.586 30.671 30.121 30.148 30.183 31.048 31.641 31.271 29.781 29.803 29.873 29.941 30.081 30.093 29.936 30.366 29.936 29.946 29.806 37.746 38.623 38.613 38.611 38.591 38.588 38.606 38.591 36.353 37.763 35.011 30.068 30.216 38.168 38.113 38.121 38.098 38.116 40.333 40.188 32.148 30.691 30.686 30.768 30.831 30.898 30.963 30.956 32.506 30.981 31.638 32.726 33.501 33.356 33.473
51.101 51.176 51.281 51.381 51.474 51.571 51.651 51.719 51.791 51.851 51.896 51.939 51.976 51.989 52.039 52.054 53.104 55.051 52.984 51.884 51.941 51.979 51.986 51.984 51.979 51.934 52.051 52.101 62.779 77.891 79.529 79.439 79.891 79.989 80.554 79.824 75.486 59.666 58.709 58.709 58.719 58.736 58.991 59.081 58.736 58.774 59.676 58.754 58.749 58.749 58.756 58.761 60.569 59.651 58.739 59.836 58.729 58.726 60.369 58.726 59.351 65.541 69.599 63.841 58.539 58.494 58.529 58.456 58.586 54.744 57.171 57.784 56.556 56.436 57.486 56.961 56.891 55.894 56.746 57.244 55.801 51.996 51.916 52.036 51.971 53.014 53.541 52.519 52.819 51.544 51.161 50.624 50.634 50.649 50.841 51.206 51.254 51.261 51.281 51.314 51.271 51.306 51.251 51.221 51.229 51.381 51.444 52.304 51.579 51.529 51.456 52.731 51.069 52.834 52.811 52.226 49.686 49.599 49.506 49.426 49.334 49.249 49.371 49.076 48.991 48.936 48.966 48.704 52.176 50.501 54.134 49.566 58.474 59.276 60.148 60.589 59.768 58.876 55.741 47.336 47.306 48.451 50.146 47.726 47.518 47.226 47.156 47.223 47.223 51.983 61.018 61.403 61.648 61.514 61.046 56.366 53.131 53.138 53.358 53.593 53.838 54.098 54.331 55.216 55.104 54.979 55.216 55.476 55.711 55.956 55.343 47.508 49.328 52.716 50.203 49.738 48.261 48.561 48.343 49.313 49.756 49.931 50.271 49.873 50.171 50.376 50.388 53.463 53.091 52.718 52.688 52.391 41.561 41.511 41.466 41.526 41.566 41.591 41.566 41.558 41.586 41.523 41.601 41.653 43.328 43.436 42.158 42.033 44.673 44.521 44.371 53.831 53.041 50.843 44.043 40.613 40.481 40.368 40.563 40.183 40.138 40.136 40.121 40.048 39.998 39.978 39.948 39.938 40.016 39.798 39.446 39.228 39.053 38.881 38.743 38.643 38.611 38.553 38.493 38.433 38.476 38.813 38.148 38.036 37.928 38.853 37.818 37.748 38.156 37.548 37.468 37.356 37.748 37.166 37.053 36.936 36.803 36.668 36.511 36.351 36.203 36.083 35.921 35.761 35.631 35.488 35.313 35.126 34.926 34.768 34.628 34.511 34.421 34.676 34.803 34.611 34.476 34.388 34.326 34.271 34.208 34.163 34.118 34.093 34.071 34.093 34.176 34.141 33.953 33.966 34.016 34.076 34.138 34.188 34.261 34.318 34.368 34.418 34.481 34.546 34.613 34.668 34.791 34.921 34.986 35.018 34.988 34.966 34.996 35.023 35.061 35.103 35.128 35.146 35.158 35.181 35.208 35.226 35.311 35.393 35.503 34.716 34.038 33.903 33.786 33.703 33.626 33.556 33.466 33.388 33.318 33.241 33.156 33.091 33.028 33.036 32.993 32.938 32.888 33.603 41.251 34.921 33.078 33.126 33.086 44.148 43.903 43.883 43.908 43.913 43.888 43.863 43.878 43.901 43.873 43.888 43.906 43.916 43.911 43.913 43.951 43.976 43.328 40.991 40.961 31.788 29.598 29.636 29.678 29.721 29.766 29.801 29.851 29.888 29.951 30.106 30.248 30.316 30.108 30.141 30.181 30.223 30.248 29.936 29.786 29.856 29.921 29.988 30.091 30.263 29.943 30.033 29.946 29.796 29.843 38.583 38.608 38.608 38.603 38.576 38.578 38.606 30.863 30.203 33.906 37.713 36.526 38.106 38.108 38.113 38.128 38.128 38.118 38.138 38.216 32.411 30.746 30.716 30.798 30.876 30.938 30.948 30.903 30.916 31.031 32.646 33.133 33.458 33.483 33.601
51.059 51.101 51.199 51.281 51.354 51.456 51.551 51.636 51.709 51.769 51.834 51.871 51.881 51.921 52.651 51.949 53.981 55.039 52.961 51.804 51.874 51.904 51.911 51.909 51.901 51.856 51.984 52.031 57.766 78.504 79.454 79.444 80.036 79.789 80.826 79.461 79.669 62.629 58.759 58.754 58.761 60.246 63.376 64.119 63.206 63.719 62.021 63.386 62.309 61.089 61.664 61.484 61.651 61.634 60.766 61.141 60.151 59.291 59.491 59.624 59.749 65.176 64.886 62.351 58.734 58.706 58.684 58.681 58.686 57.946 57.966 57.926 57.929 57.934 57.931 57.936 57.926 57.919 57.919 57.916 58.074 52.326 51.954 51.959 51.904 52.006 51.759 51.561 53.756 50.584 50.566 50.516 50.504 50.509 50.531 50.516 50.434 50.841 50.799 50.926 50.951 51.169 51.324 51.276 51.171 51.519 51.351 51.389 51.674 51.584 52.304 52.189 50.146 52.504 52.966 51.049 49.671 50.186 50.089 49.926 49.629 49.226 49.146 49.036 48.931 48.854 48.746 48.601 48.479 48.361 48.179 48.004 50.266 59.406 59.868 60.153 59.278 58.428 47.703 47.278 47.188 49.578 47.576 48.018 47.211 47.153 47.083 47.193 47.221 55.331 59.001 59.398 59.706 60.213 60.633 61.078 58.461 53.996 53.196 53.028 52.761 53.436 53.671 53.418 53.656 53.851 54.091 54.333 54.621 54.831 51.096 52.133 50.238 52.323 52.648 51.308 48.424 47.441 43.348 46.628 44.733 46.561 49.406 48.953 49.123 49.101 50.178 53.238 53.591 53.951 54.063 52.243 41.463 41.451 41.471 41.481 41.518 41.543 41.496 41.471 41.513 41.498 41.561 41.688 41.771 44.176 53.791 53.796 53.868 48.551 46.673 53.773 53.756 53.758 53.776 53.781 53.796 53.838 52.553 48.393 42.991 40.053 40.048 40.008 39.998 39.996 39.981 40.283 40.036 39.796 39.418 39.201 38.983 38.841 38.696 38.608 38.573 38.523 38.473 38.418 38.301 38.178 38.066 37.971 38.158 37.826 37.761 37.856 38.116 37.488 38.778 37.321 37.236 37.123 37.031 36.923 36.793 36.676 36.536 36.361 36.191 36.063 35.903 35.746 35.586 35.411 35.228 35.061 34.868 34.713 34.568 34.438 34.326 34.208 34.108 33.991 34.296 34.571 34.441 34.306 34.251 34.198 34.153 34.126 34.108 34.091 34.073 34.058 34.056 34.058 34.078 34.101 34.143 34.193 34.241 34.293 34.343 34.403 34.456 34.511 34.578 34.658 34.723 34.786 34.838 34.948 35.063 35.113 35.173 35.136 35.131 35.153 35.186 35.198 35.223 35.251 35.271 35.296 35.326 35.958 35.383 35.461 35.566 35.661 34.938 33.991 33.678 33.566 33.476 33.413 33.336 33.253 33.176 33.091 33.021 32.948 32.886 32.823 32.803 32.786 32.733 32.691 32.631 32.593 34.996 43.958 43.931 43.908 43.931 43.933 43.908 43.858 43.891 43.876 43.853 43.881 43.906 43.908 43.888 43.891 45.006 43.956 43.983 43.998 44.146 31.611 29.608 29.656 29.698 29.741 29.771 29.813 29.866 29.911 29.953 29.983 30.016 30.071 30.096 30.136 30.261 31.201 30.036 29.928 29.841 29.911 29.983 30.033 30.081 31.216 30.236 30.926 29.866 29.846 29.901 38.691 38.626 38.631 38.613 38.583 38.598 33.428 31.313 30.116 30.126 31.056 38.361 38.078 38.091 38.103 38.131 38.138 38.128 38.133 38.228 30.766 30.698 30.763 30.846 30.916 30.948 30.901 30.848 31.051 34.528 33.393 33.456 33.566 34.246 33.708
51.014 52.341 51.109 51.164 52.971 51.334 51.426 51.531 51.621 51.699 51.741 51.776 51.816 51.846 51.876 51.871 51.859 55.564 53.196 51.766 51.811 51.834 51.846 51.854 51.824 51.789 51.954 51.954 52.016 64.711 78.131 79.344 80.176 81.036 80.716 79.571 79.641 63.496 58.704 58.721 58.729 61.979 65.781 64.791 64.794 66.009 65.296 64.851 64.819 65.234 64.821 65.794 64.814 65.129 64.804 64.821 64.829 65.716 64.821 65.666 64.944 64.954 64.836 65.084 64.866 64.674 65.131 64.096 64.519 63.179 61.749 61.674 61.479 59.379 59.319 59.379 59.666 57.934 58.029 58.031 58.046 52.066 51.936 52.241 52.216 52.119 51.604 51.424 52.489 50.566 50.454 50.354 50.346 50.356 50.326 50.294 50.251 50.214 50.216 50.224 50.231 50.276 50.264 50.284 50.204 50.181 50.219 50.216 50.226 50.286 51.764 51.751 52.349 52.436 50.906 50.629 51.534 50.041 50.479 50.144 49.689 49.909 49.201 53.256 50.324 48.789 48.699 48.564 48.416 48.256 48.109 47.989 47.866 47.816 51.583 59.046 58.848 55.331 47.246 47.206 48.368 50.196 47.221 47.196 47.148 47.078 47.113 47.174 51.936 58.273 59.311 57.831 56.931 57.981 58.549 59.001 54.121 53.521 53.833 54.016 54.506 53.676 53.301 52.826 52.643 52.784 52.966 53.226 53.456 53.726 46.758 45.151 51.354 50.941 51.261 51.291 47.426 48.606 47.181 47.971 46.553 41.223 44.078 35.453 36.881 41.983 47.138 49.418 50.368 52.883 52.816 47.681 41.391 41.391 41.486 41.431 41.476 41.481 41.436 41.383 41.446 41.433 41.496 41.436 41.328 48.486 53.781 53.758 53.751 53.766 53.788 53.776 53.746 53.736 53.748 53.758 53.773 53.818 53.811 53.781 53.781 53.791 53.801 49.081 50.213 46.921 43.266 40.021 40.131 39.551 39.358 39.143 38.938 38.818 38.723 38.626 38.553 38.488 38.446 38.343 38.223 38.101 37.998 37.901 37.831 37.746 37.681 37.883 37.563 37.861 37.891 37.268 37.183 37.091 37.103 36.908 36.813 36.676 36.536 36.368 36.198 36.056 35.893 35.721 35.538 35.363 35.208 35.026 34.838 34.676 34.523 34.383 34.248 34.123 34.008 33.868 33.751 33.663 33.536 33.803 34.273 34.336 34.203 34.158 34.138 34.123 34.108 34.108 34.093 34.103 34.103 34.136 34.173 34.206 34.256 34.298 34.331 34.386 34.438 34.501 34.566 34.636 34.708 34.776 34.831 34.883 34.933 34.991 35.081 35.206 35.261 35.276 35.293 35.273 35.288 35.318 35.338 35.353 35.386 35.593 35.721 35.468 35.503 35.541 35.601 35.711 35.768 35.123 33.616 33.463 33.346 33.266 33.181 33.113 33.036 32.958 32.888 32.803 32.728 32.653 32.586 32.578 32.551 32.506 32.461 33.086 41.266 44.008 43.946 43.943 43.911 43.891 43.906 43.873 43.861 43.888 43.921 43.901 43.873 43.898 47.218 47.096 46.996 45.146 43.758 32.416 29.618 29.668 29.696 29.748 29.771 29.823 29.868 29.918 29.961 29.991 30.033 30.058 30.093 30.131 33.326 30.081 30.028 29.868 29.906 29.963 30.028 30.141 30.083 30.156 31.466 29.956 30.623 29.928 30.958 38.761 38.681 38.903 38.711 38.608 34.406 30.291 30.256 30.163 30.171 37.288 38.106 38.088 38.103 38.098 38.108 38.131 38.141 37.046 30.793 31.488 30.991 30.808 30.861 30.933 30.926 30.898 31.026 34.128 34.333 34.316 33.731 33.723 33.731 33.796
52.104 51.056 51.084 51.091 51.136 51.236 51.339 51.439 51.531 51.589 51.634 51.676 51.724 51.761 51.769 51.786 51.766 55.344 52.276 51.686 51.736 51.769 51.779 51.789 51.761 51.711 51.846 51.876 51.929 59.569 66.226 77.274 79.996 79.779 79.786 79.471 79.876 60.866 58.676 58.681 58.691 60.596 65.096 64.754 64.756 65.994 65.421 64.759 64.769 65.506 64.764 66.171 64.781 65.119 64.769 64.786 64.791 66.344 64.779 66.391 65.211 64.886 64.811 65.514 64.791 64.804 65.671 66.159 64.794 63.699 62.231 62.399 61.809 60.834 59.524 59.801 59.236 57.926 58.056 52.676 52.024 51.994 51.949 52.161 51.996 51.919 51.831 51.294 50.864 50.534 50.414 50.311 50.296 50.269 50.254 50.206 50.196 50.186 50.179 50.179 50.191 50.216 50.214 50.191 52.744 50.181 50.221 50.174 50.191 51.084 50.089 50.071 50.056 50.024 49.984 49.934 49.929 49.956 49.961 49.924 51.121 52.571 51.156 54.909 52.691 53.781 48.686 48.521 48.341 48.201 48.069 47.924 47.774 47.668 47.556 47.446 50.611 47.531 47.206 47.111 47.741 47.176 47.178 47.146 47.081 47.013 47.118 47.211 57.871 58.964 58.894 53.128 49.348 52.133 52.443 49.558 51.726 52.773 52.748 52.883 52.911 52.681 52.936 53.166 53.391 53.034 52.901 53.586 52.638 52.723 44.876 44.076 51.898 50.693 50.488 50.391 50.221 48.293 47.736 50.523 46.756 39.013 44.351 40.973 38.066 42.283 48.258 46.113 47.076 53.283 52.521 46.971 41.328 41.361 41.446 41.366 41.418 41.428 41.383 41.326 41.373 41.383 41.436 42.071 42.238 50.006 53.768 53.738 53.741 53.761 53.796 53.781 53.756 53.723 53.726 53.748 54.308 57.416 56.466 53.781 53.761 53.771 53.783 53.786 53.781 53.791 53.776 53.778 41.788 39.483 39.268 39.078 38.921 38.808 38.706 38.633 38.561 38.471 38.358 38.253 38.138 38.418 37.936 37.828 37.751 37.696 37.633 37.558 37.471 37.391 37.313 37.256 37.166 37.063 36.956 36.906 36.818 36.691 36.556 36.388 36.173 36.021 35.853 35.673 35.516 35.348 35.168 35.006 34.841 34.661 34.521 34.368 34.196 33.998 33.866 33.748 33.638 33.518 33.413 33.298 33.191 33.078 33.468 34.098 34.308 34.213 34.151 34.146 34.118 34.123 34.141 34.161 34.186 34.221 34.246 34.278 34.323 34.368 34.433 34.486 34.541 34.621 34.701 34.748 34.806 34.868 34.918 34.968 35.021 35.073 35.071 35.151 35.271 35.348 35.431 35.448 35.413 35.443 35.458 35.491 35.543 35.541 35.568 35.596 35.641 35.676 35.708 35.756 35.841 35.931 35.488 33.873 33.251 33.133 33.053 32.981 32.893 32.818 32.743 32.663 32.588 32.518 32.438 32.371 32.336 32.311 32.276 32.218 33.231 41.176 43.976 43.943 43.928 43.901 43.903 43.921 43.926 43.893 43.836 43.898 47.106 47.213 47.131 47.273 47.313 29.638 29.633 29.683 29.721 29.753 29.773 29.828 29.876 29.921 29.961 30.011 30.046 30.088 30.113 32.173 30.118 30.081 29.978 29.926 29.966 30.021 30.073 30.216 30.108 30.071 31.921 29.973 30.103 29.986 32.946 38.918 40.013 39.348 37.803 33.813 30.328 31.121 30.158 32.723 35.663 40.063 38.121 38.103 38.111 38.128 38.136 38.146 37.748 30.778 31.461 32.221 30.798 30.853 30.891 30.941 30.946 30.988 31.671 34.353 34.331 33.881 33.816 33.888 33.903 33.936
71.111 70.506 70.484 69.111 64.796 62.806 53.759 52.426 51.729 51.559 51.569 51.609 51.659 51.686 51.689 51.699 51.684 52.516 52.094 51.621 51.679 51.706 51.709 51.719 51.666 51.641 51.764 51.796 51.854 75.549 76.606 78.794 76.204 76.151 76.239 72.916 59.121 58.699 58.639 58.651 58.666 62.801 64.711 64.719 64.711 64.701 64.709 64.711 64.721 64.721 64.729 64.844 64.741 64.744 64.741 64.744 64.734 65.144 64.734 64.784 64.779 64.806 64.761 65.431 64.754 64.754 64.836 65.736 64.761 63.666 61.904 61.936 61.744 59.791 59.091 59.499 59.359 57.934 58.074 53.366 51.974 51.939 51.991 51.926 51.784 52.401 51.864 51.109 50.806 50.506 50.384 50.299 50.271 50.251 50.241 52.019 51.971 51.149 50.184 50.164 50.139 50.144 50.101 50.119 50.169 51.151 51.021 50.136 50.106 50.324 50.016 50.006 50.004 49.954 49.931 49.906 49.916 49.929 49.914 49.896 49.876 49.814 49.786 51.659 50.891 61.036 61.294 57.831 48.334 48.154 48.009 47.876 47.726 47.586 47.424 47.343 47.196 47.151 47.136 47.264 47.903 47.148 47.123 47.078 47.014 47.053 47.118 53.781 58.566 59.261 58.288 53.306 47.741 49.326 49.156 48.003 46.051 45.916 49.659 46.696 52.183 51.101 52.176 52.111 52.236 51.786 52.003 52.326 52.488 52.483 44.103 47.053 52.784 51.441 51.518 51.498 51.268 50.366 50.151 49.931 49.731 49.613 49.078 47.823 46.103 45.823 47.803 46.661 48.996 53.486 52.281 48.046 41.261 41.291 41.293 41.328 41.363 41.366 41.323 41.268 41.256 41.358 41.376 41.301 41.253 53.496 53.776 53.763 53.751 53.788 53.801 53.783 53.763 53.741 53.711 53.731 53.758 53.861 53.793 53.783 53.781 53.786 53.791 53.786 53.778 53.791 53.793 53.793 39.711 40.636 39.911 39.003 38.868 38.771 38.683 38.603 38.668 38.421 38.323 38.206 38.753 38.206 39.166 38.011 37.716 37.673 37.578 37.523 37.428 37.358 37.273 37.181 37.101 37.043 36.946 36.878 36.811 36.686 36.546 36.373 36.161 35.988 35.823 35.661 35.498 35.331 35.146 34.993 34.843 34.671 34.521 34.363 34.191 33.988 33.841 33.678 33.506 33.386 33.288 33.203 33.093 32.981 32.893 32.806 32.716 32.621 33.656 34.311 34.236 34.176 34.183 34.198 34.223 34.238 34.258 34.273 34.306 34.348 34.401 34.456 34.533 34.603 34.681 34.723 34.786 34.831 35.038 34.946 34.993 35.051 35.073 35.121 35.166 35.193 35.283 35.373 35.498 35.583 35.616 35.593 35.586 35.723 35.641 35.671 35.711 35.738 35.773 35.803 35.826 35.843 35.881 35.983 36.093 35.518 33.793 33.033 32.916 32.831 32.756 32.686 32.611 32.533 32.448 32.371 32.296 32.218 32.133 32.091 32.091 32.041 32.001 33.468 41.231 43.968 43.933 43.936 43.928 43.916 43.886 44.133 47.028 45.038 41.613 34.891 42.738 29.603 29.648 29.691 29.726 29.763 29.796 29.851 29.888 29.921 29.981 30.023 30.063 30.108 30.146 30.113 30.068 30.018 29.958 29.981 30.026 30.063 30.123 30.248 31.536 30.108 30.823 30.011 30.431 30.011 35.338 39.078 40.136 39.136 38.113 30.533 30.538 30.206 32.693 33.251 39.746 39.416 38.141 38.136 38.126 38.151 38.161 37.013 30.781 31.451 31.001 30.766 30.816 30.863 30.916 30.951 30.996 31.151 32.496 32.823 34.248 33.588 33.871 33.981 34.013 34.098
78.341 78.186 78.004 76.779 75.811 74.171 72.679 71.424 70.734 70.301 68.396 68.469 57.741 56.296 54.646 51.674 51.634 51.489 51.479 51.556 51.609 51.636 51.649 51.629 51.586 51.591 51.689 51.724 51.781 75.921 76.309 78.751 76.109 76.161 76.209 70.756 58.716 59.089 59.039 59.304 59.519 61.976 64.676 64.681 64.676 64.669 64.676 64.674 64.679 64.691 64.684 64.689 64.701 64.694 64.691 64.696 64.694 64.699 64.699 64.704 64.691 64.714 64.714 64.709 64.714 64.709 64.714 64.724 64.716 63.056 61.709 61.694 61.701 58.906 58.734 58.731 59.729 57.921 57.914 53.011 51.909 52.076 51.961 51.779 51.759 52.016 51.541 50.949 50.506 50.481 50.339 50.266 50.256 50.231 50.224 54.114 55.351 53.319 51.451 50.196 50.159 50.121 50.061 50.094 50.074 51.264 51.124 50.101 50.061 50.026 49.951 52.291 50.756 51.031 49.911 49.866 49.911 49.904 49.871 49.844 56.169 52.919 49.704 49.599 49.371 57.971 61.649 61.026 59.864 57.019 48.929 47.814 47.646 47.501 47.356 47.161 47.106 47.051 47.038 49.286 47.106 47.096 47.078 47.006 46.966 47.049 53.133 59.168 59.286 58.708 58.036 54.886 51.383 50.498 47.628 48.928 47.481 45.879 47.178 50.518 46.716 45.251 45.113 46.068 47.158 52.141 51.753 51.498 51.421 51.766 45.711 44.333 51.249 51.466 51.716 51.916 51.956 51.453 51.313 51.081 50.843 50.166 49.691 49.481 49.226 49.123 51.416 50.566 51.398 53.538 52.088 43.303 41.183 41.268 41.198 41.273 41.313 41.303 41.261 41.213 41.146 41.216 41.296 41.711 41.171 51.696 53.861 53.818 53.801 53.801 53.808 53.788 53.771 53.736 53.736 53.728 53.748 53.818 53.761 53.723 53.731 53.776 53.793 53.776 53.781 53.783 53.796 52.273 39.416 39.283 39.101 38.943 38.816 38.711 38.646 38.566 39.861 38.408 38.286 38.186 38.378 38.031 38.131 39.143 38.066 37.681 37.533 37.466 37.383 37.331 37.246 37.158 37.066 37.013 36.908 36.821 36.766 36.666 36.491 36.336 36.128 35.961 35.798 35.653 35.493 35.336 35.183 35.023 34.856 34.691 34.536 34.358 34.188 33.993 33.843 33.693 33.526 33.363 33.228 33.088 32.976 32.873 32.743 32.661 32.566 32.451 32.343 32.223 32.101 32.828 34.103 34.341 34.293 34.278 34.293 34.303 34.311 34.346 34.398 34.441 34.508 34.583 34.658 34.711 34.766 34.823 34.863 35.063 34.968 35.011 35.033 35.083 35.148 35.198 35.241 35.278 35.346 35.423 35.563 35.673 35.743 35.771 35.748 35.748 35.788 35.806 35.831 35.863 35.891 35.921 35.946 35.983 36.018 36.073 36.146 36.246 36.186 33.826 32.823 32.698 32.628 32.543 32.463 32.393 32.321 32.226 32.153 32.076 31.981 31.913 31.863 31.858 31.828 31.786 36.758 43.086 43.973 43.938 43.936 43.933 44.001 44.281 30.461 29.623 29.603 29.613 29.671 29.711 29.751 29.776 29.816 29.856 29.898 29.933 29.988 30.038 30.078 30.703 30.113 30.078 30.023 30.006 30.628 30.056 30.076 30.111 30.188 30.238 30.943 30.233 30.916 30.246 30.193 30.066 38.021 39.298 40.026 39.118 39.208 37.098 30.251 30.261 32.266 38.106 38.108 38.113 38.136 38.148 38.151 38.156 36.118 30.773 31.251 31.046 30.753 30.806 30.848 30.891 30.916 30.993 31.091 31.256 32.491 32.668 32.953 33.338 33.688 33.921 34.068 34.181
78.326 78.151 77.949 77.716 77.451 77.146 76.781 76.391 76.044 75.749 75.414 74.279 73.591 72.531 57.829 51.649 51.744 55.521 51.419 51.479 51.541 51.564 51.564 51.551 51.499 51.546 51.936 51.649 51.704 71.594 76.219 78.719 76.104 76.104 76.236 70.621 58.674 59.004 58.766 59.439 60.131 63.006 64.649 64.644 64.641 64.649 64.646 64.646 64.634 64.649 64.644 64.659 64.669 64.664 64.654 64.656 64.649 64.654 64.659 64.674 64.664 64.679 64.686 64.674 64.669 64.671 64.666 64.669 64.676 62.564 61.666 61.661 61.666 58.941 58.694 58.694 59.644 57.909 57.654 52.571 51.846 52.001 51.829 51.761 51.719 52.374 51.799 50.774 50.504 50.449 50.311 50.239 50.236 50.201 50.189 54.251 55.499 54.376 53.399 53.524 53.501 51.109 50.591 51.784 50.814 50.926 50.229 50.071 50.301 50.021 49.941 55.954 55.971 55.991 50.066 49.861 49.881 49.864 49.819 49.789 51.211 49.684 49.639 49.574 49.684 51.536 59.814 62.016 62.954 61.369 60.301 55.366 47.616 47.431 47.221 47.101 47.046 46.973 47.858 49.063 47.058 47.049 46.988 46.926 46.973 47.656 58.958 60.026 60.301 60.328 60.018 59.661 59.253 53.516 53.161 52.571 51.141 49.733 47.848 45.521 45.438 45.228 47.933 46.326 49.828 45.333 51.976 48.938 49.343 52.476 43.878 51.378 50.363 50.346 50.571 51.096 50.578 50.553 50.758 50.998 51.269 50.796 50.818 50.666 50.411 51.693 54.001 53.581 53.168 53.316 52.608 41.171 41.111 41.138 41.146 41.213 41.256 41.233 41.193 41.171 41.128 41.088 41.071 41.078 41.051 40.986 40.928 40.873 40.811 44.488 48.456 52.653 53.986 53.793 53.781 53.763 53.768 53.778 53.758 53.736 53.741 53.761 53.763 53.731 53.743 53.783 53.788 50.526 39.343 39.213 39.041 38.903 38.771 38.668 38.588 38.606 38.741 38.386 38.261 38.153 38.041 37.946 39.211 37.768 37.998 37.566 37.483 37.421 37.361 38.233 37.251 37.186 37.056 36.931 36.848 36.808 36.726 36.593 36.438 36.271 36.081 35.928 35.773 35.623 35.491 35.313 35.191 34.998 34.838 34.688 34.523 34.368 34.206 34.031 33.846 33.688 33.541 33.376 33.231 33.096 32.948 32.791 32.648 32.518 32.406 32.301 32.191 32.103 31.998 31.901 31.796 31.678 31.613 33.508 34.338 34.416 34.353 34.356 34.376 34.428 34.496 34.578 34.641 34.686 34.736 34.788 34.856 34.893 34.966 34.973 35.011 35.051 35.128 35.183 35.218 35.263 35.323 35.386 35.453 35.518 35.588 35.716 35.833 35.893 35.941 35.913 35.891 35.928 35.953 35.988 36.013 36.411 36.091 36.131 36.161 36.171 36.203 36.288 36.443 36.203 33.826 32.633 32.516 32.416 32.321 32.246 32.168 32.088 31.998 31.926 31.848 31.776 31.698 31.646 31.623 31.606 31.571 35.443 41.086 43.961 43.951 44.036 29.638 29.623 29.608 29.641 29.688 29.718 29.751 29.786 29.826 29.871 29.906 29.943 29.983 30.261 30.248 30.151 30.096 30.058 30.061 31.123 30.088 30.116 30.133 30.163 30.293 30.228 30.191 30.396 30.103 30.068 30.283 30.098 39.453 39.598 39.958 40.198 40.021 38.503 30.268 31.336 32.271 38.106 38.101 38.103 38.138 38.153 38.178 37.156 30.746 32.778 31.393 30.738 30.791 30.846 30.876 30.903 30.946 31.043 31.251 31.431 31.811 32.553 32.726 33.033 33.428 33.756 34.001 34.223
78.294 78.124 77.919 77.684 77.419 77.101 76.729 76.344 75.994 75.691 75.431 75.191 74.969 71.961 58.004 51.594 52.039 55.614 51.359 51.419 51.479 51.479 51.484 51.459 51.406 51.501 51.864 51.569 53.341 76.309 76.144 77.976 76.191 76.099 76.899 69.709 58.571 58.506 58.574 58.576 58.584 62.946 64.624 64.611 66.406 64.624 64.621 64.619 64.606 65.154 64.604 64.616 65.156 64.631 65.136 64.616 64.601 64.601 64.631 64.634 64.636 64.811 64.644 64.721 64.639 64.641 64.714 64.641 64.639 62.461 61.634 61.641 61.784 58.656 58.651 58.661 59.079 58.131 57.956 52.361 51.781 51.771 51.754 51.719 51.659 52.016 52.586 50.609 51.026 50.434 50.266 50.224 50.209 50.186 52.686 54.411 55.329 54.291 57.601 57.464 57.376 57.264 57.184 57.069 57.036 56.899 56.851 56.744 56.686 56.581 56.524 56.449 56.414 56.364 50.501 49.851 49.881 49.831 49.784 49.741 49.684 49.616 49.601 49.584 49.111 57.079 60.166 61.404 61.784 62.126 61.686 61.079 61.149 55.328 47.186 47.056 46.958 46.956 47.646 47.019 47.023 46.991 46.916 46.848 46.956 52.208 56.853 58.043 58.346 58.721 59.088 59.479 59.601 54.731 54.586 53.663 53.411 53.133 52.886 52.816 51.893 49.493 51.848 45.863 49.508 44.566 45.729 44.283 44.123 45.931 49.363 53.301 48.321 51.733 49.486 51.038 50.001 49.714 49.666 49.871 50.116 49.731 49.911 50.208 50.396 53.428 55.501 55.521 55.153 54.778 54.091 41.111 41.063 41.028 41.108 41.171 41.193 41.166 41.131 41.108 41.088 41.088 41.083 41.048 40.981 41.818 42.173 41.121 41.651 41.348 40.576 40.548 40.488 40.418 40.343 46.416 50.651 51.851 53.881 53.768 53.773 53.776 53.758 53.748 53.726 53.761 53.791 43.306 39.281 39.138 38.976 38.881 38.751 38.643 38.548 38.473 38.391 38.311 38.228 38.141 38.023 38.018 38.376 37.728 37.596 37.496 37.438 37.373 37.311 38.736 37.211 37.126 37.033 36.938 36.848 36.768 36.663 36.498 36.331 36.168 36.018 35.893 35.723 35.556 35.426 35.266 35.123 34.936 34.766 34.651 34.496 34.348 34.206 34.056 33.893 33.723 33.583 33.423 33.268 33.096 32.948 32.801 32.656 32.508 32.353 32.213 32.098 31.998 31.893 31.791 31.691 31.581 31.428 31.311 31.253 31.178 32.346 34.026 34.553 34.493 34.508 34.581 34.633 34.678 34.728 34.773 34.816 34.871 34.943 34.966 35.006 35.053 35.101 35.148 35.191 35.243 35.296 35.358 35.423 35.481 35.953 35.658 35.788 35.743 35.853 35.981 36.026 36.096 36.088 36.078 36.101 36.126 36.168 36.203 36.223 36.246 36.281 36.301 36.321 36.368 36.443 36.533 36.658 35.118 32.433 32.288 32.178 32.111 32.023 31.943 31.873 31.786 31.718 31.656 31.578 31.483 31.413 31.393 31.386 31.381 36.036 39.308 30.408 30.083 29.616 29.648 29.683 29.723 29.761 29.793 29.833 29.863 29.886 30.151 30.788 30.366 30.238 30.168 30.131 30.108 30.091 30.123 30.141 30.171 30.193 30.218 30.343 30.921 30.851 30.208 30.141 30.113 30.081 30.148 40.013 40.653 40.876 40.751 40.343 38.948 32.598 30.341 31.738 35.011 38.118 38.136 38.131 38.148 32.896 30.731 30.841 31.028 30.733 30.786 30.823 30.858 30.888 30.933 31.023 31.171 31.366 31.538 31.783 31.998 32.328 32.726 33.098 33.483 33.808 34.091
78.276 78.101 77.906 77.656 77.384 77.054 76.674 76.299 75.951 75.666 75.394 75.154 74.939 71.294 65.194 55.771 51.434 55.029 51.301 51.366 51.411 51.404 51.399 51.366 51.324 51.436 51.991 51.506 52.299 76.466 76.609 77.446 76.544 76.206 76.669 67.446 48.606 48.619 48.606 48.601 55.591 64.294 64.581 64.579 65.341 64.594 64.584 64.579 64.696 64.794 64.589 64.591 65.709 64.581 65.499 64.574 64.576 64.579 64.594 64.599 64.594 65.916 64.619 65.124 64.971 65.011 65.601 64.614 64.611 62.169 61.616 61.621 61.671 59.551 58.616 58.634 59.204 57.929 57.824 52.089 51.734 51.701 51.684 51.659 51.616 52.164 51.044 50.459 51.109 50.366 50.219 50.194 50.151 50.126 50.116 72.121 72.359 72.696 59.079 58.979 58.894 58.796 58.699 58.619 58.526 58.499 58.339 58.254 58.164 58.099 57.949 57.894 57.839 57.824 49.819 49.824 49.826 49.794 49.729 49.669 49.674 49.586 49.551 49.774 49.071 57.451 61.069 61.726 60.909 61.331 61.806 62.141 61.646 62.471 54.191 47.001 46.938 47.056 49.021 46.986 46.971 46.996 46.933 46.881 48.631 47.303 48.601 50.123 52.363 54.473 56.211 54.961 59.706 53.593 53.868 53.448 53.768 53.968 54.063 53.924 52.953 52.706 52.441 52.221 51.566 50.333 51.471 48.493 46.371 44.821 43.816 44.041 43.523 44.163 43.226 44.881 43.953 43.553 48.888 48.729 50.326 49.256 49.008 49.048 49.231 52.698 53.631 54.001 54.401 54.818 49.411 41.058 40.983 40.996 41.068 41.128 41.133 41.098 41.076 41.046 41.031 41.053 41.061 41.033 40.988 40.931 40.856 40.788 40.703 41.088 40.551 40.481 40.391 40.288 40.208 40.126 40.093 40.041 39.948 39.866 39.788 42.701 48.221 53.693 53.841 53.793 53.786 39.783 39.208 39.093 40.206 39.458 38.731 38.628 38.531 38.433 38.356 38.288 38.218 38.123 38.008 37.898 37.821 37.681 37.556 37.453 37.381 37.311 37.403 37.578 37.148 37.073 36.958 36.871 36.801 36.718 36.596 36.413 36.256 36.128 35.943 35.803 35.651 35.516 35.366 35.226 35.053 34.863 34.698 34.573 34.433 34.291 34.158 34.018 33.873 33.741 33.601 33.453 33.273 33.116 32.938 32.788 32.671 32.526 32.376 32.243 32.103 31.971 31.838 31.701 31.551 31.438 31.293 31.188 31.113 31.031 30.956 30.903 31.036 30.961 31.706 32.668 34.461 34.721 34.726 34.758 34.806 34.856 34.901 34.918 34.966 35.018 35.058 35.108 35.158 35.221 35.266 35.321 35.393 35.456 35.521 35.586 35.663 35.718 35.783 35.828 35.901 35.993 36.156 36.213 36.258 36.263 36.246 36.268 36.291 36.306 36.341 36.366 36.393 36.421 36.451 36.468 36.506 36.558 36.648 36.768 34.843 32.218 32.081 31.968 31.903 31.818 31.746 31.668 31.588 31.508 31.438 31.348 31.266 31.191 31.166 31.198 31.191 31.158 31.111 31.006 30.716 30.703 30.241 29.803 30.281 30.823 31.001 30.503 30.426 30.303 30.216 30.196 30.181 30.148 30.148 30.168 30.201 30.221 30.236 30.291 30.376 31.253 30.233 31.211 30.186 30.151 30.271 30.188 35.173 40.338 40.088 39.693 39.343 38.851 31.311 30.411 30.466 31.411 34.966 38.141 38.151 33.923 30.726 31.926 30.711 30.728 30.776 30.821 30.868 31.038 30.941 31.083 31.228 31.373 31.548 31.666 31.906 32.343 33.581 32.563 32.778 33.078 33.468 33.831
78.269 78.089 77.884 77.629 77.356 77.019 76.634 76.261 75.936 75.629 75.361 75.139 74.896 70.794 65.189 53.721 52.474 54.784 51.234 51.299 51.351 51.351 51.331 51.294 51.259 51.376 51.409 51.461 54.991 76.636 77.379 77.274 76.819 76.136 76.909 66.061 48.694 48.691 48.694 48.689 55.589 63.719 64.559 64.564 64.754 64.591 64.581 64.546 64.564 64.576 64.621 64.576 64.649 64.554 64.924 64.564 64.571 64.584 64.574 64.566 64.561 65.504 64.601 64.969 65.219 65.056 65.739 64.576 64.589 62.021 61.586 61.599 61.689 59.684 58.596 58.594 59.579 57.974 56.709 54.411 53.214 51.629 51.659 51.644 51.576 52.199 51.301 51.349 51.384 50.311 50.206 50.149 50.106 50.066 50.061 71.609 72.359 72.494 58.476 58.539 58.684 58.739 58.859 58.966 59.021 59.119 59.184 59.256 59.274 59.419 59.351 59.364 59.381 59.381 49.809 49.796 49.784 49.716 49.669 49.631 49.619 49.571 49.489 49.501 48.429 51.844 61.896 60.106 59.136 60.501 61.296 61.951 61.519 60.141 47.968 46.956 46.861 49.186 47.171 46.941 46.906 47.143 46.843 46.873 61.796 64.551 66.263 67.858 62.418 50.278 46.586 46.514 46.288 46.656 46.486 48.286 51.291 52.691 52.953 52.873 52.823 53.143 53.361 53.391 52.308 52.066 51.851 51.611 51.858 46.553 44.081 48.971 47.646 46.921 43.551 43.028 44.581 44.728 44.326 42.458 49.233 45.341 45.963 47.001 49.223 49.291 50.623 52.076 53.351 52.913 49.183 40.976 40.868 40.948 41.021 41.076 41.068 41.031 41.011 40.996 40.996 40.998 41.013 40.991 40.968 40.921 40.871 40.806 40.721 40.656 40.596 40.531 40.456 40.363 40.263 40.171 40.043 39.958 39.851 40.208 40.178 39.558 39.521 39.333 39.278 39.228 39.538 39.233 39.131 39.033 39.363 38.791 39.328 38.611 38.516 38.436 40.531 38.278 38.216 38.106 37.991 37.883 37.783 37.638 37.481 37.336 37.273 37.241 37.168 37.123 37.038 36.936 36.846 36.768 36.693 36.578 36.461 36.323 36.193 36.081 35.908 35.743 35.598 35.456 35.301 35.156 34.996 34.826 34.648 34.506 34.358 34.211 34.073 33.963 33.833 33.701 33.576 33.431 33.281 33.136 32.971 32.818 32.686 32.531 32.386 32.248 32.103 31.963 31.831 31.671 31.523 31.361 31.191 31.061 30.951 30.876 30.811 30.756 30.771 31.031 30.691 30.128 29.858 29.023 30.456 34.381 34.931 34.901 34.886 34.886 34.923 34.961 35.001 35.053 35.123 35.181 35.243 35.298 35.358 35.416 35.471 35.546 35.616 35.676 35.746 35.813 35.878 35.933 35.996 36.063 36.151 36.298 36.373 36.421 36.418 36.391 36.413 36.438 37.546 36.573 36.518 36.546 36.573 36.593 36.613 36.636 36.686 36.788 36.898 34.661 32.048 31.896 31.771 31.693 31.611 31.533 31.453 31.371 31.293 31.223 31.151 31.083 30.998 30.956 30.946 30.921 30.883 30.851 30.781 30.716 30.663 30.576 30.471 30.386 30.326 30.298 30.271 30.248 30.233 30.221 30.228 30.241 30.233 30.266 30.281 30.388 30.378 30.711 30.266 30.286 30.236 30.191 30.508 30.218 30.931 39.341 39.298 40.088 39.431 38.563 33.843 30.476 31.003 31.101 33.073 35.793 31.826 30.726 30.816 30.683 30.736 30.761 30.803 30.858 31.866 31.113 31.071 31.156 31.298 31.491 31.766 31.933 32.078 32.188 32.426 32.661 32.873 33.073 33.283 33.611
78.241 78.071 77.856 77.604 77.329 76.989 76.611 76.236 75.899 75.601 75.341 75.114 74.901 70.224 65.191 52.579 52.404 54.529 51.181 51.226 51.269 51.264 51.249 51.194 51.281 51.316 51.361 51.406 54.744 76.724 76.056 76.814 77.289 76.131 76.154 65.034 48.791 48.786 48.784 48.786 55.586 64.204 64.579 64.581 64.586 65.989 64.584 64.571 64.576 65.026 64.774 64.589 64.589 64.561 64.569 64.569 64.914 64.676 64.579 64.579 64.574 64.596 64.609 65.124 64.566 64.564 64.566 64.584 64.604 61.879 61.574 61.584 61.934 58.869 58.649 58.564 59.459 56.959 54.004 53.981 54.036 51.556 51.634 51.576 51.486 52.166 51.544 52.919 53.534 50.491 50.251 50.114 50.094 50.029 50.731 72.514 72.369 72.496 56.959 57.086 57.129 57.256 57.371 57.476 57.566 57.654 57.744 57.754 57.831 57.889 57.976 58.026 58.091 58.184 49.764 49.759 49.726 49.741 49.629 49.581 49.571 49.486 49.449 49.469 47.389 52.719 59.034 61.634 59.726 60.814 61.594 62.171 61.091 58.661 47.256 46.868 46.831 46.878 46.898 46.886 46.918 46.953 46.811 48.303 63.808 65.238 67.106 66.476 64.779 63.123 61.348 51.356 46.101 46.496 47.591 45.901 45.696 45.501 45.374 46.031 48.513 51.639 51.988 52.276 52.068 52.856 52.733 52.633 52.451 53.361 52.153 50.813 50.618 50.426 50.311 50.406 48.078 47.216 44.071 42.411 46.933 42.144 42.546 44.863 43.726 51.008 50.591 51.768 53.483 52.273 44.346 40.906 40.813 40.908 40.986 41.008 41.003 40.971 40.951 40.903 40.926 40.923 40.921 40.913 40.896 40.861 40.806 40.753 40.686 40.638 40.593 40.516 40.451 40.376 40.296 40.221 40.136 40.046 39.948 39.828 39.728 39.613 39.488 39.356 39.246 39.128 39.071 39.081 38.996 38.888 38.818 38.736 38.998 38.531 38.463 38.381 40.383 38.408 38.151 38.078 37.978 37.841 37.733 37.608 37.436 37.261 37.168 37.103 37.033 36.936 36.878 36.811 36.731 36.651 36.586 36.471 36.358 36.253 36.098 36.046 35.876 35.728 35.561 35.403 35.258 35.083 34.911 34.743 34.598 34.473 34.326 34.193 34.043 33.898 33.761 33.646 33.526 33.398 33.271 33.133 32.981 32.833 32.708 32.553 32.408 32.246 32.083 31.943 31.778 31.641 31.501 31.331 31.153 30.966 30.836 30.751 30.711 30.683 30.636 30.941 30.546 29.981 29.903 28.956 28.951 28.928 28.896 30.023 32.953 33.286 34.368 34.998 34.966 35.023 35.096 35.158 35.221 35.288 35.331 35.383 35.453 35.516 35.581 35.633 35.708 35.781 35.828 35.906 35.981 36.038 36.098 36.303 36.198 36.293 36.433 36.518 36.558 36.578 37.456 36.558 36.586 36.626 36.646 36.673 36.701 36.718 36.743 36.771 36.786 36.816 36.933 37.056 36.446 33.163 31.711 31.583 31.496 31.418 31.336 31.256 31.183 31.116 31.041 30.971 30.906 30.851 30.796 30.738 30.671 30.631 30.576 30.528 30.473 30.421 30.391 30.351 30.331 30.313 30.381 30.296 30.298 30.296 30.301 30.316 30.318 30.391 30.333 30.316 30.298 30.288 30.353 30.226 30.486 30.221 30.283 30.936 38.641 39.393 40.096 39.393 31.781 30.921 30.998 31.531 31.343 31.346 30.721 30.761 30.691 30.743 30.771 30.811 30.846 31.091 31.113 31.058 31.101 31.336 31.618 31.766 32.053 32.256 32.366 32.448 32.618 32.741 33.173 33.181 33.396 33.583
78.224 78.039 77.824 77.571 77.294 76.954 76.569 76.196 75.866 75.569 75.314 75.109 74.864 69.494 65.194 51.736 51.109 51.051 51.114 51.171 51.209 51.196 51.171 51.234 51.231 51.281 51.329 51.416 64.989 76.906 76.539 79.999 80.006 80.066 80.126 66.304 48.866 48.874 48.866 48.864 55.599 64.666 64.621 64.626 64.616 65.439 64.611 64.604 64.614 64.711 64.754 64.611 64.601 64.601 64.589 64.591 65.094 64.779 64.589 64.594 64.594 64.604 64.611 65.701 64.591 64.599 64.601 64.594 64.611 61.591 61.594 61.604 61.929 58.921 59.889 60.011 57.966 54.004 53.996 53.989 54.489 51.494 51.549 51.509 51.391 51.274 51.151 53.051 53.469 50.386 50.299 50.041 50.004 49.966 50.226 49.909 49.869 55.284 57.204 57.141 57.059 57.004 56.939 56.916 56.929 56.939 56.894 56.864 56.769 56.736 56.741 56.751 56.771 56.819 50.359 49.694 49.669 49.629 49.551 49.534 49.494 49.419 49.389 49.396 50.054 56.531 59.901 60.774 60.476 61.034 62.656 61.544 61.234 46.836 48.983 46.751 47.241 46.831 46.838 46.808 46.851 46.756 46.796 56.623 65.706 66.071 67.479 65.598 63.909 62.156 54.058 52.233 51.471 55.373 62.551 57.933 45.186 50.788 56.909 48.753 45.131 46.049 48.133 49.463 51.916 52.216 52.436 52.733 52.136 53.506 51.988 51.678 51.606 51.466 51.246 50.716 50.203 49.931 49.698 49.683 49.351 48.046 49.371 43.928 42.191 50.751 51.141 52.241 53.461 52.056 43.663 40.818 40.781 40.878 40.921 40.951 40.933 40.913 40.876 40.836 40.863 40.841 40.816 40.793 40.853 41.206 41.846 40.646 40.613 40.573 40.513 40.443 40.381 40.313 40.243 40.186 40.123 40.051 39.963 39.876 39.778 39.673 39.576 39.458 39.358 39.233 39.118 39.003 38.901 38.776 38.696 38.631 38.551 38.443 38.358 38.263 38.376 39.056 38.048 37.971 37.873 37.773 37.678 39.773 37.403 37.266 37.153 37.046 36.936 36.841 36.726 36.638 36.568 36.486 36.431 36.348 36.243 36.168 36.053 36.288 35.828 35.668 35.533 35.381 35.211 35.068 34.913 34.753 34.601 34.438 34.286 34.148 34.011 33.891 33.781 33.653 33.506 33.373 33.228 33.093 32.981 32.843 32.698 32.553 32.383 32.233 32.091 31.916 31.741 31.583 31.446 31.266 31.098 30.923 30.761 30.656 30.591 30.568 30.511 30.558 30.413 29.923 29.781 28.991 28.988 28.963 28.921 29.056 29.276 29.463 29.603 29.813 31.473 34.793 35.261 35.231 35.211 35.251 35.313 35.373 35.418 35.483 35.536 35.603 35.678 35.748 35.806 35.863 35.938 36.003 36.061 36.236 36.178 36.243 36.301 36.366 36.426 36.561 36.643 36.688 36.741 36.721 36.706 36.743 36.776 36.798 36.818 36.851 36.881 36.891 36.916 37.471 36.963 37.073 37.183 36.726 33.376 31.526 31.401 31.311 31.226 31.156 31.093 31.011 30.946 30.891 30.836 30.761 30.716 30.671 30.626 30.573 30.521 30.473 30.458 30.506 30.453 30.446 30.438 30.328 30.341 30.331 30.328 30.341 30.348 30.403 30.356 30.338 30.328 30.303 30.343 30.243 30.211 30.196 30.258 30.326 31.876 38.643 38.453 30.523 30.551 30.603 31.743 30.986 30.708 30.711 30.731 30.746 30.743 30.773 30.816 30.853 31.736 31.196 31.058 31.101 31.758 31.826 31.866 32.088 32.406 32.688 32.858 32.958 32.978 32.998 33.153 33.291 35.118 34.906
78.206 78.024 77.799 77.539 77.271 76.921 76.521 76.159 75.831 75.551 75.296 75.079 74.879 68.224 65.394 51.174 51.079 50.999 51.051 51.114 51.131 51.144 51.164 51.184 51.189 51.251 51.339 55.619 65.446 76.886 76.579 80.511 80.364 80.009 76.964 67.829 48.954 48.951 48.956 48.949 55.604 64.774 64.644 64.641 64.651 64.639 64.641 64.644 64.631 64.634 64.641 64.646 64.644 64.629 64.634 64.624 64.629 64.634 64.624 64.621 64.621 64.631 64.629 64.631 64.624 64.629 64.626 64.629 64.641 61.621 61.614 61.616 61.871 59.046 59.501 59.061 58.891 53.954 53.056 52.339 52.159 51.469 51.516 51.451 51.349 51.256 51.161 52.849 53.111 50.331 50.291 50.219 49.869 49.839 49.801 49.769 49.726 58.246 58.694 58.584 58.544 58.431 58.376 58.289 58.269 58.194 58.114 58.031 57.969 57.911 57.804 57.749 57.651 57.629 49.611 49.639 49.601 49.556 49.516 49.481 49.424 49.364 49.334 49.406 52.826 59.199 60.594 60.441 60.436 61.339 61.331 60.001 55.386 46.778 46.776 46.741 47.198 46.786 46.783 46.738 46.956 46.731 47.968 66.271 67.206 67.104 66.291 64.794 62.049 60.241 55.056 53.933 52.659 62.104 63.011 63.961 64.321 64.888 65.796 66.659 67.528 67.206 60.074 52.878 46.663 49.896 50.983 51.606 52.366 53.284 51.931 51.691 51.696 51.698 51.703 51.281 51.208 51.138 50.924 50.731 49.813 49.534 49.248 49.053 49.431 50.176 49.223 52.548 53.278 51.913 41.371 40.723 40.746 40.841 40.868 40.883 40.861 40.846 40.776 40.801 40.836 46.401 43.236 44.168 40.821 40.971 40.796 40.741 40.678 40.616 40.551 40.461 40.373 40.278 40.206 40.121 40.026 39.966 39.888 39.813 39.723 39.638 39.551 39.466 39.383 39.276 39.178 39.061 38.953 38.828 38.703 38.563 38.441 38.301 38.201 38.126 38.018 37.948 37.876 37.811 37.728 37.646 37.561 38.818 37.356 37.243 37.123 37.356 36.911 36.831 36.656 36.576 36.471 36.378 36.286 36.208 36.143 36.061 35.951 36.093 35.708 35.593 35.451 35.336 35.186 34.996 34.861 34.718 34.578 34.438 34.286 34.146 34.016 33.893 33.766 33.636 33.523 33.388 33.253 33.098 32.963 32.818 32.651 32.498 32.358 32.203 32.051 31.876 31.706 31.548 31.398 31.218 31.028 30.881 30.741 30.631 30.528 30.461 30.436 30.648 30.311 29.841 29.471 29.011 29.023 29.001 28.943 29.061 29.263 29.431 29.578 29.643 29.663 29.723 29.771 29.811 31.701 32.361 34.411 35.478 35.436 35.438 35.496 35.571 35.641 35.708 35.778 35.841 35.903 35.948 36.378 37.218 37.078 36.211 36.266 36.333 36.393 36.448 36.488 36.551 36.686 36.816 36.861 36.886 36.866 36.861 36.893 36.936 36.956 37.156 37.001 37.318 37.721 37.068 37.091 37.118 37.183 37.293 37.158 35.663 31.613 31.256 31.148 31.068 30.986 30.941 30.883 30.818 30.763 30.696 30.643 32.111 32.901 32.071 30.453 30.441 30.406 30.413 30.466 30.338 30.356 30.356 30.363 30.361 30.406 30.468 30.366 30.358 30.346 30.361 30.341 30.256 30.223 30.191 30.238 30.321 30.413 33.661 31.028 30.666 31.943 30.631 30.683 30.701 30.706 30.713 30.728 30.758 30.796 30.816 30.853 30.878 30.998 31.061 31.093 31.666 32.173 32.101 32.233 32.501 32.918 33.231 33.386 33.448 33.518 33.503 33.536 33.586 33.681 34.003
78.184 77.984 77.766 77.511 77.246 76.889 76.494 76.131 75.811 75.519 75.279 75.066 74.794 68.226 65.536 51.114 51.041 50.949 51.016 51.051 51.074 51.079 51.141 51.104 51.141 51.219 51.309 57.119 65.689 76.976 77.714 80.081 80.844 80.021 80.104 64.439 49.051 49.049 49.041 49.046 55.624 64.726 64.686 64.681 64.686 64.674 64.674 64.676 64.669 64.666 64.679 64.681 64.674 64.669 64.659 64.656 64.656 64.666 64.659 64.649 64.661 64.664 64.666 64.661 64.659 64.656 64.656 64.659 64.659 61.651 61.654 61.664 62.334 58.649 58.639 58.646 57.029 51.459 53.496 52.884 51.491 51.466 51.544 51.434 51.351 51.214 51.151 53.309 53.204 50.304 50.251 50.199 50.046 49.719 49.669 49.639 49.611 56.094 58.704 58.746 58.944 59.024 59.144 59.209 59.301 59.339 59.361 59.356 59.411 59.394 59.319 59.229 59.186 58.911 49.564 49.551 49.544 49.501 49.459 49.436 49.379 49.346 49.304 49.379 55.339 60.006 60.759 60.389 60.896 61.751 60.471 60.196 46.734 46.723 46.663 46.703 46.728 46.731 46.706 46.659 46.639 46.733 57.698 64.311 66.041 67.291 65.639 63.943 60.701 56.156 59.131 59.666 61.103 62.568 63.501 64.281 64.288 65.341 66.214 67.096 67.941 68.824 69.674 69.146 68.276 67.426 66.541 55.121 50.271 48.188 50.731 50.858 51.106 51.311 51.521 51.101 51.198 51.201 50.101 50.973 49.726 50.046 50.303 50.293 52.848 53.528 53.148 52.918 53.038 50.488 40.763 40.631 40.698 40.781 40.816 40.821 40.801 40.763 40.683 40.746 40.783 50.918 51.581 50.718 50.391 50.333 50.296 50.211 50.101 49.428 48.673 48.446 46.313 43.473 41.861 40.476 40.153 40.053 39.936 39.793 39.643 39.548 39.458 39.398 39.328 39.248 39.163 39.066 38.961 38.848 38.728 38.603 38.483 38.336 38.211 38.073 37.921 37.791 37.688 37.626 37.541 37.428 37.368 37.313 37.238 37.136 37.241 36.941 36.851 37.871 36.638 36.538 36.418 36.306 36.201 36.093 35.986 35.881 35.798 36.011 35.616 35.498 35.356 35.246 35.116 34.933 34.766 34.648 34.503 34.346 34.241 34.126 34.023 33.918 33.808 33.708 33.598 33.426 33.278 33.106 32.953 32.796 32.633 32.458 32.301 32.138 31.966 31.803 31.661 31.498 31.341 31.178 31.011 30.856 30.746 30.611 30.516 30.428 30.388 32.786 30.368 29.811 29.283 29.063 29.066 29.036 28.991 29.123 29.328 29.518 29.668 29.713 29.716 29.728 29.731 29.766 29.761 29.748 29.756 29.773 29.763 30.863 34.068 33.598 35.671 35.673 35.723 35.796 35.861 35.926 35.991 36.066 36.161 36.173 36.238 36.301 36.358 36.463 36.483 36.528 36.591 36.643 36.691 36.801 36.923 36.993 37.031 37.026 37.021 37.206 37.776 37.098 37.108 37.151 37.176 37.196 37.223 37.246 37.256 37.281 37.393 37.531 36.746 33.583 31.088 30.976 30.916 30.853 30.791 30.733 30.668 30.611 30.571 30.633 30.468 30.433 30.398 30.381 30.368 30.338 30.363 30.371 30.378 30.396 30.466 30.453 30.398 30.378 30.373 30.451 30.386 30.283 30.238 30.226 30.323 30.401 30.453 30.516 30.568 33.086 30.796 31.381 30.693 30.691 30.701 30.713 30.766 30.808 30.848 30.873 30.901 31.033 31.063 31.098 32.338 32.526 32.461 32.586 32.883 33.138 33.508 33.771 33.926 33.988 34.081 34.088 34.083 34.101 34.138 34.211
77.969 77.946 77.731 77.479 77.196 76.846 76.451 76.099 75.786 75.511 75.261 75.059 74.481 66.636 64.056 51.039 50.999 50.909 50.954 50.996 51.001 51.056 51.074 51.026 51.071 51.159 51.251 51.326 65.644 77.201 77.506 79.976 79.991 80.021 80.114 64.446 49.129 49.126 49.121 49.691 55.634 64.764 64.691 64.701 64.724 64.716 64.719 64.719 64.716 64.714 64.716 64.716 64.729 64.706 64.699 64.709 64.696 64.706 64.691 64.686 64.699 64.699 64.691 64.704 64.699 64.704 64.681 64.684 64.781 61.689 61.689 61.696 62.081 58.676 58.681 58.681 56.334 51.456 51.424 51.424 51.456 51.479 51.546 51.469 51.369 51.194 51.171 52.966 52.551 50.314 50.231 50.171 50.031 49.866 49.564 49.519 49.491 56.884 57.051 57.146 57.244 57.364 57.399 57.506 57.601 57.706 57.781 57.869 57.989 58.074 58.199 58.231 58.351 58.524 49.486 49.514 49.521 49.509 49.464 49.444 49.376 49.309 49.274 50.551 58.571 60.279 60.624 60.476 61.356 61.289 59.859 53.961 46.691 46.671 46.623 46.668 46.683 46.668 46.631 46.558 46.641 53.183 65.691 65.273 67.093 66.458 64.751 62.081 54.741 56.876 56.276 60.623 61.328 62.561 64.028 64.333 64.924 65.778 66.631 67.516 68.379 69.286 69.528 68.661 67.811 66.943 66.063 65.181 62.748 44.031 44.311 45.424 47.568 49.161 50.401 49.778 50.063 50.308 49.801 45.606 43.061 46.226 47.924 48.923 52.533 52.708 53.086 53.441 53.793 49.513 40.703 40.556 40.658 40.726 40.753 40.751 40.726 41.638 40.613 40.698 40.738 51.018 51.848 51.411 50.803 51.078 51.111 51.146 51.083 51.036 50.913 50.823 50.741 50.078 47.226 47.093 46.993 46.933 45.646 43.366 41.611 39.586 39.398 39.326 39.248 39.156 39.088 38.991 38.901 38.803 38.701 38.586 38.476 38.346 38.236 38.118 37.983 37.838 37.688 37.536 37.393 37.273 37.191 37.116 37.031 36.941 36.876 36.788 36.703 36.628 36.546 36.458 36.338 36.221 36.123 36.031 35.878 35.698 35.636 35.611 35.486 35.368 35.298 35.166 35.033 34.868 34.716 34.538 34.406 34.288 34.193 34.093 34.021 33.936 34.486 33.786 33.556 33.401 33.248 33.073 32.933 32.768 32.591 32.421 32.261 32.098 31.941 31.773 31.598 31.426 31.283 31.141 30.973 30.848 30.696 30.596 30.511 30.436 30.548 32.758 30.228 29.761 29.178 29.098 29.098 29.068 29.201 29.593 29.616 34.071 40.321 37.888 31.306 29.808 29.736 29.783 29.758 29.956 30.071 29.776 29.778 29.776 29.816 29.816 29.833 31.016 31.728 34.796 35.961 35.931 35.951 36.013 36.081 36.141 36.203 36.266 36.321 36.386 36.776 36.598 36.561 36.621 36.668 36.721 36.788 36.838 36.943 37.066 37.113 37.188 37.186 37.166 37.198 37.211 37.241 37.273 37.298 37.336 37.343 37.368 37.388 37.441 37.493 37.556 37.653 37.733 36.886 33.346 30.836 30.758 30.706 30.653 30.593 30.543 30.491 30.443 30.406 30.386 30.363 30.373 30.386 30.396 30.391 30.413 30.426 30.413 30.411 30.403 30.393 30.391 30.388 30.361 30.291 30.261 30.251 30.388 30.456 30.508 30.576 30.631 31.348 30.688 30.683 30.676 30.691 30.748 30.808 30.863 30.898 31.013 31.058 31.083 31.126 32.773 32.953 32.861 32.996 33.236 33.468 33.878 34.143 34.381 34.496 34.576 34.631 34.643 34.663 34.683 34.671 34.696
76.011 76.024 73.061 73.759 74.106 73.216 74.216 74.539 74.479 74.806 75.106 75.059 73.991 66.451 62.594 50.921 50.846 50.844 50.891 50.904 50.919 50.971 50.984 50.949 50.994 51.074 51.159 54.206 70.444 77.234 77.146 79.966 79.999 80.034 80.166 61.726 49.231 49.231 49.214 49.229 55.616 64.691 64.536 64.761 64.794 64.774 64.774 64.756 65.016 64.746 64.756 64.761 64.761 64.754 64.751 64.749 64.746 64.751 64.776 64.744 64.734 64.739 64.744 64.746 64.734 64.736 64.696 64.696 64.719 61.721 61.734 61.746 62.216 58.764 58.719 58.719 55.531 51.464 51.426 51.439 51.446 52.401 51.961 51.329 51.219 51.186 51.909 53.794 52.719 50.311 50.219 50.161 50.049 49.921 49.554 49.414 49.384 49.351 49.801 53.326 55.149 55.999 52.954 54.519 56.086 55.354 56.541 55.311 56.459 56.546 56.584 56.639 56.709 56.596 49.409 49.429 49.454 49.464 49.454 49.426 49.379 49.326 49.259 56.521 57.106 60.436 59.656 59.629 62.484 60.479 59.724 46.614 46.629 46.553 46.608 46.651 46.646 46.608 46.546 46.518 46.623 61.556 62.753 65.971 67.468 65.633 63.901 60.403 59.093 60.793 57.248 60.918 61.716 62.613 64.311 64.356 65.336 66.203 67.086 67.949 68.811 69.691 69.113 68.233 67.348 66.491 65.628 64.761 58.799 44.001 44.276 43.626 43.371 43.283 43.243 43.371 43.466 44.486 48.118 44.846 42.116 42.811 42.273 42.133 43.808 46.588 50.988 51.086 51.978 43.221 40.603 40.521 40.611 40.666 40.696 40.683 40.833 40.996 40.548 40.648 40.673 52.068 52.316 50.586 50.921 50.548 50.351 50.408 50.443 50.546 50.603 50.686 50.738 49.526 47.548 47.628 47.706 47.681 47.596 47.516 47.286 42.703 39.356 39.268 39.208 39.128 39.016 38.931 38.808 38.721 38.618 38.506 38.411 38.281 38.183 38.086 37.983 37.863 37.731 37.598 37.466 37.333 37.188 37.048 36.913 36.773 36.698 36.631 36.528 36.441 36.333 36.288 36.213 36.118 35.998 35.916 35.818 35.583 35.553 35.486 35.411 35.301 35.201 35.096 34.956 34.811 34.651 34.481 34.331 34.203 34.106 34.043 33.976 33.888 33.763 33.613 33.478 33.321 33.186 33.003 32.861 32.713 32.558 32.403 32.236 32.071 31.906 31.748 31.563 31.408 31.258 31.108 30.961 30.831 30.691 30.586 30.506 30.418 30.951 32.736 30.176 29.771 29.173 29.133 29.136 29.093 29.668 29.648 30.236 35.308 47.753 47.741 47.731 47.736 47.761 44.023 29.721 29.683 29.726 29.766 29.766 29.781 29.858 29.796 29.821 29.838 29.836 29.836 29.881 30.581 30.731 34.491 34.871 36.151 36.168 36.213 36.268 36.351 36.396 36.586 36.518 36.586 36.636 36.698 36.763 36.813 36.876 36.931 36.996 37.083 37.203 37.271 37.333 37.346 37.323 37.361 37.368 37.401 37.416 37.441 37.481 37.526 37.561 37.588 37.611 37.633 37.653 37.706 37.776 37.826 35.931 32.293 30.651 30.578 30.501 30.461 30.426 30.398 30.378 30.388 30.406 30.406 30.411 30.426 30.428 30.431 30.441 31.853 31.748 30.416 30.376 30.361 30.311 30.281 30.268 30.391 30.448 30.516 30.571 30.633 30.703 30.686 30.633 30.648 30.708 30.783 30.851 30.901 30.938 31.078 31.098 31.123 33.448 33.338 33.273 33.333 33.561 33.871 34.081 34.406 34.666 34.911 35.086 35.156 35.196 35.216 35.243 35.251 35.266 35.236
74.661 76.616 76.771 76.324 72.936 72.921 74.276 73.699 73.981 75.336 74.646 74.379 72.241 66.366 58.279 50.841 50.756 50.784 50.816 50.836 50.834 50.876 50.914 50.874 50.929 51.016 54.329 62.931 70.099 77.379 77.801 79.984 79.994 80.026 80.176 61.979 49.341 49.329 49.326 50.869 55.631 64.444 64.261 64.389 62.889 62.171 62.179 64.796 65.349 64.829 64.809 64.806 64.794 64.781 64.784 64.784 64.791 64.901 65.021 64.779 65.359 64.786 65.869 64.901 64.776 64.789 64.506 64.516 64.676 61.924 61.901 61.999 62.351 59.061 59.056 59.234 56.706 52.254 51.469 51.464 51.574 52.416 51.881 51.404 51.201 51.134 51.236 53.661 52.231 50.274 50.189 50.151 50.059 49.941 49.756 49.321 49.266 49.234 49.199 53.314 54.139 52.066 48.996 49.009 49.021 49.031 49.054 49.079 49.094 49.131 49.189 49.171 49.199 49.241 49.284 49.306 49.361 49.409 49.404 49.356 49.266 49.181 49.106 55.826 56.466 58.574 59.754 60.349 60.239 58.926 54.176 46.569 46.574 47.106 46.581 46.604 46.583 46.528 46.453 46.536 52.221 62.104 63.261 64.534 65.856 65.023 64.496 64.716 61.536 60.396 60.606 61.313 62.123 62.931 63.848 64.876 65.796 66.656 67.516 68.378 69.271 69.526 68.646 67.764 66.909 66.051 65.203 63.588 51.961 44.034 46.441 47.931 47.896 47.873 47.854 47.758 48.026 45.233 44.803 50.229 48.731 45.528 47.198 42.293 41.498 41.513 41.173 40.988 40.763 42.036 40.461 40.483 40.553 40.608 40.628 40.626 40.608 40.546 40.496 40.588 40.628 53.551 53.546 53.548 53.571 56.828 56.863 53.608 53.631 52.981 52.423 51.608 49.158 48.391 46.033 46.733 46.843 44.128 45.493 47.116 47.266 41.216 39.268 39.221 39.153 39.066 38.988 38.883 38.831 38.738 38.683 38.536 38.331 38.336 40.003 39.301 37.931 37.796 37.688 37.588 37.468 37.351 37.221 37.106 36.966 36.838 36.691 36.551 36.413 36.268 36.163 36.101 36.011 35.901 35.816 35.736 35.711 35.508 35.468 35.406 35.346 35.268 35.138 35.028 34.913 34.766 34.578 34.416 34.281 34.166 34.068 33.981 33.898 33.813 33.648 33.508 33.368 33.268 33.113 32.966 32.851 32.676 32.531 32.386 32.208 32.043 31.873 31.701 31.526 31.376 31.228 31.078 30.943 30.801 30.671 30.561 30.471 30.401 31.056 32.591 29.971 29.768 29.176 29.188 29.176 29.131 29.543 29.671 30.723 38.268 45.728 47.728 47.696 47.713 47.741 46.743 29.706 29.693 29.706 29.748 29.746 29.746 29.871 30.691 30.353 29.803 29.808 29.823 29.843 29.858 29.886 29.891 29.911 30.026 32.513 33.973 35.676 36.388 36.371 36.421 36.483 36.543 36.596 36.661 36.736 36.796 36.843 36.903 36.966 37.033 37.098 37.176 37.231 37.341 37.411 37.488 37.511 37.473 37.481 37.498 37.548 37.593 37.626 37.658 37.658 37.678 37.853 38.278 37.733 37.731 37.748 37.786 37.816 37.871 36.418 34.018 30.458 30.461 30.406 30.406 30.418 30.421 30.443 30.446 30.456 30.451 30.458 30.461 30.458 30.431 30.408 30.376 30.336 30.298 30.288 30.398 30.453 30.498 30.566 30.621 30.693 30.698 30.611 30.656 30.721 30.823 30.916 30.928 30.966 31.123 31.153 33.818 33.758 33.641 33.713 33.921 34.173 34.468 34.711 34.958 35.208 35.423 35.581 35.673 35.756 35.776 35.836 35.841 35.808 35.786
74.304 73.676 73.359 73.561 73.244 73.376 75.261 74.486 73.876 75.446 75.179 74.974 71.739 65.374 56.986 50.764 50.676 50.694 50.741 50.756 50.756 50.791 50.824 50.789 50.866 55.311 62.951 62.861 68.659 77.556 77.521 80.036 79.991 80.026 80.244 59.244 49.454 49.586 49.444 49.714 55.629 64.086 63.979 64.059 63.121 62.479 62.484 64.251 64.631 64.371 64.821 64.779 64.826 64.811 64.839 64.876 64.826 64.951 64.831 64.816 65.364 64.821 65.379 65.236 64.824 64.826 64.216 64.224 64.309 62.356 62.201 62.314 62.031 59.354 58.936 59.084 55.644 50.744 51.476 51.479 52.716 52.701 51.934 51.379 51.774 51.164 52.009 53.291 51.994 50.246 50.179 50.134 50.049 49.929 49.764 49.686 49.179 49.131 49.099 49.341 48.951 49.611 48.966 48.971 48.994 49.019 49.034 49.056 49.081 49.106 49.134 49.159 49.191 49.216 49.246 49.291 49.414 49.439 49.384 49.316 49.166 49.024 49.194 55.119 56.944 59.126 60.396 60.834 59.556 59.639 46.599 46.524 46.591 46.659 46.549 46.556 46.519 46.841 46.418 46.521 61.363 62.631 63.811 65.061 65.656 64.516 64.696 64.726 64.758 61.746 61.041 61.686 62.518 63.321 64.138 65.348 66.203 67.089 67.971 68.851 69.663 69.081 68.231 67.368 66.464 65.583 62.523 55.671 44.479 44.063 46.531 47.909 47.873 47.846 47.821 47.806 47.718 45.721 45.671 55.284 58.198 58.174 58.136 58.181 58.203 58.391 51.871 51.928 52.333 40.511 40.401 40.426 40.488 40.538 40.568 40.563 40.541 40.466 40.453 40.533 40.568 53.521 53.508 53.516 53.526 56.813 56.663 53.618 53.826 53.588 53.578 54.623 42.651 40.848 39.658 40.763 39.523 39.443 39.848 39.986 39.601 39.428 39.173 39.146 39.086 39.013 38.938 39.021 38.966 38.851 38.686 38.556 38.413 38.251 38.078 37.938 37.896 38.496 37.891 37.501 37.393 37.293 37.196 37.076 36.956 36.846 36.713 36.591 36.453 36.321 36.173 36.023 35.886 35.746 35.653 35.576 35.473 35.391 35.303 35.213 35.196 35.153 35.051 34.936 34.781 34.658 35.876 34.376 35.301 34.131 34.016 33.926 33.823 33.711 33.586 33.446 33.313 33.181 33.048 32.916 32.766 32.623 32.476 32.323 32.161 32.028 31.866 31.691 31.531 31.391 31.238 31.073 30.923 30.786 30.653 30.566 30.478 30.398 30.553 30.251 29.926 29.746 29.206 29.223 29.216 29.181 29.613 29.676 31.696 41.428 47.738 47.708 47.713 47.708 47.373 35.988 29.681 29.678 29.721 29.751 31.223 30.583 29.776 29.781 29.793 29.791 29.786 29.793 29.816 29.833 29.846 29.856 29.863 29.898 29.946 29.978 29.996 30.018 32.626 33.303 36.661 36.603 36.578 36.636 36.701 36.763 36.823 36.878 36.946 37.016 37.083 37.151 37.221 37.266 37.303 37.376 37.478 37.553 37.593 37.643 37.663 37.651 37.683 37.701 37.718 37.723 37.736 37.746 37.758 37.778 37.783 37.783 37.786 37.796 37.798 37.831 37.886 37.941 37.093 33.988 31.648 30.451 30.461 30.461 30.473 30.473 30.481 30.481 30.481 30.473 30.443 30.388 30.356 30.318 30.311 30.316 30.441 30.501 30.563 30.618 30.661 30.633 30.613 30.658 30.808 30.906 30.978 31.048 31.111 31.148 34.183 34.093 34.046 34.128 34.318 34.513 34.816 35.031 35.278 35.538 35.731 35.896 36.041 36.193 36.286 36.321 36.361 36.428 36.396 36.358
76.524 76.631 74.321 73.744 73.644 72.921 72.931 72.961 73.044 75.411 75.156 74.891 71.354 65.389 53.774 50.689 50.616 50.609 50.654 50.681 50.674 50.781 50.739 50.704 50.751 53.569 62.854 62.864 70.091 77.576 76.626 77.614 78.769 79.066 77.046 54.559 53.439 52.936 53.494 54.496 55.256 63.759 63.661 63.696 62.859 62.784 62.776 64.011 63.334 63.301 64.101 64.439 63.309 63.349 63.319 63.451 63.504 63.296 63.309 63.671 63.314 63.544 63.374 63.724 63.384 63.931 63.924 63.941 64.266 62.636 62.524 63.039 60.536 55.889 54.916 57.284 51.226 50.359 50.464 50.416 50.571 51.594 50.804 51.369 51.096 51.334 52.334 53.549 50.739 50.231 50.159 50.094 50.024 49.929 49.789 49.641 49.389 49.054 49.004 48.976 48.926 48.909 48.929 48.944 48.966 48.989 49.024 49.061 49.084 49.094 49.116 49.154 49.161 49.201 49.211 49.264 49.299 49.316 49.301 49.256 49.161 48.974 52.136 59.351 59.034 59.824 61.026 60.131 58.866 53.371 47.101 46.486 48.106 46.491 46.516 46.496 46.438 47.438 46.438 53.049 62.066 63.191 64.383 65.613 64.956 63.748 62.616 63.031 64.779 61.691 61.713 61.976 62.901 63.698 64.921 65.778 66.638 67.508 68.401 69.283 69.516 68.636 67.778 66.901 66.059 66.026 58.863 54.966 44.886 43.996 47.838 47.898 47.858 47.839 47.811 47.803 47.723 45.604 45.633 58.158 58.188 58.161 58.128 58.168 58.183 58.251 51.848 51.886 51.981 40.468 40.386 40.368 40.441 40.488 40.511 40.496 40.463 40.413 40.406 40.463 40.511 53.496 53.473 53.468 53.458 53.491 53.511 53.596 55.046 55.028 53.601 51.208 51.246 51.271 39.701 46.213 55.563 55.578 55.596 55.576 55.591 40.498 39.101 39.076 39.016 38.951 38.951 39.046 38.906 38.638 38.486 38.386 38.301 38.253 38.153 38.033 37.941 37.828 37.688 37.546 37.366 37.208 37.093 36.996 37.128 36.768 36.666 36.548 36.443 36.321 36.211 36.068 35.938 35.798 35.666 35.523 35.398 35.256 35.161 35.071 34.996 34.958 34.891 34.798 34.703 34.543 34.396 34.296 35.306 34.088 34.003 33.896 33.776 33.648 33.523 33.386 33.273 33.141 33.013 32.868 32.716 32.573 32.431 32.288 32.126 31.991 31.838 31.676 31.533 31.388 31.251 31.076 30.901 30.773 30.693 30.588 30.468 31.668 30.283 30.171 29.851 29.716 29.258 29.263 29.248 29.213 29.593 29.678 32.648 43.913 44.111 47.716 47.693 47.716 47.738 35.293 29.691 30.786 29.731 29.741 29.743 29.771 29.796 30.366 29.766 29.763 29.751 29.758 29.768 29.776 29.796 29.811 29.838 29.853 29.908 29.926 29.931 30.018 31.563 30.051 30.048 30.096 32.221 34.853 36.853 36.808 36.803 36.868 36.931 37.008 37.073 37.136 37.181 37.241 37.286 37.358 37.401 37.456 37.511 37.646 37.763 37.816 37.838 37.821 37.776 37.776 37.793 37.808 37.808 37.823 37.816 37.828 37.833 37.836 37.848 37.858 37.866 37.873 37.871 37.883 37.928 37.976 37.636 36.491 32.148 30.811 30.516 30.511 30.508 30.503 30.616 30.658 30.368 30.343 30.321 30.308 30.461 30.498 30.541 30.573 30.618 30.558 30.613 30.718 30.841 30.921 30.988 31.061 31.428 34.596 34.493 34.446 34.593 34.701 34.941 35.173 35.463 35.636 35.841 36.016 36.213 36.351 36.506 36.638 36.751 36.801 36.823 36.878 36.908 36.928
78.059 77.846 77.611 77.294 76.841 76.141 75.049 74.834 73.424 73.111 73.224 73.091 70.584 65.171 51.339 50.624 50.521 50.539 50.574 50.599 50.604 50.714 50.669 50.644 50.654 55.441 62.849 62.846 70.386 77.616 77.881 77.441 76.449 76.389 74.074 51.899 49.611 49.609 49.611 49.606 50.211 63.451 63.366 63.366 63.209 63.079 63.091 63.546 63.256 63.266 63.854 64.521 63.269 63.514 63.271 63.576 63.279 63.264 63.274 63.926 63.304 64.354 63.289 64.371 63.291 63.309 63.611 63.644 63.709 63.004 62.846 63.454 55.574 50.181 50.224 50.164 50.176 50.181 50.176 50.261 51.011 51.451 50.624 50.874 50.679 50.779 50.756 51.304 50.289 50.209 50.151 50.081 50.029 49.926 49.801 49.626 49.351 49.041 48.994 48.949 48.911 48.891 48.914 48.941 48.956 48.979 49.169 49.136 49.104 49.131 49.111 49.096 49.196 49.209 49.209 49.226 49.199 49.224 49.194 49.181 49.076 48.929 48.891 58.294 58.751 59.349 60.606 59.604 58.694 46.406 48.364 47.859 49.384 46.448 46.823 46.413 46.646 46.328 46.426 60.846 62.623 63.776 64.983 65.479 64.238 63.063 61.913 61.671 61.659 61.656 61.698 62.516 63.313 64.184 65.358 66.203 67.083 67.966 69.016 69.636 69.071 68.211 67.339 66.456 65.593 62.496 58.281 58.843 45.216 43.933 47.836 47.911 47.868 47.839 47.816 47.813 47.073 45.723 45.646 58.441 58.196 58.159 58.126 58.168 58.186 58.406 51.843 51.881 52.081 40.391 40.291 40.308 40.383 40.421 40.441 41.106 40.403 40.341 41.133 40.401 40.453 53.493 53.443 53.428 53.466 53.488 53.511 53.643 53.603 53.643 53.626 55.556 55.566 55.593 55.041 55.676 55.588 55.583 55.598 55.578 55.596 41.561 39.021 39.006 38.948 38.896 38.943 38.938 39.831 38.468 38.308 38.196 38.133 38.073 38.048 38.091 38.201 38.078 37.721 37.593 37.468 37.341 37.181 37.031 37.096 37.573 36.801 36.468 36.358 36.258 36.151 36.031 35.921 35.801 35.693 35.568 35.438 35.306 35.188 35.043 34.921 34.788 34.701 34.661 34.571 34.441 34.323 34.213 34.128 34.041 33.928 33.821 33.701 33.591 33.458 33.356 33.231 33.096 32.961 32.796 32.638 32.503 32.366 32.228 32.101 31.933 31.776 31.621 31.476 31.346 31.218 31.056 30.888 30.778 30.711 30.598 31.723 30.368 30.666 30.063 29.726 29.596 29.293 29.293 29.278 29.241 29.583 29.691 33.843 45.336 47.733 47.711 47.706 47.723 47.746 31.213 29.676 30.493 29.741 29.716 30.241 29.768 29.741 29.741 29.753 29.741 29.701 29.741 29.758 29.803 29.821 29.843 29.848 29.861 29.878 29.886 29.951 32.208 33.221 33.563 34.038 30.041 30.028 30.068 30.118 31.066 32.771 36.473 37.071 37.056 37.071 37.116 37.173 37.233 37.276 37.328 37.398 37.448 37.521 37.578 37.628 37.686 37.788 37.888 37.911 37.931 37.918 37.876 37.878 37.886 37.893 37.886 37.896 37.881 37.883 37.903 39.266 38.773 37.913 37.918 37.928 37.918 37.921 37.923 37.928 37.998 38.036 36.518 33.376 30.743 30.746 30.703 30.388 30.363 30.333 30.328 30.428 30.476 30.523 30.558 30.511 30.553 30.623 30.783 30.843 30.921 30.993 31.443 34.866 34.791 34.811 34.976 35.206 35.383 35.553 35.773 36.053 36.166 36.318 36.491 36.651 36.778 36.881 36.988 37.098 37.143 37.186 37.216 37.266 37.316
78.046 77.841 77.589 77.331 76.986 76.616 76.244 75.911 75.616 75.354 75.136 74.839 70.241 65.181 51.026 50.549 50.454 50.484 50.504 50.519 50.526 50.554 50.611 50.554 50.546 52.991 62.949 62.861 73.321 77.141 76.514 76.619 77.381 76.289 73.991 52.694 49.716 49.689 49.684 49.681 51.734 63.221 63.231 63.224 63.226 63.221 63.231 63.234 63.229 63.234 63.234 63.246 63.244 63.236 63.229 63.266 63.221 63.239 63.239 63.244 63.256 63.326 63.256 63.999 63.259 63.281 63.339 63.419 63.261 63.289 63.094 62.944 53.491 50.269 50.124 50.129 50.121 50.136 50.149 50.254 52.179 51.216 51.034 50.371 50.286 50.279 50.299 50.316 50.296 50.196 50.119 50.061 49.959 49.866 49.749 49.609 49.321 49.084 49.011 48.976 48.926 48.919 48.949 48.961 48.986 48.996 49.176 49.116 49.114 49.121 49.069 49.089 49.169 49.244 49.176 49.189 49.149 49.164 49.124 49.089 49.006 48.869 50.226 57.256 57.731 58.601 59.531 58.344 54.406 46.681 46.361 48.171 46.396 46.491 46.466 46.336 46.261 46.358 48.668 62.101 63.181 64.351 65.621 64.784 63.611 62.411 61.688 61.613 61.608 61.651 61.946 62.888 63.713 64.943 65.776 66.678 67.534 68.406 69.824 70.076 68.714 67.756 66.891 66.038 65.181 58.356 56.854 55.096 43.936 43.854 47.993 47.926 47.863 47.836 47.818 47.806 46.553 45.751 45.636 58.131 58.183 58.151 58.128 58.166 58.191 56.948 51.921 51.901 51.373 40.331 40.218 40.256 40.323 40.361 40.371 41.731 40.338 40.308 40.501 40.376 40.411 53.481 53.443 53.431 53.468 53.491 53.463 53.486 53.521 53.498 53.586 55.601 55.606 55.603 55.606 55.603 55.616 55.611 55.611 55.601 55.661 39.256 38.943 38.938 38.888 39.571 38.933 38.811 38.478 38.306 38.176 38.081 38.001 37.946 37.896 38.411 37.768 38.683 37.583 37.456 37.356 37.263 37.201 37.068 36.953 36.821 36.676 36.518 36.346 36.186 36.056 35.948 35.833 35.718 35.626 35.513 35.413 35.308 35.196 35.078 34.951 34.833 34.701 34.558 34.406 34.261 34.171 34.096 34.001 33.893 33.793 33.698 33.633 33.521 33.398 33.268 33.148 33.031 32.886 32.758 32.616 32.463 32.316 32.188 32.041 31.906 31.766 31.628 31.501 31.366 31.241 31.091 30.953 30.828 30.718 30.603 30.466 30.356 30.146 29.878 29.588 29.361 29.326 29.331 29.323 29.281 29.608 29.948 34.013 46.493 47.746 47.726 47.706 47.736 45.146 34.066 33.468 30.696 29.723 29.646 30.096 30.293 29.736 29.721 29.721 29.733 29.736 29.781 29.833 29.953 30.018 29.871 29.878 29.866 29.901 30.116 32.871 33.346 33.793 35.131 36.278 32.218 30.031 30.026 30.023 30.088 30.183 30.208 30.203 30.336 35.861 37.283 37.273 37.238 37.273 37.336 37.393 37.448 37.498 37.563 37.603 37.648 37.703 37.751 37.786 37.868 37.966 38.003 38.023 38.021 37.983 37.958 37.956 37.938 37.943 37.943 37.963 37.961 37.966 37.981 37.978 37.963 37.956 37.951 37.943 37.938 37.923 37.916 37.938 37.976 38.026 37.771 36.446 31.383 30.358 30.631 30.341 30.491 30.531 30.478 30.523 30.558 30.728 30.786 30.838 30.928 32.703 35.133 35.151 35.236 35.326 35.623 35.808 36.023 36.191 36.321 36.561 36.706 36.816 36.918 37.021 37.088 37.186 37.243 37.321 37.383 37.446 37.508 37.558 37.608
78.049 77.826 77.579 77.301 76.961 76.566 76.211 75.884 75.591 75.326 75.109 74.876 69.731 65.194 50.431 50.476 50.381 50.414 50.429 50.434 50.446 50.456 50.466 50.491 50.469 50.481 53.176 62.821 67.509 74.594 74.921 75.111 75.261 75.424 73.429 50.814 49.806 49.801 49.784 49.779 51.531 63.204 63.206 63.204 63.191 63.189 63.194 63.199 63.201 63.204 63.209 63.214 63.199 63.196 63.199 63.174 63.181 63.194 63.201 63.201 63.211 63.219 63.216 63.219 63.226 63.224 63.219 63.216 63.226 63.231 63.244 63.636 50.046 50.036 50.059 50.079 50.081 50.099 50.166 51.656 55.671 55.699 55.486 55.746 55.019 54.534 54.434 52.124 50.311 50.174 51.169 50.519 49.859 49.806 49.709 49.419 49.244 49.214 49.306 49.264 49.214 49.156 49.141 49.121 49.091 49.011 49.129 49.171 49.134 49.096 49.064 49.051 49.031 49.136 49.194 50.146 49.141 49.114 49.059 49.016 48.941 48.841 48.826 49.334 55.799 59.081 58.959 59.016 46.294 46.319 47.661 47.826 46.339 46.341 46.318 46.253 46.241 46.339 59.883 62.646 63.756 64.973 65.396 64.156 62.981 61.868 55.243 50.558 59.573 61.693 61.646 61.674 63.041 65.358 66.239 67.093 67.981 69.051 70.238 69.648 68.176 67.328 66.473 65.586 62.271 57.446 57.924 49.726 43.876 43.808 47.944 47.888 47.851 47.821 47.801 47.801 45.898 45.743 45.628 58.243 58.181 58.161 58.138 58.178 58.186 56.711 45.611 45.638 44.508 40.271 40.158 40.193 40.256 40.296 40.298 40.486 40.276 40.253 40.231 40.271 40.966 53.501 53.493 53.481 53.473 53.488 53.463 53.458 53.463 53.483 53.576 55.646 55.633 55.626 55.618 55.616 55.623 55.633 55.628 56.591 56.706 38.888 38.856 38.861 38.833 39.936 38.846 38.676 38.358 38.168 38.031 37.961 37.901 37.838 37.793 37.706 37.766 37.791 37.396 37.291 37.181 37.096 37.016 36.941 36.861 36.751 36.648 36.538 36.413 36.281 36.148 36.001 35.828 36.358 36.281 36.098 35.891 35.221 35.123 35.026 34.926 34.833 34.713 34.591 34.461 34.313 34.181 34.031 33.876 33.726 33.611 33.558 33.473 33.386 33.268 33.176 33.091 32.976 32.841 32.711 32.573 32.433 32.301 32.168 32.021 31.883 31.743 31.611 31.481 31.368 31.231 31.093 30.948 30.806 30.691 30.556 30.416 30.236 29.968 29.601 29.493 29.361 29.366 29.376 29.378 29.338 29.623 30.466 34.006 42.298 47.748 47.736 47.746 47.753 45.958 34.008 33.988 30.888 30.058 29.668 30.936 33.458 31.131 29.813 29.731 29.773 29.788 29.838 29.981 30.553 31.141 29.933 29.896 29.966 31.961 35.296 33.451 33.901 35.576 36.331 35.683 33.936 31.616 30.053 30.046 30.098 30.186 30.208 30.176 30.193 30.206 30.231 30.206 34.258 37.461 37.453 37.468 37.448 37.483 37.536 37.581 37.626 37.658 37.713 37.751 37.788 37.831 37.856 37.928 38.016 38.071 38.086 38.093 38.038 38.001 37.996 38.011 38.016 38.023 38.026 38.023 38.021 38.023 38.003 37.986 37.973 37.961 37.941 37.941 37.938 37.918 37.936 37.921 37.958 36.606 38.096 33.861 31.061 30.543 30.488 30.513 30.586 30.736 30.818 30.853 33.433 35.521 35.811 35.901 35.991 36.188 36.328 36.451 36.628 36.801 36.908 37.008 37.108 37.171 37.203 37.248 37.288 37.351 37.371 37.461 37.518 37.551 37.641 37.756 37.838
78.016 77.799 77.546 77.279 76.924 76.544 76.186 75.859 75.564 75.309 75.094 74.871 68.156 65.416 50.354 50.411 50.304 50.339 50.354 50.366 50.376 50.401 50.401 50.394 50.371 50.396 50.371 50.356 50.319 50.289 51.116 50.654 51.254 51.756 50.754 49.926 49.894 49.866 49.849 49.819 49.886 63.184 63.174 63.169 63.159 63.156 63.161 63.166 63.149 63.159 63.176 63.161 63.166 63.156 63.149 63.144 63.136 63.156 63.164 63.184 63.201 63.196 63.186 63.176 63.184 63.196 63.194 63.204 63.206 63.219 63.211 59.949 49.946 49.956 49.966 49.994 50.026 50.116 50.256 55.484 55.506 55.516 55.551 55.566 55.586 55.601 55.629 51.866 50.301 50.156 50.849 51.644 49.721 49.596 49.561 49.559 49.484 49.411 49.359 49.261 49.241 49.266 49.224 49.216 49.171 49.169 49.046 49.009 49.154 49.111 49.041 48.999 48.961 49.009 49.139 49.131 49.069 49.849 49.009 48.991 48.856 48.799 48.799 48.376 58.496 59.464 58.339 53.449 46.241 46.239 48.304 46.719 46.301 46.286 46.236 46.158 46.263 48.431 62.091 63.178 64.368 65.593 64.718 63.541 62.424 61.348 52.666 51.701 57.441 62.288 63.393 63.146 64.464 65.806 66.643 67.544 68.396 69.264 69.511 68.733 67.748 66.891 66.011 65.163 58.398 56.316 58.646 45.083 43.796 44.551 47.933 47.886 47.843 47.826 47.811 47.799 46.036 45.686 45.639 58.216 58.176 58.151 58.158 58.181 58.193 55.523 45.623 45.641 44.498 40.203 40.091 40.138 40.193 40.231 40.233 40.213 41.133 40.191 40.183 40.138 40.161 43.418 45.401 50.711 53.463 53.553 53.536 53.518 53.503 53.511 53.851 55.661 55.653 55.643 55.641 55.651 55.646 55.661 55.651 56.508 55.713 38.878 38.781 38.781 38.758 38.751 38.801 38.573 38.263 38.096 37.933 37.856 37.816 37.736 37.671 37.598 37.506 37.423 37.301 37.166 37.036 36.916 36.801 36.728 36.646 36.556 36.468 36.386 36.286 36.188 36.096 36.003 35.881 35.763 35.623 35.498 35.321 35.133 35.016 34.918 34.833 34.731 34.631 34.536 34.418 34.308 34.191 34.051 33.923 33.798 33.648 33.501 33.351 33.211 33.123 33.046 32.961 32.851 32.718 32.581 32.446 32.313 32.188 32.071 31.938 31.826 31.683 31.531 31.406 31.281 31.153 31.008 30.873 30.738 30.593 30.451 30.263 30.053 29.821 29.588 29.473 29.413 29.421 29.408 29.386 29.398 29.618 31.446 34.016 46.286 47.723 47.713 47.733 47.733 46.046 34.001 34.006 30.556 29.728 29.726 34.061 34.798 34.148 30.503 29.723 29.788 29.848 30.008 31.603 33.001 32.906 32.516 30.026 32.921 39.153 39.863 34.798 35.903 36.263 34.493 33.788 33.341 32.883 30.048 30.073 30.126 33.501 35.186 30.206 30.191 30.226 30.228 30.236 30.233 30.256 30.273 31.603 35.738 37.586 37.578 37.563 37.586 37.621 37.678 37.711 37.748 37.788 37.828 37.866 37.898 37.921 37.973 38.071 38.128 38.153 38.158 38.128 38.068 38.063 38.053 38.058 38.068 38.063 38.058 38.033 38.021 38.003 37.988 37.968 37.946 37.948 37.941 37.941 37.943 37.948 37.943 37.948 37.641 35.903 35.486 35.708 34.036 31.021 30.848 35.028 35.903 37.228 36.881 36.876 37.021 36.973 37.098 39.833 37.226 37.261 37.323 37.333 37.326 37.348 37.338 37.346 37.358 37.413 37.438 37.491 37.558 37.641 37.726 37.828 37.898
77.986 77.774 77.506 77.234 76.874 76.509 76.146 75.824 75.534 75.276 75.064 74.884 67.821 65.906 50.279 50.341 50.239 50.256 50.286 50.299 50.319 50.339 50.351 50.361 50.331 50.299 50.256 50.209 51.204 50.866 50.181 50.586 50.929 50.086 50.041 49.996 49.969 49.936 49.914 49.879 49.864 52.456 63.879 63.134 63.131 63.131 64.251 63.649 63.116 63.396 63.421 63.146 63.136 64.309 63.114 63.641 63.109 63.121 63.129 63.231 63.161 63.159 63.154 63.156 63.154 63.169 63.171 63.171 63.179 63.179 63.201 50.421 49.851 49.854 49.874 49.884 50.036 50.324 55.166 56.109 55.859 55.594 55.439 55.376 55.396 55.439 55.461 52.516 50.266 50.089 49.956 49.929 49.841 49.764 49.661 49.581 49.496 49.416 49.339 49.254 49.246 49.309 49.209 49.151 49.121 49.116 49.126 49.139 48.921 48.946 49.051 48.999 48.921 48.891 48.939 49.079 49.014 49.004 48.969 48.951 48.816 48.759 51.021 56.821 58.976 58.961 57.729 46.511 46.201 46.121 46.446 46.241 46.241 46.221 46.143 46.163 46.236 59.806 62.651 63.766 64.953 65.321 64.104 62.983 61.883 57.253 46.158 47.458 61.723 62.826 63.921 73.406 66.211 66.238 67.066 67.938 68.821 69.691 69.063 68.159 67.318 66.453 65.586 62.348 56.833 56.019 58.668 43.863 44.458 43.998 47.931 47.963 47.858 47.833 47.808 47.811 45.633 45.651 45.638 58.208 58.178 58.161 58.161 58.183 58.201 52.483 45.623 45.648 43.218 40.138 40.006 40.068 40.138 40.161 40.173 40.153 40.306 40.131 40.128 40.138 40.176 40.186 40.143 40.103 40.088 40.063 40.068 41.821 45.693 49.493 51.681 55.788 55.703 55.671 55.663 55.668 55.666 55.671 55.676 55.673 52.583 38.748 38.698 38.693 38.683 39.421 38.748 38.521 38.236 38.033 37.853 37.771 37.721 37.641 37.561 37.496 37.416 37.293 37.181 37.063 36.936 36.781 36.646 36.528 36.458 36.356 36.261 36.161 36.073 35.991 35.901 35.838 35.753 35.656 35.561 35.506 35.373 35.268 35.128 34.998 34.841 34.658 34.513 35.743 35.598 34.226 34.123 34.013 33.906 33.796 33.681 33.546 33.421 33.288 33.151 33.013 32.871 32.718 32.578 32.446 32.318 32.208 32.073 31.948 31.821 31.681 31.556 31.428 31.293 31.173 31.043 30.898 30.776 30.626 30.486 30.338 30.181 30.043 29.883 29.733 29.596 29.506 29.481 29.458 29.401 29.423 29.633 30.963 34.326 44.033 47.718 47.713 47.718 47.736 47.766 33.991 33.993 30.058 29.743 29.726 33.456 35.441 35.363 29.698 29.761 29.863 30.018 32.448 33.133 34.596 40.551 39.061 38.616 39.363 40.076 40.786 40.561 36.066 34.241 33.688 33.223 32.761 30.043 30.033 30.046 36.323 35.953 36.343 35.151 30.201 30.208 30.206 30.226 30.231 30.296 30.333 30.278 30.263 32.056 31.278 36.863 37.708 37.703 37.676 37.681 37.716 37.748 38.186 38.033 37.836 37.871 37.926 37.951 37.983 38.031 38.131 38.193 38.216 38.206 38.173 38.113 38.093 38.088 38.083 38.071 38.106 38.038 38.023 38.266 38.308 38.281 37.983 37.968 37.976 37.983 37.986 37.961 37.983 37.978 37.976 37.971 37.971 37.713 38.026 37.986 37.991 37.853 37.628 37.666 37.591 37.576 38.483 37.496 37.468 37.446 37.448 37.413 37.403 37.386 37.381 37.356 37.346 37.388 37.408 37.478 37.553 37.621 37.721 37.821 37.896
77.986 77.746 77.481 77.209 76.824 76.454 76.104 75.781 75.499 75.241 75.046 74.769 67.496 65.209 50.249 50.276 50.191 50.196 50.209 50.241 50.249 50.284 50.309 50.301 50.291 50.264 50.246 50.234 50.264 50.164 50.144 50.129 50.114 50.101 50.079 50.044 50.009 49.976 49.929 49.884 49.839 49.804 49.834 54.919 63.194 63.104 64.396 64.371 63.119 63.306 63.446 63.114 63.116 64.341 63.081 64.136 63.079 63.089 63.136 64.071 63.121 63.111 64.196 63.731 63.391 63.169 63.139 63.646 63.136 63.471 57.689 49.754 49.746 49.756 49.736 49.794 50.384 50.384 56.966 57.391 57.176 57.001 56.769 56.639 56.434 56.361 56.241 53.676 50.214 50.131 50.024 49.864 49.804 49.721 49.656 49.564 49.494 49.446 49.366 49.271 49.249 49.204 49.194 49.161 49.119 49.104 49.139 49.136 49.111 48.984 48.804 48.959 48.931 48.876 48.831 48.869 48.984 48.931 48.911 48.916 48.759 48.731 54.326 58.301 59.739 58.351 52.274 46.166 46.151 46.101 46.154 46.191 46.184 46.136 46.063 46.153 48.498 62.078 63.231 64.394 65.593 64.729 63.516 62.403 62.358 49.143 44.808 56.608 62.256 63.336 67.416 75.268 74.401 73.218 67.553 68.371 69.248 69.451 68.621 67.733 66.861 65.996 65.174 58.421 56.311 55.123 58.648 45.328 43.678 44.171 47.921 47.886 47.843 47.821 47.793 47.781 45.616 45.613 45.683 58.201 58.178 58.161 58.148 58.186 58.203 49.101 48.703 47.581 40.681 40.056 39.941 40.013 40.068 40.098 40.106 40.103 40.496 40.036 40.026 40.083 40.106 40.183 40.123 40.068 40.038 40.016 40.011 39.963 39.881 39.808 39.688 39.576 39.486 39.381 41.893 44.706 51.078 53.691 55.736 55.693 51.676 38.626 38.611 38.608 38.598 40.091 38.678 38.443 38.168 37.996 38.568 37.738 38.353 37.541 37.466 37.391 37.313 37.178 37.083 36.971 36.853 36.716 36.561 36.433 36.328 36.221 36.116 35.996 35.896 35.818 35.723 35.646 35.563 35.476 35.383 35.353 35.243 35.143 35.066 34.971 34.876 34.763 34.633 34.506 34.363 34.148 34.056 33.931 33.823 33.716 33.611 33.506 33.398 33.278 33.153 33.026 32.898 32.766 32.626 32.491 32.373 32.251 32.123 32.003 31.878 31.743 31.616 31.503 31.373 31.243 31.118 30.988 30.851 30.723 30.576 30.433 30.298 30.156 29.998 29.841 29.676 29.571 29.523 29.501 29.428 29.463 29.641 32.013 36.156 45.973 49.858 50.886 47.858 47.723 43.396 33.988 33.988 29.883 29.743 29.776 29.903 32.698 31.773 29.728 29.856 29.986 31.856 33.171 33.688 37.593 39.546 39.788 39.543 40.271 41.018 42.371 41.603 40.453 33.553 33.111 32.038 30.026 30.013 30.008 29.993 35.626 36.488 36.718 35.993 32.561 30.191 30.178 30.218 30.208 30.253 30.333 30.553 30.246 31.561 30.293 30.333 30.376 30.373 34.043 37.828 37.803 37.773 37.743 38.366 39.148 37.843 37.891 37.923 37.958 37.988 38.011 38.026 38.073 38.148 38.231 38.236 38.236 38.206 38.153 38.103 38.586 38.953 38.073 38.061 38.046 38.036 38.028 38.021 38.021 38.028 38.013 38.008 38.023 38.008 38.023 38.008 38.003 38.001 37.956 37.868 37.803 37.778 37.808 37.836 37.878 37.848 37.773 37.716 37.606 37.546 38.133 37.503 39.416 37.426 37.383 37.333 37.311 37.348 37.341 37.383 37.458 37.531 37.638 37.748 37.838
77.971 77.736 77.471 77.176 76.801 76.421 76.064 75.749 75.469 75.229 75.021 74.026 65.931 62.484 50.211 50.194 50.114 50.149 50.154 50.176 50.206 50.234 50.259 50.276 50.294 50.271 50.321 50.366 50.274 50.214 50.176 50.156 50.136 50.121 50.104 50.071 50.029 49.984 49.911 49.866 49.789 49.751 49.759 49.761 50.619 62.309 63.659 63.321 63.224 63.159 63.169 63.114 63.116 63.429 63.086 63.646 63.086 63.096 63.099 63.629 63.094 63.109 64.376 63.886 63.126 63.094 63.156 63.476 63.381 56.709 49.691 49.656 49.634 49.616 49.586 49.809 50.411 50.404 58.946 58.731 58.561 58.329 58.074 57.839 57.659 57.499 56.916 51.556 49.864 49.971 49.894 49.806 49.759 49.686 49.629 49.566 49.474 49.394 49.324 50.941 52.129 49.706 49.179 49.151 49.119 49.121 49.159 49.186 49.104 50.389 49.506 48.799 48.694 48.821 49.521 48.766 48.906 48.904 48.859 48.836 48.676 48.671 54.641 58.926 58.206 57.714 46.146 46.116 46.151 46.169 46.126 46.149 46.109 46.058 46.053 46.131 56.208 62.653 63.811 65.011 65.316 64.101 62.933 61.876 55.466 44.878 51.116 63.961 62.981 63.843 77.151 77.053 76.606 75.486 74.371 72.858 68.696 69.049 68.156 67.283 66.441 65.586 63.001 55.946 55.534 56.678 55.991 45.693 44.348 44.031 47.924 47.876 47.836 47.811 47.799 47.758 45.591 45.691 46.586 58.188 58.163 58.138 58.153 58.176 58.201 50.978 48.868 48.911 40.756 39.998 39.881 39.963 40.018 40.038 40.048 40.036 40.001 39.958 40.018 40.048 40.086 46.128 51.226 47.653 45.958 40.126 40.066 39.993 39.886 39.833 39.766 39.653 39.481 39.333 39.171 39.063 38.928 38.831 38.736 38.641 38.563 38.501 38.526 38.528 38.518 38.581 38.601 38.348 38.113 37.951 37.836 37.811 38.053 37.501 37.366 37.296 37.178 37.058 36.938 36.848 36.738 36.601 36.466 36.336 36.231 36.128 36.018 35.901 35.791 35.688 35.591 35.486 35.363 35.273 35.198 35.116 35.021 34.941 34.846 34.761 34.693 34.648 34.558 34.466 34.343 34.128 33.988 33.888 33.768 33.643 33.533 34.316 34.191 33.208 33.191 32.981 32.863 32.743 32.623 32.511 32.373 32.261 32.133 32.021 31.903 31.766 31.636 31.531 31.413 31.296 31.178 31.053 30.913 30.781 30.641 30.518 30.381 30.228 30.073 29.908 29.741 29.616 29.576 29.531 29.463 29.526 29.648 31.226 36.568 45.171 50.746 50.848 47.696 47.738 37.093 31.703 32.146 29.836 29.733 29.691 29.711 31.651 29.676 29.728 29.928 29.916 30.001 32.798 33.346 35.163 39.058 39.856 40.456 41.373 42.456 41.171 40.351 39.641 37.676 33.176 31.308 29.983 29.986 30.021 30.021 30.746 35.323 36.446 35.568 33.786 31.556 30.196 30.166 30.171 30.273 31.308 31.423 30.376 31.551 30.333 30.381 30.411 30.403 30.413 30.418 31.078 34.663 37.883 37.873 37.843 37.813 37.841 37.871 37.908 37.951 37.976 38.011 38.028 38.056 38.081 38.101 38.168 38.223 38.246 38.248 38.238 38.171 38.133 38.116 38.106 38.096 38.086 38.081 38.076 38.078 38.073 38.063 38.053 38.058 38.053 38.058 38.038 38.028 37.986 37.951 37.901 37.863 37.803 37.766 37.728 37.671 37.663 37.698 37.703 37.686 37.638 37.573 37.483 37.421 37.373 37.278 37.271 37.261 37.266 37.263 37.306 37.378 37.446 37.511 37.646
