ncols 435
nrows 32
xllcorner    430120
yllcorner    432486
cellsize     2
NODATA_value -9999
28.698 27.95 27.331 27.301 27.304 27.274 27.237 27.242 27.193 27.158 27.24 27.32 27.36 29.348 28.58 28.051 28.13 27.52 27.472 27.474 28.769 29.886 29.886 31.207 28.421 29.582 29.153 30.056 28.349 27.395 27.364 27.374 27.492 27.869 27.871 27.361 27.371 27.525 27.286 27.134 27.065 27.055 27.08 27.078 27.099 27.084 27.561 27.451 27.141 28.118 27.608 27.042 27.081 27.163 27.183 27.729 27.673 28.776 27.395 27.914 27.456 27.349 27.333 27.348 27.389 28.155 27.109 26.39 26.398 26.41 26.496 26.811 26.802 26.782 26.671 26.547 26.435 33.571 33.996 34.415 34.667 35.082 35.425 35.907 36.284 36.649 37.064 37.376 37.758 38.067 38.016 37.635 37.356 36.943 36.615 36.241 35.688 35.461 35.005 34.673 34.375 33.993 32.449 28.465 29.332 26.003 26.041 26.064 26.098 26.1 26.246 26.356 26.262 26.216 26.181 26.107 26.116 26.072 26.03 26.014 26.032 26.832 29.285 31.357 26.616 26.061 28.523 26.065 26.038 26.05 26.022 26.022 26.063 26.144 26.159 26.238 26.257 26.283 26.279 26.145 26.061 26.052 25.99 29.143 29.275 32.045 33.762 34.119 34.364 34.719 35.071 35.428 35.884 36.252 36.691 37.044 37.065 36.701 36.384 36.031 35.526 35.123 30.306 26.169 26.515 26.729 25.979 25.91 25.935 25.871 25.868 25.927 25.952 26.023 26.048 26.064 26.274 26.201 26.231 26.252 26.288 26.293 26.312 26.295 26.42 26.181 26.112 26.126 26.103 26.159 26.217 26.584 29.83 27.454 29.755 26.608 26.563 26.463 27.137 26.42 26.413 26.359 26.365 26.391 26.397 26.418 26.59 31.602 33.054 33.25 33.452 33.669 33.914 34.088 34.264 34.485 34.426 34.175 33.986 33.732 33.585 33.345 33.178 32.973 28.159 25.905 25.565 25.541 25.481 25.469 25.465 25.451 25.442 25.431 25.369 25.334 25.317 25.344 25.475 25.657 26.053 26.949 28.528 30.079 31.147 29.793 30.646 29.865 29.763 29.882 30.651 31.248 30.075 29.642 30.62 31.363 30.187 29.52 30.335 31.315 30.562 34.683 37.801 37.125 36.822 36.755 36.753 36.295 37.989 39.122 41.211 33.772 31.894 30.774 26.826 26.503 26.028 25.231 25.057 24.992 25.027 25.085 25.114 25.244 25.32 25.237 25.178 25.136 25.09 26.21 25.042 25.121 25.192 25.285 31.513 32.28 32.248 32.253 32.228 32.215 31.51 32.358 33.23 33.698 32.843 31.938 31.07 30.62 31.415 32.193 32.128 31.52 30.89 30.155 29.798 28.773 25.763 25.393 25.333 25.338 25.388 25.403 25.43 25.45 25.47 25.483 25.483 25.485 25.5 25.493 25.505 25.483 25.478 25.465 25.435 25.43 25.408 25.48 25.51 26.003 28.468 36.903 36.598 35.615 35.813 36.75 36.963 36.028 35.49 36.035 35.673 36.23 36.78 37.528 38.148 37.788 36.983 35.555 36.45 34.615 25.998 25.173 25.16 25.145 25.163 25.145 25.15 28.548 28.758 30.888 30.51 25.86 25.265 25.26 25.288 25.278 25.235 27.84 33.638 34.288 35.005 31.06 30.79 30.795 30.895 25.94 26.125 25.93 25.773 25.963 25.838 25.855 25.883 25.938 25.965 26 26.03 26.168 26.375 26.993 26.103 28.035 25.723 25.85 26.068 26.73 26.393 26.038 25.925 25.928 26.213 26.84 26.538 26.265 25.893 25.863 25.885 25.833 25.833 25.843 25.91 26.12 26.64 26.435 26.308 26.058 26.51 26.658 26.93 25.61 25.603 25.595 25.583 25.593 25.623
27.348 27.333 27.363 27.273 27.275 27.266 27.27 27.316 27.385 28.818 30.043 29.848 28.276 28.128 27.501 27.505 27.571 28.643 29.753 28.552 30.724 31.754 32.897 33.118 31.606 30.211 30.158 27.419 27.399 27.382 27.371 27.308 27.633 27.325 27.381 27.562 27.392 27.416 27.357 27.506 27.096 27.099 27.114 27.134 27.135 27.131 27.114 27.129 27.019 27.018 27.762 27.1 27.149 27.256 27.337 27.347 27.887 27.58 27.388 27.595 27.625 27.38 27.434 27.439 27.494 28.251 27.159 26.433 26.429 26.477 26.934 26.658 26.737 26.712 26.682 26.435 26.394 33.592 34.085 34.382 34.745 35.006 35.369 35.886 36.324 36.62 36.996 37.344 37.719 38.083 38.031 37.743 37.316 36.941 36.64 36.269 35.747 35.342 35.003 34.707 34.351 34.008 33.647 29.998 28.641 26.059 26.018 26.043 26.045 26.125 29.014 30.75 27.839 26.18 26.138 26.089 26.036 26.092 26.042 26.029 25.959 27.354 34.312 33.734 29.375 28.696 27.524 31.133 26.235 25.949 25.972 25.973 26.047 26.081 26.133 26.187 26.249 27.29 26.292 26.131 26.052 26.036 25.984 28.371 29.44 31.118 33.702 34.104 34.458 34.853 35.111 35.403 35.984 36.308 36.688 37.03 37.044 36.706 36.343 35.853 35.464 35.16 33.112 27.891 27.866 27.402 25.994 25.927 25.868 25.802 25.857 25.885 25.946 26.009 26.069 26.485 26.421 26.222 26.257 26.279 26.302 26.263 26.293 26.313 26.588 26.196 26.112 26.128 26.138 26.135 26.263 29.657 32.905 32.925 31.836 32.694 30.596 27.798 29.977 26.731 26.469 26.43 26.433 26.438 26.398 26.402 27.211 32.537 33.155 33.316 33.483 33.705 33.927 34.068 34.343 34.547 34.323 34.087 33.922 33.721 33.516 33.306 33.11 29.112 26.563 25.924 25.59 27.009 25.499 25.475 25.43 25.472 25.753 25.762 25.34 25.299 25.342 25.344 25.383 25.402 27.77 30.369 29.544 30.767 31.616 30.832 29.964 30.99 30.772 29.377 29.893 31.002 30.799 28.999 29.928 30.776 31.076 30.174 29.645 30.524 31.218 30.667 33.224 34.001 36.867 36.807 36.778 37.956 39.168 42.599 43.06 42.995 39.929 36.053 28.03 27.433 28.708 26.546 25.093 24.976 24.993 25.042 25.064 25.133 25.272 25.334 25.189 25.154 25.113 25.071 25.139 25.037 25.172 25.319 27.398 32.718 32.328 32.243 32.25 32.23 32.35 31.778 32.638 33.515 33.448 32.585 31.698 30.49 30.828 30.838 30.323 29.343 27.013 25.398 25.265 25.278 25.333 25.365 25.38 25.428 25.425 25.445 25.46 25.458 25.48 25.493 25.503 25.503 25.495 25.49 25.46 25.448 25.443 25.485 25.525 25.89 30.09 34.285 36.86 35.868 35.605 36.55 36.158 35.238 35.44 36.13 36.923 36.705 35.55 35.895 36.47 37.05 37.91 38.095 37.408 36.668 36.158 35.635 29.29 28.123 25.24 25.445 25.168 25.158 25.14 25.193 25.153 26.648 31.153 31.718 31.175 30.53 25.435 25.258 25.238 25.29 25.248 25.215 26.575 33.585 31.368 30.773 30.785 30.793 30.805 30.873 25.753 25.758 25.743 28.158 26.61 28.128 25.943 29.748 28.273 25.97 26.043 27.163 26.878 27.263 26.198 26.493 26.13 26.103 26.325 25.955 25.888 25.895 25.905 25.915 26.245 26.083 25.92 25.918 25.885 25.863 25.998 25.833 25.83 25.855 25.9 26.135 26.18 26.168 26.403 26.255 26.693 26.475 26.645 26.028 25.648 25.63 25.628 25.628 25.66
27.381 27.297 27.235 27.285 27.423 27.909 28.807 30.037 28.26 28.16 27.767 27.555 27.532 28.159 28.805 27.754 28.159 29.096 30.052 30.233 33.042 33.094 33.106 33.059 33.043 30.199 29.194 27.41 27.397 27.399 27.389 27.381 27.387 27.427 27.47 29.218 27.878 27.391 27.524 27.219 27.138 27.137 27.119 27.153 27.178 27.215 27.118 27.009 27.239 27.052 27.158 27.158 27.256 27.252 27.404 28.696 28.004 27.632 27.892 27.404 27.953 27.406 27.353 27.428 27.518 28.757 26.755 26.37 26.418 26.409 27.213 26.597 26.544 26.416 26.479 26.369 27.623 33.601 34.033 34.372 34.774 35.063 35.454 35.844 36.278 36.617 37.049 37.342 37.688 38.092 38.054 37.7 37.38 36.985 36.634 36.258 35.742 35.376 35.036 34.687 34.276 34.037 33.507 31.387 29.354 26.106 25.988 26.038 26.097 26.119 28.937 30.646 30.018 26.191 26.126 26.078 26.054 26.003 26.002 26.002 25.935 29.418 34.294 35.009 29.804 26.277 30.875 31.533 26.693 25.972 25.931 25.914 26.02 26.046 26.138 26.218 26.2 27.206 26.419 26.155 26.087 26.032 25.982 26.989 29.31 32.052 33.732 34.105 34.446 34.783 35.107 35.46 35.854 36.319 36.685 37.078 37.084 36.653 36.386 35.841 35.452 35.128 33.304 28.58 28.156 28.492 26.022 25.944 25.895 25.843 25.85 25.934 25.972 25.994 26.051 27.156 26.228 26.261 26.228 26.276 26.298 26.298 26.334 26.294 26.566 26.159 26.109 26.131 26.089 26.154 26.276 27.611 32.879 33.092 33.027 33.016 32.942 32.925 32.835 29.372 30.337 26.795 30.789 26.87 26.427 26.471 28.832 32.896 33.156 33.318 33.499 33.775 33.917 34.147 34.375 34.462 34.27 34.085 33.836 33.672 33.497 33.293 33.074 32.74 26.49 25.59 25.504 25.74 25.467 25.43 25.427 25.435 25.715 25.594 25.295 27.554 26.518 25.601 25.367 25.479 28.836 31.471 30.818 30.094 30.901 31.764 30.712 30.185 31.164 30.553 29.377 30.044 31.032 30.61 28.771 29.815 30.85 30.926 29.758 29.764 30.747 31.107 30.3 33.23 34.376 36.852 38.785 41.138 43.045 43.053 43.048 43.038 39.689 34.373 29.751 27.608 31.211 28.529 25.253 25.09 24.963 25.013 25.088 25.09 25.205 25.325 25.276 25.186 25.129 25.098 25.073 25.061 25.081 25.194 25.348 30.068 32.265 32.263 32.273 32.245 32.225 31.835 32.068 32.855 32.583 32.148 31.655 31.993 29.738 26.573 25.255 25.143 25.255 25.29 25.32 25.35 25.378 25.4 25.423 25.425 25.45 25.455 25.468 25.473 25.473 25.488 25.48 25.488 25.488 25.515 25.548 25.948 27.72 31.565 36.97 35.905 35.503 36.26 37.223 36.545 35.565 35.875 34.935 35.13 35.978 35.528 36.365 35.625 36.16 36.708 37.445 38.125 37.845 36.985 36.428 35.88 34.848 31.813 30.17 28.258 28.013 25.693 26.275 25.135 25.153 25.14 25.265 26.27 30.315 31.053 31.683 31.225 30.598 26.055 25.268 25.235 25.265 25.238 25.21 25.625 30.653 30.77 30.78 30.793 30.783 30.795 30.638 25.77 28.113 26.435 30.355 30.415 30.533 30.263 29.873 29.365 26.34 26.223 26.785 28.635 25.958 27.89 27.285 26.515 25.865 25.855 25.858 25.873 26.143 25.908 25.91 25.903 25.913 25.903 25.87 25.86 25.858 25.85 25.845 25.853 25.88 25.94 26.288 26.58 26.538 26.468 26.15 26.16 25.728 25.695 25.678 25.673 25.66 25.645 25.75
27.397 27.482 27.514 29.135 29.218 28.52 28.674 27.805 27.603 27.637 28.34 28.861 29.833 29.354 28.674 29.752 28.56 29.848 30.561 28.605 32.875 33.063 33.097 33.125 33.07 31.832 30.314 27.521 27.377 27.382 27.526 27.615 27.469 29.279 29.239 29.305 29.19 29.476 29.675 27.527 27.184 27.141 27.158 27.198 27.201 27.213 27.189 27.142 27.144 27.174 27.202 27.183 28.285 27.434 27.436 27.484 27.936 27.667 28.549 27.422 27.92 27.433 27.411 27.459 27.527 28.09 26.831 26.379 26.415 26.374 26.565 26.821 26.271 26.995 26.41 26.168 27.613 33.601 34.051 34.346 34.744 35.07 35.448 35.902 36.265 36.627 37.035 37.337 37.71 38.067 38.106 37.681 37.365 36.93 36.572 36.224 35.72 35.361 35.048 34.666 34.284 33.98 33.641 30.35 29.297 26.405 26.02 26.05 26.045 26.161 27.088 26.802 26.259 26.31 26.205 26.164 26.123 26.072 26.097 26.124 26.081 26.24 31.607 28.36 29.768 26.247 26.996 27.336 26.185 26.127 26.093 26.055 26.066 26.158 26.212 26.308 26.343 26.441 26.242 26.148 26.075 26.046 25.973 28.382 29.386 32.055 33.714 34.022 34.418 34.75 35.104 35.5 35.985 36.455 36.704 37.08 37.058 36.673 36.357 35.923 35.814 34.964 27.36 26.117 26.214 26.082 25.962 25.945 25.897 25.822 25.86 25.923 25.952 25.965 26.011 27.644 26.235 26.254 26.241 27.236 26.635 26.962 26.434 27.216 26.861 26.111 26.094 26.129 26.067 26.106 26.279 30.87 32.993 33.166 33.184 33.192 33.143 33.077 33.062 33.025 32.955 32.891 31.77 32.679 31.519 29.171 30.282 33.027 33.244 33.452 33.586 33.805 34.024 34.224 34.442 34.423 34.218 33.977 33.845 33.635 33.418 33.259 33.013 31.594 25.986 25.621 26.494 25.508 25.477 25.413 25.394 25.374 25.309 25.505 29.457 29.983 26.998 25.458 25.505 27.621 29.972 30.976 31.788 29.697 30.276 30.97 31.315 29.618 30.26 30.985 30.097 29.601 30.326 31.321 30.271 29.518 30.394 31.291 30.602 29.641 29.853 31.185 31.448 30.493 28.457 36.806 38.965 42.005 43.048 43.058 43.055 43.008 43.041 42.353 37.756 35.6 27.94 28.042 27.074 25.526 25.025 24.955 25.022 25.059 25.136 25.281 25.354 25.226 25.171 25.127 25.1 25.082 25.053 25.075 25.217 25.488 30.11 32.883 32.38 32.258 32.243 32.355 31.433 31.545 31.325 28.925 27.985 25.323 25.223 25.233 25.25 25.295 25.295 25.333 25.363 25.385 25.418 25.42 25.418 25.435 25.445 25.473 25.458 25.45 25.47 25.51 25.563 25.763 27.663 32.278 37.198 36.11 35.363 36.023 37.018 36.765 35.575 35.648 36.613 37.148 36.228 35.44 34.833 37.1 36.668 35.63 35.845 36.42 36.993 37.803 38.14 37.51 36.715 36.188 35.63 32.443 31.92 32.09 31.243 29.02 28.153 27.66 26.248 25.138 25.16 25.148 25.753 25.965 26.153 30.308 31.035 31.69 31.273 30.653 26.25 25.278 25.215 25.26 25.228 25.213 25.343 29.575 30.765 30.753 30.775 30.775 30.778 30.81 25.788 30.338 30.413 30.53 30.55 30.878 31.068 30.013 29.728 27.158 26.335 26.878 26.34 26.455 26.233 26.68 25.825 25.843 26.018 25.885 25.878 25.905 25.9 25.928 25.893 25.883 25.865 25.858 25.858 25.873 25.858 25.873 25.903 25.92 26.023 26.19 26.535 26.605 26.365 26.123 25.863 25.745 25.73 25.718 25.693 25.693 25.678
31.243 31.927 28.382 27.586 28.575 27.681 27.537 29.973 31.761 29.582 27.961 28.722 29.029 28.51 29.682 30.603 27.934 27.608 27.873 27.639 31.491 33.095 33.086 33.093 33.095 31.687 30.341 27.959 27.418 27.41 27.406 27.597 27.423 27.978 27.775 29.616 29.209 27.8 27.961 28.078 27.183 27.203 27.211 27.241 27.242 27.268 27.315 27.311 27.294 27.313 27.368 27.365 27.395 27.577 27.605 27.738 27.645 27.478 27.751 27.364 28.02 27.598 27.423 27.464 27.494 28.878 26.487 26.451 26.427 26.377 26.539 26.352 26.275 27.214 26.419 26.179 27.599 33.606 34.032 34.353 34.696 35.034 35.432 35.808 36.289 36.618 37.024 37.456 37.748 38.123 38.008 37.763 37.348 36.987 36.618 36.212 35.743 35.408 35.054 34.655 34.291 33.978 33.677 30.223 29.384 26.064 26.044 26.058 26.042 26.127 27.134 27.509 27.173 26.213 26.186 26.144 26.088 25.942 26.098 26.055 26.109 29.843 31.402 33.644 27.231 26.15 29.286 28.56 28.167 28.139 28.09 26.564 26.106 26.072 26.154 26.2 26.277 26.443 26.34 26.131 26.06 26.049 26.019 31.062 29.487 32.056 32.47 34.047 34.409 34.743 35.195 35.448 35.981 36.298 36.695 37.016 37.05 36.782 36.47 36.077 35.542 35.348 30.158 26.141 26.046 26.014 25.957 25.966 25.912 25.822 25.863 25.946 25.98 25.968 26.024 26.621 26.194 26.233 26.266 27.452 26.537 26.442 26.813 26.767 26.734 26.137 26.108 26.142 26.052 26.15 26.376 32.189 33.038 33.326 33.492 33.392 33.32 33.294 33.269 33.175 33.147 33.159 33.036 32.977 32.972 28.653 31.339 33.045 33.263 33.423 33.641 33.862 34.06 34.28 34.462 34.391 34.148 33.94 33.8 33.555 33.33 33.184 33.004 28.918 25.647 25.608 25.74 25.46 25.428 25.415 25.377 25.309 27.565 29.442 30.841 30.758 29.966 26.019 28.706 31.766 29.836 30.175 31.101 31.723 30.168 30.422 31.27 31.244 29.757 30.55 31.057 29.912 29.61 30.606 31.25 29.291 29.256 30.338 31.333 30.341 29.496 30.459 31.69 31.265 30.279 26.87 36.483 39.552 43.184 43.152 43.052 43.039 43.049 43.048 37.937 36.955 28.229 28.78 28.573 25.973 25.115 24.967 24.984 25.039 25.075 25.144 25.302 25.324 25.211 25.151 25.121 25.099 25.07 25.047 25.057 25.181 25.255 26.215 29.073 31.365 32.725 32.595 28.185 27.34 25.223 25.185 25.158 25.213 25.24 25.255 25.278 25.29 25.338 25.358 25.378 25.403 25.39 25.39 25.395 25.4 25.42 25.425 25.443 25.47 25.54 26.14 26.595 30.6 33.373 35.848 36.798 36.94 36.01 35.458 36.198 35.765 36.425 36.91 35.928 36.928 36.888 35.873 35.548 36.533 35.755 36.103 36.638 37.385 38.095 37.888 37.103 36.473 35.928 35.495 35.898 35.703 31.308 32.153 31.82 30.988 28.323 28.08 26.655 25.578 25.225 25.13 25.123 25.165 25.14 25.558 30.31 31.028 31.678 31.348 30.673 27.36 25.29 25.208 25.253 25.24 25.213 25.328 29.868 30.755 30.758 30.765 30.765 30.768 30.793 30.513 30.528 30.548 30.845 31.378 31.908 32.373 30.17 29.665 26.703 27.155 26.963 26.64 25.86 25.815 25.818 25.83 25.84 25.845 25.863 25.87 25.883 25.888 25.898 25.883 25.855 25.853 25.853 25.863 25.84 25.875 25.933 25.995 25.968 26.07 26.51 26.673 26.535 26.24 25.943 25.805 25.773 25.758 25.735 25.72 25.693
31.673 31.599 30.014 28.454 28.281 27.695 28.127 28.113 30.926 28.057 27.622 29.691 29.331 28.173 27.697 27.905 27.668 28.608 27.939 27.892 27.679 32.967 33.101 33.097 33 32.978 28.935 27.512 27.419 27.41 27.359 27.402 27.388 27.392 27.399 27.876 27.409 27.373 27.308 27.22 27.209 27.223 27.276 27.269 27.271 27.291 27.359 27.48 27.374 27.459 27.469 27.695 27.838 27.436 27.504 27.485 27.445 27.419 27.41 28.005 27.95 27.491 27.413 27.447 27.907 28.631 26.506 26.462 26.438 26.443 26.62 26.937 26.262 26.273 26.187 26.175 31.192 33.65 33.983 34.35 34.742 35.022 35.431 35.803 36.319 36.643 37.035 37.364 37.712 38.132 38.067 37.661 37.338 37.003 36.587 36.304 35.78 35.368 35.008 34.701 34.426 34.003 33.542 30.448 29.38 26.032 26.044 26.069 26.121 26.139 29.417 31.862 26.22 26.139 26.126 26.047 26.031 26.028 26.025 26.052 26.036 32.509 34.871 35.273 28.77 29.802 28.967 28.473 28.21 26.719 26.264 26.32 25.971 26.07 26.118 26.182 26.262 27.571 26.339 26.273 26.188 26.127 26.139 31.784 29.973 32.214 33.732 34.062 34.384 34.727 35.104 35.439 35.976 36.401 36.728 37.102 37.06 36.772 36.396 35.855 35.557 35.127 33.659 26.214 26.078 26.001 26.05 26.846 26.316 25.832 25.877 25.93 25.965 26.002 26.036 27.582 26.252 26.254 26.21 26.417 26.839 26.924 27.679 27.96 28.17 26.173 26.022 26.104 26.024 26.185 26.841 32.822 33.093 33.371 33.649 33.564 33.583 33.503 33.444 33.381 33.314 33.315 33.261 33.203 32.951 27.675 32.246 33.088 33.323 33.415 33.706 33.897 34.111 34.356 34.451 34.342 34.126 33.906 33.722 33.513 33.36 33.127 32.81 26.445 25.58 25.578 25.543 25.5 25.413 25.376 25.387 25.329 27.558 30.19 30.484 31.368 30.708 29.34 30.285 31.337 31.148 29.966 30.364 31.311 31.795 29.754 30.554 31.354 31.012 29.709 30.622 30.87 29.307 29.844 30.847 31.023 29.739 29.725 30.646 31.265 30.21 29.325 29.507 31.395 31.117 29.934 31.497 38.697 38.936 39.789 42.956 43.034 43.137 40.229 38.984 38.765 31.617 28.618 28.2 27.169 26.29 25.082 24.966 24.992 25.094 25.093 25.218 25.338 25.246 25.205 25.144 25.123 25.085 25.069 25.044 25.049 25.155 25.155 25.225 25.305 25.95 25.273 25.203 25.14 25.113 25.165 25.218 25.23 25.253 25.258 25.285 25.315 25.32 25.323 25.343 25.335 25.353 25.35 25.375 25.385 25.413 25.443 25.86 27.97 29.513 30.748 29.68 29.383 31.268 35.05 36.125 37.055 36.688 35.623 36.073 36.705 37.313 37.99 36.035 36.27 37.158 36.598 35.565 35.765 36.345 36.89 37.733 38.17 37.528 36.778 36.245 35.663 35.57 36.18 36.785 37.388 33.548 31.573 32.298 31.575 30.418 26.363 25.258 26.653 25.49 25.138 25.115 25.1 25.175 25.168 25.873 30.235 30.945 31.635 31.395 30.753 27.795 25.3 25.203 25.233 25.235 25.203 25.308 29.235 30.748 30.75 30.763 30.765 30.765 30.775 30.71 30.793 31.333 31.88 32.415 27.598 28.558 27.083 26.52 28.148 27.503 26.078 26.093 25.823 25.83 26.03 25.925 25.85 25.868 25.875 25.888 25.9 25.908 25.885 25.853 25.863 25.868 25.873 25.863 25.888 25.933 25.998 25.988 25.985 26.45 26.725 26.655 26.388 26.52 25.9 25.828 25.8 25.778 25.755 25.753
31.353 31.208 29.038 27.879 29.105 30.917 28.437 27.557 32.081 28.809 28.075 27.55 27.785 27.581 28.545 27.766 27.754 27.526 27.568 27.515 27.6 32.495 31.881 29.083 27.591 27.602 27.48 27.479 27.454 27.47 27.435 27.447 27.501 29.661 29.693 28.841 27.416 27.339 27.393 27.495 27.299 27.413 27.289 27.321 27.298 27.31 27.301 27.412 27.492 27.462 27.533 27.855 28.098 28.119 27.681 27.448 27.386 27.393 27.455 28.344 27.459 27.436 27.419 27.429 27.48 28.085 26.447 26.411 26.398 26.447 26.627 26.702 26.237 26.211 26.191 26.148 29.957 33.697 34.057 34.371 34.694 35.019 35.46 35.754 36.227 36.636 37.016 37.402 37.72 38.092 38.081 37.68 37.361 36.97 36.638 36.275 35.797 35.454 35.062 34.67 34.353 34.018 33.646 30.49 29.372 26.053 26.017 26.082 26.078 26.138 26.296 27.693 26.849 26.178 26.152 26.089 26.116 26.045 26.082 26.097 26.957 32.769 35.048 34.639 30.894 27.186 27.802 26.778 26.04 26.039 26 26.047 26.07 26.097 26.15 26.216 26.232 26.446 26.301 26.219 26.143 26.162 26.152 31.034 29.269 30.449 33.717 34.088 34.428 34.798 35.119 35.456 35.932 36.395 36.744 37.036 37.091 36.698 36.417 35.886 35.529 35.086 32.364 28.473 28.112 26.069 26.282 26.562 26.259 25.857 25.86 25.966 25.961 26.032 26.113 28.791 27.528 29.435 26.486 27.299 27.932 27.399 27.036 27.92 27.955 26.125 26.086 26.103 26.073 26.148 30.703 32.986 33.241 33.436 33.627 33.658 33.621 33.685 33.669 33.579 33.539 33.52 33.426 33.4 29.806 29.156 32.96 33.174 33.362 33.547 33.746 33.914 34.195 34.382 34.452 34.277 34.019 33.87 33.716 33.447 33.318 33.107 31.518 25.679 25.599 25.565 25.535 25.477 25.435 25.399 25.372 25.388 26.254 29.017 30.626 31.584 31.64 31.334 29.693 30.532 31.172 31.237 29.857 31.403 31.582 30.117 29.749 30.548 31.682 30.011 29.937 30.926 30.877 29.652 30.007 31.112 31.077 29.137 29.891 31.107 31.121 29.973 29.595 30.533 31.648 30.958 29.802 35.07 38.945 38.959 41.98 40.41 39.426 38.969 38.977 33.493 37.377 28.243 28.48 28.06 26.886 25.329 25.006 24.979 25.037 25.067 25.136 25.288 25.332 25.241 25.19 25.143 25.123 25.098 25.069 25.068 25.068 25.098 25.095 25.1 25.103 25.085 25.095 25.11 25.145 25.198 25.215 25.25 25.24 25.26 25.505 25.783 26.083 25.27 25.283 25.303 25.325 25.338 25.348 25.368 25.42 25.503 26.225 29.195 30.283 30.963 29.948 28.928 31.05 32.205 35.443 36.12 35.663 36.35 36.99 37.625 38.195 37.648 37.003 35.59 36.583 35.538 36.043 36.6 37.238 38.023 37.945 37.13 36.53 35.985 35.49 35.8 36.458 37.038 37.633 38.255 39.035 31.438 31.8 32.133 31.34 28.073 25.208 25.183 25.623 27.193 25.088 25.078 25.493 25.165 25.475 25.42 29.725 30.913 31.593 31.438 30.815 28.853 25.315 25.203 25.233 25.24 25.208 25.288 28.415 30.74 30.745 30.753 30.758 30.77 30.78 31.295 31.83 32.365 28.053 28.313 27.858 28.125 27.255 27.578 26.563 26.1 25.963 25.848 25.85 25.865 25.968 25.87 25.88 25.895 25.895 25.908 25.908 25.89 25.873 25.878 25.888 25.893 25.883 25.898 25.92 25.975 25.975 25.975 26.4 26.81 26.78 26.563 26.168 25.99 25.865 25.843 25.815 25.803 25.78
27.107 26.646 26.283 27.6 30.051 27.558 27.547 27.589 27.63 29.787 27.573 27.544 29.102 28.137 27.764 27.531 27.522 27.58 28.993 29.562 29.202 27.446 27.482 27.434 27.43 27.379 27.423 27.447 27.447 27.471 27.448 27.448 27.435 27.455 27.478 27.976 28.644 29.151 28.028 30.881 27.648 27.75 27.348 27.355 27.339 27.353 27.351 27.46 27.637 28.058 28.061 27.691 27.723 27.435 27.454 27.476 27.496 27.497 27.845 28.209 27.74 27.398 27.369 27.421 28.068 28.205 26.484 26.383 26.396 26.527 26.609 26.546 26.244 26.189 26.179 26.137 30.337 33.656 34.024 34.402 34.74 35.039 35.394 35.92 36.308 36.608 36.972 37.377 37.713 38.125 38.061 37.62 37.338 36.982 36.623 36.274 35.841 35.4 35.093 34.751 34.418 34.007 33.656 30.45 29.201 27.877 26.025 26.047 26.087 26.14 26.257 26.273 26.192 26.228 26.196 26.161 26.077 26.06 26.054 26.065 26.045 27.168 28.266 27.336 26.059 26.048 26.999 26.522 26.038 26.039 26.031 26.039 26.039 26.122 26.164 26.249 26.242 26.295 26.262 26.179 26.084 26.153 26.314 27.621 30.017 30.031 33.678 34.045 34.409 34.75 35.104 35.446 35.886 36.393 36.67 37.084 37.06 36.727 36.43 35.984 35.476 34.95 31.523 28.096 28.089 26.988 26.987 26.654 25.976 25.856 25.882 25.924 25.984 25.979 28.27 30.227 30.516 30.797 30.857 30.785 30.611 30.355 27.519 26.712 26.54 26.085 26.065 26.116 26.061 26.391 31.884 32.933 33.158 33.328 33.381 33.386 33.456 33.524 33.551 33.634 33.668 33.654 33.666 33.62 29.339 30.365 33.009 33.223 33.379 33.56 33.8 34.015 34.184 34.401 34.443 34.258 34.002 33.848 33.59 33.459 33.25 33.057 29.176 25.627 25.612 25.561 25.545 25.483 25.448 25.423 25.415 25.395 25.369 26.263 30.771 30.362 30.588 31.533 29.644 29.952 30.749 32.096 31.225 29.972 30.851 31.86 30.599 30.096 31.167 31.163 29.606 29.962 31.072 30.736 29.514 30.21 31.251 30.532 28.794 29.986 31.155 31.125 29.866 29.933 30.926 31.613 30.729 29.019 38.817 38.935 38.915 38.971 38.976 38.961 38.978 38.966 35.899 37.01 30.142 28.435 27.5 27 26.338 24.996 25.034 25.064 25.129 25.205 25.347 25.273 25.215 25.171 25.137 25.115 25.09 25.062 25.086 25.091 25.118 25.108 25.12 25.12 25.103 25.165 25.193 25.21 25.235 25.245 25.248 25.348 26.833 25.788 25.288 25.233 25.228 25.258 25.285 25.3 25.33 25.375 25.423 25.503 25.553 28.948 29.985 31.038 30.24 29.145 30.835 31.89 35.273 35.973 36.623 37.25 37.91 38.003 37.36 36.73 36.133 35.503 35.728 36.295 36.83 37.625 38.185 37.64 36.833 36.265 35.723 35.55 36.105 36.703 37.308 37.908 38.55 39.368 40.163 37.64 31.26 32.068 31.91 31.085 25.97 25.903 25.59 27.618 25.203 25.8 25.618 25.148 25.29 25.35 25.595 29.835 30.858 31.51 31.503 30.858 29.125 25.325 25.215 25.233 25.233 25.218 25.295 27.79 30.735 30.75 30.768 30.775 30.753 30.765 32.12 27.468 29.285 27.978 29.868 28.373 27.005 27.293 26.135 26.375 26.153 26.02 25.873 25.88 25.95 25.89 25.898 25.903 25.908 25.915 25.91 25.893 25.878 25.883 25.893 25.895 25.893 25.893 25.908 25.965 25.97 25.97 26.325 26.82 26.875 26.7 26.313 26.085 25.918 25.883 25.865 25.833 25.805
25.797 26.1 25.757 27.313 27.999 27.883 27.462 27.58 27.577 29.529 27.654 27.57 30.909 27.665 27.539 27.534 27.563 27.522 27.525 28.122 27.477 27.467 27.516 27.502 27.417 27.344 27.431 27.457 27.479 27.466 27.496 27.487 27.582 29.429 28.181 27.904 30.644 30.22 32.109 34.51 29.361 27.795 27.405 27.386 27.393 27.371 27.381 27.371 27.498 27.584 27.467 27.491 27.476 27.483 27.549 28.08 27.548 27.826 27.722 27.537 27.807 27.374 27.358 27.428 27.7 27.7 26.485 26.483 26.466 26.512 26.621 26.802 26.185 26.124 26.093 26.124 27.327 33.583 34.009 34.364 34.724 35.081 35.41 35.954 36.252 36.635 37.026 37.417 37.702 38.112 38.047 37.749 37.371 36.971 36.648 36.245 35.855 35.407 35.104 34.755 34.321 34 33.639 30.462 29.49 27.89 26.095 26.107 26.142 26.174 26.226 26.266 26.23 26.229 26.193 26.131 26.089 26.076 26.075 26.062 26.088 26.03 26.469 26.077 26.03 26.003 26.071 26.063 26.015 26.014 26.07 26.036 26.078 26.137 26.165 26.242 26.268 26.295 26.274 26.102 26.096 26.056 25.994 27.75 29.351 31.659 33.734 34.04 34.47 34.752 35.121 35.442 35.975 36.308 36.682 37.031 37.1 36.675 36.334 35.919 35.462 35.166 30.163 28.537 27.274 26.023 25.965 25.93 25.892 25.865 25.872 25.967 25.97 25.992 28.265 30.221 30.404 30.719 30.857 30.702 30.509 30.156 26.608 25.988 26.204 26.098 26.091 26.1 26.069 26.086 30.81 32.959 33.069 33.124 33.162 33.177 33.27 33.303 33.393 33.398 33.428 33.525 33.603 33.647 32.365 31.263 33.041 33.282 33.432 33.7 33.834 34.075 34.269 34.462 34.384 34.183 33.983 33.787 33.591 33.4 33.219 32.991 29.038 25.614 25.597 25.541 25.568 25.486 25.46 25.436 25.391 25.419 25.481 26.111 31.343 30.457 29.821 30.657 31.795 30.795 30.074 30.889 31.115 30.347 30.032 30.949 31.763 31.064 30.197 31.112 31.871 30.123 30.199 31.109 29.899 29.505 30.391 31.174 30.287 29.674 30.251 31.234 30.825 29.631 29.812 31.298 31.561 30.715 31.927 38.795 38.943 38.954 38.967 38.972 38.996 39.016 38.987 38.946 29.399 28.722 28.392 27.917 26.341 25.087 24.997 25.065 25.092 25.165 25.292 25.377 25.25 25.206 25.181 25.155 25.126 25.086 25.129 25.109 25.115 25.138 25.138 25.138 25.163 25.183 25.205 25.213 25.203 25.21 25.178 25.198 25.18 25.173 25.178 25.25 25.258 25.243 25.265 25.298 25.335 25.378 25.413 25.48 25.51 28.6 29.725 30.768 30.515 29.45 32.173 35.57 36.263 36.895 37.553 38.053 37.715 37.078 36.478 35.83 35.458 35.963 36.538 37.16 37.93 38.04 37.28 36.58 36.033 35.508 35.748 36.448 37.108 37.6 38.17 38.923 39.668 40.493 39.64 38.98 32.515 31.513 32.263 31.653 30.765 25.255 25.59 26.1 25.225 25.035 26.715 25.26 25.143 25.28 25.348 25.458 29.53 30.783 31.49 31.593 30.898 29.583 25.343 25.235 25.248 25.245 25.22 25.278 26.628 30.745 30.765 30.763 30.745 30.788 28.243 27.243 27.64 29.558 29.35 29.248 27.275 27.095 26.013 26.055 25.965 25.86 25.875 25.89 25.883 25.9 25.908 25.905 25.893 25.923 25.91 25.9 25.893 25.888 25.913 25.898 25.898 25.883 25.91 25.945 25.973 25.978 26.283 26.775 26.865 26.78 26.49 26.27 26.055 25.925 25.903 25.863 25.83
25.612 25.706 26.339 27.208 28.164 29.787 28.511 27.603 27.734 29.815 27.731 27.499 27.556 27.789 27.66 27.565 27.503 27.575 27.561 27.51 27.528 27.498 27.499 27.487 28.77 27.972 29.015 27.572 27.64 27.797 29.071 27.619 29.552 29.581 28.015 30.981 32.295 31.724 32.312 33.556 30.011 27.898 27.648 27.433 27.418 27.437 27.416 27.376 27.467 27.513 27.982 27.831 27.687 28.089 29.382 27.679 27.599 28.339 27.624 27.642 28.275 27.374 27.45 27.412 28.102 27.705 26.448 26.441 26.454 26.538 26.623 26.498 26.181 26.074 26.05 26.093 30.388 33.681 34.051 34.349 34.736 35.083 35.406 35.836 36.315 36.705 36.998 37.423 37.684 38.076 38.083 37.704 37.312 37.037 36.645 36.209 35.82 35.34 35.072 34.7 34.345 34.031 33.505 28.834 31.458 27.84 26.097 26.129 26.182 26.164 26.244 26.277 26.275 26.249 26.122 26.062 26.057 26.067 26.013 26.044 26.04 26.043 26.039 26.08 26.089 26.09 26.049 26.032 26.026 26.024 25.992 26.021 26.06 26.134 26.142 26.231 26.269 26.255 26.201 26.102 26.102 26.065 25.885 31.136 27.747 32.039 33.722 34.052 34.438 34.716 35.164 35.511 35.842 36.34 36.672 37.039 37.095 36.78 36.591 35.889 35.452 35.12 33.743 27.097 26.562 26.041 25.976 25.952 25.889 25.868 25.902 25.973 25.975 26.036 26.816 30.229 30.602 30.719 30.875 30.662 30.427 30.268 27.31 26.052 26.123 26.056 26.06 26.082 26.039 26.129 30.729 32.845 32.834 32.946 32.92 33.026 33.092 33.146 33.187 33.201 33.266 33.358 33.397 33.286 27.393 31.935 33.083 33.344 33.455 33.714 33.911 34.114 34.301 34.516 34.369 34.136 33.97 33.745 33.519 33.338 33.121 32.936 31.168 28.415 25.606 25.544 25.482 25.483 25.499 25.459 25.456 25.885 27.541 30.026 31.007 31.854 30.439 30.059 30.889 31.579 29.801 30.35 31.116 31.323 29.981 31.225 31.516 31.715 29.5 30.305 31.281 29.892 29.908 30.552 30.787 29.283 29.697 30.765 31.107 30.326 29.347 30.431 31.2 30.668 29.243 30.412 31.708 31.305 30.793 38.347 38.897 38.952 38.928 38.957 39.014 38.99 38.967 33.915 37.131 28.489 28.413 27.649 26.662 25.173 25.148 25.006 25.091 25.136 25.168 25.48 25.363 25.336 25.192 25.175 25.135 25.108 25.113 25.168 25.149 25.243 25.238 25.168 25.18 25.203 25.208 25.203 25.173 25.145 25.148 25.153 25.153 25.16 25.283 25.345 25.37 25.478 25.26 25.303 25.345 25.37 25.418 25.46 25.505 27.498 29.44 30.488 30.81 29.72 33.528 36.525 37.14 37.858 38.018 37.42 36.795 36.208 35.593 35.668 36.243 36.785 37.588 38.1 37.693 36.9 36.323 35.783 35.523 36.035 36.733 37.378 37.968 38.563 39.305 39.938 39.995 39.345 38.57 37.493 37.283 31.42 31.758 32.235 31.393 28.933 25.63 25.145 25.13 25.025 25.09 25.018 25.028 26.258 25.3 25.358 25.46 29.003 30.758 31.463 31.638 30.948 29.533 25.338 25.25 25.258 25.248 25.225 25.268 26.845 30.76 30.738 30.745 28.305 27.253 27.875 29.56 29.973 29.475 28.34 27.623 27.873 26.255 26.903 26.56 26.003 25.858 25.88 25.883 25.905 25.913 25.915 25.93 25.913 25.92 25.908 25.9 25.883 25.908 25.9 25.905 25.883 25.89 25.94 26.025 26.043 26.253 26.798 26.885 26.838 26.603 26.4 26.095 25.948 25.918 25.885 25.843
27.312 27.235 29.757 28.741 28.917 27.614 27.759 27.489 28.679 27.534 27.486 28.686 29.812 27.568 27.525 27.533 27.549 27.589 27.558 27.557 27.564 27.542 27.8 27.737 29.715 28.462 29.452 28.36 27.547 27.606 29.111 29.633 28.125 28.05 27.791 30.514 31.812 31.226 30.355 30.333 28.796 27.678 27.731 27.464 27.48 27.416 27.442 27.447 27.615 27.545 27.862 27.542 28.193 29.307 28.521 27.693 27.55 27.812 28.06 27.807 27.611 27.42 27.441 27.505 27.741 27.006 26.422 26.443 26.475 26.535 26.644 26.448 26.146 25.996 25.965 26.08 26.556 33.575 33.976 34.343 34.686 35.114 35.47 35.931 36.312 36.696 37.004 37.385 37.7 38.099 38.073 37.675 37.299 36.987 36.65 36.297 35.825 35.352 34.992 34.676 34.398 34.029 33.497 28.737 31.049 27.86 26.264 26.148 26.11 26.132 26.99 27.043 26.258 26.207 26.134 26.029 26.033 25.939 25.988 25.966 25.995 25.993 26.023 26.091 26.132 26.051 26.028 26.004 25.976 25.995 25.976 25.988 25.99 26.077 26.139 26.192 26.229 28.062 27.115 26.152 26.121 26.084 25.999 27.881 28.798 32.131 33.76 34.005 34.413 34.765 35.055 35.455 35.966 36.348 36.66 37.117 37.061 36.742 36.5 35.944 35.481 35.151 33.241 26.301 26.15 26.007 25.952 25.923 25.904 25.935 25.933 25.969 25.984 26.041 26.952 30.2 30.472 30.753 30.053 30.675 30.456 30.271 27.591 26.09 26.072 26.022 26.057 26.096 26.04 26.123 26.338 27.973 29.967 32.663 32.721 32.855 32.905 32.945 32.958 33.08 33.093 33.1 33.148 33.168 29.59 32.95 33.144 33.372 33.544 33.746 33.973 34.179 34.364 34.491 34.279 34.057 33.926 33.699 33.468 33.316 33.134 32.863 30.669 30.323 29.189 25.597 25.48 25.493 25.495 25.443 25.56 30.03 31.421 30.186 30.273 31.057 31.875 30.177 30.069 31.157 31.916 29.946 30.527 31.318 31.914 30.269 30.383 31.174 31.193 30.026 31.305 31.618 30.833 30.002 30.627 30.968 29.468 29.769 30.898 31.033 30.053 29.688 30.837 31.285 29.998 29.592 30.512 31.06 30.681 29.619 37.048 38.903 38.911 39.011 38.988 38.975 38.957 38.934 30.546 36.534 27.709 30.681 30.187 25.86 25.11 25.041 25.042 25.086 25.129 25.241 25.479 25.277 25.218 25.186 25.161 25.136 25.085 25.196 25.152 25.137 25.153 25.178 25.18 25.16 25.158 25.148 25.113 25.105 25.103 25.105 25.183 25.293 25.345 25.705 25.373 25.328 25.273 25.3 25.343 25.385 25.41 25.445 25.493 26.555 29.17 30.223 31.045 29.74 31.005 37.49 38.038 37.775 37.11 36.53 35.9 35.483 35.918 36.49 37.118 37.898 38.018 37.33 36.633 36.058 35.56 35.703 36.345 36.915 37.508 38.22 38.918 39.608 40.158 39.695 39.028 38.208 37.588 31.743 36.248 35.013 31.193 31.998 31.983 31.138 26.638 25.298 25.085 24.995 25.005 25.01 25.01 25.658 25.918 25.318 25.385 25.523 29.11 30.718 31.408 31.695 31.008 30.213 25.348 25.225 25.243 25.245 25.235 25.245 26.063 30.413 29.048 27.018 28.968 28.468 27.933 28.15 27.855 28.288 28.175 26.44 25.993 26.373 26.238 25.878 25.855 25.865 25.865 25.878 25.878 25.92 25.905 25.925 25.918 25.913 25.9 25.875 25.925 25.923 25.923 25.915 25.905 25.973 26.043 26.048 26.265 26.825 26.945 26.9 26.735 26.413 26.135 26.008 25.935 25.895 25.86
27.746 28.365 28.129 31.307 27.804 28.788 31.138 27.63 27.551 27.545 27.477 29.1 27.802 27.534 27.517 27.504 27.507 27.555 27.54 27.545 27.533 27.623 27.633 27.983 29.34 30.015 27.985 27.795 27.841 27.886 27.797 28.932 28.111 27.835 27.811 28.454 27.848 28.269 30.098 29.985 27.947 27.62 27.609 27.521 27.472 27.481 27.47 27.476 27.501 27.748 28.233 27.522 27.707 27.6 28.822 28.469 27.756 27.79 27.52 27.434 27.421 27.357 27.447 27.511 27.805 27.384 26.446 26.501 26.439 26.551 26.649 26.384 26.117 25.933 25.937 26.085 30.324 33.733 33.99 34.394 34.733 35.047 35.39 35.912 36.285 36.676 36.993 37.403 37.786 38.134 38.062 37.679 37.328 37.047 36.615 36.278 35.766 35.461 35.152 34.693 34.332 34.005 33.494 30.015 29.757 26.917 26.035 26.09 26.129 26.292 28.046 29.004 26.687 26.165 26.166 26.033 25.934 25.917 25.889 25.954 25.996 25.985 26.003 26.085 26.156 26.012 26.026 25.973 25.939 25.938 25.936 25.956 26.01 26.056 26.122 26.177 26.308 30.075 27.308 26.169 26.122 26.052 25.999 27.809 29.374 30.332 33.726 34.067 34.429 34.743 35.139 35.439 35.978 36.325 36.755 37.056 37.078 36.725 36.373 35.97 35.484 35.142 29.269 26.102 26.062 26.036 25.973 25.924 25.916 25.867 25.895 25.955 25.981 26.022 28.284 30.245 30.623 30.715 30.825 30.637 30.463 30.245 27.235 26.033 26.073 26.02 26.075 26.153 26.071 26.16 26.196 26.17 26.06 25.945 28.2 27.737 28.036 31.399 32.529 32.691 32.903 32.968 33.004 31.326 29.497 32.962 33.249 33.374 33.623 33.843 34.025 34.191 34.459 34.451 34.252 34.028 33.852 33.657 33.451 33.256 33.074 31.556 30.308 30.177 30.086 30.189 29.225 25.551 25.476 25.739 29.51 30.292 31.251 31.354 29.858 30.504 31.757 31.906 29.977 30.691 31.339 30.681 29.945 30.565 31.193 30.867 29.873 30.757 31.594 31.245 30.082 30.748 31.512 31.449 29.967 31.01 30.628 29.423 29.762 30.966 30.854 29.638 29.814 30.832 31.197 30.081 29.525 30.045 29.383 31.857 30.808 38.751 38.885 38.862 38.917 38.968 38.95 38.916 36.858 36.705 26.484 28.935 31.691 25.753 25.154 25.073 25.019 25.061 25.124 25.169 25.253 25.298 25.247 25.211 25.178 25.153 25.105 25.095 25.131 25.119 25.163 25.143 25.138 25.103 25.08 25.09 25.073 25.063 25.058 25.145 25.263 25.728 27.013 26.213 25.385 25.313 25.31 25.313 25.358 25.373 25.423 25.43 25.485 25.57 28.43 27.115 25.853 25.37 27.87 38.158 37.49 36.675 36.25 35.623 35.588 36.183 36.725 37.515 38.095 37.77 36.945 36.39 35.805 35.498 35.98 36.61 37.213 37.783 38.408 39.215 39.9 40.02 39.39 38.625 37.92 37.323 36.743 36.103 35.505 35.693 34.975 31.415 32.185 31.733 30.898 26.228 25.163 25.018 26.353 24.99 24.98 24.988 25.33 25.273 25.373 25.395 25.508 28.42 30.698 31.348 31.755 31.098 30.195 25.55 25.2 25.225 25.243 25.235 25.213 26.283 29.755 28.103 28.528 27.948 27.85 29.295 26.913 26.54 27.2 26.555 26.098 26.2 25.89 25.84 25.865 25.86 25.855 25.88 25.858 25.89 25.86 25.883 25.91 25.903 25.87 25.853 25.893 25.918 25.913 25.905 25.923 25.975 26.005 26 26.333 26.798 27 26.94 26.823 26.53 26.258 26.093 25.953 25.923 25.885
27.851 28.817 28.78 30.249 27.671 27.633 27.618 27.594 27.501 27.472 28.683 29.808 28.201 27.501 27.566 27.518 27.535 27.505 27.517 28.214 28.006 27.627 27.745 27.867 28.047 28.457 27.909 27.821 28.119 27.974 27.979 28.184 27.898 27.786 27.913 28.769 28.22 29.133 28.581 27.879 27.697 27.645 28.951 27.62 27.689 27.544 27.492 27.46 27.429 27.382 27.471 27.6 27.942 27.582 29.35 27.826 27.432 27.437 27.363 27.397 27.415 27.466 27.498 27.575 28.574 27.239 26.507 26.509 26.446 26.577 26.644 26.581 26.135 25.997 25.92 26.087 26.352 33.559 34.011 34.391 34.781 35.099 35.419 35.73 36.279 36.656 37.017 37.421 37.725 38.117 38.078 37.713 37.353 36.977 36.603 36.284 35.806 35.346 35.034 34.666 34.366 34.019 33.675 30.424 28.298 26.485 25.986 26.106 26.134 26.152 27.476 32.209 27.61 26.189 26.119 26.024 25.971 25.761 25.897 25.953 25.967 25.963 25.973 26.065 26.156 26.033 26.047 25.969 25.948 25.924 25.935 25.913 26.002 26.024 26.093 26.168 27.114 29.352 27.384 26.16 26.103 26.07 26.044 27.716 29.005 31.403 33.684 34.104 34.388 34.752 35.114 35.445 35.978 36.323 36.762 37.144 37.034 36.752 36.363 36.109 35.47 35.228 28.672 26.116 26.082 26.021 25.999 25.94 25.932 25.883 25.913 25.941 25.979 26.007 29.027 30.237 30.537 30.697 30.791 30.643 30.436 30.061 26.515 26.031 26.06 26.015 26.089 26.109 26.08 26.175 26.21 26.066 26.008 26.079 26.55 25.817 25.778 25.719 25.827 27.48 28.536 32.585 32.672 29.641 31.299 33.035 33.241 33.445 33.683 33.914 34.07 34.268 34.497 34.433 34.198 34.016 33.832 33.614 33.408 33.213 33.007 32.766 30.184 30.019 29.943 29.804 29.717 28.526 28.871 31.211 31.608 29.756 30.549 31.344 31.363 29.806 30.746 31.618 31.509 30.073 30.743 31.547 30.259 30.003 30.643 31.67 29.854 29.985 31.068 31.895 29.914 29.983 31.099 31.078 29.597 30.156 30.689 30.194 29.339 30.109 31.066 30.489 29.621 30.185 30.79 30.589 29.855 30.98 31.808 32.065 32.041 34.128 38.652 38.899 38.918 39.07 38.976 38.941 38.903 33.045 29.351 27.271 26.889 26.768 25.477 25.56 24.997 25.051 25.137 25.153 25.199 25.28 25.287 25.238 25.207 25.186 25.165 25.118 25.076 25.113 25.121 25.115 25.1 25.083 25.173 25.068 25.04 25.018 25.11 25.2 26.64 27.595 27.915 26.703 26.578 25.348 25.36 25.348 25.36 25.39 25.41 25.438 25.438 25.52 25.44 25.345 25.32 25.3 25.35 35.973 35.31 32.14 35.48 35.86 36.415 37.008 37.825 38.063 37.378 36.68 36.118 35.588 35.628 36.298 36.87 37.475 38.03 38.8 39.545 40.133 39.745 39.045 38.243 37.655 37.043 36.438 35.813 35.485 35.958 36.56 37.153 32.205 31.665 32.258 31.495 29.74 26.313 24.968 25.918 24.963 24.958 24.958 25.683 25.593 25.37 26.06 26.245 30.475 30.528 30.605 31.308 31.783 31.14 29.928 25.315 25.185 25.198 25.22 25.223 25.208 25.683 28.9 28.518 28.195 27.795 27.635 26.54 26.64 27.165 26.15 26.41 25.935 25.935 26.01 25.838 25.863 25.848 25.823 25.865 25.858 25.88 25.883 25.868 25.898 25.905 25.883 25.853 25.858 25.943 25.948 25.953 25.96 25.97 25.99 26.183 26.823 27.058 27.005 26.895 26.658 26.373 26.108 25.975 25.93 25.903
27.793 27.667 27.685 27.668 29.8 28.181 27.531 27.63 27.511 27.541 27.551 27.771 27.583 27.648 27.57 27.541 27.605 27.587 27.563 27.526 27.797 27.678 28.656 27.999 27.74 27.959 28.024 27.989 28.319 28.079 29.962 28.833 27.965 27.839 27.946 28.138 28.222 28.211 27.735 27.684 27.713 28.549 27.754 27.66 28.015 27.582 27.452 27.465 27.416 27.593 27.428 27.717 27.763 27.408 27.849 27.366 27.351 27.384 27.409 27.425 27.455 27.556 27.545 27.549 28.52 26.999 26.488 26.5 26.458 26.656 26.677 26.489 26.141 25.992 25.948 26.151 27.466 33.539 34.053 34.404 34.713 35.086 35.391 35.903 36.278 36.692 36.981 37.404 37.707 38.084 38.069 37.696 37.385 37.03 36.66 36.317 35.833 35.439 35.047 34.712 34.381 34.056 33.677 30.495 28.204 26.958 26.013 26.074 26.081 26.177 28.675 27.594 26.747 26.196 26.107 26.035 26.013 25.979 25.951 25.959 25.994 25.98 26.039 26.038 26.191 26.051 25.998 26.02 25.959 26.002 25.931 25.968 26.009 26.07 26.141 26.173 27.324 29.027 27.196 26.108 26.124 26.082 26.042 28.406 27.754 30.115 33.659 34.092 34.395 34.766 35.089 35.433 35.931 36.37 36.739 37.087 37.067 36.703 36.375 36.009 35.464 35.197 33.747 26.232 26.049 26.026 25.966 25.951 25.943 25.86 25.881 25.951 26.003 26.044 28.893 30.632 30.678 30.73 30.805 30.601 30.422 30.098 26.237 26.024 26.036 25.992 26.078 26.026 26.049 26.212 26.248 25.899 26.288 26.375 25.777 25.96 25.781 25.763 25.757 26.819 25.852 25.835 27.074 28.209 31.589 33.101 33.296 33.492 33.726 33.905 34.08 34.368 34.495 34.365 34.143 33.946 33.765 33.595 33.354 33.199 32.995 30.908 30.018 29.881 29.787 29.723 29.68 31.214 29.921 30.681 31.304 32.926 30.42 30.63 31.397 30.512 29.976 30.796 31.633 30.19 30.974 30.936 31.357 30.615 29.992 31.101 31.365 31.357 30.734 30.983 32.051 29.87 30.056 31.237 31.431 30.144 30.372 31.206 30.379 29.517 30.486 31.246 30.247 29.633 30.088 29.59 31.431 32.08 32.042 32.075 31.992 29.687 36.851 38.912 38.885 38.937 38.921 38.977 38.97 32.786 35.364 31.055 27.366 27.834 26.408 25.182 24.987 25.042 25.085 25.12 25.216 25.258 25.263 25.23 25.217 25.202 25.195 25.166 25.111 25.11 25.124 25.111 25.128 25.2 25.105 25.04 25.005 25.053 25.163 26.543 27.713 27.823 26.35 25.58 27.565 25.428 25.373 25.378 25.37 25.395 25.42 25.423 25.448 25.46 25.395 25.365 25.35 25.325 25.273 31.51 35.675 35.565 36.13 36.648 37.373 38.113 37.838 37.018 36.448 35.84 35.488 35.9 36.548 37.145 37.735 38.34 39.163 39.888 40.093 39.45 38.655 37.973 37.383 36.78 36.17 35.558 35.635 36.233 36.83 37.445 38.195 38.568 31.093 31.918 32.045 31.173 27.05 24.948 24.938 24.945 24.95 24.938 24.93 24.933 25.005 25.963 31.14 31.69 32.275 32.575 30.58 31.275 31.81 31.18 30.483 25.46 25.163 25.158 25.198 25.218 25.218 25.225 25.26 25.498 28.158 27.485 26.565 26.713 26.933 26.22 26.005 25.888 25.9 25.828 25.82 25.83 25.813 25.858 25.883 25.903 25.848 25.865 25.868 25.858 25.903 25.903 25.903 25.873 25.915 25.978 25.983 25.985 25.973 26.03 26.163 26.823 27.08 27.06 26.975 26.798 26.478 26.45 26.058 25.94 25.913
27.62 27.968 28.579 27.64 29.235 27.559 28.31 27.72 27.557 27.56 27.561 27.575 28.102 28.049 29.211 29.27 28.018 27.623 27.701 28.146 27.95 28.083 27.966 27.913 27.883 27.993 28.366 28.015 28.046 28.015 28.394 28.625 28.187 28.631 28.74 28.375 27.862 27.825 27.742 27.733 27.717 28.597 28.132 27.683 27.604 27.624 27.457 27.455 27.428 27.322 27.38 27.537 27.369 27.333 27.337 27.361 27.368 27.391 27.392 27.411 27.446 27.454 27.606 30.261 29.118 26.813 26.481 26.52 26.497 26.66 26.729 26.73 26.138 25.998 25.95 26.115 31.272 33.71 34.042 34.374 34.727 35.083 35.409 35.875 36.292 36.675 37.018 37.381 37.722 38.087 38.078 37.69 37.367 37.032 36.62 36.309 35.817 35.426 35.069 34.681 34.381 34.002 33.704 30.505 29.464 26.033 26.044 26.098 26.113 26.173 26.268 26.297 26.229 26.178 26.138 26.075 26.079 26.011 25.996 25.977 25.978 26.005 26.011 26.04 26.14 26.07 26.039 26.011 25.988 25.983 25.956 26.009 26.029 26.098 26.139 26.208 26.189 26.235 26.221 26.137 26.079 26.096 26.264 27.425 27.809 30.229 33.69 34.026 34.436 34.708 35.106 35.409 35.903 36.394 36.766 37.048 37.12 36.767 36.387 36.023 35.526 35.147 33.213 26.225 26.052 26.02 25.995 25.941 25.909 25.904 25.904 25.984 25.992 26.023 29.088 30.241 30.677 30.697 30.792 30.611 30.355 30.166 26.19 25.977 26.041 26.048 26.08 26.063 26.099 26.196 26.23 31.514 32.191 33.514 33.201 31.723 33.849 31.113 28.316 32.035 27.272 31.183 26.473 26.992 27.562 30.535 29.802 33.253 33.682 33.876 34.183 34.398 34.478 34.3 34.112 33.881 33.741 33.483 33.301 33.1 32.813 30.074 29.887 29.795 29.657 29.843 30.342 31.409 31.154 29.791 31.135 32.923 31.254 29.942 30.934 31.232 30.854 30.213 31.059 31.527 30.804 30.026 31.149 31.165 30.032 30.162 31.432 31.754 30.14 30.298 31.119 31.91 31.315 30.537 31.228 29.824 29.889 30.506 31.094 29.785 29.571 30.477 30.947 29.832 29.781 31.802 32.103 32.086 32.038 32.02 31.968 31.968 30.985 38.751 38.912 38.971 38.9 38.954 38.969 38.909 29.943 26.987 27.515 26.618 25.156 25.151 25.024 25.044 25.09 25.143 25.203 25.238 25.263 25.286 25.245 25.211 25.213 25.222 25.159 25.126 25.136 25.149 25.135 25.17 25.043 25.005 24.993 25.125 25.785 27.825 25.305 25.373 25.423 25.4 25.823 26.205 25.403 25.413 25.448 25.418 25.425 25.433 25.45 25.458 25.415 25.393 25.435 27.19 26.798 32.78 35.818 36.375 36.91 37.74 38.233 37.495 36.758 36.198 35.585 35.573 36.218 36.818 37.42 37.998 38.67 39.478 40.378 39.798 39.155 38.283 37.69 37.085 36.513 35.868 35.473 35.883 36.498 37.058 37.83 38.435 38.32 37.54 36.055 31.33 32.168 31.79 30.96 25.1 24.925 25.26 25.215 24.925 24.918 24.893 28.365 31.38 31.938 32.523 33.083 33.45 32.5 30.518 31.213 31.778 33.98 35.375 26.975 25.195 25.11 25.153 25.215 25.215 25.235 25.258 25.318 25.41 26.87 26.595 26.068 25.885 25.87 25.888 25.878 25.865 25.843 25.84 25.82 25.875 25.913 25.925 25.91 25.888 25.85 25.82 25.883 25.878 25.89 25.895 25.9 25.918 26.01 26.018 26 25.983 26.063 26.855 27.13 27.098 27.035 26.9 26.623 26.373 26.093 25.95 25.925
27.596 28.415 28.083 28.443 27.835 27.592 27.595 27.578 27.623 27.578 27.602 28.526 29.118 29.934 30.061 32.553 31.956 30.079 27.917 27.921 28.198 28.084 28.07 28.229 28.174 27.973 28.015 27.99 28.031 27.997 28.192 28.195 28.458 29.242 30.144 28.484 27.976 27.847 27.764 27.788 27.729 27.745 27.93 28.265 27.714 27.69 27.671 27.756 27.461 27.414 27.436 27.388 27.335 27.341 27.324 27.382 27.39 27.372 27.325 27.321 28.829 28.531 30.728 31.103 29.871 27.175 26.481 26.537 26.532 26.688 26.753 26.482 26.152 26.022 25.899 26.111 26.325 33.391 34.02 34.355 34.707 35.011 35.427 35.961 36.317 36.665 37.049 37.37 37.712 38.072 38.031 37.733 37.344 37.082 36.614 36.261 35.778 35.4 35.093 34.688 34.372 33.965 33.625 30.579 29.351 26.061 26.049 26.083 26.105 26.157 26.175 26.224 26.266 26.216 26.137 26.072 26.055 26.012 26.031 25.989 25.988 26.011 25.979 26.039 26.077 26.059 26.04 26.031 25.989 25.995 25.99 26.063 26.082 26.085 26.127 26.165 26.261 26.235 26.245 26.118 26.068 26.124 26.099 32.227 30.398 31.407 33.728 34.012 34.451 34.761 35.112 35.431 35.951 36.321 36.714 37.115 37.102 36.737 36.402 35.907 35.461 34.969 31.533 26.21 26.041 26.001 25.975 25.948 25.893 25.891 25.942 25.977 25.988 26.015 29.024 30.255 30.584 30.755 30.788 30.568 30.373 28.165 26.073 26.012 26.043 26.059 26.055 26.107 26.06 26.17 26.404 31.777 34.212 34.385 34.564 34.826 35.017 35.076 34.832 34.662 34.454 34.071 28.393 26.025 26.051 27.665 27.984 28.008 28.944 28.927 28.948 31.688 34.311 34.229 34.046 33.865 33.668 33.428 33.249 33.053 31.339 30.133 29.749 29.676 30.865 31.675 29.739 30.615 31.458 30.63 30.195 31.649 31.824 30.056 30.203 31.183 31.488 30.529 30.915 31.058 31.671 29.863 30.228 31.334 31.723 30.636 30.532 31.342 31.262 29.837 30.551 31.536 31.477 29.889 30.661 32.314 31.224 30.036 30.834 31.038 29.702 29.815 29.883 31 32.122 32.105 32.018 32.071 32.006 31.935 31.873 31.675 31.821 30.537 38.887 38.972 38.996 38.93 38.771 29.934 25.328 26.473 25.956 25.243 25.121 25.13 25.025 25.042 25.1 25.119 25.192 25.24 25.265 25.28 25.272 25.245 25.211 25.205 25.19 25.162 25.277 25.237 25.16 25.088 25.018 24.968 25.055 25.15 26.23 25.75 25.39 25.333 25.348 25.358 25.458 27.37 25.56 26.868 26.743 25.588 25.42 25.438 25.458 25.448 25.425 25.39 25.42 26.64 32.605 36.085 36.613 37.225 38.055 37.938 37.098 36.523 35.923 35.49 35.82 36.468 37.095 37.695 38.295 39.075 39.768 40.12 39.503 38.803 38.015 37.44 36.825 36.25 35.588 35.568 36.173 36.748 37.328 38.125 38.525 38.018 37.175 36.6 36.013 32.328 31.578 32.255 31.525 28.445 25.088 25.17 25.185 25.925 26.208 30.963 31.643 32.188 32.75 33.295 33.24 32.67 32.07 31.22 31.433 35.505 36.065 36.64 35.61 26.505 25.238 25.105 25.133 25.178 25.208 25.253 25.295 26.54 25.86 25.43 25.71 26.293 25.883 25.868 25.985 25.99 25.868 25.868 25.868 25.893 25.903 25.863 25.815 25.818 25.828 25.838 25.838 25.895 25.893 25.873 25.903 25.923 25.975 25.968 25.93 26.04 26.14 26.878 27.19 27.155 27.075 26.97 26.72 26.4 26.128 25.998 25.948
27.797 27.573 27.567 27.842 27.653 27.604 27.603 27.576 27.609 28.072 28.726 27.946 28.577 29.136 31.458 31.352 34.369 29.469 27.988 27.977 28.155 28.983 29.437 28.691 28.252 28.45 28.142 28.091 28.139 28.122 28.159 28.604 28.65 29.446 30.468 30.396 29.941 27.941 27.849 27.837 27.737 29.525 28.143 28.134 27.807 27.975 28.179 28.023 28.063 28.245 27.65 28.795 27.412 27.329 27.407 27.546 27.924 27.973 28.124 28.234 28.079 28.085 29.194 30.149 29.264 26.623 26.469 26.511 26.54 26.705 26.746 26.743 27.075 26.024 25.935 26.087 26.899 32.996 34.026 34.401 34.753 35.044 35.403 35.808 36.326 36.68 37.025 37.369 37.679 38.041 37.986 37.653 37.299 36.993 36.692 36.282 35.851 35.378 35.01 34.646 34.318 34.02 33.567 30.638 29.444 26.074 26.041 26.073 26.094 26.171 26.197 26.255 26.238 26.203 26.147 26.115 26.085 26.063 25.984 26.017 25.993 25.956 26.036 26.076 26.059 26.068 26.014 25.959 26.013 25.985 26.043 26.037 26.103 26.136 26.168 26.17 26.227 26.245 26.201 26.111 26.097 26.42 26.112 27.756 29.174 30.974 33.742 34.105 34.452 34.777 35.118 35.442 36.007 36.332 36.758 37.023 37.081 36.713 36.363 36.029 35.501 35.207 30.166 26.136 26.056 26.036 25.988 25.955 25.933 25.893 25.899 25.955 25.999 26.104 29.717 30.296 30.586 30.702 30.764 30.585 30.393 30.141 26.229 25.993 26.026 26.022 26.105 26.037 26.06 26.153 26.561 32.369 34.24 34.416 34.607 34.784 34.995 35.053 34.797 34.633 34.392 34.241 29.83 25.885 25.795 25.814 25.847 25.852 25.971 26.837 26.875 27.909 28.729 30.106 30.739 31.391 33.461 33.427 33.223 33.003 32.17 29.407 29.466 29.648 30.542 31.44 31.246 29.863 30.789 31.438 30.978 30.205 31.119 31.402 29.92 30.423 31.192 30.321 29.76 30.442 31.33 30.487 29.955 31.191 31.468 29.713 29.903 30.51 31.585 30.792 30.569 30.669 31.498 30.987 29.933 30.713 31.61 30.071 30.087 30.883 29.516 29.777 31.883 32.128 32.091 31.991 32.062 32.031 31.985 31.812 31.707 31.729 31.736 31.429 36.968 39.001 39.028 38.521 26.615 27.291 26.425 25.171 25.103 25.139 25.25 25.115 25.04 24.992 25.042 25.119 25.136 25.186 25.253 25.263 25.271 25.248 25.281 25.259 25.224 25.185 25.295 25.401 25.217 25.08 25.005 24.968 25.055 25.993 25.583 25.61 25.383 25.29 25.283 25.27 25.27 25.43 27.133 27.3 27.24 26.698 25.433 25.435 25.463 25.45 25.423 25.395 28.695 34.668 36.325 36.873 37.625 38.193 37.64 36.828 36.263 35.633 35.558 36.143 36.74 37.343 37.93 38.623 39.41 40.043 39.863 39.213 38.398 32.618 36.673 36.563 35.963 35.483 35.81 36.428 36.955 37.68 38.563 38.33 37.648 36.923 36.318 35.69 34.555 30.51 31.008 31.805 32.098 31.27 27.018 25.023 24.98 28.363 31.373 31.915 32.47 32.99 33.365 32.97 32.413 31.838 31.26 34.245 35.658 36.523 37.205 37.838 36.773 35.655 26.058 25.178 26.895 25.14 25.188 25.22 25.255 25.285 25.313 26.31 25.975 25.43 25.895 26 25.868 25.868 25.863 25.865 25.873 25.863 25.895 25.885 25.855 25.84 25.863 25.848 25.875 25.888 25.893 25.86 25.888 25.925 25.915 25.903 25.908 26.115 26.37 26.89 27.268 27.235 27.115 26.995 26.815 26.5 26.23 26.098 25.953
28.791 32.429 27.883 28.394 27.688 27.658 27.655 27.695 27.657 27.788 27.959 27.886 28.492 28.234 31.312 33.592 33.539 30.054 28.03 28.096 28.364 28.16 28.869 28.14 28.341 28.257 28.315 28.227 28.165 28.175 28.36 28.676 28.874 29.646 30.455 29.544 28.774 27.996 27.943 27.837 27.772 27.83 28.26 28.672 28.244 27.889 27.757 28.017 30.321 27.558 28.122 28.08 27.989 28.249 28.239 30.715 32.344 38.761 37.239 28.921 28.428 28.121 27.637 29.178 29.743 26.653 26.523 26.529 26.587 26.72 26.718 26.433 27.298 27.367 25.997 26.109 26.301 33.478 33.641 34.047 34.727 34.945 34.116 35.59 36.311 36.642 35.392 37.093 37.37 38.071 36.668 36.698 36.856 36.74 36.66 36.348 35.796 35.371 35.153 34.685 34.334 33.989 33.61 30.581 29.412 26.054 26.039 26.09 26.1 26.179 26.227 26.263 26.321 26.182 26.173 26.111 26.057 26.025 26.021 26.027 26.047 26.024 26.006 26.02 26.097 26.027 26.005 25.996 25.985 25.984 25.999 26.017 26.057 26.116 26.154 26.202 26.212 26.289 26.224 26.136 26.077 26.076 25.966 27.825 29.632 27.93 33.632 34.068 34.385 34.798 35.107 35.468 35.8 36.387 36.71 37.065 37.121 36.787 36.348 35.931 35.486 35.139 29.318 26.295 26.299 26.016 25.964 25.962 25.914 25.911 25.887 25.979 26.022 26.107 30.169 30.299 30.526 30.788 30.754 30.627 30.39 30.168 26.114 26.026 26.022 26.071 26.128 26.081 26.039 26.239 27.109 31.544 34.209 34.418 34.608 34.823 35.074 34.995 34.812 34.559 34.395 34.208 33.633 25.905 25.769 25.768 25.814 25.811 25.827 25.841 27.774 27.596 27.815 28.236 29.049 29.231 29.267 30.387 30.336 31.991 29.568 29.096 29.113 29.677 29.873 30.797 31.873 30.169 29.983 31.059 31.772 30.104 30.251 31.307 31.203 29.85 30.595 31.404 31.41 30.111 30.567 31.689 31.681 30.109 30.712 31.687 30.125 30.032 30.847 31.745 30.07 29.942 30.807 31.564 29.533 30.185 31.042 31.064 30.32 30.007 31.01 31.857 32.102 32.069 32.029 32.013 32.036 31.968 31.79 31.695 31.678 31.703 31.761 31.79 29.662 37.858 31.463 26.403 26.665 26.61 27.023 25.276 25.114 25.273 25.093 25.071 25.057 25.028 25.067 25.045 25.112 25.196 25.245 25.285 25.345 25.839 25.525 25.264 25.207 25.214 25.229 25.285 25.242 25.066 25.013 25.013 25.123 25.7 25.74 25.603 25.335 25.22 25.225 25.228 25.235 25.26 26.455 26.375 26.165 25.395 25.408 25.448 25.438 25.448 25.458 29.053 33.128 33.133 35.033 37.958 38.078 37.278 36.593 36.015 35.493 35.775 36.413 37.023 37.623 38.21 39.02 39.71 40.113 39.598 38.903 38.06 37.475 36.858 36.28 35.638 35.53 36.11 36.68 37.198 34.965 38.485 38.015 37.265 36.68 36.053 35.493 32.125 30.028 30.308 30.593 31.273 32.08 31.845 31.018 24.99 28.3 31.585 32.16 32.738 33.278 33.243 32.698 32.115 31.588 31.083 35.43 36.015 36.833 37.568 38.363 39.033 38.06 36.858 34.513 27.295 26.19 26.283 26.913 25.26 25.203 25.25 25.288 25.34 25.343 25.36 25.625 25.598 25.72 25.933 25.91 25.875 25.875 25.873 26.835 26.665 25.878 25.88 25.885 25.883 25.883 25.883 25.903 25.908 25.918 25.893 25.923 25.935 25.938 26.24 26.25 26.883 27.33 27.298 27.168 27.05 26.878 26.588 26.295 26.105 25.978
32.934 27.859 27.771 27.72 27.718 27.907 27.831 27.906 27.923 28.045 28.099 28.084 28.131 28.095 28.131 28.402 29.168 28.121 28.125 28.172 28.189 28.481 28.569 28.6 28.85 28.929 28.776 28.974 28.291 28.242 28.485 28.891 28.64 28.728 28.598 28.547 28.143 28.041 27.953 27.932 27.836 27.89 28.396 28.539 28.082 28.043 28.437 32.269 32.963 32.515 31.47 28.996 29.306 29.584 32.608 32.67 37.623 39.576 33.729 28.729 28.178 28.072 27.914 28.287 28.393 26.628 26.562 26.579 26.611 26.698 26.727 27.333 26.382 27.121 25.99 26.094 26.362 28.944 28.338 27.16 29.609 28.61 27.48 27.67 27.313 32.225 33.968 34.324 34.636 34.921 35.298 35.671 36.227 36.501 36.61 36.31 35.871 35.368 35.074 34.701 34.32 33.967 33.662 30.669 29.539 26.099 26.059 26.112 26.09 26.25 30.98 27.54 26.797 26.158 26.123 26.071 26.028 25.962 25.966 25.97 25.993 26.008 25.969 26.128 26.111 26.032 25.985 25.987 25.974 25.942 25.916 25.951 26.014 26.074 26.115 26.168 26.276 27.213 26.78 26.116 26.058 26.076 26.025 26.559 29.31 32.109 33.756 34.053 34.431 34.714 35.07 35.461 35.917 36.369 36.669 37.081 37.147 36.728 36.416 35.95 35.51 35.098 33.573 26.215 26.178 26.004 26.006 25.987 25.948 25.889 25.937 25.945 26.019 26.295 30.126 30.297 30.736 30.707 30.783 30.601 30.355 28.247 26.064 25.996 26.041 26.029 26.102 26.091 26.048 26.189 26.379 33.048 34.255 34.395 34.607 34.838 35.029 35.021 34.792 34.612 34.448 34.181 32.279 25.895 25.74 25.763 25.756 25.767 25.773 25.872 28.745 28.872 26.298 27.362 27.974 29.141 29.227 29.212 29.253 29.252 28.091 26.723 26.35 27.051 29.532 30.042 31.025 31.78 29.741 30.208 31.229 31.031 30.139 30.562 31.492 30.539 29.987 30.624 31.73 30.771 29.937 30.854 31.591 30.215 30.02 30.831 31.461 31.236 30.877 30.949 31.609 29.655 29.993 31.217 31.869 30.729 30.401 30.333 31.521 32.155 32.079 32.042 32.038 32.021 31.969 32.022 31.832 31.671 31.753 31.699 31.741 31.734 31.717 31.748 31.056 27.763 25.145 27.292 26.779 26.446 25.236 25.13 25.245 25.166 25.135 25.062 25.115 25.059 25.006 25.029 25.121 25.136 25.212 25.272 25.298 25.359 25.506 25.293 25.257 25.226 25.201 25.205 25.208 25.079 25.019 25.128 25.355 25.66 25.663 25.363 25.253 25.185 25.183 25.893 25.173 25.188 25.268 25.243 25.3 25.368 25.425 25.425 25.428 25.443 25.483 25.813 31.478 31.993 33.853 36.803 36.925 36.343 35.73 35.55 36.068 36.71 37.28 37.845 38.558 39.348 39.978 39.925 39.3 38.53 36.995 37.198 36.595 36.018 35.45 35.763 36.39 36.943 34.57 38.323 38.363 37.735 36.913 36.388 35.743 33.613 30.665 29.705 29.805 30.11 30.41 30.755 31.525 32.258 31.595 30.73 28.165 30.193 32.953 33.44 33.053 32.458 31.86 31.33 32.065 35.638 36.493 33.41 37.905 34.665 39.595 40.318 37.73 28.023 24.808 25.07 25.41 25.25 25.13 26.218 26.343 25.288 25.258 25.288 25.338 25.37 25.395 26.315 26.413 25.46 25.635 25.993 25.98 25.878 25.883 27.085 26.94 25.9 25.905 25.888 25.865 25.893 25.908 25.933 25.943 25.885 25.875 25.92 25.888 26.35 26.453 26.905 27.398 27.365 27.203 27.073 26.923 26.678 26.398 26.17 26.048
29.227 27.993 27.795 27.94 28.737 28.419 28.496 28.054 27.998 28.025 28.024 28.072 28.077 28.232 28.225 28.829 28.213 28.505 28.548 28.251 28.219 28.397 28.722 28.553 29.831 29.097 28.853 28.794 28.742 28.385 28.36 28.702 28.71 28.554 28.857 29.019 28.339 29.158 28.186 28.308 27.876 28.013 28.213 28.258 28.56 30.623 32.989 35.452 36.557 33.306 35.377 33.084 32.162 30.552 33.625 35.495 38.455 37.372 30.573 28.473 27.994 28.482 27.379 29.302 30.873 26.901 26.525 26.55 26.599 26.711 26.752 26.753 26.657 26.146 26.041 26.069 26.1 26.339 26.151 26.132 26.127 26.158 26.184 26.134 26.517 33.351 33.923 34.279 34.626 35.007 35.407 35.861 36.233 36.496 36.699 36.346 35.827 35.474 35.084 34.761 34.305 33.945 33.578 30.39 29.324 26.37 26.021 26.089 26.074 28.331 31.066 33.074 28.667 26.164 26.12 26.011 25.969 25.917 25.942 25.962 25.968 26 26.033 26.07 26.148 26.064 25.974 25.957 25.927 25.929 25.914 25.956 25.969 26.051 26.074 26.144 26.856 29.997 26.37 26.113 26.083 26.015 26.006 28.363 29.353 31.83 33.693 34.013 34.406 34.741 35.12 35.449 35.951 36.342 36.713 37.063 37.153 36.738 36.383 36.075 35.492 34.978 31.711 26.415 27.38 26.639 27.694 25.971 25.912 25.909 25.959 25.978 25.992 26.339 30.094 30.326 30.651 30.775 30.72 30.566 30.37 30.117 26.141 26.042 26.03 26.01 26.054 26.086 26.097 26.171 26.764 33.184 34.223 34.461 34.649 34.831 35.06 34.975 34.805 34.552 34.418 34.21 32.41 25.925 25.79 25.732 25.721 25.745 25.752 27.956 28.953 25.942 25.907 26.126 26.624 26.163 26.953 29.199 29.503 29.225 26.92 25.904 31.564 33.007 27.713 29.59 30.087 29.924 29.427 29.622 30.589 31.606 31.378 30.422 30.681 31.742 30.994 30.078 30.88 31.583 30.081 30.191 30.934 31.315 30.318 30.334 31.442 31.683 29.991 30.35 31.449 31.919 31.138 30.974 31.119 30.645 29.912 31.976 32.117 32.128 32.019 31.997 31.995 31.984 31.981 31.745 31.709 31.768 31.745 31.726 31.737 31.741 31.736 31.777 31.814 29.235 25.348 25.281 25.61 25.07 25.16 25.174 25.516 25.08 25.088 25.102 25.103 25.039 25.018 25.023 25.09 25.144 25.219 25.277 25.304 25.322 25.453 25.388 25.284 25.252 25.223 25.23 25.162 25.096 25.038 25.185 26.178 25.93 27.348 25.345 25.218 25.173 26.21 25.878 25.8 25.178 25.198 25.273 25.34 25.375 25.415 25.405 25.43 25.463 25.483 25.513 26.878 32.845 33.465 34.525 36.028 35.543 35.718 36.383 36.96 37.528 38.138 38.955 39.64 40.098 39.64 38.97 33.915 37.548 36.948 36.328 35.713 35.52 36.105 36.765 37.153 37.973 38.553 38.105 37.27 28.893 36.075 35.473 31.81 31.098 31.455 30.48 29.68 29.905 30.218 30.503 30.96 31.803 32.163 31.325 29.643 28.448 32.868 32.803 32.22 31.643 31.353 34.98 35.98 36.723 37.493 37.15 39.1 39.963 39.51 34.3 25.455 25.003 24.92 24.843 25.028 25.328 25.098 25.18 25.073 25.828 25.98 25.323 25.293 25.333 25.38 25.415 25.415 25.413 25.985 25.9 25.628 25.93 25.99 25.885 25.878 25.895 25.895 25.865 25.863 25.91 25.91 25.943 25.983 25.995 25.96 25.935 25.915 26.15 26.233 26.903 27.425 27.378 27.258 27.088 26.925 26.718 26.428 26.415 26.973
28.383 29.182 28.813 28.992 28.613 28.319 28.02 28.001 28.05 28.077 28.091 28.307 28.168 29.378 28.561 30.411 29.296 28.437 28.692 28.347 28.33 28.407 28.65 28.433 28.854 28.722 29.611 28.766 28.693 28.435 28.453 28.437 28.631 28.615 28.502 28.923 28.634 28.127 28.073 27.97 27.844 27.875 28.17 28.424 28.643 29.734 34.641 36.278 33.143 34.311 36.77 37.234 36.593 31.062 34.656 36.445 36.312 34.881 34.355 28.388 27.803 28.126 27.324 30.401 30.545 26.603 26.515 26.523 26.691 26.737 26.787 26.871 26.315 26.115 26.031 26.065 26.08 26.107 26.101 26.049 26.09 26.145 26.148 26.274 26.337 33.1 33.931 34.332 34.657 34.979 35.331 35.806 36.141 36.555 36.642 36.342 35.83 35.419 35.088 34.674 34.37 34.03 33.656 30.388 29.371 26.047 26.043 26.069 26.099 26.919 28.942 30.44 26.969 26.179 26.089 25.994 25.967 25.908 25.922 25.985 25.978 26.019 26.056 26.035 26.168 26.032 25.98 25.939 25.933 25.905 25.914 25.936 25.999 26.061 26.083 26.171 26.271 28.54 26.363 26.139 26.087 26.062 26.013 26.673 28.844 30.877 33.736 34.054 34.368 34.767 35.119 35.446 35.931 36.298 36.639 36.955 37.044 36.74 36.44 36.058 35.545 35.135 30.316 27.465 28.66 28.564 28.409 25.98 25.893 25.862 25.875 25.978 26.036 26.114 29.682 30.38 30.706 30.743 30.759 30.522 30.391 29.441 26.071 26.028 26.027 26.087 26.085 26.081 26.055 26.154 26.379 33.892 34.256 34.441 34.675 34.884 35.088 35.046 34.782 34.627 34.412 34.032 28.344 25.797 25.762 25.722 25.691 25.641 25.616 25.675 25.768 25.873 25.833 25.788 25.811 27.518 28.11 27.623 27.3 27.616 26.732 32.124 33.805 33.672 30.048 27.185 28.931 29.511 30.024 29.597 29.68 30.797 31.543 30.872 30.137 30.781 31.962 30.08 30.204 31.06 31.673 30.479 30.356 31.218 31.951 30.451 30.158 31.229 31.807 29.698 30.29 31.705 31.315 29.86 30.195 31.199 32.184 32.106 32.058 32.085 32.011 31.987 31.97 31.914 31.753 31.694 31.671 31.697 31.732 31.733 31.77 31.745 31.771 31.763 31.84 31.808 25.884 25.085 25.11 25.278 25.252 25.194 25.156 25.135 25.061 25.088 25.049 25.04 25.11 25.089 25.077 25.15 25.266 25.315 25.337 25.364 25.513 25.577 25.322 25.358 25.298 25.214 25.157 25.106 25.065 25.22 26.403 26.948 26.155 25.505 25.203 25.155 25.678 25.5 25.66 25.253 25.285 25.31 25.338 25.398 25.418 25.425 25.43 25.465 25.493 25.51 25.543 29.405 33.058 32.305 34.885 35.985 36.735 37.348 37.853 38.445 39.278 39.95 40.1 39.365 38.6 37.853 34.498 36.248 36.085 35.513 35.725 31.635 33.36 34.74 38.273 38.478 37.753 36.958 36.408 35.798 39.168 41.665 31.375 32.35 32.613 31.085 30.175 29.715 30.018 30.31 30.593 31.22 32.023 31.548 28.933 29.568 30.35 31.948 31.418 32.815 35.56 36.33 37.05 37.755 38.59 39.48 40.233 38.428 27.963 27.865 25.108 25.005 25.015 24.828 25.175 25.325 25.205 25.188 25.185 25.01 25.043 27.035 25.963 25.413 25.34 25.38 25.41 25.438 25.45 26.258 25.74 25.828 25.613 25.853 26.018 25.96 25.895 25.905 25.9 25.905 25.91 25.9 25.92 25.973 25.943 25.95 25.933 26.133 26.203 26.94 27.418 27.345 27.24 27.08 26.905 26.68 26.4 26.17 26.028
28.298 29.841 28.435 28.053 29.392 28.864 28.093 28.047 28.065 28.064 28.228 28.337 30.439 32.2 32.229 32.905 29.724 28.584 28.609 28.464 28.404 28.442 28.449 28.519 28.491 28.965 29.746 28.741 28.593 28.663 28.573 29.679 29.186 28.569 28.41 28.363 28.287 28.193 28.124 27.982 27.866 27.733 28.017 28.303 28.617 29.073 34.571 36.158 36.98 36.528 37.118 34.911 33.53 35.907 35.304 33.066 35.335 34.172 31.342 31.515 29.448 27.309 26.972 29.589 27.032 26.533 26.515 26.485 26.651 26.735 26.722 27.519 26.214 26.081 26.092 26.058 26.043 26.051 26.022 26.026 27.073 26.701 26.569 26.414 26.314 33.486 33.913 34.29 34.653 35.026 35.346 35.747 36.274 36.57 36.614 36.311 35.862 35.409 35.014 34.76 34.365 33.973 33.703 29.242 29.368 26.038 26.033 26.067 26.126 26.164 27.075 27.43 27.703 26.203 26.122 26.058 26.002 25.954 25.969 25.972 25.977 26.035 26.06 26.121 26.172 26.016 26.004 25.956 25.947 25.922 25.906 25.894 26.03 26.048 26.108 26.169 26.207 26.453 26.251 26.142 26.084 26.072 26.007 26.052 29.228 32.087 33.742 34.019 34.398 34.785 35.067 35.448 35.942 36.359 36.644 37.028 37.099 36.76 36.379 36.015 35.491 35.104 30.18 26.164 26.094 26.027 25.975 25.923 25.901 25.879 25.92 25.962 26.004 26.039 29.438 30.363 30.558 30.803 30.71 30.54 30.324 28.137 26.109 25.989 26.042 26.06 26.153 26.101 26.133 26.194 26.341 32.953 34.301 34.467 34.67 34.888 35.105 35.055 34.759 34.582 34.401 34.221 29.516 30.095 26.002 25.707 25.632 25.63 25.633 25.635 25.669 25.68 25.724 25.743 25.731 25.75 27.419 27.977 27.864 28.364 26.834 31.335 33.831 33.531 25.903 25.369 25.1 26.495 29.59 30.383 29.634 29.911 30.856 31.526 29.743 30.153 30.93 31.723 29.843 30.379 31.228 31.271 29.927 30.475 31.462 30.329 29.95 30.535 31.176 29.657 30.176 30.661 30.824 29.831 31.937 32.149 32.134 32.077 32.04 32.039 31.998 31.951 31.798 31.695 31.736 31.751 31.767 31.781 31.756 31.779 31.787 31.783 31.783 31.839 27.835 26.182 25.051 25.213 25.361 25.293 25.132 25.153 25.131 25.076 25.069 25.076 25.186 25.186 25.187 25.066 25.076 25.288 25.159 25.232 25.303 25.341 25.404 25.488 25.391 25.367 26.181 25.237 25.172 25.132 25.128 25.288 26.097 25.928 25.88 25.285 25.123 25.14 25.13 25.195 25.263 25.313 25.328 25.308 25.343 25.41 25.425 25.428 26.375 25.468 25.485 25.495 25.495 25.595 31.27 33.275 33.875 36.295 37.585 38.195 38.883 39.568 40.158 39.708 39.038 38.208 37.165 37.01 36.393 35.81 35.51 35.605 29.663 27.565 36.538 38.548 38.173 37.36 36.74 35.568 35.433 35.503 40.243 42.19 37.72 31.28 31.633 30.963 38.398 29.658 29.815 30.113 30.4 30.468 29.06 29.39 30.053 30.49 30.015 30.53 35.14 35.888 36.653 37.355 38.078 39.03 39.853 40.273 39.51 38.678 25.475 27.408 25.083 24.958 24.98 24.965 24.905 25.253 25.085 25.06 25.298 25.29 25.565 25.103 25.093 27.565 26.193 25.47 25.4 25.413 25.445 25.475 25.49 25.75 25.75 26.465 25.653 25.998 25.95 25.915 25.885 25.898 25.895 25.893 25.845 25.918 25.89 25.92 25.923 26.18 26.34 26.943 27.375 27.328 27.153 26.978 26.803 26.593 26.273 26.098 25.963
28.983 28.361 28.824 28.116 28.127 28.151 28.146 28.099 28.477 30.37 32.441 32.241 32.723 33.088 33.45 33.575 32.374 28.637 28.762 28.477 28.483 28.527 28.545 28.67 28.698 28.846 28.819 29.47 29.205 29.053 28.652 28.591 28.54 28.515 28.428 28.397 28.363 28.281 28.129 27.98 27.867 27.741 27.868 28.26 28.521 28.865 30.567 34.652 35.463 36.078 35.757 33.586 35.118 36.472 35.115 33.701 34.181 34.513 29.701 28.866 27.965 28.448 29.983 27.735 26.659 26.559 26.542 26.562 26.623 26.702 26.694 26.698 26.231 26.126 26.08 26.033 26.035 26.038 26.005 25.978 26.067 26.623 26.167 26.558 26.338 32.212 33.956 34.19 34.631 35.034 35.365 35.68 36.247 36.53 36.688 36.269 35.781 35.447 35.045 34.712 34.341 33.998 33.691 29.984 29.308 26.643 26.038 26.101 26.097 26.156 26.241 26.302 26.222 26.161 26.124 26.066 26.028 25.99 26.021 26.001 26.018 26.051 26.039 26.109 26.115 26.046 26 25.962 25.935 25.975 25.903 25.982 25.997 26.064 26.102 26.166 26.219 26.309 26.216 26.144 26.093 26.063 26.017 30.588 29.018 32.151 33.663 34.051 34.374 34.8 35.095 35.449 35.917 36.306 36.644 37.085 37.044 36.707 36.384 36.011 35.439 35.127 29.458 26.12 26.071 26.045 25.955 25.939 25.909 25.919 25.929 25.962 26.031 26.106 30.176 30.526 30.698 30.788 30.731 30.661 30.318 29.458 26.581 26.04 26.035 26.061 26.009 26.063 26.121 26.188 26.811 33.938 34.265 34.501 34.701 34.868 35.135 34.963 34.787 34.605 34.38 34.176 33.939 33.74 28.637 25.892 25.767 25.644 25.645 25.607 25.657 25.602 25.721 25.693 25.718 25.72 25.717 25.785 26.183 27.763 27.491 27.216 28.026 25.42 25.692 25.171 25.118 25.035 25.224 29.052 29.392 29.476 30.168 30.911 31.695 31.088 30.975 31.26 31.201 29.793 30.432 31.447 31.654 29.818 30.607 31.456 31.055 30.009 30.646 31.866 30.935 29.903 31.147 31.931 32.093 32.076 32.039 32.007 31.989 31.954 31.974 31.715 31.668 31.673 31.747 31.75 31.762 31.789 31.827 31.82 31.812 31.824 31.886 32.133 25.137 25.062 25.341 25.354 25.276 25.186 25.176 25.193 25.093 25.085 25.123 25.186 25.192 25.069 25.098 25.043 25.046 25.283 25.152 25.202 25.294 25.367 25.419 25.498 25.758 25.356 25.457 25.273 25.209 25.156 25.151 25.312 27.195 25.654 25.3 25.155 25.135 25.108 25.165 25.24 25.308 25.3 25.308 25.348 25.393 25.435 25.435 26.408 26.258 25.563 25.475 25.485 25.47 25.485 26.268 32.79 33.513 34.375 38.423 39.195 39.878 40.378 39.435 38.608 37.903 34.553 36.018 36.143 35.588 35.68 34.46 31.365 25.993 38.233 38.5 37.833 37.15 35.348 35.798 35.333 35.733 36.405 37.145 41.57 42.075 32.748 32.428 38.715 39.453 39.32 29.65 29.848 28.795 29.22 29.865 30.495 30.178 29.498 33.275 35.5 36.24 36.953 37.655 38.443 39.408 40.218 39.995 39.145 38.2 37.56 27.813 24.915 24.945 25.048 25.133 25.078 24.955 25.003 25.013 25.035 25.23 25.45 25.46 25.02 25.075 25.278 25.755 25.718 26.93 25.548 25.453 25.44 25.49 25.52 25.54 25.628 25.588 26.278 25.65 26.005 26.178 26.023 25.905 25.905 25.855 25.918 25.89 25.918 25.928 25.988 26.213 26.9 27.33 27.248 27.043 26.883 26.688 26.413 26.608 26.073 25.94
28.162 28.136 28.277 28.104 28.162 28.149 28.174 28.146 28.215 32.643 32.965 33.31 33.504 33.517 33.362 33.14 32.195 29.391 28.62 28.521 28.54 28.586 28.634 28.772 29.042 29.29 29.082 28.868 28.794 28.71 28.667 28.639 28.632 28.584 28.545 28.489 28.392 28.29 28.184 28.038 27.928 27.779 27.785 28.013 28.334 28.63 28.884 31.095 32.29 34.221 34.644 33.09 33.709 34.72 34.831 32.621 32.475 29.396 31.92 27.964 27.833 28.624 28.455 26.748 26.682 26.502 26.512 26.511 26.649 26.692 26.69 26.903 26.21 26.175 26.123 26.062 26.057 26.016 25.966 25.917 27.349 28.567 28.636 26.829 26.283 33.522 33.97 34.27 34.637 34.998 35.354 35.804 36.271 36.646 36.627 36.322 35.816 35.389 35.022 34.662 34.385 33.936 33.663 30.7 33.063 27.885 26.175 26.123 26.103 26.146 26.229 26.262 26.239 26.178 26.154 26.107 26.048 26.045 26.046 26.058 25.988 26.036 26.048 26.064 26.074 26.075 26.04 25.996 25.994 25.989 25.948 25.995 26.092 26.113 26.199 26.176 26.231 26.288 26.222 26.141 26.134 26.1 26.053 30.545 28.889 30.29 33.65 33.956 34.399 34.731 35.14 35.447 35.993 36.335 36.702 37.05 37.124 36.775 36.373 35.867 35.529 35.174 28.929 26.128 26.03 25.997 25.985 25.957 25.922 25.868 25.916 25.963 26.037 26.093 30.143 30.39 30.619 30.808 30.721 30.501 30.291 29.884 26.135 26.053 26.055 26.072 26.092 26.087 26.092 26.208 26.382 33.974 34.312 34.474 34.637 34.912 35.079 34.927 34.76 34.537 34.364 34.158 33.967 33.746 29.293 25.62 25.585 25.836 26.979 25.62 25.587 25.65 25.613 25.635 25.684 25.707 25.703 25.695 25.717 25.873 27.14 27.2 26.916 25.589 25.205 25.085 25.059 24.985 24.973 24.931 25.845 29.415 29.527 30.279 31.282 31.677 29.958 30.524 31.367 30.88 30.038 30.719 31.583 31.322 29.975 30.803 31.837 31.478 30.728 30.641 30.276 31.483 32.139 32.067 32.093 32.03 31.997 31.999 31.991 31.95 31.74 31.698 31.674 31.75 31.716 31.74 31.778 31.872 31.836 31.824 31.814 32.096 30.796 25.818 25.218 25.392 25.35 25.234 25.25 25.139 25.156 25.118 25.069 25.532 25.207 25.057 25.065 25.054 25.023 25.008 25.09 25.056 25.104 25.214 25.251 25.322 25.355 25.409 25.566 25.404 25.32 25.293 25.236 25.202 25.195 25.349 26.38 25.906 25.345 25.168 25.113 25.13 25.175 25.228 25.265 25.28 25.353 25.39 25.403 25.448 25.45 26.033 25.668 25.465 25.968 25.758 25.453 25.448 25.47 27.908 32.553 33.783 35.543 40.168 39.84 39.115 38.283 37.688 28.763 36.508 35.848 35.5 35.948 29.885 32.57 34.975 38.478 38.748 37.465 36.793 36.183 35.573 35.425 36.008 36.753 37.418 37.035 39.62 43.48 42.13 39.018 39.765 40.475 42.33 36.015 29.118 29.685 30.353 30.353 29.673 29.09 35.228 35.815 36.585 37.298 38.013 38.905 39.765 40.29 39.618 38.703 37.85 37.13 36.44 34.605 24.935 24.963 24.93 25.11 25.045 24.983 24.935 24.98 25.19 25.083 25.148 25.253 25.27 26.745 25.06 25.423 25.16 25.18 25.548 26.788 25.92 25.51 25.49 25.525 25.553 25.57 25.648 25.888 26.295 25.733 25.99 26.075 26.038 25.858 25.88 25.855 25.923 25.93 25.985 26.19 26.76 27.08 27.018 26.903 26.745 26.518 26.26 26.123 25.968 25.945
28.811 28.234 28.853 28.105 28.148 28.141 28.166 28.191 28.55 33.011 33.496 33.288 33.167 32.856 32.732 32.421 30.095 29.981 28.914 28.546 28.59 29.878 30.237 28.831 28.909 28.851 28.786 28.813 28.828 28.791 28.789 28.719 28.691 28.761 28.645 28.641 28.529 28.407 28.246 28.074 27.928 27.851 27.717 27.678 27.973 27.981 28.28 28.932 30.4 31.522 31.274 29.961 29.395 31.554 29.436 31.371 33.36 32.234 29.068 27.8 28.861 30.338 27.93 26.792 26.7 26.53 26.527 26.524 26.568 26.657 26.645 26.779 26.232 26.189 26.163 26.037 26.047 25.993 25.962 25.923 25.953 25.966 26.298 26.106 26.294 33.494 33.943 34.214 34.593 34.965 35.275 35.666 36.248 36.56 36.6 36.342 35.945 35.379 35.022 34.664 34.339 33.98 33.63 29.833 29.408 27.241 26.108 26.116 26.079 26.159 26.245 26.221 26.248 26.141 26.097 26.136 26.066 26.025 26.032 26.023 26.076 26.026 26.066 26.074 26.054 26.068 26.04 25.988 25.968 25.938 25.997 25.975 26.042 26.103 26.141 26.22 26.232 26.248 26.181 26.102 26.096 26.147 26.402 30.608 28.822 31.121 33.649 34.051 34.427 34.758 35.061 35.427 35.921 36.349 36.735 37.038 37.05 36.693 36.376 35.88 35.493 34.966 27.338 26.143 26.046 25.996 25.999 25.951 25.91 25.912 25.918 25.997 26.038 26.108 29.987 30.528 30.745 30.828 30.786 30.633 30.314 29.454 26.084 25.995 26.007 26.029 26.125 26.066 26.1 26.261 26.431 33.957 34.302 34.481 34.69 34.898 35.044 34.956 34.782 34.566 34.347 34.18 33.984 33.722 31.284 25.672 25.55 25.539 26.634 25.643 25.627 25.558 25.585 25.604 25.632 25.69 25.701 25.694 26.434 26.156 25.89 27.453 27.561 27.478 26.728 25.123 25.623 25.248 24.965 24.901 24.904 25.127 29.448 29.582 30.483 31.312 31.538 29.877 30.687 31.518 30.818 30.153 30.995 31.909 30.759 30.249 31.375 31.462 30.225 29.881 31.444 32.132 32.082 32.052 32.022 31.955 32.026 31.984 31.736 31.708 31.709 31.729 31.752 31.731 31.786 31.775 31.759 31.792 31.871 31.819 32.064 27.556 25.157 25.278 25.402 25.287 25.246 25.211 25.186 25.141 25.15 25.092 25.084 25.071 25.134 24.992 25.012 24.982 25.013 24.974 25.303 25.484 25.095 25.176 25.228 25.315 25.328 25.388 25.548 25.497 25.359 25.317 25.292 25.234 25.194 25.367 27.445 27.888 25.768 25.145 25.103 25.135 25.193 25.228 25.273 25.338 25.395 25.563 25.378 25.438 25.44 25.435 25.445 25.478 25.453 26.443 25.448 25.453 25.41 25.48 30.588 32.62 34.045 37.918 38.743 38.02 37.145 36.88 31.823 35.623 35.598 36.268 36.863 37.41 37.343 38.5 37.948 37.103 36.565 35.883 35.375 35.66 36.393 37.085 37.678 36.703 35.953 36.035 41.118 42.158 41.1 41.055 42.678 43.415 43.408 31.41 30.485 29.873 29.205 29.888 35.465 36.188 36.905 37.628 38.403 39.328 40.11 40.34 39.233 38.248 37.52 36.823 36.095 35.415 35.713 24.973 24.973 24.938 27.273 28.54 28.068 24.99 25.005 25.038 25.05 25.055 25.043 25.11 26.163 25.27 25.375 25.213 25.653 25.45 25.278 27.44 27.87 25.683 25.583 25.538 25.558 25.58 25.595 25.698 25.97 25.68 25.89 25.83 25.803 25.883 25.913 25.963 25.933 26.288 26.155 26.573 26.723 26.693 26.628 26.51 26.323 26.32 26.068 25.953 25.933
28.359 29.096 30.401 28.091 28.142 28.166 28.175 28.261 29.908 32.488 32.748 32.565 32.287 31.202 29.367 29.328 28.839 28.789 29.097 29.245 28.732 28.767 28.752 28.823 28.886 28.867 28.914 28.868 28.883 28.863 28.796 28.871 31.858 29.305 28.798 28.772 28.707 28.548 28.528 29.769 32.722 27.952 27.729 27.626 27.531 27.637 27.707 27.653 27.868 28.129 28.54 27.983 27.989 28.214 28.085 28.386 28.627 28.823 28.076 28.021 29.292 28.312 26.798 26.759 26.664 26.523 26.491 26.529 26.484 26.577 26.514 26.387 26.259 26.209 26.173 26.122 26.029 25.99 25.975 25.944 25.956 26.013 26.045 26.098 27.066 33.593 33.944 34.167 34.659 34.962 35.376 35.658 36.282 36.585 36.59 36.275 35.8 35.418 35.032 34.67 34.339 33.933 33.564 29.364 29.521 27.836 26.167 26.194 26.11 26.116 26.306 26.794 26.229 26.173 26.11 26.06 26.078 26.027 25.972 26.01 26.069 26.045 26.058 26.077 26.11 26.062 26.028 26.041 26.014 25.914 25.937 26.026 26.056 26.081 26.185 26.176 26.318 26.289 26.199 26.141 26.104 26.102 26.28 26.193 30.069 31.393 33.745 34.034 34.372 34.795 35.057 35.449 35.869 36.354 36.704 37.033 37.061 36.764 36.353 35.957 35.485 34.993 28.855 26.17 26.059 26.016 25.972 25.93 25.89 25.85 25.888 25.956 25.983 26.105 30.136 30.409 30.572 30.779 30.75 30.487 30.375 28.499 26.065 26.068 26.079 26.055 26.079 26.079 26.113 26.231 26.375 33.951 34.306 34.479 34.691 34.914 35.1 34.933 34.674 34.497 34.375 34.128 32.414 29.641 26.435 25.617 25.598 25.602 25.605 25.642 28.489 25.679 25.558 25.614 25.643 25.61 25.592 25.62 26.286 25.809 25.744 26.661 26.681 27.304 27.63 26.923 25.907 25.723 25.504 24.914 24.856 24.822 24.813 26.363 29.6 30.453 29.666 29.434 30.101 31.024 31.557 30.306 30.193 30.991 31.865 30.137 30.374 30.369 31.179 32.128 32.099 32.039 32.103 32.006 31.978 31.974 31.928 31.7 31.712 31.717 31.737 31.761 31.764 31.762 31.735 31.763 31.851 31.851 31.848 30.486 25.187 25.198 25.439 25.393 25.306 25.294 25.19 25.191 25.148 25.14 25.118 25.102 25.108 25.044 24.964 25.019 24.986 24.982 24.999 25.022 25.113 25.129 25.11 25.195 25.244 25.282 25.357 25.393 25.451 25.547 25.388 25.349 25.307 25.277 25.22 25.368 26.794 26.981 25.23 25.126 25.125 25.158 25.223 25.278 25.328 25.398 26.09 26.473 25.52 25.44 25.445 25.44 25.453 25.445 25.425 25.435 25.443 25.445 25.433 25.473 26.428 32.418 31.533 34.355 35.923 31.73 36.6 35.925 35.54 35.87 36.458 37.03 37.748 38.435 38.308 37.615 36.883 34.465 33.955 35.363 35.988 36.705 37.403 37.108 36.33 35.688 36.988 38.995 39.69 41.453 42.32 42.993 43.535 43.068 42.298 39.8 29.475 28.793 33.173 35.743 36.508 37.225 37.938 38.853 39.683 40.283 39.688 38.785 37.905 37.19 36.483 35.713 35.423 36.025 36.833 34.558 24.94 25.073 25.873 25.048 24.973 25.885 25.183 25.013 25.078 25.218 25.193 25.053 25.12 25.433 25.348 25.243 25.323 25.4 26.913 25.143 25.135 25.095 25.285 25.738 25.663 25.583 25.603 25.618 25.65 25.663 25.665 25.66 25.66 25.748 25.995 25.965 26.235 26.458 27.975 26.255 26.253 26.368 26.35 26.315 26.163 26.09 25.978 25.943 25.923
30.414 30.681 30.106 28.139 28.107 28.149 28.192 28.247 29.211 30.763 30.126 30.473 28.713 28.327 28.368 28.395 28.456 28.55 28.654 28.67 28.723 28.777 28.853 28.891 28.929 28.993 29.014 28.998 28.98 28.924 28.962 28.764 30.954 29.997 29.593 28.733 28.735 31.756 34.003 34.798 34.695 28.242 27.845 27.653 27.545 27.508 27.403 27.379 27.27 27.197 27.208 27.285 27.798 27.318 27.433 27.867 27.407 27.89 27.576 30.417 31.225 27.808 26.859 26.776 26.623 26.482 26.52 26.561 26.455 26.468 26.456 26.361 26.25 26.198 26.139 26.125 26.048 26.01 25.969 25.921 25.968 25.996 26.03 26.101 26.259 33.365 33.937 34.259 34.609 34.964 35.283 35.7 36.236 36.561 36.624 36.366 35.796 35.396 35.053 34.648 34.354 33.973 33.697 29.111 29.837 27.087 26.164 26.099 26.115 26.278 27.691 27.253 27.011 26.124 26.101 26.024 26.001 25.954 25.953 25.977 26.019 26.026 26.031 26.109 26.196 26.085 26.049 26.008 26.028 25.928 25.892 25.984 25.966 26.067 26.156 26.179 26.288 26.533 26.336 26.149 26.08 26.041 26.024 27.587 29.319 31.355 33.774 34.1 34.412 34.772 35.099 35.473 35.998 36.296 36.725 37.079 37.147 36.732 36.383 36.066 35.533 35.208 28.684 26.115 26.052 26.04 25.969 25.939 25.904 25.887 25.898 25.951 26.013 26.01 29.463 30.471 30.887 31.199 30.806 30.639 30.291 29.127 26.053 25.994 26.011 26.046 26.109 26.107 26.122 26.277 26.435 33.977 34.32 34.437 34.661 34.9 35.075 34.947 34.715 34.522 34.317 34.145 27.86 25.743 25.684 25.639 25.593 25.622 25.636 25.72 28 25.561 25.541 25.571 25.6 25.634 25.597 25.59 25.944 26.436 25.829 26.197 26.197 28.233 29.818 27.149 26.833 26.363 25.834 25.407 25.901 24.814 24.772 24.791 25.861 29.428 29.757 30.322 29.54 30.252 31.108 32.36 29.869 30.325 31.282 31.003 29.971 31.917 32.109 32.056 31.998 31.984 31.987 31.98 31.96 31.826 31.71 31.725 31.691 31.709 31.806 31.828 31.788 31.758 31.825 31.83 31.879 31.847 28.347 25.281 25.315 25.421 25.367 25.313 25.251 25.207 25.201 25.174 25.14 25.133 25.076 25.063 25.042 24.984 24.99 24.97 24.942 24.91 24.972 24.938 25.007 25.127 25.689 25.146 25.181 25.242 25.292 25.356 25.42 25.578 25.508 25.367 25.357 25.288 25.255 25.354 25.448 25.803 25.252 25.149 25.125 25.203 25.278 25.318 25.443 26.353 26.428 25.435 25.63 25.843 25.778 25.55 25.433 25.395 25.395 25.453 25.455 25.453 25.418 25.413 25.508 27.265 32.998 33.118 34.83 33.578 35.675 35.555 36.155 36.68 37.295 38.07 38.558 38.02 37.245 36.438 33.298 35.373 35.605 36.338 37.01 37.715 36.795 36.125 35.81 38.603 39.34 40.05 40.163 42.563 43.335 43.42 42.708 41.385 40.14 39.435 35.458 35.393 36.06 36.82 37.54 38.308 39.283 40.065 40.098 39.315 38.33 37.593 36.865 36.15 35.468 35.643 36.395 37.195 38.008 38.843 25.123 25.878 25.96 25.16 25.25 25.588 25.355 25.013 25.52 25.21 25.258 25.068 25.04 25.09 25.113 25.595 25.688 25.488 26.178 25.21 25.1 25.078 25.088 25.743 25.58 27.338 25.72 25.645 25.623 25.67 25.693 25.695 25.695 25.688 25.75 25.893 26.048 28.043 27.393 26.165 26.453 26.178 26.198 26.118 26.108 26.073 25.953 25.94 25.913
28.954 30.219 31.599 29.451 28.083 28.159 28.184 28.218 28.224 28.284 29.917 29.875 28.379 28.44 28.474 28.546 28.56 28.585 28.679 28.734 28.807 28.876 28.946 28.983 29.02 29.054 29.148 28.982 28.904 29.194 29.359 29.513 31.924 33.299 32.429 28.727 28.679 32.502 32.052 35.937 32.614 35.511 32.44 28.991 27.663 27.548 27.459 27.398 27.321 27.198 27.142 27.112 27.102 27.015 27.028 26.984 27.022 27.749 30.27 30.806 30.597 26.97 26.839 26.737 26.607 26.565 26.557 26.544 26.512 26.471 26.421 26.333 26.289 26.213 26.174 26.129 26.075 26.03 25.976 25.916 25.952 25.928 26.021 26.064 26.29 32.754 33.954 34.29 34.649 34.998 35.298 35.704 36.295 36.58 36.64 36.336 35.802 35.412 35.027 34.749 34.314 33.987 33.642 30.053 29.541 27.648 26.073 26.103 26.117 26.184 27.124 26.934 26.738 26.154 26.078 26.005 25.968 25.878 25.902 25.957 25.988 25.989 26.04 26.11 26.202 26.096 26.031 25.998 25.958 25.91 25.875 25.898 25.947 26.077 26.128 26.195 26.24 28.971 26.723 26.13 26.109 26.036 25.975 31.941 29.569 32.183 33.7 34.028 34.392 34.724 35.043 35.433 35.92 36.363 36.704 37.072 37.12 36.748 36.331 36.017 35.46 35.142 33.556 26.215 26.024 25.99 25.972 25.945 25.94 25.856 25.914 25.971 26.016 28.014 30.271 30.385 30.604 30.818 30.714 30.484 30.295 29.839 26.1 26.041 26.006 26.043 26.084 26.084 26.136 26.258 27.18 34.001 34.337 34.516 34.689 34.9 35.051 34.943 34.706 34.567 34.317 34.152 27.333 25.741 25.672 25.639 25.591 25.589 25.591 25.631 25.554 25.508 25.536 25.477 25.561 25.534 25.621 25.615 25.606 25.615 25.875 25.759 25.73 25.942 28.312 28.343 28.824 28.349 27.677 25.954 24.993 24.759 24.746 24.773 24.814 24.947 28.522 29.966 29.708 29.568 30.495 31.129 31.25 29.776 30.504 31.435 31.886 32.102 32.05 32.025 31.984 31.97 32.019 31.965 31.785 31.733 31.782 31.765 31.702 31.743 31.746 31.807 31.765 31.816 31.796 31.843 31.61 26.129 25.193 25.33 25.426 25.307 25.298 25.263 25.194 25.203 25.172 25.111 25.155 25.014 25.081 25.057 25.015 24.983 24.941 25.315 24.923 24.963 24.888 24.988 24.97 25.041 25.095 25.138 25.162 25.251 25.913 25.352 25.427 25.518 25.581 25.433 25.362 25.313 25.27 25.325 25.424 26.266 26.146 25.338 25.215 25.263 25.345 25.403 25.435 25.603 25.443 25.455 25.448 26.41 25.445 25.575 25.343 25.36 25.428 25.428 25.405 25.383 25.37 25.403 25.445 25.573 30.405 32.57 31.538 35.053 35.778 36.353 36.888 37.605 38.378 38.358 37.7 36.975 34.568 35.705 35.313 35.888 36.575 37.3 37.185 36.44 35.71 37.545 38.953 39.678 40.35 41.895 42.935 43.57 43.14 42.388 40.633 39.833 39.123 38.453 36.118 36.413 37.133 37.838 38.788 39.648 40.308 39.78 38.85 38 37.283 36.548 35.785 35.37 35.993 36.753 37.563 38.363 39.178 39.948 36.215 25.943 26.288 26.173 27.653 25.88 24.943 25.133 25.183 25.873 25.805 27.788 25.098 25.585 25.905 26.098 25.11 25.118 25.225 26.083 25.158 25.215 25.08 25.898 26.295 25.48 25.468 26.353 25.78 25.715 25.685 25.7 25.725 25.75 25.755 26.018 26.345 26.185 26.96 26 25.978 26.01 26.11 27.028 26.065 25.96 25.943 25.93 25.935
30.525 30.56 29.325 32.125 28.207 28.133 28.159 28.212 28.244 28.305 28.35 30.49 28.461 28.532 28.583 28.629 28.681 28.741 28.77 28.852 28.936 28.975 28.993 28.995 29.009 29.016 29.091 28.903 28.816 28.715 32.62 29.984 28.604 29.845 29.464 28.629 28.792 29.446 36.33 36.348 35.926 35.537 32.638 29.256 27.753 27.594 27.548 27.433 27.353 27.288 27.219 27.171 27.636 27.074 27.033 27.003 26.959 27.595 27.971 27.926 27.226 26.827 26.788 26.708 26.632 26.584 26.542 26.532 26.576 26.509 26.445 26.334 26.267 26.213 26.182 26.129 26.095 26.06 25.945 25.968 25.962 26.002 26.053 26.066 26.279 33.47 33.93 34.279 34.622 34.966 35.351 35.643 36.215 36.603 36.669 36.327 35.848 35.451 35.058 34.707 34.306 34.014 33.664 29.988 29.418 26.704 26.073 26.104 26.097 26.156 29.365 26.679 28.807 26.187 26.055 26.028 26.012 25.898 25.915 25.951 25.975 25.983 26.019 26.065 26.185 26.091 26.037 25.984 25.985 25.911 25.907 25.878 25.996 26.063 26.13 26.22 26.255 28.446 26.851 26.136 26.064 26.033 25.943 28.377 29.476 32.079 33.692 34.093 34.427 34.693 35.14 35.473 35.901 36.289 36.755 37.111 37.115 36.714 36.375 35.931 35.463 34.985 29.653 26.18 26.062 26.029 25.975 25.928 25.944 25.925 25.91 25.958 26.014 28.287 30.193 30.377 30.556 30.822 30.7 30.605 30.253 29.431 26.078 26.004 26.013 26.109 26.119 26.044 26.144 26.227 26.128 34.018 34.339 34.492 34.734 34.929 35.072 34.93 34.713 34.485 34.362 34.138 27.494 25.77 25.681 25.651 25.577 25.576 25.558 25.643 25.535 25.515 25.484 25.487 25.498 25.524 25.45 25.583 25.506 25.58 25.612 25.678 25.621 25.628 25.617 25.767 29.762 29.628 26.823 26.616 27.51 25.945 24.848 25.061 24.878 24.967 25.064 28.807 29.627 29.417 29.91 30.661 29.566 30.923 31.926 32.086 32.04 32.049 32.018 32.027 31.968 31.983 31.831 31.733 31.745 31.699 31.777 31.776 31.774 31.775 31.807 31.846 31.815 31.861 31.831 30.384 25.323 25.292 25.372 25.426 25.318 25.323 25.317 25.22 25.213 25.172 25.155 25.093 25.083 25.067 25.044 25.031 25.282 25.277 25.117 25.148 25.155 25.124 25.025 24.954 24.994 25.028 25.055 25.145 25.152 25.241 25.314 25.773 25.377 25.437 25.582 25.538 25.395 25.346 25.302 25.262 25.455 26.689 26.424 25.481 25.269 25.337 25.39 25.408 25.428 25.435 25.433 25.448 25.47 25.42 25.378 25.35 25.395 25.383 25.385 25.385 25.34 25.403 25.405 25.42 25.435 25.523 25.865 31.54 31.948 33.715 36.085 37.203 37.925 38.595 38.098 37.315 36.648 36.063 35.418 35.553 36.203 36.908 37.398 36.875 36.125 36.063 38.493 39.288 40 39.395 42.528 43.275 43.505 42.813 41.923 40.255 39.543 38.84 37.22 35.953 36.708 37.423 38.17 39.203 39.965 40.188 39.425 38.41 37.675 36.968 36.233 35.515 35.603 36.338 37.123 37.92 38.71 39.513 40.138 39.605 38.885 26.943 24.95 24.953 27.315 25.003 25.758 25.58 25.28 26.708 28.463 28.933 26.218 25.005 26.17 25.058 25.075 25.103 25.1 25.52 26.085 25.118 25.158 26.07 26.545 25.393 25.83 25.538 25.725 25.883 25.938 25.685 25.71 25.745 25.788 25.8 26.235 26.64 25.813 25.918 25.945 25.978 26.013 25.975 25.945 25.928 25.935 25.913 26.013
29.309 28.276 28.532 31.761 28.272 28.151 28.207 28.233 28.273 28.348 28.398 28.849 28.538 28.597 28.646 28.681 28.789 28.842 28.903 28.909 29.001 28.981 28.985 28.985 28.876 28.862 28.855 28.861 28.694 28.666 33.768 32.115 29.135 31.979 28.758 28.624 28.888 29.113 30.657 32.214 33.516 34.936 30.121 29.317 28.055 27.757 27.59 27.494 27.426 27.326 27.259 27.216 27.691 27.108 27.414 26.985 26.977 27.526 26.915 26.88 26.846 26.802 26.797 26.745 26.661 26.64 26.574 26.585 26.568 26.489 26.466 26.383 26.315 26.308 26.205 26.119 26.072 26.028 25.974 26.435 25.976 25.989 26.054 26.078 26.255 33.414 33.943 34.288 34.673 35.002 35.341 35.715 36.204 36.551 36.619 36.335 35.815 35.44 35.073 34.705 34.359 33.948 33.656 30.583 29.782 27.761 26.033 26.112 26.095 26.143 26.255 26.948 26.631 26.152 26.134 26.064 25.998 25.972 25.994 25.996 25.983 26.009 26.015 26.053 26.201 26.103 26.012 26.012 25.985 25.979 25.968 25.964 25.983 26.05 26.121 26.183 26.279 28.277 26.326 26.13 26.066 26.03 25.952 26.066 29.269 32.095 33.696 34.099 34.436 34.743 35.14 35.392 36.008 36.406 36.727 37.062 37.081 36.809 36.35 35.964 35.516 35.163 28.84 26.118 26.029 25.975 25.951 25.948 25.956 25.881 25.904 25.954 25.987 29.011 30.365 30.497 30.612 30.835 30.714 30.444 30.254 27.326 26.013 26.044 26.023 26.059 26.107 26.056 26.183 26.304 26.305 34.026 34.35 34.533 34.743 34.93 35.056 34.832 34.646 34.505 34.32 33.486 26.005 25.694 25.671 25.581 25.565 25.554 25.534 25.56 25.475 25.504 25.439 25.489 25.446 25.485 25.461 25.485 25.467 25.552 25.512 25.535 25.552 25.613 25.578 25.639 26.115 25.572 25.78 26.913 26.956 27.092 26.211 26.278 25.006 25.059 25.109 25.167 26.201 29.324 29.412 29.416 30.858 32.127 32.114 32.07 32.034 32.051 32.068 32.037 31.888 31.75 31.712 31.695 31.73 31.744 31.815 31.757 31.769 31.825 31.798 31.875 31.843 31.844 27.5 25.24 25.345 25.421 25.362 25.339 25.314 25.305 25.228 25.196 25.203 25.125 25.117 25.063 25.047 25.158 25.158 25.141 25.216 25.399 25.767 25.572 28.556 26.138 25.439 25.09 25.044 25.217 25.004 25.06 25.127 25.564 25.44 25.409 25.363 25.395 25.546 25.571 25.411 25.372 25.337 25.282 25.404 25.509 25.825 26.161 25.488 25.599 27.22 25.423 25.413 25.4 25.418 25.44 25.4 25.31 25.325 25.388 25.365 25.368 25.345 25.327 25.334 25.349 25.385 25.414 25.402 25.483 25.561 28.236 32.89 31.585 34.613 38.293 38.97 37.798 36.968 36.433 35.778 35.323 35.81 36.568 37.24 37.248 36.545 35.78 37.795 38.85 39.618 40.31 42.065 42.868 43.573 43.193 42.453 40.645 39.938 39.223 38.533 35.868 36.293 37.01 37.735 38.588 39.525 40.265 39.84 39 38.068 37.375 36.635 35.875 35.42 35.903 36.708 37.508 38.275 39.088 39.908 39.993 39.238 38.468 37.693 28.48 25.025 25.318 25 24.96 25.218 25.318 28.103 28.685 29.148 29.608 33.63 24.875 24.935 25.008 25.053 25.075 25.078 25.103 25.868 26.215 25.345 25.485 25.3 25.378 28.323 28.375 27.275 25.5 26.158 25.705 25.79 25.73 25.78 25.803 25.838 25.853 25.855 25.85 25.853 25.89 25.9 25.91 25.923 25.928 25.923 25.925 26.048
28.761 28.181 28.16 30.278 28.31 28.265 28.206 28.216 28.32 28.317 28.423 28.482 28.577 28.653 28.713 28.827 28.878 28.983 28.941 28.897 28.896 28.866 28.886 28.808 28.795 28.808 28.771 29.079 30.258 28.938 32.615 34.029 33.455 32.589 29.295 28.692 30.601 28.682 28.79 31.569 30.135 32.563 28.519 28.797 28.437 27.881 27.682 27.579 27.477 27.38 27.357 27.52 27.325 27.124 27.055 27.013 26.977 27.518 26.917 26.888 26.877 26.85 26.765 26.743 26.707 26.61 26.556 26.606 26.562 26.58 26.495 26.425 26.302 26.268 26.174 26.124 26.073 26.028 25.985 25.949 25.934 26.005 26.058 26.082 26.142 32.255 33.963 34.248 34.652 34.969 35.359 35.652 36.248 36.577 36.7 36.315 35.823 35.391 34.992 34.731 34.34 34.047 33.571 29.792 27.389 27.048 26.049 26.096 26.116 26.182 26.233 26.301 26.224 26.174 26.172 26.124 26.066 25.999 25.976 26.018 26.027 26.016 26.074 26.09 26.093 26.072 26.055 26.024 25.993 25.967 25.975 25.999 26.047 26.072 26.154 26.188 26.195 26.266 26.255 26.096 26.1 26.005 25.998 27.754 29.439 32.129 33.674 34.054 34.413 34.792 35.122 35.451 35.858 36.323 36.746 37.032 37.131 36.775 36.422 36.055 35.535 34.971 27.371 26.078 26.104 26.329 25.945 25.995 25.945 25.886 25.925 25.96 25.998 28.986 30.337 30.415 30.679 30.811 30.696 30.439 30.265 28.128 26.061 26.043 26.012 26.098 26.125 26.105 26.13 26.329 32.15 34.154 34.355 34.56 34.753 34.963 35.07 34.958 34.739 34.469 34.3 33.974 26.668 25.841 25.773 25.584 25.542 25.538 25.583 25.506 25.478 25.543 25.432 25.485 25.503 25.493 25.387 25.444 25.505 25.514 25.419 25.439 25.499 25.488 25.476 25.56 25.476 25.513 25.535 25.62 26.693 27.23 26.876 26.795 26.382 25.424 25.162 25.214 25.307 27.06 31.047 30.001 31.598 31.968 32.077 32.033 31.98 31.996 31.904 31.817 31.686 31.736 31.721 31.734 31.725 31.759 31.756 31.783 31.837 31.84 31.817 31.806 30.573 26.091 25.313 25.404 25.436 25.38 25.341 25.294 25.263 25.24 25.213 25.16 25.158 25.103 25.084 25.304 25.177 25.292 25.569 25.642 25.742 28.552 27.152 25.806 28.588 25.879 25.619 26.347 25.165 25.765 25.177 25.133 25.08 25.296 25.568 25.241 25.494 25.374 25.406 25.582 25.547 25.398 25.36 25.307 25.339 25.485 25.933 26.913 25.85 25.395 27.776 25.548 25.388 25.4 25.383 25.348 25.29 25.28 25.378 25.368 25.323 25.265 25.309 25.323 25.32 25.35 25.367 25.363 25.419 25.424 25.492 27.337 29.779 32.777 33.826 35.762 37.348 36.733 36.135 35.503 35.48 36.135 36.868 37.38 36.948 36.175 35.755 38.513 39.183 39.91 39.06 42.475 43.213 43.575 42.885 41.843 40.318 39.595 38.908 37.875 35.9 36.655 37.35 38.058 39.058 39.87 40.223 39.488 38.545 37.743 37.05 36.325 35.675 35.56 36.288 37.053 37.873 38.655 39.608 40.198 39.678 38.888 38.105 37.315 36.538 35.275 25.955 25.013 24.93 24.983 25.538 28.41 28.885 29.388 32.258 34.005 34.903 31.408 24.86 24.945 25.015 25.045 25.065 25.085 25.11 26.06 25.718 25.485 25.458 26.02 26.148 25.638 27.888 25.358 25.583 25.71 25.84 25.778 25.74 25.793 25.825 25.863 25.903 25.913 25.89 25.898 25.87 25.918 25.918 25.93 25.928 25.963 26.073
28.495 28.085 28.074 29.432 29.472 28.398 29.224 28.248 28.315 28.399 28.46 28.527 28.609 28.675 28.822 28.819 28.844 28.875 28.839 28.878 28.823 28.803 28.744 28.719 28.73 28.69 28.644 31.188 29.587 32.331 33.198 33.923 33.65 32.95 32.343 32.711 31.657 29.645 28.868 29.407 29.919 29.257 30.766 30.357 28.141 27.852 27.744 27.6 27.597 28.062 30.47 32.119 29.457 27.561 27.042 27.966 26.953 26.911 26.917 26.932 26.906 26.873 26.81 26.775 26.714 26.646 26.566 26.561 26.581 26.575 26.463 26.403 26.314 26.267 26.174 26.138 26.104 26.038 25.964 25.949 25.979 25.981 26.036 26.085 26.276 33.433 33.865 34.182 34.608 34.985 35.345 35.683 36.174 36.556 36.62 36.266 35.844 35.42 35.071 34.734 34.375 33.967 33.63 29.696 28.711 27.12 26.042 26.096 26.116 26.19 26.242 26.254 26.248 26.188 26.176 26.113 26.097 26.066 26.041 26.028 26.035 26.076 26.071 26.08 26.099 26.075 26.029 25.983 26.006 26.007 26.008 26.011 26.086 26.124 26.126 26.183 26.151 26.244 26.256 26.09 26.054 26.053 26.001 26.643 29.421 32.15 33.68 34.014 34.297 34.71 35.066 35.467 35.905 36.348 36.61 37.054 37.053 36.708 36.407 35.953 35.441 35.019 28.666 26.102 26.116 27.442 26.058 26.406 25.974 25.891 25.928 25.956 25.998 29.037 30.568 30.388 30.644 30.803 30.692 30.525 30.258 27.382 26.009 26 26.03 26.092 26.128 26.079 26.182 26.278 28.448 34.071 34.385 34.577 34.759 34.937 35.062 34.885 34.691 34.506 34.256 34.097 33.886 31.677 26.64 25.58 25.563 25.542 26.024 26.688 25.688 25.414 25.431 25.443 25.452 25.447 25.413 25.388 25.41 25.417 25.375 25.372 25.408 25.434 25.381 25.427 25.373 25.408 25.5 25.506 25.548 26.608 26.682 25.416 26.836 25.789 25.913 25.418 25.401 25.557 30.933 31.509 31.576 31.775 32.109 32.017 32.009 31.857 31.772 31.731 31.723 31.804 31.777 31.774 31.746 31.772 31.771 31.827 31.8 31.828 31.79 28.467 25.412 25.304 25.401 25.42 25.361 25.344 25.324 25.298 25.243 25.216 25.184 25.137 25.094 25.11 25.188 26.14 26.18 26.009 25.997 31.321 27.588 26.617 26.553 31.036 28.74 26.361 26.393 27.147 26.027 25.434 25.226 25.195 25.274 25.155 25.434 25.373 25.283 25.35 25.373 25.499 25.575 25.422 25.379 25.353 25.292 25.442 25.646 28.007 27.625 26.008 25.671 26.86 25.365 25.348 25.31 25.305 25.348 25.328 25.298 25.298 25.275 25.306 25.288 25.253 25.33 25.35 25.344 25.342 25.346 25.371 25.429 25.566 27.613 31.578 32.353 34.125 35.853 35.648 35.353 35.838 36.46 37.208 37.298 36.605 35.975 36.965 38.803 39.535 40.158 41.585 42.78 43.51 43.288 42.575 41.033 40.005 39.278 38.373 36.048 36.258 36.96 37.76 38.413 39.418 40.753 39.913 39.155 38.143 37.425 36.745 35.973 35.475 35.873 36.643 37.425 38.22 39.028 39.825 40.113 39.273 38.525 37.725 36.953 36.2 35.448 34.633 25.975 24.993 24.99 28.163 28.63 29.1 29.575 33.59 34.465 35.278 36.095 36.983 30.395 24.86 24.958 25.258 25.04 25.07 25.108 25.13 25.143 25.165 25.303 25.53 25.44 25.598 25.76 25.595 25.69 25.863 26.078 25.723 25.693 25.773 25.82 25.868 25.895 25.895 25.928 25.933 25.933 25.935 25.955 25.953 25.96 25.985 26.103
