ncols 404
nrows 31
xllcorner    430062
yllcorner    436460
cellsize     2
NODATA_value -9999
109.407 109.447 109.467 109.464 109.462 109.487 109.472 109.457 109.447 109.437 109.424 109.424 109.382 109.324 109.289 109.239 109.194 109.147 109.127 109.114 109.087 109.079 109.069 109.049 109.027 109.009 108.987 108.962 108.909 108.857 108.809 108.779 108.747 108.692 108.642 108.622 108.569 108.524 108.472 108.437 108.402 108.384 108.379 108.352 108.312 108.282 108.249 108.212 108.182 108.134 108.089 108.067 108.014 107.974 107.949 107.909 107.872 107.829 107.779 107.724 107.682 107.634 107.599 107.547 107.504 107.472 107.449 107.427 107.399 107.377 107.359 107.324 107.294 107.254 107.224 107.197 107.187 107.149 107.122 107.062 107.007 106.959 106.904 106.854 106.789 106.729 106.662 106.619 106.547 106.512 106.457 106.402 106.344 106.294 106.244 106.202 106.147 106.097 106.034 105.977 105.924 105.862 105.789 105.732 105.649 105.599 105.522 105.479 105.427 105.364 105.312 105.259 105.224 105.192 105.149 105.114 105.079 105.032 104.979 104.917 104.862 104.822 104.802 104.749 104.567 104.187 103.864 103.624 103.334 103.182 105.639 104.827 102.397 102.422 102.192 102.372 104.434 104.254 104.242 103.884 103.262 103.464 102.922 102.092 101.462 101.562 101.524 101.379 101.092 101.114 101.292 101.454 101.482 101.027 100.979 101.107 100.987 100.764 100.472 100.072 99.997 99.922 99.859 99.739 99.627 99.544 99.502 99.239 99.052 99.209 98.847 98.737 99.127 99.917 99.857 99.737 98.769 97.687 97.579 97.844 101.309 103.049 103.032 103.039 97.772 97.072 96.982 96.582 96.049 95.462 95.457 95.492 95.474 95.874 95.372 95.507 95.419 95.284 95.122 95.049 95.054 95.419 94.989 94.964 94.349 94.299 94.084 93.429 93.252 93.224 93.209 93.259 94.622 94.354 93.729 93.459 93.889 99.672 101.367 99.979 97.989 92.114 91.722 91.449 91.487 91.497 91.459 91.379 91.514 97.417 98.352 98.444 98.454 98.444 98.102 98.109 98.119 98.104 98.064 97.347 97.352 97.307 97.274 97.217 96.609 96.622 96.619 96.559 95.167 88.689 88.704 89.097 90.207 95.047 95.459 95.122 95.114 95.134 95.099 95.092 94.592 94.482 94.487 94.482 94.497 94.037 93.809 93.802 93.769 93.464 89.124 87.109 87.364 85.819 91.434 92.594 92.704 92.354 92.352 92.374 92.354 92.384 91.724 91.709 91.712 91.709 91.729 91.149 91.154 91.167 91.132 90.307 83.752 83.597 83.534 83.284 83.257 83.197 83.122 83.009 83.092 83.522 83.162 82.874 86.304 89.392 89.854 89.157 87.529 82.694 82.164 83.367 88.444 87.979 84.714 82.774 81.819 81.787 81.762 81.147 81.054 83.357 83.172 81.959 81.762 82.067 82.747 82.282 82.269 82.414 82.384 82.262 82.132 82.114 82.187 82.209 82.424 82.659 82.627 82.782 82.912 82.902 83.514 82.952 82.934 83.707 83.014 83.032 83.044 83.344 83.117 83.099 83.087 83.132 83.552 82.972 82.937 82.957 82.984 83.024 83.054 83.062 83.067 83.092 83.099 83.094 83.172 83.314 83.057 83.102 83.152 83.174 83.197 83.269 86.434 84.244 83.197 87.642 91.077 91.419 86.242 84.639 84.874 84.727 84.742 84.762 84.722 84.434 84.072 84.262 84.657 84.639 84.789 84.704 85.512 84.939 84.957 85.377 84.817 84.809 84.749 84.634 89.104 91.252
109.362 109.384 109.412 109.402 109.404 109.432 109.404 109.387 109.369 109.349 109.337 109.324 109.314 109.239 109.209 109.162 109.117 109.077 109.064 109.054 109.042 109.022 108.997 108.987 108.967 108.957 108.932 108.907 108.869 108.814 108.767 108.729 108.704 108.654 108.617 108.577 108.512 108.479 108.437 108.404 108.377 108.364 108.332 108.314 108.289 108.242 108.217 108.182 108.137 108.102 108.064 108.027 107.992 107.947 107.902 107.854 107.817 107.784 107.749 107.699 107.652 107.617 107.552 107.507 107.464 107.419 107.392 107.377 107.362 107.329 107.299 107.267 107.239 107.207 107.164 107.162 107.132 107.112 107.077 107.024 106.979 106.909 106.862 106.804 106.732 106.669 106.619 106.549 106.497 106.449 106.382 106.339 106.292 106.244 106.199 106.152 106.117 106.069 106.019 105.949 105.917 105.844 105.782 105.724 105.647 105.574 105.499 105.447 105.389 105.332 105.274 105.232 105.194 105.159 105.132 105.097 105.049 104.982 104.924 104.867 104.832 104.784 104.754 104.722 104.582 104.214 103.892 103.662 103.417 103.189 103.297 103.292 102.892 102.307 102.299 102.009 101.864 101.829 101.737 102.292 103.804 101.844 101.707 101.449 101.469 101.599 101.597 101.489 101.169 101.737 101.267 101.092 101.102 101.954 102.724 102.967 100.984 100.909 100.542 100.159 100.072 100.049 99.942 99.867 99.767 99.727 99.734 100.217 99.769 100.057 99.604 98.894 98.767 98.622 98.472 98.377 98.509 97.617 98.209 97.524 101.549 103.057 103.057 103.077 97.694 97.067 96.917 96.654 95.839 95.487 95.532 95.554 95.549 95.569 95.419 95.524 96.587 96.349 95.199 98.044 99.942 100.592 100.894 95.047 94.759 93.747 93.619 93.492 93.319 93.522 93.282 93.322 94.249 92.824 92.784 92.757 92.702 99.474 101.149 100.224 97.822 92.059 92.124 91.517 91.552 91.557 91.512 92.567 91.434 96.597 97.142 97.152 97.149 97.132 96.612 96.689 96.794 96.654 96.794 96.029 96.037 95.942 95.894 95.679 95.294 95.292 95.232 94.949 95.217 88.749 88.692 88.629 90.964 94.132 94.017 93.782 93.562 93.792 93.727 93.339 93.257 92.867 93.127 92.919 93.172 92.739 92.272 92.149 92.192 92.344 88.434 86.087 87.277 85.894 91.189 91.207 91.174 90.849 90.779 90.922 90.892 91.009 90.074 90.297 90.187 90.412 90.422 89.607 89.559 89.609 89.489 89.804 83.557 83.512 83.407 83.199 83.117 83.072 82.999 82.904 82.969 83.257 82.912 82.797 82.764 88.702 87.587 83.082 82.642 82.659 81.927 87.884 89.214 89.397 89.064 90.384 88.532 82.939 81.739 81.037 82.907 84.234 83.519 81.929 81.282 81.034 81.572 81.557 81.579 82.072 82.892 82.064 81.929 81.972 82.047 82.127 82.302 82.404 82.577 88.779 88.202 89.167 84.889 83.607 82.954 83.087 82.949 82.919 82.937 83.704 85.104 86.144 86.662 83.114 83.129 83.064 83.052 83.032 83.037 83.072 83.037 82.999 82.997 83.029 83.034 83.052 83.069 83.072 83.082 83.059 83.039 83.029 83.022 83.049 83.117 83.099 83.122 83.174 83.249 83.339 83.387 83.652 84.039 84.662 84.654 84.647 84.367 83.987 83.837 84.327 84.652 84.644 84.639 84.617 84.759 84.884 84.902 84.792 84.772 84.774 84.712 84.632 84.589 84.462
109.344 109.334 109.337 109.342 109.392 109.399 109.382 109.347 109.309 109.282 109.262 109.252 109.237 109.167 109.127 109.094 109.054 109.019 109.017 108.977 108.962 108.939 108.944 108.932 108.904 108.897 108.877 108.849 108.822 108.774 108.729 108.704 108.657 108.609 108.572 108.524 108.474 108.424 108.392 108.359 108.337 108.299 108.272 108.252 108.234 108.192 108.169 108.127 108.094 108.069 108.034 107.997 107.954 107.904 107.877 107.839 107.812 107.782 107.742 107.687 107.647 107.594 107.549 107.499 107.437 107.402 107.377 107.357 107.329 107.292 107.257 107.199 107.177 107.139 107.122 107.102 107.079 107.042 107.007 106.972 106.924 106.859 106.809 106.747 106.674 106.617 106.567 106.512 106.447 106.402 106.339 106.284 106.232 106.182 106.142 106.112 106.069 106.037 105.967 105.932 105.887 105.824 105.749 105.687 105.619 105.554 105.487 105.432 105.369 105.319 105.249 105.214 105.174 105.137 105.107 105.067 105.019 104.934 104.882 104.824 104.797 104.744 104.707 104.687 104.579 104.282 103.947 103.727 103.487 103.244 103.377 103.202 102.344 102.342 102.387 102.039 101.904 101.842 105.897 106.427 107.559 105.732 101.747 101.709 101.729 101.599 101.637 101.564 101.277 101.537 101.257 101.187 104.497 106.707 106.987 106.984 101.042 100.924 100.789 100.254 100.124 100.099 100.059 100.114 99.944 99.854 100.017 100.994 99.607 99.282 99.142 99.037 98.892 98.727 98.552 98.382 98.197 97.712 97.499 97.467 100.499 103.099 103.402 103.232 98.192 97.534 97.422 99.047 97.014 95.534 97.017 95.594 95.592 95.564 95.494 95.604 95.542 95.329 95.599 99.802 100.897 100.909 100.912 95.284 94.664 93.932 93.817 94.347 94.789 94.687 94.792 94.604 94.022 92.849 92.764 92.739 92.659 99.284 99.747 99.504 98.327 92.564 92.079 91.562 91.584 91.589 91.537 92.444 91.459 91.312 91.104 91.302 92.157 91.047 90.654 90.992 90.774 90.287 90.542 90.142 89.947 89.994 89.762 90.119 89.429 89.552 89.512 89.074 88.989 88.799 88.724 89.084 88.424 88.392 88.489 88.292 88.029 87.949 87.787 87.779 87.674 87.274 87.199 87.144 87.289 86.802 86.522 86.497 86.814 86.262 86.122 86.042 86.649 85.544 85.924 85.707 86.447 85.379 85.137 85.162 84.872 85.259 85.147 84.622 85.029 84.837 84.664 84.129 84.154 83.817 83.817 83.559 83.462 83.362 83.362 83.117 83.009 82.962 82.897 82.792 82.832 83.047 82.809 82.702 82.642 82.857 82.514 82.512 82.594 82.454 81.899 88.394 89.762 90.552 90.457 90.422 90.404 85.084 81.709 81.017 87.412 87.222 84.549 83.902 83.852 81.004 81.437 81.434 81.539 81.544 81.947 81.874 81.754 81.832 81.867 82.002 82.227 82.259 82.607 89.492 89.984 89.929 89.402 89.874 88.909 87.604 82.879 82.784 84.734 83.749 82.907 84.409 85.072 83.092 83.122 83.147 83.427 83.344 83.022 83.057 83.137 83.114 83.092 83.082 83.007 82.977 82.989 82.984 83.009 83.007 83.019 83.047 83.069 83.092 83.092 83.084 83.069 83.829 83.812 83.254 83.222 83.244 83.292 83.334 83.402 83.649 83.417 83.499 83.519 85.819 84.564 84.619 84.602 84.594 84.637 84.447 84.499 84.564 84.657 84.692 84.717 84.692 84.687 84.419
109.342 109.319 109.304 109.352 109.362 109.352 109.337 109.299 109.272 109.252 109.219 109.194 109.192 109.109 109.067 109.047 109.017 109.002 108.982 108.952 108.934 108.927 108.912 108.879 108.854 108.842 108.829 108.804 108.772 108.739 108.702 108.669 108.609 108.572 108.527 108.487 108.427 108.377 108.357 108.344 108.317 108.279 108.249 108.222 108.189 108.159 108.132 108.102 108.064 108.034 108.004 107.959 107.912 107.867 107.832 107.794 107.772 107.747 107.719 107.664 107.617 107.559 107.522 107.464 107.404 107.367 107.337 107.304 107.272 107.232 107.197 107.147 107.117 107.079 107.057 107.027 107.012 106.972 106.947 106.909 106.852 106.804 106.754 106.692 106.624 106.559 106.512 106.462 106.392 106.342 106.294 106.249 106.194 106.147 106.109 106.069 106.024 105.984 105.934 105.894 105.844 105.794 105.719 105.662 105.592 105.529 105.472 105.417 105.349 105.304 105.244 105.192 105.152 105.112 105.074 105.029 104.957 104.889 104.827 104.794 104.754 104.704 104.662 104.647 104.562 104.337 103.964 103.742 103.539 103.277 103.177 102.822 104.952 102.362 102.389 102.217 101.917 101.857 107.474 108.889 108.909 107.229 101.857 101.797 102.044 101.607 101.682 101.637 101.402 101.259 101.232 101.179 104.024 107.882 108.584 107.327 102.102 100.957 100.819 100.447 100.209 100.109 100.044 99.967 99.992 100.022 100.072 100.937 99.642 99.367 99.187 99.084 99.034 98.742 98.627 98.897 98.527 99.464 99.377 98.432 97.602 103.094 103.097 103.084 98.992 97.159 97.117 96.949 96.384 95.689 95.594 95.619 95.632 95.594 95.574 95.832 95.477 95.344 95.414 95.304 100.922 100.942 100.964 98.202 95.847 94.659 93.944 94.084 94.039 93.727 93.582 96.062 93.539 94.334 94.799 94.869 93.714 95.464 94.277 92.849 92.892 93.257 91.842 91.624 91.619 91.634 91.577 91.482 91.482 94.164 91.504 91.389 90.864 90.887 90.704 90.717 90.567 90.402 90.654 89.939 89.889 89.867 89.634 89.624 89.389 89.314 89.227 88.857 88.809 88.749 88.684 90.044 89.029 88.312 88.257 88.372 88.032 87.944 88.172 87.692 87.459 87.214 87.082 86.967 86.889 87.212 86.512 86.454 86.749 86.172 86.064 85.944 87.019 85.632 85.757 85.614 85.917 85.109 85.037 84.829 84.727 84.614 84.414 84.319 84.424 84.249 84.104 83.964 83.769 83.669 83.557 83.462 83.412 83.264 83.174 83.014 82.922 82.867 82.777 82.697 82.699 84.342 82.677 82.642 82.549 82.469 82.344 82.317 82.412 81.844 84.609 88.367 88.659 89.302 89.779 90.349 90.584 81.719 81.684 81.034 87.494 87.184 86.964 86.847 86.537 84.797 81.852 81.304 81.032 81.482 81.854 81.694 81.614 81.694 81.694 81.862 82.057 82.107 84.752 89.787 91.079 90.999 90.759 90.422 90.102 89.182 82.804 82.699 87.209 88.887 88.434 85.682 83.149 82.824 83.009 83.542 83.032 83.424 82.889 82.927 82.997 83.209 83.114 83.067 83.034 83.037 83.024 83.069 83.067 83.034 82.979 83.467 83.267 83.019 83.052 83.069 83.082 83.094 83.107 83.172 83.137 83.189 83.152 83.754 83.594 83.214 83.199 83.219 83.262 83.474 83.487 85.029 86.117 85.497 84.914 83.922 84.034 84.379 84.434 84.489 84.592 84.784 84.999 84.717
109.312 109.279 109.299 109.309 109.297 109.287 109.277 109.242 109.207 109.187 109.169 109.189 109.159 109.082 109.042 109.014 108.974 108.959 108.947 108.907 108.902 108.877 108.867 108.844 108.822 108.789 108.782 108.767 108.732 108.717 108.679 108.622 108.564 108.519 108.487 108.449 108.409 108.367 108.337 108.327 108.289 108.259 108.217 108.172 108.154 108.107 108.092 108.059 108.012 107.994 107.944 107.917 107.872 107.837 107.804 107.772 107.747 107.717 107.682 107.624 107.569 107.519 107.464 107.419 107.372 107.347 107.302 107.254 107.227 107.179 107.139 107.084 107.049 107.019 106.984 106.967 106.944 106.904 106.874 106.837 106.792 106.732 106.702 106.642 106.572 106.517 106.464 106.407 106.344 106.299 106.234 106.187 106.154 106.104 106.067 106.014 105.969 105.927 105.892 105.849 105.807 105.767 105.714 105.652 105.607 105.554 105.487 105.427 105.379 105.314 105.252 105.174 105.129 105.077 105.024 104.972 104.924 104.864 104.812 104.769 104.724 104.674 104.619 104.587 104.534 104.369 103.999 103.757 103.562 103.317 103.164 102.922 102.747 102.369 102.407 102.134 101.947 101.889 106.082 108.907 109.302 107.619 101.722 101.667 102.234 101.597 101.714 101.709 101.519 101.249 101.284 101.199 101.274 107.557 109.109 107.629 103.809 100.962 100.839 100.934 100.429 101.497 101.747 102.419 103.297 100.369 100.194 100.107 99.809 99.567 99.589 99.357 101.042 100.847 99.082 98.472 98.329 98.332 98.209 97.767 97.974 103.077 103.067 103.057 102.719 97.299 97.117 97.369 96.637 96.009 95.699 95.844 95.637 95.629 95.679 95.827 97.019 97.019 95.987 95.199 100.947 100.929 100.932 99.177 95.182 94.309 93.917 93.797 93.702 93.564 95.489 97.242 93.567 93.942 94.804 94.319 93.572 92.629 92.817 92.764 92.182 92.092 91.837 91.677 91.652 91.667 91.602 91.509 91.394 91.399 91.189 91.079 90.952 90.814 90.667 90.529 90.392 90.262 90.147 90.007 89.879 89.742 89.622 89.474 89.352 89.229 89.087 88.964 88.842 88.719 88.592 88.454 88.322 88.202 88.059 87.939 87.817 87.669 87.557 87.424 87.332 87.154 87.004 86.897 86.769 86.659 86.524 86.402 86.269 86.109 85.974 85.852 85.759 85.614 85.502 85.364 85.309 85.097 84.959 84.834 84.707 84.574 84.442 84.292 84.174 84.059 83.939 83.814 83.669 83.544 83.442 83.349 83.217 83.087 82.999 82.884 82.859 82.787 82.672 82.562 82.442 82.479 83.659 83.454 83.172 82.314 82.302 82.082 82.074 81.787 81.884 83.722 86.457 87.657 88.354 88.912 88.609 81.619 81.247 81.682 87.592 88.412 88.384 88.269 88.084 87.162 84.207 83.774 81.037 81.704 81.669 81.519 81.474 81.547 81.577 81.757 81.912 82.124 88.047 89.757 90.089 90.394 90.652 90.949 90.164 88.857 83.097 84.444 88.867 89.944 89.694 89.439 89.154 88.877 89.182 83.452 82.784 86.339 84.864 82.747 82.762 82.867 83.464 83.174 82.942 82.972 83.009 83.077 83.182 83.149 83.127 83.129 83.322 83.017 82.979 82.994 83.009 83.022 83.077 83.112 83.149 83.207 83.169 83.137 83.667 83.237 83.082 83.102 83.112 83.197 83.237 83.287 83.342 83.397 83.427 83.487 83.777 84.927 84.737 84.472 84.307 84.424 85.009 85.627
109.244 109.222 109.249 109.244 109.237 109.219 109.224 109.202 109.149 109.129 109.139 109.142 109.124 109.059 109.017 108.999 108.967 108.942 108.914 108.882 108.864 108.839 108.824 108.794 108.777 108.752 108.729 108.722 108.692 108.674 108.637 108.587 108.522 108.472 108.429 108.409 108.374 108.327 108.302 108.277 108.244 108.202 108.164 108.124 108.089 108.052 108.022 107.994 107.969 107.929 107.902 107.859 107.829 107.787 107.754 107.712 107.689 107.669 107.627 107.577 107.524 107.469 107.434 107.389 107.329 107.299 107.249 107.209 107.164 107.124 107.089 107.052 107.012 106.967 106.919 106.907 106.884 106.844 106.804 106.782 106.739 106.694 106.657 106.594 106.529 106.464 106.404 106.349 106.292 106.249 106.197 106.152 106.109 106.064 106.029 105.972 105.942 105.899 105.869 105.824 105.804 105.757 105.727 105.677 105.637 105.587 105.524 105.459 105.402 105.319 105.252 105.162 105.104 105.032 104.974 104.924 104.882 104.837 104.789 104.744 104.682 104.632 104.592 104.542 104.494 104.352 104.024 103.747 103.524 103.327 103.169 102.914 103.512 102.392 102.377 102.282 101.982 101.912 104.057 108.579 109.554 107.914 102.582 102.494 102.432 101.589 101.764 101.754 101.582 101.284 101.417 101.347 101.102 107.274 108.939 107.957 105.517 102.989 103.434 103.067 102.182 100.739 100.269 100.084 100.132 100.762 100.467 100.294 100.129 99.654 99.604 99.559 99.634 98.964 98.682 98.574 98.419 98.402 98.309 98.067 97.589 102.509 100.274 98.694 97.562 97.424 97.334 97.269 96.732 95.942 95.777 96.537 95.669 95.674 95.739 95.682 95.702 95.442 95.589 95.247 100.564 100.899 100.902 100.559 95.087 94.519 94.017 93.872 94.384 93.604 93.717 97.082 93.697 93.137 93.114 92.992 92.957 93.022 92.419 92.627 93.569 92.887 91.869 91.737 91.677 91.684 91.617 91.527 91.359 91.199 91.894 92.174 90.829 90.964 91.989 90.939 90.719 91.027 90.559 89.897 89.774 89.637 89.517 89.379 90.047 90.402 88.999 88.869 88.739 88.617 88.492 88.367 88.244 88.119 87.994 88.324 89.082 87.809 87.452 87.354 88.594 88.007 86.904 88.322 87.617 86.559 87.737 86.947 87.297 87.019 85.912 85.782 85.654 85.532 85.402 87.189 87.307 86.177 85.029 86.222 85.347 84.487 84.367 84.217 84.077 83.969 83.837 83.722 83.599 83.484 83.952 84.622 83.699 82.972 82.874 82.817 82.779 82.719 82.604 82.482 82.359 82.309 82.289 82.224 82.147 82.252 84.727 81.922 81.829 81.747 81.654 81.642 81.764 81.532 83.487 88.322 83.514 81.814 81.032 83.107 87.729 89.062 89.429 89.419 88.442 87.069 84.177 83.744 81.002 81.592 81.452 81.294 81.332 81.387 81.422 81.654 81.679 82.032 83.052 85.017 88.172 89.069 89.342 89.619 89.784 87.624 83.759 85.114 89.129 90.447 90.999 90.642 90.457 90.102 88.979 82.724 82.832 88.872 87.787 88.267 84.452 85.467 83.994 83.802 82.847 82.762 82.832 83.464 84.624 85.692 83.292 83.709 83.547 83.124 83.109 83.114 83.082 83.059 83.104 83.087 83.072 83.124 83.102 83.119 83.127 83.127 83.142 83.139 83.134 83.134 83.112 83.109 83.139 83.219 83.194 83.234 83.259 83.352 83.379 83.389 83.544 83.982 84.259 84.179
109.199 109.197 109.209 109.202 109.187 109.174 109.179 109.152 109.124 109.094 109.084 109.079 109.079 109.024 108.997 108.977 108.942 108.919 108.897 108.869 108.842 108.819 108.799 108.774 108.754 108.729 108.704 108.687 108.659 108.627 108.584 108.529 108.487 108.429 108.387 108.357 108.337 108.302 108.267 108.229 108.197 108.164 108.134 108.087 108.037 108.002 107.974 107.937 107.904 107.877 107.854 107.809 107.772 107.739 107.712 107.677 107.639 107.604 107.562 107.524 107.474 107.422 107.377 107.332 107.279 107.242 107.194 107.157 107.127 107.082 107.034 106.989 106.957 106.919 106.874 106.864 106.832 106.807 106.779 106.734 106.694 106.639 106.597 106.544 106.494 106.434 106.379 106.327 106.267 106.209 106.144 106.104 106.054 106.022 105.982 105.947 105.917 105.889 105.864 105.834 105.804 105.762 105.739 105.684 105.652 105.587 105.539 105.474 105.412 105.324 105.232 105.142 105.059 104.989 104.939 104.894 104.849 104.812 104.754 104.702 104.654 104.609 104.529 104.477 104.444 104.337 104.092 103.794 103.572 103.362 103.192 103.104 102.797 102.412 102.412 102.409 102.247 101.979 104.022 108.299 109.729 108.252 102.989 101.809 102.097 101.587 101.784 101.804 101.672 101.377 101.784 101.664 101.502 106.972 108.607 108.252 106.472 101.687 101.302 100.992 100.487 100.297 100.182 100.177 100.184 100.192 100.247 100.202 100.384 99.799 99.597 99.187 98.989 98.829 98.692 98.604 98.769 98.769 100.097 98.154 97.689 97.614 97.879 98.234 98.404 97.879 97.627 97.387 96.852 96.129 95.807 95.859 95.692 95.684 95.749 95.737 95.944 95.617 95.454 95.344 100.974 100.792 98.809 96.744 95.192 94.619 94.099 93.969 97.689 96.889 95.937 96.379 93.954 93.324 93.102 93.012 93.372 95.967 98.169 98.404 98.512 92.947 92.032 91.859 91.707 91.697 91.637 91.542 91.392 91.264 91.149 91.032 90.914 90.782 90.669 90.532 90.412 90.274 90.122 90.002 89.869 89.737 89.609 89.469 89.357 89.217 89.079 88.959 88.834 88.709 88.594 88.452 88.334 88.202 88.082 87.952 87.807 87.664 87.489 87.394 87.294 87.097 86.957 86.849 86.739 86.609 86.482 86.379 86.252 86.117 85.979 85.854 85.712 85.594 85.484 85.352 85.214 85.097 84.962 84.814 84.682 84.562 84.432 84.299 84.182 84.062 83.939 83.814 83.704 83.559 83.449 83.329 83.207 83.079 82.949 82.854 82.774 82.692 82.577 82.474 82.357 82.267 82.167 82.069 81.979 81.939 81.827 81.767 81.684 82.082 82.619 81.742 81.699 81.424 81.414 81.504 82.607 81.442 81.019 83.702 87.674 87.874 87.989 88.084 88.112 86.864 84.147 83.699 81.274 81.349 81.257 81.134 81.177 81.182 81.179 81.339 81.289 81.394 81.354 81.272 81.439 83.294 81.964 83.827 86.944 84.537 84.797 84.487 89.417 90.079 90.389 90.657 90.947 90.002 88.699 82.642 82.659 90.142 89.859 89.587 89.284 88.982 88.732 87.554 82.827 82.607 87.917 82.712 82.944 84.112 84.184 82.982 83.949 83.039 84.687 83.144 84.034 83.189 83.119 83.219 83.194 83.152 83.167 83.152 83.102 83.059 83.079 83.109 83.127 83.142 83.157 83.159 83.142 83.137 83.127 83.122 83.097 83.139 83.194 83.224 83.247 83.252 83.284 83.342
109.162 109.149 109.142 109.144 109.132 109.117 109.109 109.107 109.104 109.052 109.034 109.047 109.034 108.999 108.952 108.934 108.914 108.894 108.874 108.844 108.819 108.804 108.784 108.759 108.729 108.697 108.682 108.652 108.627 108.594 108.532 108.494 108.447 108.394 108.352 108.299 108.269 108.242 108.224 108.187 108.147 108.119 108.094 108.054 108.022 107.977 107.927 107.892 107.862 107.824 107.792 107.767 107.734 107.689 107.662 107.624 107.584 107.552 107.509 107.472 107.429 107.384 107.339 107.282 107.234 107.194 107.139 107.094 107.057 107.019 106.972 106.957 106.899 106.859 106.804 106.797 106.792 106.772 106.732 106.702 106.667 106.619 106.572 106.527 106.467 106.404 106.337 106.274 106.209 106.154 106.112 106.064 106.009 105.977 105.944 105.907 105.897 105.889 105.869 105.847 105.809 105.772 105.734 105.674 105.639 105.582 105.537 105.467 105.409 105.339 105.239 105.139 105.047 104.977 104.922 104.872 104.819 104.782 104.734 104.687 104.637 104.604 104.539 104.449 104.377 104.332 104.169 103.919 103.644 103.404 103.227 103.154 102.932 102.782 102.694 102.772 102.709 102.422 105.094 107.944 109.609 108.509 105.337 103.409 102.504 101.607 101.779 101.849 101.772 101.477 101.412 101.507 101.242 105.577 108.267 108.544 106.959 101.152 100.974 100.862 100.567 100.329 100.237 100.184 100.189 100.229 100.197 100.382 100.352 99.904 99.489 99.117 99.007 98.919 98.889 101.374 100.234 98.569 98.437 98.364 98.302 97.969 100.167 102.714 103.434 103.437 97.864 97.449 97.052 96.347 95.862 95.809 95.699 95.714 95.707 95.802 95.819 95.677 95.484 95.442 95.314 95.359 95.424 95.489 95.489 94.947 94.199 93.984 94.104 95.332 94.492 94.077 93.709 93.874 93.152 93.064 93.322 96.499 98.797 99.592 98.854 92.777 92.114 91.929 91.734 91.699 91.634 91.534 91.397 91.267 91.139 91.037 90.909 90.774 90.652 90.544 90.417 90.274 90.139 89.989 89.857 89.739 89.599 89.467 89.334 89.199 89.074 88.944 88.822 88.707 88.589 88.457 88.332 88.214 88.089 87.959 87.814 87.662 87.507 87.374 87.287 87.109 86.957 86.844 86.729 86.602 86.489 86.352 86.244 86.109 85.967 85.824 85.694 85.577 85.469 85.352 85.212 85.084 84.939 84.809 84.669 84.532 84.412 84.292 84.159 84.049 83.937 83.824 83.717 83.579 83.459 83.322 83.194 83.059 82.932 82.839 82.744 82.639 82.529 82.424 82.324 82.232 82.132 82.052 81.967 81.879 81.782 81.669 81.567 81.504 81.494 81.429 81.704 81.439 81.342 81.227 81.314 81.204 80.974 84.179 87.174 85.927 85.062 86.697 86.982 86.862 83.532 83.562 81.852 81.219 81.092 81.009 81.034 81.017 81.049 81.137 81.104 81.084 81.299 81.157 81.162 82.444 81.719 81.942 82.384 82.522 85.024 86.049 88.484 88.782 89.077 89.359 89.639 89.687 87.494 83.237 86.867 90.949 90.989 90.864 90.599 90.324 89.464 86.694 82.527 83.297 89.054 88.677 87.869 85.032 86.089 86.234 85.204 82.884 84.627 82.959 82.909 82.904 82.542 82.684 82.982 83.217 83.272 83.302 83.247 83.204 83.164 83.139 83.097 83.037 83.072 83.099 83.107 83.114 83.127 83.129 83.139 83.134 83.109 83.102 83.069 83.074 83.114 83.159
109.109 109.089 109.079 109.072 109.072 109.074 109.069 109.057 109.047 109.014 109.009 109.004 109.007 108.954 108.894 108.879 108.847 108.852 108.839 108.824 108.794 108.777 108.752 108.727 108.697 108.674 108.642 108.619 108.602 108.562 108.504 108.454 108.429 108.384 108.319 108.284 108.249 108.219 108.217 108.177 108.127 108.092 108.057 108.022 107.994 107.947 107.907 107.869 107.842 107.804 107.767 107.729 107.689 107.647 107.622 107.574 107.539 107.497 107.469 107.437 107.394 107.354 107.304 107.249 107.182 107.127 107.082 107.049 106.994 106.964 106.929 106.907 106.879 106.847 106.784 106.779 106.764 106.724 106.697 106.657 106.624 106.579 106.534 106.482 106.434 106.369 106.299 106.237 106.167 106.122 106.089 106.039 105.992 105.949 105.927 105.902 105.892 105.897 105.872 105.842 105.799 105.757 105.717 105.662 105.629 105.559 105.497 105.437 105.377 105.319 105.234 105.139 105.032 104.952 104.889 104.847 104.792 104.744 104.699 104.664 104.604 104.557 104.494 104.399 104.334 104.307 104.214 104.002 103.694 103.439 103.242 103.347 103.277 102.572 102.459 102.479 102.334 102.257 103.709 107.659 109.237 108.842 107.274 101.977 102.059 101.629 101.732 101.879 101.819 101.569 101.442 101.597 101.312 103.679 107.957 108.344 107.247 101.057 101.367 100.917 100.754 103.229 100.674 100.242 100.249 100.274 100.274 100.339 101.519 100.017 99.952 99.492 99.574 99.639 99.197 99.524 98.727 98.592 98.374 98.407 98.074 98.002 103.404 103.442 103.434 103.472 97.622 98.497 97.572 97.269 95.922 95.879 95.732 95.747 95.729 95.832 95.919 95.689 95.547 95.507 95.549 97.609 99.497 98.284 95.467 95.509 94.302 94.239 94.064 94.062 94.052 94.029 93.799 94.572 93.247 93.037 93.089 95.897 98.654 99.844 99.432 96.354 92.357 92.007 91.777 91.664 91.609 91.504 91.367 91.232 91.352 91.259 91.114 91.134 90.704 90.477 90.917 90.872 90.169 89.944 89.804 89.684 89.599 89.522 89.302 89.482 89.452 88.884 89.132 88.974 88.504 88.724 88.912 88.134 88.057 88.252 88.074 87.589 87.452 87.344 87.422 87.472 87.254 86.917 87.242 86.759 87.084 87.064 86.224 86.559 86.152 85.762 85.637 85.499 85.397 85.282 85.152 85.027 85.159 85.434 84.664 84.477 84.352 84.214 84.109 83.987 84.367 84.164 83.624 83.497 83.362 83.769 83.679 82.959 82.854 82.762 82.677 82.577 82.477 82.382 82.284 82.179 82.064 81.979 81.907 81.837 81.762 81.669 81.562 81.457 81.334 81.237 81.242 81.252 81.219 81.064 81.069 81.162 80.874 80.897 80.907 80.879 81.009 80.957 81.557 81.967 80.937 80.979 80.999 81.117 80.892 80.884 80.927 80.852 80.979 81.189 81.194 80.999 83.437 82.669 81.142 81.234 81.184 81.317 81.797 83.954 85.352 83.339 82.482 82.577 82.909 84.939 87.257 88.599 85.149 84.442 88.579 90.889 90.904 90.417 90.277 90.444 89.197 83.087 82.479 87.479 90.277 89.914 89.737 89.414 89.124 88.992 84.919 82.712 85.574 82.737 82.677 82.687 82.592 82.597 82.522 82.544 82.559 82.599 82.782 83.112 83.257 83.539 83.667 83.077 82.917 82.944 82.977 83.087 83.039 83.062 83.087 83.097 83.102 83.099 83.089 83.089 83.074 83.062
109.034 109.034 109.034 109.019 109.017 109.024 109.012 108.994 108.984 108.974 108.974 108.964 108.974 108.919 108.852 108.804 108.802 108.812 108.807 108.784 108.762 108.742 108.714 108.692 108.667 108.634 108.594 108.584 108.549 108.517 108.489 108.459 108.419 108.337 108.292 108.277 108.234 108.217 108.187 108.129 108.077 108.049 108.009 107.992 107.959 107.922 107.889 107.859 107.819 107.772 107.737 107.687 107.647 107.612 107.572 107.539 107.502 107.467 107.432 107.402 107.377 107.329 107.282 107.234 107.172 107.124 107.077 107.039 106.982 106.937 106.904 106.874 106.837 106.804 106.759 106.744 106.717 106.674 106.642 106.599 106.559 106.517 106.489 106.427 106.364 106.317 106.239 106.187 106.129 106.099 106.044 106.012 105.972 105.932 105.902 105.879 105.867 105.864 105.859 105.824 105.787 105.757 105.697 105.649 105.602 105.539 105.464 105.397 105.339 105.282 105.227 105.154 105.029 104.912 104.852 104.799 104.759 104.714 104.667 104.619 104.579 104.514 104.444 104.372 104.302 104.284 104.239 104.047 103.747 103.474 103.274 103.247 103.144 102.652 102.504 102.507 102.399 102.377 101.939 106.642 107.794 107.519 107.054 101.777 102.837 102.414 101.702 101.892 101.859 101.664 101.462 101.572 101.384 101.187 107.049 106.757 106.239 102.107 101.139 101.212 100.934 101.194 101.682 103.282 101.867 103.622 104.122 103.144 100.542 100.689 99.909 99.694 99.677 99.812 99.419 99.299 98.727 98.537 98.372 98.324 98.127 97.964 101.109 103.467 103.547 103.534 97.724 97.984 97.574 97.324 96.062 95.924 96.992 95.759 95.747 95.827 96.122 97.672 97.907 96.374 101.249 101.247 101.262 99.549 95.502 95.782 94.392 94.294 94.039 94.067 94.072 94.807 93.917 94.987 94.019 94.052 92.994 95.117 98.522 99.737 99.149 97.444 92.124 92.162 91.804 91.649 91.554 91.434 91.359 91.227 91.519 91.217 90.967 91.022 90.642 90.477 90.429 90.207 90.044 89.914 89.777 89.657 89.657 89.502 89.307 89.437 89.232 88.907 88.769 88.639 88.504 88.347 88.194 88.067 87.932 87.872 87.727 87.607 87.467 87.352 87.237 87.094 87.009 86.844 86.704 86.567 86.437 86.312 86.177 86.067 86.064 85.752 85.617 85.484 85.359 85.274 85.162 85.039 84.982 85.012 84.652 84.477 84.342 84.199 84.082 83.969 83.972 83.824 83.624 83.479 83.347 83.227 83.087 82.924 82.794 82.682 82.572 82.504 82.414 82.307 82.202 82.092 81.977 81.877 81.817 81.749 81.699 81.624 81.537 81.442 81.347 81.244 81.162 81.064 80.999 80.969 81.279 81.294 80.817 80.807 80.804 80.792 80.854 80.767 80.787 80.782 80.842 80.957 80.942 80.847 80.684 80.749 80.772 80.747 80.839 80.802 80.707 82.579 83.479 83.459 83.419 81.072 80.952 81.029 81.494 83.177 85.877 82.294 82.372 82.434 82.444 82.312 82.409 82.387 82.424 85.599 86.322 87.579 88.979 88.899 88.962 89.227 88.899 82.497 82.427 88.807 90.979 91.044 91.774 90.722 90.227 89.017 83.304 83.384 82.557 82.612 82.667 82.612 82.684 85.482 85.174 84.079 82.479 82.517 82.419 82.359 82.377 82.462 82.734 82.957 82.739 82.777 82.829 82.917 83.039 83.109 83.139 83.107 83.052 83.359 84.869 84.074 83.034 83.027
108.969 108.974 108.972 108.967 108.957 108.959 108.957 108.942 108.937 108.929 108.924 108.914 108.912 108.897 108.832 108.777 108.782 108.779 108.759 108.747 108.734 108.699 108.672 108.637 108.617 108.597 108.562 108.529 108.512 108.492 108.467 108.427 108.394 108.339 108.299 108.267 108.242 108.202 108.152 108.099 108.049 108.014 107.982 107.952 107.942 107.897 107.874 107.837 107.799 107.759 107.712 107.659 107.607 107.564 107.522 107.494 107.447 107.412 107.389 107.357 107.334 107.304 107.259 107.219 107.172 107.104 107.054 107.014 106.959 106.919 106.894 106.872 106.827 106.797 106.727 106.729 106.694 106.642 106.602 106.574 106.532 106.479 106.444 106.397 106.339 106.274 106.202 106.149 106.099 106.062 106.019 105.984 105.942 105.929 105.882 105.864 105.844 105.844 105.839 105.802 105.759 105.724 105.674 105.632 105.569 105.512 105.442 105.374 105.302 105.252 105.177 105.114 105.002 104.852 104.789 104.749 104.699 104.664 104.622 104.564 104.514 104.464 104.402 104.337 104.299 104.309 104.232 104.077 103.792 103.517 103.302 103.802 104.039 102.679 102.549 102.564 102.504 102.299 102.012 103.749 104.179 103.639 102.924 101.984 101.959 101.684 101.652 101.887 101.887 101.752 101.514 101.812 101.454 101.372 103.419 102.627 101.859 101.052 105.059 105.219 104.964 100.802 103.797 103.672 102.787 101.172 100.212 100.209 100.327 100.009 99.817 99.882 99.527 99.444 99.542 99.694 99.614 98.809 98.909 98.902 99.444 99.747 101.167 103.519 103.514 103.507 98.439 97.449 97.292 97.159 96.277 95.957 96.404 95.792 95.772 95.864 95.899 96.187 95.762 95.537 100.724 101.264 101.277 101.369 95.564 94.652 94.469 94.297 94.182 94.124 94.119 94.132 94.412 94.787 93.592 92.854 92.594 94.352 98.387 99.269 99.104 97.314 92.174 92.264 91.829 91.694 91.664 91.744 92.614 92.922 91.752 91.757 91.054 90.844 91.009 90.879 90.692 90.604 90.247 90.007 89.864 89.787 89.754 89.879 89.864 89.587 89.149 89.074 89.147 89.082 89.067 90.329 88.317 88.182 88.279 88.477 88.134 88.239 88.092 87.912 87.709 87.477 87.292 87.342 87.374 86.877 86.832 86.742 86.992 87.287 86.789 85.944 85.797 85.627 85.567 85.672 85.477 85.459 85.437 85.254 85.287 85.129 84.532 84.402 84.264 84.552 84.549 84.427 84.092 84.054 83.739 83.647 83.252 83.122 82.849 82.719 82.572 82.359 82.314 82.234 82.127 81.994 81.859 81.752 81.664 81.597 81.549 81.489 81.422 81.359 81.302 81.232 81.144 81.069 80.972 80.879 80.802 80.779 80.704 80.707 80.709 80.679 80.772 80.619 80.602 80.742 80.922 80.544 80.794 80.652 80.532 80.599 80.589 80.619 80.672 80.824 81.344 80.459 81.749 83.467 82.122 80.754 80.734 80.777 80.914 83.362 85.729 81.882 81.547 81.857 82.269 82.387 82.384 83.504 84.952 86.057 85.612 85.879 85.084 83.309 83.987 85.239 86.919 82.334 82.384 90.852 90.932 90.942 90.014 90.237 90.047 88.754 82.374 84.902 82.419 82.567 82.592 82.564 82.507 85.407 85.829 88.622 88.322 87.862 83.062 82.352 82.347 82.377 82.512 82.667 82.597 82.652 82.702 82.837 82.927 83.379 84.152 83.324 83.187 83.162 83.139 83.617 83.079 83.054
108.912 108.914 108.899 108.899 108.904 108.909 108.894 108.899 108.884 108.872 108.874 108.857 108.859 108.857 108.802 108.752 108.747 108.749 108.744 108.722 108.694 108.664 108.632 108.604 108.569 108.532 108.494 108.492 108.469 108.469 108.432 108.387 108.347 108.312 108.302 108.254 108.222 108.172 108.112 108.052 108.002 107.974 107.949 107.927 107.924 107.882 107.827 107.809 107.782 107.739 107.699 107.639 107.589 107.549 107.509 107.477 107.442 107.409 107.367 107.334 107.317 107.289 107.247 107.192 107.152 107.087 107.039 106.989 106.937 106.907 106.874 106.844 106.814 106.777 106.739 106.719 106.674 106.632 106.569 106.519 106.472 106.424 106.384 106.337 106.289 106.219 106.172 106.122 106.067 106.024 105.987 105.959 105.944 105.907 105.867 105.837 105.832 105.849 105.834 105.787 105.747 105.697 105.624 105.589 105.544 105.479 105.414 105.354 105.274 105.219 105.142 105.082 104.979 104.812 104.742 104.704 104.659 104.624 104.582 104.512 104.467 104.419 104.377 104.332 104.299 104.289 104.214 104.057 103.809 103.567 103.347 103.224 104.852 103.142 102.599 102.614 102.562 103.174 103.447 101.897 101.907 101.972 102.312 102.194 101.862 102.567 101.624 101.869 101.887 101.794 101.572 101.567 101.619 101.467 101.402 101.584 101.147 101.084 101.162 101.424 101.189 100.807 101.664 100.369 100.227 100.172 100.182 100.174 100.202 101.779 102.274 101.389 101.339 99.372 100.189 100.702 100.822 99.669 98.627 98.524 98.267 99.032 100.484 103.482 103.492 103.482 103.337 97.704 97.299 97.292 96.344 95.992 95.804 95.829 95.812 95.909 95.917 96.729 95.777 95.894 101.427 101.342 101.287 101.299 95.624 94.944 94.477 94.367 94.254 94.162 94.152 94.147 94.707 94.519 93.637 92.852 92.579 95.489 98.182 98.082 97.139 96.052 92.169 92.062 91.909 91.842 92.102 92.067 91.564 91.562 92.189 91.364 91.169 91.089 91.137 91.079 90.969 90.824 90.642 90.202 89.877 89.839 89.844 90.249 90.087 89.582 89.357 89.287 89.277 89.289 90.532 91.212 88.537 88.259 88.282 88.339 90.929 88.342 88.269 87.974 87.674 87.682 87.657 87.627 87.549 86.937 87.122 87.102 87.029 86.709 86.649 86.304 86.119 85.894 85.872 86.424 85.874 85.702 85.617 85.569 85.494 85.394 84.772 84.619 84.527 85.362 85.254 84.589 84.439 84.294 84.207 83.872 83.374 83.319 83.282 82.642 82.514 82.279 82.234 82.149 82.034 81.889 81.919 81.887 81.772 81.679 81.544 81.402 81.274 81.209 81.309 81.122 81.064 81.012 80.959 80.877 80.779 80.659 80.574 80.579 80.859 80.609 80.512 80.484 80.452 80.409 80.437 80.532 80.627 80.479 80.397 80.449 80.429 80.557 80.449 80.319 80.639 80.394 82.534 81.494 82.817 80.774 80.642 80.664 80.724 83.057 83.197 80.787 81.622 81.617 81.662 81.814 82.589 84.712 84.852 85.942 84.927 84.907 84.742 82.354 82.349 82.367 82.847 82.392 82.332 82.559 85.507 88.377 88.667 88.917 89.182 88.452 84.637 85.989 84.459 83.752 83.007 82.499 82.499 82.454 83.752 89.094 89.912 89.459 88.674 82.772 82.452 82.424 82.474 82.487 82.434 82.532 82.559 82.699 84.097 84.239 83.674 83.647 83.917 83.957 83.339 83.209 83.169 83.142
108.884 108.882 108.854 108.869 108.854 108.844 108.837 108.829 108.834 108.847 108.837 108.822 108.832 108.827 108.799 108.742 108.737 108.724 108.707 108.669 108.652 108.629 108.594 108.544 108.524 108.484 108.459 108.449 108.437 108.412 108.394 108.364 108.309 108.294 108.272 108.222 108.167 108.107 108.037 108.012 107.959 107.929 107.912 107.884 107.877 107.844 107.822 107.782 107.752 107.704 107.669 107.617 107.559 107.512 107.479 107.454 107.412 107.372 107.339 107.297 107.279 107.262 107.224 107.164 107.132 107.072 107.024 106.969 106.932 106.897 106.857 106.814 106.792 106.742 106.707 106.692 106.632 106.592 106.542 106.484 106.432 106.379 106.332 106.284 106.227 106.174 106.124 106.087 106.034 105.997 105.972 105.939 105.932 105.887 105.844 105.809 105.797 105.809 105.784 105.742 105.697 105.664 105.602 105.552 105.507 105.434 105.382 105.319 105.267 105.209 105.134 105.069 104.957 104.807 104.724 104.662 104.632 104.612 104.574 104.527 104.502 104.467 104.412 104.352 104.292 104.234 104.172 104.039 103.814 103.602 103.399 103.242 103.604 103.349 103.299 102.622 102.607 102.522 102.429 102.064 102.382 102.364 103.332 102.009 101.892 101.772 101.647 101.859 101.899 101.852 101.642 101.597 101.542 101.432 101.294 101.164 101.637 105.379 105.964 106.529 106.619 101.694 100.879 100.609 100.224 100.162 100.147 100.147 100.379 100.282 100.034 99.994 100.319 101.467 100.982 101.129 101.017 100.269 98.634 98.492 98.342 98.524 100.414 103.522 102.442 100.139 98.447 97.619 97.427 97.252 96.277 95.994 95.822 95.859 95.864 95.929 95.922 96.929 95.839 95.699 96.807 101.247 101.254 101.247 96.024 95.132 94.534 94.434 94.347 94.244 94.174 94.172 94.417 94.109 93.617 94.119 93.444 95.334 95.257 94.417 92.314 92.264 92.249 92.247 92.062 91.984 92.107 92.907 94.754 95.762 95.599 95.802 94.559 94.274 95.369 95.469 94.642 95.652 94.459 90.407 89.884 92.444 93.854 93.092 94.192 93.987 93.839 93.874 93.237 92.397 93.804 93.437 88.837 88.274 88.384 88.334 88.347 88.217 88.169 88.047 87.904 87.774 87.722 87.639 87.564 87.172 87.169 87.147 87.094 86.812 86.817 86.529 86.614 86.164 86.187 86.169 86.237 86.109 85.979 85.852 85.789 85.487 85.072 84.784 84.722 84.867 85.622 84.877 84.394 84.327 84.602 84.119 83.817 83.269 83.282 83.062 82.559 82.244 82.147 82.089 81.977 81.952 81.959 81.889 81.844 83.242 81.624 81.479 81.357 81.204 81.304 81.527 80.954 80.907 80.859 80.797 80.739 80.652 80.532 80.409 80.427 80.412 81.024 80.564 80.409 80.277 80.647 81.574 80.402 80.267 80.254 80.287 80.314 80.422 80.067 79.907 79.869 79.939 82.469 82.394 82.657 82.247 81.964 80.717 80.902 83.024 83.044 80.627 80.624 80.747 82.677 80.997 84.152 84.939 84.942 85.837 83.169 82.262 82.284 82.257 82.289 82.387 84.457 84.347 84.359 82.254 82.274 82.494 82.364 83.197 82.957 85.044 82.614 85.624 82.874 81.972 81.987 82.949 83.862 83.057 87.304 89.534 90.642 89.564 88.304 82.742 82.427 82.444 82.547 82.377 82.992 82.374 82.397 82.557 83.927 83.377 83.464 83.504 83.732 83.524 84.127 83.629 85.789 85.492
108.839 108.847 108.824 108.832 108.824 108.812 108.812 108.802 108.807 108.804 108.814 108.787 108.797 108.797 108.769 108.734 108.719 108.714 108.687 108.654 108.622 108.602 108.562 108.519 108.489 108.459 108.434 108.409 108.389 108.352 108.352 108.337 108.299 108.297 108.269 108.202 108.134 108.077 108.002 107.937 107.909 107.869 107.864 107.849 107.834 107.799 107.769 107.737 107.709 107.667 107.639 107.589 107.547 107.497 107.467 107.424 107.392 107.352 107.304 107.267 107.242 107.202 107.169 107.117 107.084 107.019 106.982 106.942 106.902 106.872 106.827 106.814 106.772 106.714 106.677 106.649 106.597 106.554 106.507 106.459 106.397 106.337 106.297 106.244 106.199 106.154 106.109 106.074 106.039 105.992 105.969 105.942 105.909 105.874 105.842 105.782 105.737 105.739 105.737 105.694 105.647 105.602 105.544 105.499 105.444 105.397 105.334 105.299 105.244 105.182 105.122 105.042 104.937 104.787 104.702 104.652 104.644 104.642 104.619 104.584 104.544 104.477 104.407 104.342 104.262 104.182 104.119 104.032 103.864 103.659 103.439 103.274 103.252 103.134 103.349 102.632 102.517 102.367 102.157 102.067 107.742 107.929 108.092 103.762 101.992 101.869 102.067 101.844 101.934 101.907 101.734 102.592 101.679 101.494 101.282 101.149 102.994 107.767 108.044 107.067 106.774 101.837 100.977 100.484 100.239 100.177 100.152 100.144 100.209 101.589 99.879 99.747 99.719 100.644 99.754 99.364 98.842 98.629 98.537 98.429 98.377 98.502 98.284 98.667 98.939 99.957 99.594 97.817 97.509 97.514 96.664 96.034 95.962 95.874 95.894 95.914 95.922 97.262 95.847 95.724 99.789 101.242 101.222 101.159 96.074 95.567 95.249 94.527 94.404 94.329 94.877 94.637 95.054 94.152 94.489 95.042 94.202 93.857 93.694 94.674 93.372 92.969 92.769 92.517 92.347 92.222 91.952 94.527 98.069 98.169 98.434 98.167 98.164 98.162 98.162 98.159 98.144 98.147 97.119 90.562 89.922 95.994 96.384 96.674 96.379 96.404 96.394 96.364 96.377 96.959 96.377 95.947 88.979 88.299 92.319 93.904 94.209 90.452 94.232 93.787 93.797 93.802 92.197 93.092 93.772 90.989 93.307 91.679 93.287 93.312 92.304 87.472 87.572 86.312 90.842 92.024 92.052 92.084 92.022 91.497 89.027 85.477 85.334 85.699 85.034 85.357 88.382 85.009 84.782 84.344 84.224 84.069 83.867 83.449 83.139 83.019 82.629 82.184 82.092 82.044 81.929 81.997 81.974 82.554 82.017 82.169 81.862 81.522 81.482 81.229 81.139 81.047 80.914 82.224 80.899 80.702 80.629 80.564 80.489 80.399 80.279 80.184 80.229 80.239 80.857 80.134 80.142 80.249 80.167 80.032 80.099 80.104 80.197 80.264 79.787 79.707 80.874 79.827 79.867 80.052 80.299 80.792 81.337 82.909 84.244 83.034 82.342 80.619 80.742 81.444 81.859 80.872 83.774 84.429 85.899 85.739 81.994 82.197 82.299 82.199 82.217 82.249 84.382 84.362 83.109 82.024 82.299 83.837 82.314 82.287 82.182 82.147 82.969 85.002 81.929 81.879 81.819 81.847 81.892 82.379 88.699 90.629 90.404 89.237 88.717 82.332 82.357 82.354 82.754 82.237 83.767 82.227 82.254 82.384 82.932 82.997 82.607 84.052 83.512 83.454 83.227 83.244 83.869 84.939
108.814 108.817 108.804 108.807 108.799 108.799 108.794 108.777 108.779 108.764 108.757 108.742 108.727 108.722 108.707 108.699 108.687 108.679 108.659 108.627 108.597 108.559 108.532 108.489 108.457 108.439 108.409 108.369 108.337 108.337 108.312 108.309 108.287 108.284 108.252 108.207 108.117 108.039 107.967 107.907 107.859 107.834 107.824 107.802 107.792 107.749 107.737 107.699 107.659 107.637 107.609 107.562 107.512 107.464 107.434 107.389 107.354 107.319 107.287 107.237 107.187 107.159 107.114 107.072 107.034 106.982 106.957 106.914 106.879 106.827 106.809 106.779 106.752 106.717 106.707 106.682 106.614 106.537 106.474 106.409 106.347 106.289 106.244 106.189 106.147 106.112 106.079 106.084 106.062 105.992 105.954 105.934 105.917 105.862 105.839 105.787 105.729 105.729 105.704 105.639 105.602 105.552 105.494 105.434 105.404 105.357 105.314 105.269 105.204 105.157 105.094 105.027 104.947 104.839 104.734 104.682 104.694 104.692 104.634 104.582 104.522 104.449 104.369 104.299 104.232 104.162 104.087 104.009 103.872 103.692 103.459 103.287 103.247 103.239 103.104 102.609 102.537 102.399 102.214 102.149 107.937 109.477 109.027 104.734 101.979 101.912 102.279 101.854 101.947 101.947 101.804 101.697 103.039 101.607 101.422 101.239 102.449 107.749 108.802 107.069 104.284 102.209 101.069 100.694 100.272 100.212 100.204 101.744 105.689 101.697 99.869 99.869 99.804 99.589 99.527 99.297 99.032 99.494 99.874 100.097 100.369 98.184 98.124 97.967 100.522 101.749 103.244 103.462 97.574 97.657 96.844 96.214 96.039 95.892 95.919 95.889 95.947 96.719 96.049 96.467 95.637 95.602 95.619 95.767 95.792 95.742 95.214 94.832 94.709 94.717 94.517 94.352 94.862 94.209 95.212 94.684 93.362 93.322 93.277 94.264 93.379 93.017 92.912 93.399 92.609 92.464 92.104 93.589 98.169 99.132 99.234 99.222 99.229 99.249 99.244 99.237 99.227 98.582 97.369 90.649 90.367 96.022 97.257 97.462 97.427 97.429 97.434 97.434 97.427 97.427 97.157 95.939 89.094 88.317 95.642 95.752 95.772 95.792 95.772 95.777 95.384 95.362 95.357 95.387 95.374 95.424 94.907 94.897 94.937 94.912 94.929 89.469 87.399 86.567 91.697 93.127 93.204 94.142 93.199 92.982 89.207 85.667 86.774 87.087 85.197 91.144 91.552 88.642 84.957 84.442 84.224 84.159 83.869 83.782 83.197 82.689 82.417 82.159 82.044 82.007 81.897 81.947 82.354 81.567 81.384 81.427 81.394 81.209 81.179 81.184 81.092 81.252 80.962 80.847 81.162 80.572 80.499 80.439 80.382 80.327 80.247 80.157 80.034 80.022 80.037 79.957 79.904 79.969 79.997 79.889 79.932 79.934 80.052 80.034 79.449 80.447 79.557 79.662 79.744 79.804 79.857 79.939 80.059 79.539 80.629 82.169 80.614 80.554 80.574 83.137 80.754 80.804 83.007 83.169 83.074 83.242 81.009 81.382 81.839 82.144 82.147 82.259 83.179 81.719 81.267 81.924 82.199 83.627 82.222 82.412 83.119 84.772 84.619 84.762 82.159 81.852 81.819 81.854 81.949 83.829 89.132 90.404 89.992 88.719 84.027 82.504 82.252 82.602 84.079 82.077 82.737 82.079 82.102 82.244 82.559 82.787 85.742 88.964 89.062 88.799 87.852 87.709 82.877 83.679
108.797 108.794 108.787 108.772 108.754 108.747 108.747 108.747 108.739 108.729 108.709 108.707 108.707 108.694 108.687 108.669 108.664 108.639 108.617 108.614 108.574 108.532 108.502 108.462 108.432 108.387 108.359 108.329 108.314 108.287 108.274 108.282 108.292 108.282 108.237 108.197 108.094 107.992 107.904 107.839 107.829 107.812 107.789 107.772 107.749 107.734 107.704 107.652 107.612 107.574 107.542 107.509 107.469 107.439 107.399 107.369 107.329 107.279 107.254 107.187 107.137 107.112 107.072 107.022 106.992 106.957 106.922 106.894 106.852 106.797 106.782 106.759 106.749 106.747 106.727 106.719 106.642 106.537 106.449 106.394 106.329 106.279 106.229 106.177 106.142 106.102 106.112 106.124 106.074 106.002 105.947 105.929 105.907 105.914 105.874 105.829 105.774 105.734 105.684 105.637 105.577 105.512 105.462 105.419 105.377 105.324 105.269 105.217 105.159 105.109 105.047 104.972 104.909 104.849 104.787 104.739 104.699 104.649 104.592 104.539 104.482 104.409 104.337 104.262 104.202 104.129 104.057 103.972 103.872 103.719 103.467 103.309 103.222 103.179 102.847 102.577 102.544 102.424 102.252 102.252 107.812 109.449 108.969 106.557 102.044 101.969 102.982 101.727 101.722 101.724 102.094 101.942 101.689 102.642 101.477 101.304 101.337 107.654 108.894 107.194 104.429 102.622 101.112 101.144 100.422 100.384 100.387 100.302 100.324 100.614 102.174 100.117 99.727 99.844 99.527 99.097 99.342 99.304 98.682 98.559 98.427 98.367 98.264 97.937 103.527 103.467 103.479 103.474 98.109 97.519 96.837 96.409 96.107 95.907 95.944 95.909 95.987 96.049 95.994 96.137 95.892 95.984 95.912 96.804 97.462 96.057 94.972 94.799 94.652 94.497 94.449 94.439 94.514 94.282 94.697 94.587 93.317 93.302 93.234 97.434 98.922 95.607 93.649 92.894 93.762 92.654 92.239 93.887 98.027 98.152 98.149 98.149 98.149 98.159 98.137 98.147 98.214 98.134 97.377 90.697 89.837 96.064 96.339 96.534 96.349 96.337 96.334 96.332 96.309 96.494 96.322 95.947 89.407 88.392 96.674 96.669 96.859 96.639 96.607 96.619 96.627 96.582 96.572 96.144 96.367 95.722 96.144 95.632 95.674 95.677 95.649 89.002 86.667 86.422 91.569 93.239 94.272 94.327 94.172 93.052 89.602 85.962 87.817 88.297 91.272 92.027 92.359 91.404 86.002 85.044 84.277 84.179 84.052 83.534 83.044 82.789 82.362 82.129 82.017 81.967 81.872 81.909 82.654 81.362 81.357 81.204 81.177 81.062 81.062 81.447 81.147 81.409 80.659 80.844 80.892 81.219 80.474 80.299 80.252 80.212 80.182 80.119 80.034 79.937 79.844 79.837 79.779 79.822 79.832 79.782 79.807 79.784 79.912 79.592 79.192 79.177 79.242 81.692 79.544 79.704 79.779 79.814 79.474 79.492 79.534 80.249 83.739 82.102 80.544 80.819 80.702 80.762 82.867 82.259 83.149 81.899 80.859 81.557 80.889 81.312 81.289 82.184 82.187 80.702 80.694 80.944 82.084 82.497 82.494 83.989 84.502 84.894 85.089 85.814 82.634 81.787 81.814 81.864 81.912 86.744 89.589 90.457 89.559 89.207 82.602 82.609 83.502 83.362 82.139 81.922 81.887 81.917 81.994 82.122 82.494 82.484 83.134 88.944 90.207 90.127 89.342 86.517 82.959 83.337
108.757 108.757 108.782 108.722 108.704 108.697 108.702 108.704 108.692 108.687 108.667 108.664 108.649 108.649 108.644 108.617 108.617 108.594 108.559 108.542 108.502 108.472 108.442 108.414 108.382 108.349 108.324 108.297 108.269 108.259 108.224 108.202 108.189 108.169 108.117 108.057 107.979 107.922 107.859 107.804 107.777 107.749 107.742 107.714 107.682 107.662 107.629 107.582 107.552 107.527 107.489 107.459 107.422 107.392 107.377 107.332 107.302 107.249 107.189 107.117 107.069 107.022 106.984 106.932 106.902 106.887 106.869 106.849 106.804 106.767 106.729 106.684 106.684 106.672 106.674 106.614 106.574 106.507 106.442 106.384 106.324 106.277 106.222 106.167 106.122 106.097 106.107 106.129 106.094 106.044 105.994 105.954 105.929 105.919 105.877 105.832 105.767 105.724 105.674 105.622 105.557 105.512 105.454 105.389 105.352 105.292 105.232 105.184 105.112 105.054 104.999 104.944 104.859 104.814 104.774 104.712 104.649 104.612 104.567 104.507 104.434 104.374 104.297 104.222 104.154 104.089 104.017 103.939 103.857 103.702 103.474 103.289 103.184 103.174 102.747 102.879 102.537 102.964 102.904 102.287 107.632 109.324 109.129 107.277 102.044 101.992 101.937 101.639 101.882 102.119 102.919 102.569 101.672 101.762 102.182 101.604 101.412 107.569 108.947 107.299 101.234 101.012 100.742 100.647 100.422 100.289 100.252 100.192 100.262 100.864 100.329 100.277 99.449 99.347 99.332 99.112 98.977 98.874 98.724 98.634 98.462 98.394 98.287 98.044 98.617 103.497 103.512 103.527 99.647 98.537 97.827 96.589 96.109 95.932 95.947 95.944 96.002 96.067 96.512 96.412 95.959 101.584 101.557 101.559 101.717 95.742 95.384 94.797 94.674 94.542 94.724 94.509 94.632 94.502 94.372 95.139 93.299 93.247 93.922 100.232 99.629 98.997 96.494 93.414 93.227 92.824 92.412 92.669 93.714 93.162 94.074 92.789 92.734 92.782 92.414 93.162 95.692 95.647 93.779 91.049 89.822 91.694 91.622 92.342 92.364 91.632 91.722 91.007 91.507 91.569 91.554 92.339 89.804 88.482 94.854 94.994 94.974 94.952 94.924 94.932 96.012 96.549 96.564 94.472 94.469 94.032 93.962 93.977 93.997 93.952 93.942 88.914 86.892 86.434 90.904 93.147 93.277 93.942 93.292 93.047 88.817 86.332 87.979 89.877 91.709 92.649 93.172 92.647 91.259 87.354 84.997 84.177 83.799 83.494 83.157 82.679 82.399 82.132 81.989 81.944 81.849 81.877 82.107 81.392 81.327 81.274 81.142 81.399 81.204 81.322 81.094 81.104 81.094 80.542 80.692 80.757 80.522 80.372 80.179 80.082 80.047 80.042 79.992 79.917 79.827 79.729 79.789 79.689 79.622 79.637 79.639 79.689 79.782 79.467 79.114 79.074 84.934 85.537 83.159 79.442 79.674 79.377 79.404 79.449 79.504 79.524 79.919 83.649 80.697 80.844 80.829 81.172 82.914 82.142 83.184 80.949 80.797 80.809 80.774 80.742 80.749 80.744 82.422 80.654 80.634 80.647 82.262 81.417 81.284 81.129 83.827 82.702 83.087 81.627 82.169 82.267 82.074 81.827 82.244 87.484 88.722 89.162 89.119 86.999 82.162 81.799 81.732 81.904 81.782 81.717 81.764 81.774 81.879 82.139 82.387 82.642 84.004 89.214 90.499 90.397 89.099 84.234 83.389 83.412
108.692 108.679 108.684 108.672 108.654 108.654 108.647 108.647 108.649 108.647 108.637 108.624 108.612 108.604 108.594 108.564 108.564 108.529 108.514 108.462 108.432 108.399 108.384 108.369 108.347 108.322 108.304 108.269 108.234 108.219 108.172 108.142 108.092 108.059 108.004 107.954 107.897 107.849 107.794 107.739 107.704 107.682 107.657 107.624 107.599 107.569 107.537 107.507 107.472 107.447 107.437 107.397 107.379 107.344 107.317 107.262 107.217 107.167 107.097 107.014 106.942 106.912 106.864 106.822 106.819 106.844 106.837 106.799 106.767 106.734 106.702 106.662 106.632 106.592 106.562 106.532 106.494 106.452 106.417 106.377 106.332 106.284 106.242 106.182 106.124 106.087 106.104 106.104 106.064 106.039 105.982 105.964 105.904 105.852 105.817 105.769 105.732 105.687 105.644 105.587 105.534 105.484 105.429 105.364 105.294 105.257 105.194 105.134 105.077 105.019 104.957 104.909 104.834 104.792 104.742 104.677 104.629 104.584 104.544 104.479 104.409 104.342 104.277 104.194 104.129 104.057 103.979 103.904 103.797 103.657 103.447 103.277 103.217 103.157 102.914 104.189 104.144 102.607 102.379 102.274 106.139 109.139 109.259 107.637 102.012 101.959 101.834 102.239 101.819 102.337 102.732 101.939 101.629 101.677 101.547 101.457 101.252 107.474 108.962 107.387 101.304 100.894 100.802 100.629 100.427 100.329 100.287 100.232 100.189 100.352 100.202 99.799 99.562 99.412 99.279 99.139 99.012 98.907 98.699 98.607 98.462 98.354 98.252 98.064 98.032 103.512 103.492 103.484 99.804 97.674 97.464 97.059 96.117 95.957 95.962 95.967 96.027 96.072 96.084 96.054 95.987 101.567 101.572 101.587 100.177 96.149 95.867 95.957 96.199 95.834 95.644 94.762 94.674 97.317 94.429 94.659 93.749 94.449 99.162 99.789 100.259 99.694 99.067 96.897 93.057 92.947 92.694 91.779 91.764 91.987 91.374 91.382 91.267 91.669 91.259 91.212 94.229 92.064 90.717 90.739 89.897 89.882 90.047 90.199 89.842 89.642 90.424 89.564 89.542 90.522 89.617 89.382 89.827 88.459 88.739 88.404 88.434 88.532 88.297 88.364 88.364 90.687 89.737 88.057 88.102 87.429 87.592 87.627 87.584 87.272 87.392 87.104 86.912 86.404 91.964 92.842 92.102 92.169 90.769 91.097 88.312 86.279 87.757 85.369 90.804 91.879 92.894 92.927 92.009 91.217 87.509 84.259 83.909 83.509 83.114 82.814 82.922 82.132 82.004 81.909 81.842 81.837 81.962 81.424 81.297 81.242 81.179 81.264 82.002 81.147 85.697 85.639 81.014 81.144 80.449 81.617 80.862 80.894 80.187 80.072 79.929 79.922 79.912 79.867 79.777 79.689 79.574 79.504 79.439 79.452 79.474 79.572 79.649 79.309 79.032 83.757 85.854 86.509 85.624 83.567 79.287 79.289 79.367 79.419 79.462 79.497 81.289 82.604 80.832 81.554 80.904 80.962 81.524 82.244 83.134 80.679 80.702 80.717 80.664 80.659 80.647 80.644 81.589 80.537 80.512 80.614 81.334 80.874 81.139 81.002 81.352 81.507 82.982 81.242 81.869 83.047 83.027 82.912 82.537 82.779 81.762 84.584 87.637 83.449 81.747 81.709 81.632 82.059 81.612 82.029 81.597 81.612 81.749 82.639 82.392 82.389 87.784 89.469 91.222 90.197 88.882 83.157 83.894 83.832
108.592 108.594 108.589 108.582 108.587 108.587 108.587 108.592 108.592 108.592 108.582 108.552 108.534 108.509 108.487 108.464 108.437 108.414 108.409 108.392 108.389 108.389 108.377 108.364 108.327 108.292 108.239 108.204 108.164 108.129 108.087 108.052 108.017 107.972 107.924 107.879 107.827 107.772 107.737 107.689 107.637 107.604 107.572 107.529 107.504 107.472 107.427 107.394 107.377 107.347 107.314 107.304 107.284 107.259 107.214 107.162 107.119 107.044 106.942 106.879 106.814 106.782 106.742 106.719 106.734 106.767 106.762 106.747 106.717 106.699 106.667 106.632 106.594 106.559 106.522 106.479 106.429 106.382 106.347 106.307 106.292 106.229 106.194 106.159 106.124 106.087 106.037 106.037 105.994 105.957 105.949 105.874 105.917 106.049 106.117 105.987 105.859 105.782 105.727 105.654 105.597 105.524 105.437 105.367 105.312 105.254 105.199 105.137 105.104 105.032 104.957 104.904 104.847 104.799 104.749 104.699 104.639 104.584 104.537 104.487 104.414 104.344 104.284 104.194 104.107 104.027 103.944 103.852 103.737 103.564 103.364 103.239 103.197 103.117 102.922 104.842 104.699 102.564 102.462 102.197 105.277 109.009 109.777 107.772 102.017 101.942 101.824 102.229 101.779 101.872 101.632 102.089 102.412 101.717 101.572 101.464 101.114 107.412 108.157 107.489 101.752 100.944 100.802 100.654 100.404 100.324 100.297 100.282 100.292 100.417 100.567 100.207 100.902 99.337 99.277 99.209 99.147 99.132 98.734 98.597 98.459 98.364 98.197 97.934 98.092 103.469 103.464 103.459 102.474 97.702 97.509 96.917 96.127 96.027 95.982 95.987 96.049 96.064 96.164 96.119 96.052 101.687 101.689 101.719 101.449 96.677 95.492 94.987 94.904 94.847 94.607 94.482 94.827 98.059 94.497 96.209 94.119 93.142 96.529 99.079 99.729 100.302 99.777 99.149 97.137 93.057 95.089 94.132 92.352 92.347 91.964 91.804 91.762 91.732 91.594 91.574 91.482 91.172 90.994 91.019 90.429 90.397 90.374 91.002 90.094 90.082 90.199 89.654 89.569 89.532 89.487 89.334 89.269 88.649 88.762 88.442 88.704 88.494 88.332 88.579 89.527 89.467 89.382 90.372 88.094 87.509 87.547 87.619 87.489 87.267 87.214 87.222 87.064 86.439 91.772 92.647 90.579 86.674 86.034 86.384 85.959 87.054 87.637 85.469 85.559 91.149 93.332 93.364 92.892 91.929 86.974 85.632 83.902 83.607 83.334 83.247 82.987 82.077 81.992 81.877 81.819 81.777 81.797 83.384 81.412 81.227 81.152 81.134 81.182 87.072 87.869 87.799 82.404 80.977 80.684 80.457 80.564 80.624 80.187 80.137 79.942 79.834 79.782 79.772 79.702 79.617 79.539 79.429 79.384 79.312 79.309 79.434 79.392 78.977 82.122 85.739 86.699 87.444 86.632 86.689 86.929 79.209 79.259 79.354 79.427 79.874 82.564 81.592 79.969 79.737 80.232 81.559 81.084 83.009 83.039 80.634 80.759 80.604 80.607 80.629 80.739 80.554 80.492 80.419 80.434 80.982 80.844 80.867 80.817 80.872 81.132 83.307 81.279 81.442 80.812 80.817 82.829 83.044 80.844 81.794 82.854 81.962 82.044 82.049 82.149 81.444 81.452 81.609 81.432 82.757 81.439 81.439 81.579 82.774 82.302 82.377 87.252 89.684 90.904 89.932 88.609 82.692 83.372 83.137
108.454 108.442 108.437 108.437 108.437 108.452 108.454 108.457 108.449 108.439 108.414 108.397 108.377 108.349 108.334 108.312 108.284 108.302 108.269 108.267 108.249 108.242 108.234 108.222 108.199 108.147 108.094 108.044 107.999 107.957 107.914 107.867 107.827 107.789 107.769 107.742 107.699 107.662 107.632 107.564 107.507 107.477 107.422 107.394 107.347 107.307 107.257 107.219 107.187 107.149 107.104 107.087 107.084 107.037 107.019 106.959 106.914 106.822 106.704 106.652 106.609 106.572 106.549 106.514 106.527 106.567 106.582 106.537 106.534 106.499 106.457 106.404 106.352 106.294 106.259 106.207 106.139 106.067 106.037 105.994 105.949 105.914 105.892 105.839 105.809 105.774 105.764 105.824 105.834 105.814 105.799 105.817 106.534 106.597 107.142 107.852 107.609 107.802 107.957 106.272 106.192 106.722 106.897 107.044 106.482 106.887 105.412 105.757 105.159 105.047 104.972 104.902 104.859 104.832 104.777 104.717 104.652 104.587 104.537 104.484 104.397 104.339 104.239 104.157 104.084 104.002 103.894 103.747 103.589 103.419 103.267 103.247 103.222 103.139 103.087 104.854 104.887 102.572 102.477 102.179 105.364 108.452 109.227 107.897 102.037 101.954 101.982 101.597 101.644 102.237 101.627 101.627 101.597 101.647 102.037 101.509 101.112 106.537 106.169 105.992 102.197 100.992 100.842 100.704 100.464 100.354 100.319 100.294 100.247 100.394 100.539 100.279 99.672 100.107 99.394 99.332 99.164 99.019 98.779 98.597 98.497 98.392 98.309 98.667 98.057 103.444 102.814 102.484 100.049 97.704 97.457 96.464 96.154 96.007 96.052 96.004 96.037 96.077 97.422 97.382 96.212 100.672 101.519 101.529 101.552 95.969 95.622 95.079 94.992 94.844 94.719 94.667 95.589 98.119 94.552 95.999 94.164 93.157 93.099 94.447 99.052 99.667 100.267 99.867 93.982 93.074 95.994 94.547 92.409 92.407 92.109 91.917 91.864 91.739 91.687 91.627 91.417 91.059 90.982 90.984 92.607 90.564 90.524 90.837 90.194 90.254 90.204 89.707 89.632 89.602 89.424 89.332 89.389 91.464 90.637 88.522 88.552 88.624 88.364 88.429 88.789 88.132 89.809 90.029 88.324 89.182 87.799 87.887 88.282 87.507 87.302 87.239 87.179 86.694 86.722 87.224 86.759 86.659 86.087 87.489 88.442 87.534 87.152 85.419 85.259 85.549 92.734 93.334 93.112 85.467 85.209 84.254 84.067 83.804 83.597 83.527 82.969 82.279 81.987 81.857 81.799 81.724 81.747 81.539 81.349 81.184 81.142 85.864 87.464 88.307 89.117 88.619 87.392 83.052 80.912 80.732 80.392 80.219 80.214 79.939 80.507 79.827 79.724 79.627 79.614 79.572 79.489 79.419 79.312 79.232 79.182 79.277 79.147 79.862 83.647 84.962 85.837 86.807 87.377 87.439 87.442 86.147 79.172 79.229 79.339 81.177 82.174 79.662 78.959 79.639 79.694 79.792 80.282 80.627 81.179 80.592 80.532 80.559 80.592 80.577 80.554 81.289 80.327 80.319 80.319 81.694 80.807 80.812 80.727 80.889 81.939 81.644 80.944 81.077 80.729 80.729 80.759 80.822 80.837 84.459 82.842 80.814 81.087 81.317 81.414 81.324 81.227 81.159 81.204 81.242 81.282 81.272 81.399 81.799 81.999 84.224 88.932 89.594 89.844 89.677 88.419 84.404 82.644 82.614
108.117 108.107 108.107 108.082 108.069 108.054 108.034 108.019 107.997 107.962 107.944 107.899 107.862 107.859 107.844 107.839 107.832 107.794 107.784 107.789 107.757 107.714 107.697 107.677 107.639 107.614 107.579 107.554 107.494 107.459 107.417 107.359 107.322 107.299 107.272 107.249 107.219 107.197 107.167 107.142 107.104 107.067 107.029 106.989 106.942 106.897 106.869 106.824 106.779 106.729 106.689 106.657 106.604 106.569 106.547 106.492 106.472 106.389 106.289 106.222 106.167 106.129 106.092 106.059 106.044 106.094 106.104 106.082 106.089 106.039 105.992 105.937 105.892 105.844 105.799 105.747 105.699 105.657 105.592 105.547 105.464 105.469 105.402 105.352 105.349 105.344 105.382 105.462 105.509 105.577 105.642 105.792 106.009 105.577 105.612 105.634 105.417 105.322 105.514 105.584 105.299 105.437 105.489 105.749 106.119 105.622 105.534 105.814 105.169 105.054 105.172 105.434 104.887 104.837 104.727 104.724 104.624 104.502 104.404 104.377 104.272 104.157 104.069 104.024 104.112 104.452 103.722 103.642 103.507 103.514 103.322 103.234 103.262 103.319 103.239 103.879 103.454 103.307 102.362 102.144 103.907 107.392 109.229 107.922 102.067 102.162 101.747 101.582 101.572 101.772 101.602 101.599 101.567 101.609 101.704 101.467 101.104 101.117 101.047 101.177 101.117 100.957 100.829 100.739 100.972 100.369 100.572 100.552 100.719 101.269 101.397 99.742 100.504 99.362 99.287 99.187 99.067 98.992 98.769 98.609 98.489 98.619 99.054 99.389 99.294 97.849 97.834 97.834 97.762 97.472 96.992 96.454 96.192 96.032 96.984 96.017 96.019 96.082 96.749 96.027 95.974 99.057 101.487 101.494 101.482 98.422 95.767 95.174 95.087 94.917 94.787 96.649 95.179 97.832 96.162 95.859 94.517 93.279 93.319 93.232 93.184 98.989 99.607 95.672 93.202 93.202 93.657 93.794 92.414 92.417 92.697 91.997 91.922 91.842 91.732 91.662 94.167 91.947 91.184 91.222 90.649 90.619 90.562 90.627 90.229 90.339 91.624 89.832 89.769 90.034 90.297 91.369 90.322 91.317 90.819 88.599 88.657 88.802 88.412 88.447 89.047 88.107 89.709 89.457 88.144 88.942 87.842 87.857 88.194 87.507 87.324 87.239 87.167 86.714 86.702 86.672 86.454 86.709 86.079 88.287 88.189 87.932 85.799 85.374 85.224 85.169 87.222 92.017 84.922 84.657 85.564 84.632 84.064 83.882 83.847 83.872 82.972 82.504 81.977 81.827 81.774 82.874 81.727 81.434 81.247 82.027 87.019 87.814 88.704 89.587 89.869 89.024 88.054 86.614 80.912 80.792 80.187 80.207 79.882 79.857 80.162 80.384 79.879 79.642 79.482 79.479 79.439 79.352 79.282 79.167 79.074 79.139 79.354 79.014 78.927 79.359 84.719 85.802 86.677 87.444 87.447 86.779 84.867 79.162 80.477 79.614 79.547 78.764 78.727 78.869 79.492 79.642 79.789 79.994 81.444 80.529 80.472 80.629 80.607 80.559 83.779 81.247 80.214 80.234 80.257 81.407 80.652 80.824 80.609 80.592 82.254 80.839 81.499 80.804 80.642 80.664 80.707 80.709 80.827 85.834 87.222 86.784 85.814 80.757 80.789 81.099 81.869 80.987 81.014 81.092 81.129 81.117 81.279 81.384 81.772 82.464 85.304 87.377 88.554 88.794 88.972 89.057 82.482 82.499
107.584 107.574 107.552 107.519 107.494 107.462 107.457 107.434 107.399 107.407 107.379 107.342 107.327 107.324 107.309 107.312 107.309 107.302 107.292 107.269 107.222 107.212 107.184 107.164 107.147 107.109 107.082 107.059 107.034 107.012 106.984 106.972 106.942 106.904 106.874 106.839 106.832 106.804 106.759 106.747 106.694 106.654 106.604 106.587 106.552 106.524 106.474 106.427 106.374 106.332 106.262 106.214 106.172 106.139 106.094 106.059 106.024 105.969 105.892 105.839 105.802 105.772 105.739 105.709 105.682 105.759 105.747 105.712 105.684 105.657 105.604 105.549 105.504 105.474 105.449 105.407 105.374 105.317 105.284 105.259 105.209 105.164 105.117 105.087 105.074 105.064 105.064 105.109 105.194 105.362 105.489 105.817 105.754 105.479 105.394 105.409 105.279 105.227 105.157 105.137 105.139 105.059 105.069 104.987 105.152 104.944 105.014 105.634 104.862 104.857 104.899 104.907 104.872 104.689 104.574 104.439 104.317 104.197 104.057 103.977 103.899 103.817 103.812 103.734 106.517 104.324 103.429 103.449 103.582 103.652 103.284 103.302 103.177 103.149 103.192 102.772 102.702 103.064 103.102 102.274 102.422 104.912 107.839 107.697 101.912 101.804 101.724 101.529 101.567 101.584 101.554 101.577 102.382 101.799 102.579 101.524 101.384 101.242 101.169 101.172 101.699 101.197 103.047 101.692 100.874 102.319 100.289 100.302 100.342 100.282 100.237 99.899 99.472 99.367 99.304 99.399 99.069 98.992 98.792 98.784 98.962 99.432 100.017 98.619 97.982 97.897 98.097 100.589 102.634 98.227 97.597 97.162 96.229 96.137 96.394 96.017 95.984 96.097 96.289 96.084 96.197 97.174 97.752 95.914 95.854 96.402 96.067 96.144 97.309 97.702 97.279 96.412 95.022 95.672 97.832 95.329 95.707 93.324 94.214 93.684 93.509 93.189 96.524 93.272 93.297 93.309 93.177 92.717 92.782 92.412 92.282 92.024 92.272 91.842 91.747 97.074 99.877 95.529 92.089 91.594 90.752 90.717 90.687 91.077 90.477 90.662 93.552 90.252 93.977 100.689 97.787 92.497 90.629 91.242 90.117 88.777 88.769 88.594 88.477 88.424 88.927 88.074 89.644 88.717 87.857 93.217 91.214 87.889 87.899 87.549 87.314 87.262 87.184 86.739 86.749 86.679 86.477 86.179 86.059 87.279 87.054 86.557 85.569 85.324 85.242 85.444 85.174 84.979 84.584 84.377 86.569 89.284 89.774 90.237 89.732 83.922 83.002 82.429 81.937 81.799 81.772 82.554 81.692 81.404 81.249 81.182 87.197 88.357 89.579 89.479 88.654 87.789 86.642 81.064 80.657 82.257 80.424 79.859 79.917 80.989 79.747 79.637 80.047 79.702 79.532 79.349 79.342 79.282 79.214 79.119 78.997 79.027 79.012 79.004 78.824 78.942 79.294 84.807 85.719 86.584 87.454 86.652 85.562 81.212 79.754 79.449 78.827 78.782 79.759 78.689 78.687 79.477 79.639 79.749 79.799 80.869 80.619 80.709 80.734 80.744 80.722 80.349 80.099 80.122 80.934 80.587 80.542 80.984 80.387 82.119 80.272 80.324 80.287 80.324 81.189 81.284 80.637 80.684 80.714 87.044 88.197 87.844 86.729 80.744 81.642 82.014 80.794 80.784 80.857 80.932 80.952 80.984 82.432 82.804 82.472 82.207 82.267 82.269 82.287 82.314 83.074 83.874 82.747 82.962
107.232 107.217 107.214 107.197 107.172 107.157 107.154 107.139 107.129 107.114 107.104 107.082 107.062 107.049 107.032 107.019 107.017 107.007 107.012 106.999 106.979 106.952 106.929 106.919 106.887 106.847 106.809 106.797 106.759 106.747 106.729 106.719 106.689 106.644 106.624 106.599 106.592 106.564 106.547 106.512 106.494 106.454 106.409 106.379 106.352 106.319 106.264 106.227 106.182 106.127 106.074 106.019 105.984 105.947 105.884 105.842 105.784 105.722 105.667 105.612 105.559 105.534 105.529 105.522 105.477 105.542 105.524 105.494 105.459 105.437 105.392 105.347 105.317 105.284 105.254 105.224 105.179 105.139 105.117 105.082 105.044 105.009 104.972 104.942 104.922 104.924 104.927 104.952 104.992 105.142 105.379 106.209 105.574 105.412 105.379 105.249 105.134 105.082 104.984 105.114 104.889 104.872 104.949 104.774 104.862 104.927 104.954 105.279 104.767 104.747 104.932 104.944 104.747 104.544 104.432 104.324 104.184 104.084 103.982 103.894 103.812 103.729 103.684 103.662 104.219 103.649 103.542 103.657 103.582 103.377 103.197 103.094 102.927 102.884 102.929 102.789 102.702 102.602 102.492 102.382 102.264 102.142 102.052 101.939 101.844 101.759 101.652 101.524 101.547 101.574 101.549 101.947 102.124 101.674 103.147 101.569 101.134 105.187 105.027 104.992 102.819 101.189 100.834 100.649 100.512 100.384 100.259 100.627 100.289 100.212 100.092 100.107 99.477 99.392 99.287 99.207 99.074 98.972 98.862 99.189 100.352 100.444 100.324 98.424 97.937 101.844 103.484 103.489 103.512 97.742 97.644 97.412 96.282 96.212 95.999 96.032 96.022 96.074 96.142 96.414 96.399 96.169 96.152 96.149 96.134 96.132 96.132 96.119 95.779 95.027 94.972 95.102 94.894 96.309 100.482 98.552 97.654 94.959 94.349 94.179 93.582 93.249 93.267 93.407 93.362 93.329 93.302 94.314 93.719 92.572 92.467 92.364 92.397 92.232 93.607 96.454 99.049 95.072 91.822 91.589 91.194 91.229 91.179 91.777 91.422 97.587 91.104 90.584 90.587 95.962 105.212 91.197 89.199 89.107 88.882 88.854 88.814 89.812 89.572 88.482 89.457 87.994 87.987 87.844 87.852 88.619 87.864 87.882 87.799 87.367 87.304 87.232 87.209 86.772 86.767 86.747 86.589 86.257 86.084 86.064 86.079 85.994 85.474 85.359 86.234 87.784 87.787 84.917 84.807 84.327 88.869 90.757 91.254 91.169 89.967 83.962 82.977 82.879 81.907 81.767 81.727 81.624 81.657 81.602 81.472 81.372 81.774 87.532 88.729 88.234 87.419 82.597 81.059 80.292 82.129 82.172 79.952 79.787 79.727 83.844 81.419 79.749 79.592 80.024 79.729 79.399 79.197 79.192 79.129 79.049 78.947 78.834 78.919 79.907 79.364 79.777 78.659 78.564 85.162 85.632 86.532 85.629 82.324 78.947 80.789 82.912 78.897 81.399 82.294 82.209 78.669 78.739 79.542 79.644 79.732 80.267 82.194 80.822 81.449 83.037 81.217 80.207 80.059 80.037 81.602 80.354 80.294 80.284 82.429 80.217 80.279 80.282 80.279 80.269 80.327 80.382 80.567 80.992 83.942 87.502 88.464 87.447 86.274 80.654 80.644 80.677 80.979 80.652 80.712 80.784 80.777 80.842 80.969 80.957 80.972 81.942 82.762 83.247 82.402 82.264 82.274 82.302 82.327 83.789
107.127 107.134 107.129 107.127 107.112 107.089 107.064 107.039 107.022 107.009 106.984 106.967 106.949 106.927 106.922 106.902 106.894 106.887 106.887 106.869 106.864 106.862 106.844 106.807 106.782 106.754 106.727 106.704 106.659 106.629 106.627 106.629 106.607 106.577 106.502 106.464 106.442 106.409 106.392 106.359 106.347 106.324 106.279 106.239 106.197 106.174 106.132 106.084 106.047 106.004 105.962 105.912 105.892 105.809 105.754 105.707 105.659 105.594 105.539 105.489 105.449 105.467 105.459 105.442 105.432 105.417 105.389 105.349 105.317 105.289 105.257 105.222 105.199 105.159 105.104 105.097 105.049 105.014 104.984 104.954 104.924 104.877 104.857 104.834 104.809 104.814 104.819 104.847 104.892 104.994 105.349 106.019 105.437 105.309 105.442 105.184 105.069 105.282 104.912 105.102 104.982 104.819 104.834 105.259 105.429 104.889 104.782 105.154 104.652 104.637 105.247 104.572 104.544 104.489 104.367 104.267 104.144 104.044 103.989 103.887 103.797 103.709 103.644 103.627 103.702 104.779 103.534 103.657 103.539 103.419 103.209 102.957 102.824 102.819 102.794 102.777 102.737 102.662 102.337 102.104 102.242 101.949 101.877 101.859 101.849 101.799 102.074 101.592 101.539 101.567 101.542 101.799 101.844 101.699 103.214 101.434 101.127 107.032 107.819 107.717 103.199 100.999 100.832 100.669 100.502 100.384 100.299 100.332 100.282 100.152 100.092 100.384 99.574 99.482 99.362 99.194 99.074 98.982 98.872 98.617 98.477 98.277 98.239 98.179 98.034 99.834 103.502 103.517 103.522 98.062 97.642 97.402 96.529 96.214 96.019 96.034 96.034 96.077 96.132 96.157 96.184 96.217 101.597 101.782 101.782 101.054 98.824 98.579 95.774 95.059 94.984 94.937 94.887 95.587 100.247 96.164 97.737 94.684 94.472 94.172 93.854 93.664 93.597 93.539 93.432 93.302 93.414 92.839 92.742 92.859 92.592 92.549 92.529 93.517 94.694 92.269 92.294 91.784 91.834 91.349 91.297 91.207 91.129 90.832 92.397 93.509 92.402 90.499 90.749 95.552 90.312 89.662 89.167 89.077 88.957 88.899 88.834 88.497 88.379 88.307 88.594 87.969 87.914 87.867 87.884 88.649 87.889 87.807 88.434 87.387 87.312 87.204 87.174 88.304 89.414 89.549 88.147 86.132 86.104 86.067 85.934 85.632 85.514 85.892 87.649 87.282 84.944 84.902 84.857 84.694 86.712 90.664 91.864 91.342 90.102 84.894 83.129 82.964 81.869 81.849 81.692 81.594 81.622 81.577 81.744 81.247 81.997 85.702 87.774 87.042 81.852 81.339 81.449 80.779 81.672 80.069 79.782 79.724 83.819 85.967 85.497 82.077 79.752 79.442 79.432 79.969 80.454 80.152 79.029 78.979 78.874 78.794 79.992 78.714 78.714 78.592 79.799 78.929 80.149 83.284 85.494 83.477 78.747 80.112 84.742 85.742 85.062 79.652 82.639 82.997 82.367 78.644 78.639 79.562 79.742 82.074 82.234 82.202 80.697 82.419 81.382 79.789 79.762 79.987 82.649 80.609 80.097 80.154 81.419 80.967 80.107 80.847 80.167 80.242 80.152 80.184 80.192 80.279 86.784 87.979 88.177 87.009 85.359 80.552 80.547 80.549 80.494 80.824 80.539 80.577 80.659 80.759 80.894 80.862 80.869 80.872 80.897 80.942 81.077 82.589 83.622 82.732 82.467 85.494
107.079 107.069 107.044 107.032 107.034 107.019 107.002 106.982 106.967 106.944 106.919 106.902 106.887 106.869 106.857 106.854 106.842 106.824 106.817 106.802 106.804 106.802 106.774 106.737 106.707 106.684 106.669 106.652 106.622 106.604 106.584 106.564 106.567 106.522 106.467 106.397 106.362 106.342 106.307 106.264 106.237 106.214 106.169 106.139 106.099 106.074 106.037 105.997 105.967 105.947 105.902 105.849 105.774 105.722 105.649 105.614 105.574 105.502 105.462 105.412 105.372 105.354 105.342 105.327 105.332 105.307 105.302 105.259 105.209 105.182 105.144 105.107 105.092 105.062 105.024 105.004 104.997 104.962 104.922 104.874 104.837 104.799 104.777 104.757 104.729 104.722 104.737 104.772 104.829 104.954 105.377 105.919 105.529 105.307 105.152 105.157 105.124 104.994 104.914 104.877 104.869 104.804 104.782 104.962 105.619 105.102 104.782 104.744 104.539 104.554 104.782 104.672 104.414 104.454 104.322 104.227 104.127 104.004 103.949 103.862 103.767 103.702 103.654 103.627 103.724 106.707 103.394 103.367 103.469 103.414 103.154 102.864 102.812 102.742 102.774 102.784 104.857 102.307 101.997 101.794 101.627 103.102 102.757 102.874 101.647 101.617 101.699 101.587 101.522 101.554 101.512 101.824 101.899 101.729 103.069 101.264 101.124 107.017 109.027 107.832 104.574 100.907 100.902 100.737 100.484 100.447 100.304 100.304 100.194 100.252 100.169 100.342 99.644 99.527 99.402 99.254 99.137 98.989 98.847 98.612 98.564 98.262 98.189 98.419 98.549 99.217 103.584 103.717 103.492 98.949 98.047 97.309 97.082 96.222 96.069 96.042 96.034 96.092 96.179 97.947 96.194 96.217 99.952 101.822 101.822 101.824 98.857 98.712 95.922 95.532 96.522 95.939 95.034 97.767 97.257 100.444 98.599 94.754 94.454 94.199 93.949 93.797 93.744 94.614 99.187 97.794 92.957 92.827 92.757 92.787 92.732 93.382 95.069 93.847 94.574 91.854 91.849 91.767 92.422 91.387 91.329 91.807 91.067 90.832 90.744 91.194 93.037 91.292 90.384 90.289 90.269 91.342 89.767 89.022 88.984 88.879 88.884 88.457 88.387 89.587 87.962 88.514 87.879 87.887 88.164 89.359 88.597 87.782 87.742 87.327 87.259 87.199 87.192 88.184 90.047 90.137 89.084 86.312 86.142 86.257 85.747 85.659 85.512 85.492 85.982 84.952 84.897 84.867 84.822 84.752 86.119 90.544 91.779 91.514 90.269 85.677 83.717 83.002 81.839 82.582 81.669 81.584 81.579 81.522 81.314 81.224 81.164 84.062 84.144 81.139 81.537 81.532 80.819 80.542 80.534 79.772 79.709 82.482 85.889 86.817 86.377 85.582 80.719 79.489 79.382 79.684 79.797 79.054 78.919 78.869 78.804 78.722 78.694 78.597 78.549 78.567 78.537 78.417 78.422 78.454 80.149 78.567 79.577 84.667 85.739 85.909 85.064 83.799 83.014 82.894 82.507 82.132 78.617 78.887 81.944 82.197 82.187 79.659 79.577 80.632 80.157 79.967 79.814 80.794 80.974 79.814 80.002 82.059 81.089 80.974 80.892 80.187 79.982 79.994 80.134 82.367 80.269 81.494 87.237 88.402 87.714 86.559 81.684 81.387 80.449 80.559 80.359 81.177 80.387 80.417 80.634 80.847 80.882 80.844 83.927 86.537 83.329 81.162 80.922 81.022 81.107 81.142 83.312 81.307
107.049 107.039 107.017 107.004 106.982 106.979 106.954 106.932 106.909 106.879 106.869 106.839 106.827 106.809 106.789 106.779 106.754 106.727 106.717 106.722 106.714 106.677 106.674 106.659 106.617 106.599 106.579 106.562 106.542 106.502 106.469 106.482 106.467 106.432 106.394 106.322 106.274 106.234 106.214 106.192 106.149 106.122 106.079 106.032 105.987 105.954 105.942 105.909 105.887 105.852 105.764 105.689 105.679 105.624 105.562 105.504 105.452 105.407 105.359 105.314 105.277 105.239 105.217 105.189 105.184 105.204 105.229 105.194 105.152 105.122 105.092 105.067 105.049 105.009 104.982 104.959 104.934 104.909 104.867 104.834 104.789 104.757 104.717 104.697 104.669 104.652 104.667 104.722 104.772 104.869 105.512 106.177 105.379 106.027 105.197 105.039 105.039 104.927 104.884 104.937 104.802 104.779 104.734 106.329 105.334 105.139 104.789 104.782 104.512 104.512 104.672 105.047 104.407 104.524 106.702 106.307 104.139 103.989 103.929 103.864 103.799 103.749 103.684 103.639 103.784 104.594 103.494 103.224 103.207 103.297 103.039 102.869 102.809 102.744 103.239 102.917 104.932 102.229 102.017 101.779 101.617 107.619 107.729 107.612 102.767 101.637 102.047 101.584 102.144 101.542 101.539 101.819 101.889 101.732 102.817 101.264 101.124 106.992 108.707 107.857 103.597 101.662 100.889 100.724 103.102 100.504 100.319 100.282 100.374 100.177 101.687 103.337 100.569 99.519 99.382 99.249 99.127 99.024 98.989 99.299 99.784 100.189 99.317 98.689 97.804 100.502 103.449 103.454 103.447 101.427 97.599 97.297 97.867 96.219 96.139 96.052 96.049 96.099 97.974 100.777 97.964 96.347 97.849 101.862 101.919 101.947 98.552 98.047 96.849 96.009 95.667 95.454 94.944 94.902 95.807 97.439 94.782 96.969 94.429 94.367 94.029 93.924 94.519 100.989 107.392 101.492 95.214 92.852 92.772 92.777 92.864 92.819 93.694 92.217 92.464 91.839 91.822 91.892 91.777 91.399 91.877 91.332 91.269 91.324 91.037 92.787 92.784 90.737 90.369 90.257 90.232 90.324 89.264 88.989 88.912 88.834 88.972 88.464 88.372 88.237 87.977 88.574 87.884 87.887 87.904 87.932 87.764 87.754 87.607 87.339 88.139 88.552 88.934 88.862 90.039 90.144 88.614 86.379 86.257 86.217 85.922 85.582 85.522 85.249 84.969 84.914 84.872 84.782 84.412 84.269 84.712 90.354 91.554 91.617 90.394 86.687 83.727 83.014 81.809 81.974 81.627 81.549 81.534 81.634 81.292 81.229 81.144 81.122 82.877 83.959 81.534 81.524 82.192 81.462 79.827 79.732 79.644 85.532 86.329 87.229 87.339 86.817 85.624 80.974 79.509 79.409 79.192 78.957 78.914 79.237 78.982 78.717 78.667 78.537 78.419 78.362 78.367 78.317 78.347 78.362 78.402 79.352 84.602 85.644 85.642 86.587 85.959 84.917 83.747 82.832 82.192 78.952 78.607 81.214 82.194 82.187 79.744 79.399 79.452 80.224 79.977 80.049 79.987 81.059 80.232 79.682 80.899 80.052 79.677 80.142 80.309 81.682 80.274 80.134 79.987 80.472 80.294 86.529 87.644 88.234 87.262 86.112 80.604 80.499 80.342 80.809 80.187 80.309 80.242 80.257 80.402 80.879 80.862 80.724 84.377 87.382 88.637 88.999 87.114 81.622 81.087 81.124 83.657 83.522
107.034 107.012 106.982 106.952 106.949 106.932 106.904 106.897 106.877 106.844 106.829 106.804 106.784 106.772 106.762 106.744 106.719 106.702 106.677 106.659 106.639 106.609 106.602 106.582 106.562 106.567 106.529 106.497 106.454 106.387 106.344 106.352 106.324 106.292 106.289 106.229 106.187 106.179 106.147 106.114 106.074 106.052 106.004 105.952 105.919 105.897 105.859 105.829 105.794 105.769 105.689 105.594 105.582 105.532 105.477 105.404 105.339 105.274 105.244 105.217 105.172 105.119 105.094 105.067 105.049 105.059 105.137 105.132 105.104 105.084 105.044 105.019 105.009 104.962 104.934 104.909 104.887 104.857 104.822 104.774 104.737 104.709 104.667 104.642 104.619 104.597 104.599 104.639 104.694 104.847 105.404 107.417 105.442 105.242 105.099 104.992 104.947 104.892 104.869 104.942 104.787 104.694 104.934 104.719 104.719 105.609 104.754 104.879 104.567 104.447 104.577 104.389 104.384 104.404 106.707 106.119 104.149 103.984 103.917 103.857 103.837 103.842 103.757 103.589 103.902 104.174 103.404 103.149 103.127 103.274 103.064 102.917 102.859 102.832 104.162 102.764 104.842 102.197 102.052 101.747 101.622 107.792 109.244 107.852 101.829 101.632 102.004 101.564 102.107 101.537 101.554 101.807 101.872 101.739 102.339 101.582 101.227 107.017 108.722 107.864 104.067 101.414 100.962 100.829 101.964 100.529 100.429 100.597 102.092 100.527 102.122 105.342 100.317 99.627 99.937 99.609 98.969 98.794 98.799 98.357 98.159 98.014 97.807 97.902 98.374 97.869 103.422 103.417 103.414 103.109 97.672 98.452 99.282 96.224 96.127 96.057 96.074 96.069 98.199 100.992 97.362 96.684 96.354 101.854 101.854 101.857 100.504 98.989 96.249 96.129 95.367 95.029 94.994 94.914 95.789 97.864 94.864 97.367 97.494 96.249 94.109 94.014 93.949 96.764 101.499 95.392 93.369 93.532 92.929 96.722 99.182 96.329 92.842 92.474 91.787 95.424 98.239 98.114 98.009 97.684 97.049 95.639 91.527 91.517 90.692 90.592 90.709 90.492 90.324 90.249 90.212 90.149 89.259 88.957 88.952 88.864 88.787 88.487 88.367 88.299 87.969 87.939 87.902 87.884 87.844 87.947 87.724 87.609 87.557 87.297 89.074 89.487 89.472 88.417 90.052 90.142 89.167 86.399 86.337 86.259 86.019 85.477 85.042 84.949 84.934 84.912 84.882 84.809 84.474 84.244 84.209 90.204 90.989 90.854 90.502 87.662 83.659 82.502 81.739 81.632 81.602 81.532 81.484 81.487 81.337 81.209 81.149 84.197 84.194 83.289 81.072 80.824 82.264 80.219 79.809 79.647 79.472 79.959 85.462 86.284 87.197 87.344 86.469 85.702 81.777 80.207 78.922 78.869 79.272 78.854 79.224 78.652 78.542 78.419 78.382 78.277 78.189 78.184 78.882 78.304 78.404 78.529 84.372 85.354 84.529 85.534 86.062 84.982 82.569 82.704 79.734 78.519 79.624 79.032 80.659 80.314 79.199 79.297 79.597 79.307 79.127 79.782 80.099 81.367 79.614 79.792 81.667 79.587 79.552 81.204 79.492 79.494 79.544 79.664 80.152 80.202 80.197 82.947 86.604 87.044 86.787 81.069 80.607 80.119 80.124 80.194 79.984 80.039 80.079 80.152 80.534 80.384 80.894 80.547 86.599 87.809 88.999 88.999 88.954 81.032 81.057 81.449 83.799 83.874
106.987 106.972 106.937 106.917 106.892 106.862 106.834 106.819 106.797 106.777 106.759 106.739 106.717 106.704 106.697 106.679 106.669 106.644 106.639 106.589 106.574 106.554 106.547 106.527 106.519 106.497 106.464 106.407 106.349 106.297 106.239 106.209 106.187 106.192 106.187 106.162 106.142 106.112 106.092 106.069 106.027 105.997 105.952 105.919 105.877 105.854 105.809 105.792 105.747 105.719 105.614 105.512 105.474 105.427 105.369 105.322 105.259 105.214 105.159 105.129 105.089 105.042 105.007 104.994 104.977 104.977 105.029 105.059 105.037 104.979 104.897 104.907 104.939 104.927 104.889 104.862 104.847 104.802 104.769 104.734 104.697 104.669 104.634 104.594 104.569 104.542 104.552 104.594 104.649 104.824 107.007 106.794 105.449 105.497 105.154 105.007 104.902 104.774 104.792 104.794 104.829 104.664 104.797 104.622 104.629 105.174 104.664 105.002 104.464 104.374 104.522 104.427 104.384 104.269 106.707 106.064 104.132 104.212 104.182 104.112 103.872 103.854 103.687 103.504 103.579 104.299 103.517 103.204 103.189 104.369 104.207 102.992 102.927 102.892 102.877 103.197 103.187 102.412 102.284 101.617 101.562 107.899 109.324 107.727 101.519 101.547 102.112 101.529 101.517 101.532 101.562 101.789 101.859 101.732 101.837 101.467 101.552 107.039 108.729 107.832 104.139 101.394 100.977 100.697 100.954 100.404 100.462 100.342 100.222 100.167 100.139 100.169 99.947 99.967 99.344 99.142 98.904 98.799 98.702 98.319 98.217 98.064 97.922 99.262 97.884 98.189 97.834 97.824 98.139 97.794 97.659 97.544 96.712 96.414 96.162 96.059 96.099 96.064 96.179 96.952 96.284 96.257 96.434 101.839 101.844 101.839 101.177 99.352 96.612 96.207 95.382 95.052 94.987 98.897 100.899 97.729 94.699 97.309 97.002 96.772 94.409 94.239 93.954 93.707 93.652 93.572 93.417 93.417 98.194 99.672 100.137 98.267 92.864 92.964 91.784 96.064 99.017 99.622 99.704 99.329 98.859 96.629 91.687 91.769 90.652 90.607 90.562 90.479 90.379 90.287 90.212 90.222 89.989 88.964 88.942 88.854 88.789 88.492 88.367 88.297 88.007 87.949 87.922 87.917 87.887 87.909 87.732 87.734 87.534 87.299 88.292 89.372 89.359 88.299 90.072 90.147 88.759 87.314 87.684 86.917 85.994 84.999 84.944 84.932 84.924 84.912 84.897 84.817 84.329 84.114 84.047 89.919 89.874 89.264 87.942 84.499 82.834 82.234 81.689 81.597 81.554 81.514 81.412 81.459 81.352 81.244 81.182 82.059 83.132 83.789 83.707 80.792 80.504 80.397 80.309 79.562 79.509 79.454 79.804 85.374 86.204 86.904 86.062 84.294 79.517 78.822 78.784 78.894 78.817 79.879 78.704 78.504 79.047 78.379 78.319 78.269 78.142 78.037 78.062 79.302 77.929 77.834 78.334 82.769 83.337 84.389 84.837 81.222 81.099 80.699 78.459 78.867 78.744 78.864 78.967 79.017 79.114 79.284 79.254 79.057 79.039 79.054 79.759 81.107 79.584 80.567 80.057 79.512 79.569 79.454 79.342 79.319 79.359 79.327 79.244 79.572 80.909 80.742 79.839 81.489 83.427 80.027 80.337 80.384 80.217 79.844 79.819 79.889 79.899 80.052 80.494 80.174 80.249 81.147 87.077 88.484 89.022 88.982 85.957 80.967 81.049 82.189 83.357 83.489
106.934 106.917 106.882 106.864 106.812 106.792 106.774 106.747 106.727 106.709 106.679 106.669 106.652 106.634 106.619 106.614 106.597 106.579 106.544 106.517 106.507 106.492 106.522 106.499 106.467 106.434 106.372 106.309 106.249 106.212 106.152 106.112 106.117 106.127 106.112 106.087 106.067 106.042 106.014 105.987 105.962 105.942 105.907 105.882 105.847 105.812 105.769 105.742 105.697 105.652 105.519 105.409 105.374 105.344 105.302 105.259 105.212 105.164 105.107 105.067 105.022 104.987 104.947 104.942 104.939 104.922 104.907 104.872 104.824 104.729 104.727 104.737 104.794 104.864 104.837 104.817 104.782 104.757 104.724 104.699 104.672 104.644 104.607 104.569 104.537 104.504 104.497 104.524 104.592 104.797 106.887 109.327 106.677 105.259 105.029 104.907 104.854 104.772 104.764 104.752 104.874 104.544 104.592 104.409 104.282 104.394 104.352 104.757 104.329 104.269 106.302 104.347 104.369 105.504 106.564 106.637 104.487 104.942 103.887 103.812 103.724 103.699 103.619 103.582 103.504 103.869 103.749 103.184 103.212 103.187 103.102 103.022 102.944 102.854 102.932 103.714 102.362 102.292 102.052 101.677 102.762 108.057 109.279 107.629 101.622 101.827 102.134 101.499 101.514 101.522 101.569 101.787 101.834 101.722 102.017 101.399 101.262 107.027 108.349 107.819 104.034 100.924 100.829 100.654 100.464 100.302 100.274 100.227 100.149 100.119 100.074 100.159 101.047 102.384 99.174 99.072 98.849 98.712 98.602 98.882 98.184 98.094 98.317 98.789 98.784 100.589 98.567 98.249 97.789 98.022 98.354 97.687 97.107 97.644 96.182 96.074 96.114 96.069 96.187 96.229 96.382 96.792 96.419 101.152 99.214 98.107 99.364 99.359 97.732 96.862 97.257 95.259 95.089 97.094 95.262 95.779 94.692 95.824 94.704 94.597 94.552 94.479 94.392 93.527 93.574 93.457 93.412 99.049 99.987 100.934 101.082 99.882 95.767 92.817 91.739 96.844 99.162 100.062 100.184 100.142 98.737 94.452 91.769 90.922 90.654 94.037 95.749 90.507 90.404 90.322 90.309 90.317 90.462 88.977 88.994 88.947 88.892 88.587 88.419 88.357 88.072 87.982 87.922 88.042 88.039 87.982 87.734 87.719 87.617 87.324 87.822 88.504 87.622 87.537 88.557 88.324 87.752 87.257 86.507 86.279 86.289 85.237 84.922 84.907 84.879 84.887 84.897 84.849 84.659 84.102 84.029 83.959 83.847 83.694 83.532 83.272 82.864 82.292 81.704 81.582 81.524 81.472 81.377 81.392 81.579 81.604 80.919 83.967 83.877 85.089 86.724 82.139 80.384 80.304 80.417 79.557 79.459 79.467 79.449 79.442 85.294 86.022 84.874 79.574 78.919 78.789 83.127 78.782 78.752 78.737 79.612 78.567 78.867 78.517 78.244 78.197 78.127 78.019 77.894 77.939 77.877 77.732 77.824 78.064 82.254 82.664 78.672 79.234 78.759 78.322 79.034 78.494 83.144 81.229 79.032 78.944 79.134 79.112 78.984 79.012 79.012 79.014 79.107 79.387 80.597 81.049 81.612 80.739 79.557 79.444 79.387 79.307 79.269 79.674 85.254 83.454 80.187 79.124 80.289 80.632 79.854 79.679 79.749 79.844 79.704 79.639 79.669 79.704 79.762 79.897 80.017 80.087 80.184 86.247 87.514 88.782 88.057 87.094 80.357 81.054 80.997 81.037 81.052 81.089
106.869 106.854 106.829 106.794 106.754 106.729 106.712 106.692 106.669 106.644 106.612 106.597 106.587 106.564 106.554 106.542 106.517 106.497 106.477 106.454 106.429 106.417 106.432 106.424 106.422 106.384 106.309 106.237 106.202 106.157 106.107 106.077 106.079 106.082 106.064 106.032 106.002 105.969 105.937 105.909 105.897 105.877 105.854 105.842 105.809 105.777 105.722 105.692 105.637 105.584 105.442 105.342 105.314 105.284 105.257 105.224 105.187 105.134 105.079 105.019 104.972 104.939 104.897 104.909 104.889 104.867 104.832 104.799 104.764 104.724 104.694 104.639 104.604 104.659 104.739 104.754 104.724 104.714 104.689 104.662 104.627 104.607 104.574 104.532 104.494 104.467 104.457 104.467 104.524 104.772 109.669 108.709 105.042 106.017 105.512 105.052 105.037 104.927 104.667 104.599 104.634 104.414 105.227 104.597 104.104 104.127 104.249 105.572 104.269 104.267 104.984 104.172 104.199 104.639 104.299 104.957 104.014 104.724 103.922 103.727 103.729 103.634 103.634 103.607 103.539 104.344 103.579 103.184 103.067 103.047 103.057 103.002 102.952 102.867 102.869 103.614 102.349 102.307 101.994 101.577 103.694 108.139 109.174 107.479 101.532 101.584 102.064 101.519 101.529 101.512 101.544 101.752 101.824 101.699 102.554 101.554 101.262 106.724 106.727 106.742 104.769 100.949 100.807 100.602 100.404 100.259 100.622 100.519 100.714 100.079 100.017 100.094 101.772 99.904 99.242 99.334 99.317 100.034 100.474 99.999 99.239 97.962 97.957 97.892 98.074 97.844 100.824 103.444 103.472 103.457 100.302 97.589 97.399 98.172 96.252 96.079 96.114 96.087 96.129 96.229 96.679 96.369 96.212 96.209 96.772 96.207 96.192 96.142 96.092 98.217 98.087 95.622 95.137 95.052 95.052 94.964 94.692 95.347 94.607 94.584 94.514 94.062 93.939 93.869 93.234 93.184 99.327 100.784 101.527 101.599 100.692 99.767 99.582 92.722 92.217 97.139 98.412 98.557 98.684 98.772 98.609 92.977 92.054 90.699 92.039 96.977 97.389 93.599 90.437 90.397 90.417 90.492 90.334 89.232 89.062 89.047 88.977 88.572 88.442 88.392 88.097 88.012 87.937 88.032 87.904 87.877 88.047 89.094 87.607 87.347 87.682 87.887 87.922 90.909 86.872 86.812 86.717 86.734 86.519 86.972 86.369 85.764 85.012 84.989 85.844 86.787 86.259 84.844 84.744 84.189 84.054 83.932 83.802 83.699 83.769 84.074 83.402 83.192 82.374 81.599 81.484 81.432 81.339 81.327 81.272 81.134 80.939 86.377 87.069 87.454 87.692 85.962 80.387 80.314 80.292 79.997 79.607 79.412 79.277 79.264 79.359 84.724 79.734 79.092 78.769 86.039 85.179 84.472 78.894 79.079 78.519 80.352 78.419 78.207 78.137 78.109 78.072 78.004 78.412 78.579 77.794 78.054 77.687 77.732 77.959 78.104 78.079 78.137 78.132 78.839 78.754 84.622 85.332 81.529 78.784 78.957 78.924 78.882 78.977 78.974 78.967 79.737 79.104 78.867 79.182 81.552 81.624 81.689 81.769 81.264 79.924 79.282 79.199 79.457 84.289 85.597 85.509 85.079 82.667 79.189 79.552 80.289 79.882 79.469 79.424 79.467 79.554 79.557 79.584 79.712 79.887 80.014 84.899 86.777 87.907 88.599 87.562 86.302 80.054 81.102 80.962 81.027 81.049 80.979
106.809 106.799 106.769 106.749 106.719 106.692 106.667 106.652 106.632 106.599 106.577 106.557 106.534 106.519 106.507 106.499 106.464 106.444 106.429 106.394 106.377 106.354 106.342 106.359 106.379 106.354 106.267 106.194 106.157 106.119 106.087 106.049 106.039 106.027 105.999 105.974 105.939 105.912 105.874 105.842 105.814 105.822 105.809 105.784 105.764 105.717 105.687 105.639 105.567 105.472 105.377 105.309 105.264 105.234 105.199 105.162 105.129 105.077 105.037 104.982 104.942 104.909 104.874 104.854 104.819 104.782 104.752 104.724 104.709 104.682 104.639 104.597 104.589 104.544 104.599 104.694 104.682 104.657 104.644 104.629 104.597 104.572 104.537 104.499 104.467 104.429 104.404 104.407 104.482 104.759 110.267 105.964 104.819 104.869 104.879 106.102 104.964 104.934 104.754 104.692 104.932 104.382 104.694 104.444 104.292 104.284 104.524 104.269 104.082 104.072 104.244 104.122 104.137 104.159 104.162 103.989 103.947 103.949 103.819 103.732 103.694 103.639 103.569 103.559 104.042 103.917 103.854 103.142 103.079 103.072 103.024 102.979 102.899 102.827 102.934 103.482 102.339 102.304 101.974 101.567 104.184 108.274 109.024 107.394 101.507 101.574 101.994 101.914 101.882 101.492 101.502 102.637 102.582 101.792 101.667 101.479 101.222 101.124 101.382 101.192 101.039 100.957 100.802 100.597 100.394 100.307 102.407 102.294 101.782 100.314 100.182 100.119 101.994 100.449 99.652 99.712 98.747 98.559 98.339 98.097 97.989 97.894 97.907 97.834 97.814 97.827 99.489 103.494 103.514 103.504 98.612 98.002 97.417 98.767 96.272 96.794 96.189 96.114 96.137 96.237 96.269 96.257 96.252 98.549 99.652 99.862 101.657 96.192 96.137 95.697 95.242 95.162 95.112 95.112 95.072 95.424 95.264 94.687 94.599 94.437 94.022 93.984 93.949 93.859 93.409 93.572 99.169 101.414 101.344 100.397 99.524 98.069 93.112 92.544 91.959 94.389 94.172 95.242 92.717 95.999 98.044 92.157 90.977 94.872 97.222 97.994 98.224 97.189 91.777 90.457 90.439 90.432 90.487 90.514 89.119 89.104 89.349 88.632 88.444 88.379 88.252 88.097 88.059 87.984 87.937 88.034 87.939 87.609 87.504 87.482 87.452 87.542 87.339 89.734 86.799 86.684 86.654 86.674 86.402 86.249 86.269 86.172 85.942 85.897 85.782 85.807 85.479 84.394 84.172 84.142 84.012 84.912 88.197 89.802 90.067 89.797 83.629 83.442 82.617 81.574 81.449 81.407 81.314 81.287 81.332 81.184 81.034 85.602 87.514 88.554 88.242 87.062 80.604 80.454 80.267 80.187 79.627 79.302 79.274 79.277 79.322 79.434 79.229 78.792 85.789 86.777 86.039 85.234 82.849 78.814 78.582 78.484 79.074 78.197 78.069 78.004 77.974 77.942 77.862 77.904 78.052 77.657 77.869 77.589 77.574 77.789 77.882 77.947 77.982 78.034 84.522 85.592 84.719 78.979 78.737 78.719 78.494 78.867 78.912 78.887 79.867 81.362 79.577 78.759 78.729 78.732 81.649 81.722 81.807 79.002 79.007 79.659 79.547 79.174 84.027 85.984 86.627 86.114 85.102 79.512 79.069 79.127 79.412 79.277 79.287 79.352 79.392 79.387 79.469 79.664 79.804 79.889 83.509 86.402 86.847 87.339 87.084 81.879 79.989 79.954 79.952 80.417 81.104 80.932
