ncols 427
nrows 31
xllcorner    430050
yllcorner    435206
cellsize     2
NODATA_value -9999
42.089 42.084 42.069 42.037 42.004 41.979 41.944 41.924 41.889 41.867 41.844 41.809 41.762 41.729 41.692 41.662 41.642 41.622 41.607 41.587 41.569 41.552 41.532 41.509 41.482 41.449 41.412 41.379 41.339 41.307 41.287 41.264 41.232 41.207 41.194 41.144 41.309 41.329 41.687 40.937 40.664 40.539 40.449 40.482 40.737 41.194 41.822 42.082 41.922 41.452 40.812 40.184 41.797 39.244 39.099 39.162 39.204 39.204 39.157 39.112 39.249 39.277 39.307 39.292 39.229 39.169 43.992 44.129 44.289 44.437 44.597 44.744 44.659 44.512 44.362 44.209 44.067 42.229 39.154 39.124 39.117 39.099 39.084 39.024 39.019 39.034 39.054 39.042 38.984 39.042 39.044 39.002 39.014 39.054 40.594 39.124 39.109 40.192 39.262 40.664 40.837 42.962 43.034 43.104 43.177 43.249 43.317 43.297 43.224 43.169 43.069 43.012 42.512 39.669 39.232 39.197 39.237 39.607 38.859 38.899 38.794 38.454 38.364 38.284 38.229 38.944 38.467 39.114 39.559 43.597 43.734 43.884 43.929 43.777 43.627 41.429 37.657 37.584 37.682 37.619 37.617 37.597 37.604 37.622 37.622 37.617 37.624 37.624 37.777 38.422 37.624 37.494 38.372 39.169 41.947 42.889 42.104 41.124 41.842 42.592 42.329 41.459 41.379 42.349 43.149 42.317 41.384 41.594 42.394 41.504 38.882 43.874 44.004 44.157 44.332 44.502 44.659 42.699 42.507 43.302 43.297 42.522 42.134 42.904 43.592 42.924 42.859 45.184 42.079 44.422 43.662 47.254 47.662 49.009 48.409 47.544 46.982 47.992 48.162 47.252 44.907 54.514 55.679 55.752 55.744 55.684 45.217 39.902 40.459 39.794 39.754 39.757 40.409 39.859 41.332 41.259 41.157 41.192 41.199 41.184 41.352 41.182 41.169 41.159 41.097 41.014 41.144 41.179 41.039 41.209 41.402 41.169 41.229 41.302 41.394 41.547 41.667 41.582 43.097 47.609 49.144 49.554 50.019 50.309 49.977 49.554 48.724 48.509 42.807 42.669 45.197 44.302 44.792 42.672 42.927 42.862 42.857 42.824 42.734 42.514 42.189 42.202 42.282 42.494 42.719 42.854 42.877 42.932 42.974 42.972 42.974 42.974 42.962 42.784 43.264 42.931 42.904 42.879 42.859 42.854 42.814 42.756 42.706 42.671 42.684 42.709 42.734 42.749 42.779 42.781 42.816 42.826 42.819 42.846 42.879 42.931 42.991 43.056 43.144 43.249 43.329 43.431 43.514 45.224 43.661 43.741 43.831 43.956 44.106 44.279 44.439 44.599 44.746 44.874 44.996 45.174 46.626 45.504 45.671 45.849 45.941 46.076 46.249 46.434 46.409 46.571 46.981 47.556 48.161 48.741 49.159 49.354 49.434 49.439 49.394 49.384 49.444 49.431 49.449 49.464 49.484 49.481 49.496 49.521 49.534 49.541 49.569 49.609 49.671 49.669 49.656 49.716 49.731 49.836 52.196 50.111 50.059 50.096 50.136 50.096 51.419 50.214 50.291 50.331 50.346 50.344 50.336 50.504 52.704 52.696 52.626 52.539 52.626 52.541 52.729 52.766 52.836 53.026 53.386 53.484 53.681 54.649 58.806 61.174 61.506 61.606 61.646 61.696 61.769 61.846 61.961 63.599 64.491 64.611 64.791 64.934 65.119 65.264 64.836 56.224 55.959 56.036 56.304 56.684 56.674 56.551 56.426 56.779 56.291 56.299 56.306 56.311 56.334 56.334 56.349 56.376 56.351 56.354 56.326 56.294 56.279 56.406 56.464 56.226 56.199 56.879 57.196
42.112 42.089 42.064 42.042 42.012 41.974 41.942 41.927 41.909 41.882 41.847 41.799 41.784 41.747 41.699 41.674 41.662 41.632 41.612 41.584 41.569 41.559 41.542 41.514 41.494 41.474 41.432 41.392 41.359 41.327 41.302 41.272 41.237 41.199 41.179 41.234 41.412 41.472 41.309 40.954 40.637 40.544 40.434 40.429 40.724 41.247 41.884 42.252 42.059 41.654 41.067 40.389 39.817 39.354 39.189 39.122 39.177 39.204 39.172 39.107 39.209 39.294 39.302 39.299 39.247 39.167 41.979 44.074 44.232 44.382 44.527 44.672 44.732 44.574 44.427 44.277 44.132 43.989 39.177 39.099 39.067 39.109 39.094 39.062 38.997 39.004 39.007 39.029 38.994 39.034 39.049 39.034 38.989 40.939 39.874 40.797 39.189 39.254 40.849 42.974 43.047 43.109 43.189 43.264 43.324 43.289 43.219 43.147 43.069 43.002 42.052 39.624 39.214 39.184 39.164 39.117 39.004 39.439 38.874 38.914 39.374 39.589 38.432 38.337 38.239 38.242 39.679 38.212 38.477 40.717 43.609 43.762 43.909 43.924 43.759 43.617 40.547 37.597 37.749 37.607 37.612 37.602 37.599 37.622 37.634 37.629 37.644 37.624 37.782 37.967 37.502 37.742 38.132 41.542 42.527 42.507 41.462 41.474 42.222 42.669 41.849 41.117 41.942 42.889 42.722 41.757 41.212 42.072 42.127 39.454 37.577 43.169 43.952 44.112 44.267 44.389 44.577 44.644 42.112 42.924 43.577 42.882 42.139 42.534 43.304 42.837 43.437 38.912 38.304 38.392 38.769 42.529 47.692 48.572 48.869 47.972 47.119 47.484 48.422 47.692 44.942 45.539 56.047 57.129 55.779 55.714 55.624 39.699 40.619 39.724 39.719 39.649 40.664 39.792 40.892 41.152 41.059 41.039 41.069 41.049 41.174 41.084 41.054 41.034 40.984 40.894 40.977 41.049 41.524 41.702 41.022 41.069 41.174 41.342 41.462 41.632 43.312 48.167 49.219 49.624 50.029 50.302 49.937 49.517 49.089 46.979 42.407 42.414 42.602 42.599 44.229 43.347 42.924 42.997 42.894 42.859 42.789 42.704 42.664 42.474 42.204 42.072 42.134 42.344 42.657 42.854 42.939 43.002 43.017 42.972 42.974 42.959 42.929 42.914 42.954 42.981 42.981 43.269 43.021 42.974 42.931 42.906 42.861 42.819 42.806 42.794 42.749 42.684 42.624 42.606 42.639 42.706 42.736 42.766 42.801 42.839 42.904 42.996 43.084 43.186 43.276 43.381 43.466 43.561 43.661 43.761 43.861 43.981 44.109 44.199 44.324 44.441 44.546 44.661 44.811 44.941 45.094 45.254 45.399 45.509 45.634 45.749 45.891 46.091 46.136 46.346 46.846 47.226 47.689 48.146 48.449 48.729 48.954 49.159 49.269 49.429 49.429 49.381 49.454 50.851 50.671 49.476 49.479 49.504 49.514 49.529 49.556 49.606 49.631 49.631 49.619 49.664 49.696 51.631 50.476 50.254 50.034 50.304 50.041 50.686 51.019 50.161 50.229 50.259 50.274 50.259 50.319 50.446 52.461 52.876 52.899 52.579 52.606 52.791 52.769 52.851 53.011 53.114 53.419 53.501 53.564 53.614 53.669 54.154 54.681 55.994 58.171 60.576 61.514 61.581 61.634 63.866 64.004 64.091 64.171 64.304 64.434 64.619 60.729 57.301 55.984 56.024 61.334 58.194 59.936 57.709 56.936 56.746 56.721 56.724 56.989 56.376 56.364 56.349 56.339 56.319 56.316 56.316 56.311 56.304 56.296 56.286 56.281 56.266 56.236 56.209 56.196
42.112 42.109 42.062 42.039 41.997 41.969 41.952 41.929 41.922 41.897 41.854 41.814 41.774 41.744 41.702 41.677 41.647 41.639 41.612 41.592 41.569 41.549 41.539 41.527 41.507 41.479 41.454 41.429 41.384 41.359 41.334 41.314 41.279 41.222 41.184 41.357 41.487 41.532 41.312 40.897 40.634 40.517 40.507 40.534 40.802 41.194 41.822 42.274 42.227 41.847 41.289 41.209 40.114 40.702 39.219 39.069 39.152 39.194 39.184 39.129 39.124 39.237 39.269 39.307 39.242 39.184 39.137 44.019 44.167 44.319 44.452 44.604 44.759 44.642 44.499 44.349 44.199 44.057 41.909 39.092 39.057 39.089 39.089 39.062 39.004 38.987 39.007 39.037 39.017 38.997 39.029 39.039 38.989 40.079 41.694 40.144 42.474 42.974 43.139 43.124 43.197 43.272 43.319 43.279 43.204 43.134 43.069 43.009 41.674 39.257 39.214 39.187 39.154 39.094 39.017 38.982 38.954 38.944 39.069 38.994 39.022 39.244 38.572 38.404 38.284 38.214 38.212 39.409 38.712 38.267 41.079 43.637 43.769 43.919 43.907 43.754 43.624 40.042 38.227 37.652 37.642 37.677 37.634 37.624 37.632 37.669 37.639 37.697 38.044 37.567 37.509 38.387 40.557 42.139 42.864 41.867 41.112 41.969 42.764 42.167 41.304 41.552 42.497 43.052 42.169 41.224 41.749 42.599 41.737 37.639 37.559 39.077 43.879 44.032 44.172 44.349 44.507 44.667 42.542 42.527 43.292 43.262 42.494 42.154 41.804 44.127 44.234 43.139 39.412 40.474 38.442 38.442 47.257 48.159 49.029 48.394 47.514 47.014 48.104 45.077 45.269 44.949 55.789 58.449 55.804 55.722 55.657 44.872 39.637 40.239 39.657 39.622 39.624 39.684 40.242 41.049 40.974 40.904 40.927 40.929 40.939 41.017 40.917 40.917 40.884 40.794 40.784 40.897 40.972 40.954 41.067 41.102 41.254 41.307 43.999 46.837 47.452 48.542 50.072 50.242 49.862 49.452 49.019 46.377 42.577 42.014 42.172 42.264 42.389 42.612 42.817 42.814 42.837 42.962 42.932 42.892 42.774 42.704 42.604 42.444 42.244 42.007 42.012 42.242 42.539 42.832 42.979 42.987 42.954 42.929 42.832 42.367 42.047 42.099 42.212 42.361 42.586 42.756 42.834 42.889 42.886 42.954 42.909 42.861 43.476 42.861 42.846 42.809 42.794 42.686 42.574 42.581 42.621 42.641 42.671 42.679 42.736 42.819 42.931 43.056 43.161 43.271 43.386 43.499 43.594 43.701 43.809 43.946 44.064 44.199 44.321 44.444 44.541 44.666 44.771 44.866 44.964 45.074 45.949 45.954 45.596 45.616 45.761 45.889 45.956 46.126 46.306 46.519 46.734 47.029 47.381 47.624 47.884 48.524 48.369 48.656 48.904 49.166 49.341 52.736 49.479 49.529 49.451 49.484 49.504 49.511 49.526 49.559 49.546 49.546 49.526 49.586 49.654 49.704 49.839 49.991 49.979 50.301 49.969 52.126 50.659 50.114 50.176 50.189 50.196 50.169 50.311 51.509 51.386 52.309 54.116 52.651 52.666 52.721 52.774 52.899 53.016 53.124 53.996 53.389 53.526 53.589 53.699 53.954 54.489 55.559 55.419 55.511 55.504 55.691 57.914 63.474 63.741 63.746 63.859 63.906 63.991 64.094 56.606 56.586 56.854 55.989 67.351 66.786 66.371 66.931 65.276 62.229 63.061 58.209 56.254 55.829 55.849 56.524 57.306 57.584 56.454 56.346 56.311 56.291 56.271 56.244 56.236 56.224 56.206 56.194 56.194
42.127 42.097 42.069 42.034 42.007 41.982 41.959 41.959 41.932 41.897 41.867 41.839 41.802 41.747 41.719 41.687 41.662 41.647 41.612 41.602 41.582 41.564 41.549 41.539 41.529 41.494 41.459 41.434 41.412 41.372 41.369 41.342 41.292 41.239 41.252 41.477 41.632 41.617 41.257 40.872 40.627 40.494 40.587 40.589 40.642 41.107 41.707 42.224 42.259 42.007 41.579 40.959 40.454 39.797 45.774 39.152 39.109 39.164 39.184 39.139 39.084 39.214 39.294 39.262 39.242 39.192 39.167 43.947 44.097 44.239 44.402 44.547 44.687 44.724 44.564 44.404 44.267 44.107 43.964 39.174 39.087 39.042 39.079 39.067 39.014 38.967 39.004 39.022 39.027 38.989 39.002 39.022 38.989 38.932 41.669 40.257 43.057 43.129 43.212 43.277 43.312 43.244 43.182 43.124 43.052 42.974 41.087 39.254 39.204 39.184 39.162 39.074 38.992 38.967 38.959 38.937 38.904 39.039 39.172 39.022 39.034 38.714 39.502 38.439 38.352 38.274 38.997 38.927 38.679 38.229 38.247 42.814 43.652 43.792 43.947 43.902 43.744 43.594 40.039 37.657 37.684 37.817 37.692 37.624 37.644 37.672 37.642 38.182 37.702 37.512 37.504 38.577 41.724 42.749 42.312 41.272 41.644 42.372 42.567 41.644 41.164 41.712 42.997 42.527 41.622 41.364 42.277 42.399 41.314 37.474 37.492 37.539 43.144 43.962 44.112 44.267 44.429 44.597 44.742 42.172 42.932 43.584 40.912 43.839 43.957 43.134 40.369 44.537 43.494 42.459 38.459 38.404 43.534 47.709 48.654 48.889 47.344 44.774 45.199 45.742 45.279 44.892 47.217 58.447 57.704 55.772 55.724 55.642 39.602 40.927 39.607 39.582 39.522 39.862 39.689 40.942 40.857 40.757 40.789 40.797 40.782 40.922 40.809 40.799 40.767 40.689 40.599 40.734 40.844 40.924 41.019 41.429 44.589 46.952 47.497 48.069 48.622 48.682 49.812 49.384 48.957 45.504 41.667 41.682 41.819 41.864 42.022 42.139 42.252 42.374 42.512 42.564 42.677 42.779 42.862 42.862 42.817 42.744 42.644 42.467 42.257 42.019 41.877 42.119 42.422 42.757 42.914 42.909 42.862 42.834 42.657 41.954 41.397 41.377 41.469 41.569 41.704 41.884 41.961 42.104 42.336 42.641 42.809 42.806 42.831 42.856 42.879 42.914 42.771 42.554 42.439 42.521 42.516 42.526 42.531 42.654 42.771 42.851 42.939 43.001 43.051 43.106 43.229 43.351 43.481 43.564 43.699 43.851 43.981 44.101 44.234 44.349 44.469 44.594 44.704 44.829 44.949 45.069 45.196 45.314 45.489 45.569 45.661 45.764 45.866 46.811 46.409 46.244 46.444 46.581 46.701 46.826 46.974 47.231 48.716 47.654 47.934 48.206 48.461 50.739 48.894 49.176 49.324 49.434 49.566 49.531 49.494 49.489 49.456 49.436 49.424 49.491 49.604 49.791 49.831 49.961 49.969 49.901 49.859 49.894 49.984 50.056 50.249 50.114 50.119 50.099 56.416 57.171 52.424 53.296 53.109 52.966 52.721 52.716 52.841 52.944 53.026 53.191 53.239 53.369 53.491 53.596 53.711 54.186 54.874 55.476 55.459 59.314 55.576 55.619 59.001 62.124 62.691 61.944 62.119 62.026 63.761 63.809 55.696 55.719 56.021 56.229 68.214 68.061 67.929 67.796 67.639 67.336 67.319 66.916 56.141 55.701 55.684 55.684 55.929 56.499 55.861 55.761 55.876 56.594 56.901 56.376 56.269 56.234 56.194 56.166 56.131
42.127 42.117 42.079 42.064 42.027 41.999 41.962 41.939 41.914 41.889 41.879 41.849 41.809 41.764 41.747 41.702 41.689 41.664 41.634 41.604 41.604 41.589 41.572 41.559 41.544 41.497 41.477 41.444 41.417 41.397 41.377 41.337 41.289 41.244 41.424 41.647 41.759 41.637 41.209 40.892 40.567 40.469 40.589 40.644 40.744 42.404 42.622 42.229 42.359 42.132 41.802 41.249 40.587 39.924 46.117 43.772 39.067 39.139 39.177 39.154 39.112 39.122 39.234 39.247 39.272 39.259 39.262 39.177 44.029 44.184 44.329 44.479 44.617 44.754 44.647 44.509 44.319 44.179 44.034 39.912 39.114 39.062 39.049 39.037 38.987 38.947 38.972 39.012 39.017 38.979 38.962 38.987 38.972 38.922 39.022 39.167 43.212 43.287 43.292 43.227 43.159 43.097 43.032 42.964 40.399 39.249 39.187 39.147 39.132 39.052 39.002 38.974 38.939 38.924 38.897 38.984 40.209 38.879 38.869 41.247 40.129 39.054 39.354 38.814 38.847 38.334 38.269 38.212 39.724 38.194 38.304 38.332 42.674 43.659 43.809 43.957 43.874 43.722 43.574 38.599 37.672 37.629 37.632 37.619 37.612 37.584 37.662 38.139 37.519 37.512 37.497 44.809 44.954 42.794 41.744 41.244 42.134 42.852 42.017 41.107 41.694 42.574 42.872 41.974 41.154 41.912 42.767 41.989 38.547 37.524 37.494 37.532 39.817 43.882 44.032 44.172 44.342 44.517 44.674 42.677 41.879 43.552 43.667 42.327 40.674 43.114 44.042 44.739 43.957 42.992 40.047 38.434 38.842 47.294 47.842 44.739 45.232 45.704 46.119 45.692 45.154 44.812 45.039 57.082 58.832 60.124 55.732 55.652 43.234 39.507 39.717 39.507 39.484 39.902 39.564 40.862 40.754 40.629 40.652 40.672 40.659 40.809 40.697 40.679 40.644 40.587 40.504 40.569 40.669 40.922 41.004 41.157 46.952 48.142 48.717 48.694 48.114 47.589 47.904 44.319 41.407 41.444 41.324 41.252 41.389 41.532 41.629 41.749 41.867 41.944 42.012 42.169 42.292 42.482 42.609 42.722 42.724 42.707 42.659 42.487 42.297 42.049 41.839 41.922 42.219 42.567 42.807 42.782 42.714 42.679 42.424 41.754 41.389 44.534 44.384 42.694 42.419 41.516 41.341 41.406 41.566 41.994 42.616 42.729 42.759 42.819 42.856 42.684 42.469 42.371 42.386 42.449 42.451 42.409 42.536 42.739 42.876 42.914 43.096 43.034 43.379 43.309 43.349 43.441 43.529 43.604 43.661 43.726 43.819 43.954 44.079 45.281 45.189 44.474 44.596 44.724 44.871 45.001 45.119 45.259 45.384 45.501 45.629 45.744 45.864 45.994 46.211 46.221 46.331 46.629 47.679 47.786 46.754 46.934 47.084 47.244 47.376 47.489 47.626 47.816 48.026 48.351 48.579 48.864 49.159 49.351 49.464 49.511 49.579 49.406 49.349 49.394 49.494 49.679 49.854 49.924 50.049 49.831 49.724 49.851 49.931 49.994 50.019 50.039 50.034 50.096 52.936 54.001 52.619 52.791 60.014 59.296 53.151 53.076 52.874 52.929 53.044 53.274 53.251 53.344 53.471 53.579 53.716 54.456 55.336 55.404 58.779 64.254 64.956 63.166 63.491 62.891 62.619 61.836 60.761 55.584 55.571 55.641 55.569 55.634 55.679 65.654 68.191 68.424 68.589 68.641 68.474 68.316 68.144 66.771 56.074 55.674 60.209 58.144 56.561 55.801 55.676 55.656 55.654 55.681 56.054 56.526 55.746 55.624 55.779 56.191 56.659
42.132 42.142 42.119 42.089 42.059 42.027 41.994 41.944 41.919 41.902 41.879 41.859 41.809 41.779 41.757 41.722 41.714 41.689 41.654 41.634 41.632 41.612 41.597 41.582 41.549 41.499 41.479 41.429 41.424 41.404 41.367 41.317 41.287 41.312 41.559 41.762 41.814 41.614 41.112 40.824 40.517 40.464 40.539 40.657 40.642 40.912 41.374 41.999 42.329 42.227 42.042 41.517 40.864 40.234 41.294 39.279 39.107 39.109 39.157 39.164 39.124 39.079 39.202 39.262 39.252 39.289 39.514 39.192 43.979 44.114 44.257 44.397 44.559 44.714 44.684 44.537 44.399 44.239 44.092 43.442 39.182 39.102 39.062 39.007 38.992 38.952 38.959 39.002 38.984 38.984 38.934 38.952 38.964 38.922 38.957 39.129 40.492 43.217 43.147 43.084 43.009 42.604 39.929 39.284 39.209 39.159 40.384 39.062 39.007 39.064 38.934 38.927 38.894 38.894 38.872 38.849 39.357 40.199 38.824 38.882 39.592 39.182 39.049 38.512 39.487 38.364 38.294 38.222 38.189 38.187 38.232 38.269 38.349 43.054 43.677 43.817 43.969 43.854 43.712 43.567 38.622 37.822 37.609 37.589 37.602 37.582 38.034 37.669 37.487 38.227 39.499 46.169 47.172 48.117 47.467 43.192 42.609 42.417 41.454 41.277 40.384 43.047 42.349 41.417 41.522 42.432 42.662 41.554 37.519 37.484 37.494 37.512 37.614 42.472 43.957 44.114 44.269 44.397 44.587 44.757 42.467 41.484 44.237 43.352 42.354 42.617 43.584 44.709 44.402 43.449 42.432 39.279 38.412 41.787 45.272 45.814 46.099 45.682 45.132 44.619 39.572 44.684 44.887 47.372 58.939 59.612 57.417 55.674 53.862 39.462 40.549 39.454 39.452 39.407 39.482 40.597 40.667 40.562 40.527 40.552 40.534 40.627 40.599 40.567 40.532 40.484 40.422 40.369 40.479 40.784 40.904 40.832 41.694 48.692 48.067 47.524 46.987 43.424 41.047 41.112 40.987 40.889 40.797 40.744 40.862 41.012 41.124 41.212 41.327 41.364 41.532 41.697 41.804 41.999 42.209 42.432 42.504 42.524 42.557 42.494 42.347 42.102 41.839 41.734 41.979 42.344 42.614 42.657 42.582 42.532 42.254 41.594 41.342 45.689 45.509 45.341 45.146 44.994 44.836 44.634 41.326 41.771 42.389 42.564 42.656 42.719 42.709 42.461 42.286 42.221 42.316 42.344 42.329 42.346 42.509 42.704 42.871 42.919 43.009 43.026 43.146 44.841 43.589 43.566 43.601 43.961 43.956 43.881 43.961 44.059 44.136 44.216 44.259 44.304 45.346 45.629 44.714 44.886 45.036 45.181 45.304 45.434 45.559 45.684 45.816 45.954 46.099 46.599 46.409 46.461 46.574 46.676 46.796 46.891 47.006 47.114 48.076 48.286 47.441 47.586 47.711 47.861 47.989 48.131 48.269 48.476 48.714 48.921 49.249 49.296 49.576 49.249 49.346 49.601 50.066 49.886 50.104 49.746 49.686 49.786 49.864 49.921 49.949 49.966 50.729 51.531 52.119 52.211 52.359 52.384 52.494 52.531 52.744 52.689 52.806 52.934 53.056 53.296 53.264 53.349 53.466 53.589 53.789 54.301 55.116 55.489 61.506 64.616 65.106 65.091 64.871 64.554 64.236 59.664 58.046 55.561 55.524 55.556 55.481 55.544 55.616 66.674 66.749 67.054 66.949 67.776 67.746 68.044 68.286 65.249 55.999 55.664 62.424 62.141 61.911 61.661 61.431 61.159 59.916 58.124 55.626 55.414 55.329 55.336 55.374 55.489 56.614
42.159 42.142 42.132 42.109 42.072 42.032 41.987 41.954 41.929 41.899 41.889 41.867 41.837 41.789 41.767 41.749 41.724 41.712 41.672 41.652 41.644 41.617 41.597 41.584 41.557 41.529 41.479 41.419 41.419 41.404 41.359 41.309 41.324 41.447 41.692 41.849 41.817 41.497 41.022 40.754 40.492 40.492 40.544 40.692 40.767 40.822 41.292 41.892 42.272 42.279 42.127 41.817 41.189 40.517 39.914 39.547 39.179 39.064 39.129 39.164 39.134 39.319 39.149 39.227 39.434 39.284 39.299 39.259 40.924 44.042 44.184 44.347 44.469 44.617 44.742 44.602 44.449 44.297 44.149 44.004 39.427 39.127 39.072 39.032 38.992 38.949 38.922 38.954 38.967 38.979 38.959 38.914 38.932 38.907 38.859 38.992 39.172 43.062 43.002 41.634 39.684 39.204 39.647 39.159 40.462 41.679 41.629 39.284 38.954 39.704 38.897 38.864 38.862 38.849 38.847 38.814 38.822 38.812 39.749 38.782 38.759 41.047 39.972 38.819 39.114 38.404 38.299 38.229 38.382 39.242 38.259 38.204 38.337 39.322 43.534 43.682 43.824 43.972 43.844 43.689 43.542 37.952 37.789 37.624 37.602 37.637 38.187 37.474 37.537 39.219 45.734 46.744 47.754 47.939 46.959 45.942 46.097 45.482 41.557 41.882 42.844 42.747 41.817 41.207 42.064 43.007 42.229 40.554 37.492 37.527 37.484 37.519 37.537 39.547 43.872 43.999 44.162 44.329 40.967 37.562 39.199 42.884 43.859 41.597 42.824 42.117 43.122 44.009 44.684 43.879 42.952 40.294 38.409 38.844 46.124 45.639 45.097 44.427 43.957 40.482 41.364 43.692 44.762 43.189 57.389 57.117 55.739 55.727 55.649 42.959 39.702 39.837 39.382 39.377 40.017 40.529 40.562 40.492 40.387 40.407 40.419 40.404 40.542 40.447 40.424 40.387 40.337 40.264 40.289 40.387 40.697 40.729 41.382 45.729 46.867 42.057 40.879 40.814 40.597 40.479 40.372 40.309 40.252 40.214 40.284 40.374 40.432 40.544 40.572 40.767 40.964 41.179 41.324 41.494 41.697 41.979 42.177 42.292 42.362 42.354 42.319 42.162 41.909 41.677 41.762 42.082 42.429 42.497 42.437 42.324 42.012 41.477 42.364 46.009 46.192 46.246 46.239 46.121 45.961 45.811 41.341 41.704 42.259 42.394 42.509 42.574 42.421 42.189 42.124 42.159 42.234 42.231 42.216 42.314 42.469 42.611 42.759 42.731 42.954 46.366 44.839 44.636 43.611 43.621 43.646 43.686 44.316 44.089 44.104 44.261 44.426 44.394 44.549 44.369 44.436 44.519 44.649 44.796 44.949 45.084 45.171 45.311 47.009 46.824 45.739 45.901 46.021 46.159 46.279 46.406 46.524 46.654 46.769 46.894 47.021 47.144 47.256 47.364 47.469 47.566 47.659 47.741 47.831 47.964 48.089 48.219 48.359 48.501 48.639 48.791 48.914 49.031 49.166 49.386 49.566 49.761 49.624 49.621 49.646 49.739 49.799 49.859 49.884 49.894 49.874 51.651 52.069 52.144 52.211 52.336 52.411 52.484 52.654 52.636 52.831 52.951 53.034 53.216 53.266 53.364 53.494 53.599 53.826 54.454 55.334 55.521 63.181 64.926 64.411 64.229 64.491 65.056 64.224 56.649 55.534 55.511 55.479 56.329 55.384 55.459 55.586 63.686 64.849 65.754 66.006 66.244 66.464 66.691 66.656 60.589 55.909 57.244 63.729 63.539 63.279 63.044 62.779 62.561 62.296 62.101 55.586 55.364 60.761 59.164 56.966 55.539 55.396
42.177 42.149 42.117 42.107 42.084 42.044 41.982 41.969 41.954 41.917 41.897 41.889 41.852 41.817 41.792 41.757 41.752 41.712 41.677 41.669 41.647 41.622 41.602 41.574 41.557 41.524 41.499 41.454 41.422 41.394 41.354 41.297 41.397 41.609 43.357 41.882 41.742 41.377 40.942 40.719 40.517 40.549 40.619 40.692 40.737 40.802 41.274 41.824 42.244 42.344 42.384 42.034 41.487 40.864 40.204 39.784 39.242 39.084 39.107 39.157 39.164 41.047 39.137 39.192 39.264 39.319 39.354 39.277 39.252 43.974 44.114 44.267 44.409 44.552 44.684 44.672 44.527 44.362 44.214 44.074 42.784 39.144 39.084 39.047 38.999 38.942 38.924 38.924 38.947 38.947 38.952 38.877 38.897 38.907 38.972 40.729 39.009 40.507 39.179 39.159 39.127 40.964 39.097 39.089 40.862 41.607 41.577 40.452 38.922 38.844 38.847 38.849 38.819 38.827 38.807 38.772 38.754 40.287 38.899 38.667 38.752 39.279 39.729 38.584 39.799 38.422 38.339 38.254 38.217 38.177 39.512 38.629 38.264 38.249 39.054 43.542 43.699 43.844 43.969 43.829 43.669 41.882 37.937 38.297 38.614 38.289 37.649 37.457 38.509 43.472 46.317 47.309 48.169 47.364 46.352 45.712 46.684 47.642 47.112 46.139 44.472 42.267 41.317 41.692 42.604 42.912 41.819 37.544 37.449 37.439 37.484 37.529 37.517 39.449 42.022 43.512 39.737 37.522 37.549 37.567 37.902 42.309 43.149 43.989 43.314 42.304 42.619 43.582 44.497 44.369 43.399 42.402 38.377 38.387 42.962 43.544 44.054 43.824 43.677 42.432 41.372 41.409 44.664 54.257 55.932 55.684 55.742 55.737 55.679 55.147 39.352 39.282 39.332 39.354 39.334 40.657 40.479 40.394 40.262 40.279 40.297 40.287 40.454 40.317 40.309 40.279 40.247 40.167 40.102 40.159 40.197 40.429 40.549 40.587 40.587 40.474 40.214 39.992 39.852 39.847 39.864 39.912 39.944 39.984 40.022 40.077 40.122 40.184 40.247 40.312 40.412 40.577 40.787 40.997 41.237 41.484 41.767 41.969 42.122 42.179 42.224 42.184 41.902 41.677 41.624 41.902 42.247 42.269 42.142 41.959 41.664 41.404 43.104 44.892 45.034 45.294 45.549 45.564 45.724 45.914 41.351 41.749 42.151 42.241 42.349 42.361 42.479 42.036 42.471 42.099 42.111 42.111 42.154 42.261 42.436 42.596 42.649 42.646 45.119 51.911 51.506 51.644 52.534 50.539 48.714 46.691 45.916 44.816 44.559 44.249 44.319 44.376 44.416 44.514 44.504 44.484 44.726 44.874 45.154 45.271 45.299 45.384 45.504 45.596 45.686 46.544 46.736 46.229 47.286 47.106 46.456 46.576 46.716 46.839 46.976 47.096 47.224 47.331 47.441 47.551 47.639 47.736 47.866 47.969 48.091 48.194 48.286 48.391 48.489 48.586 48.706 48.816 48.999 49.159 49.291 49.336 49.456 49.481 49.581 49.671 49.741 49.786 49.799 49.804 49.864 51.114 52.071 52.121 52.131 52.296 52.346 52.404 52.601 52.649 52.846 52.976 53.119 53.634 53.271 53.399 53.529 53.636 53.971 54.641 55.404 59.039 63.899 65.119 64.171 63.354 64.159 65.084 63.901 55.514 55.481 55.434 55.369 55.306 55.314 55.366 55.996 56.644 56.589 59.079 57.011 58.874 62.331 65.066 65.701 57.306 55.821 59.229 62.811 63.051 63.286 63.554 63.751 63.784 63.689 62.551 55.556 55.841 62.159 61.901 61.679 61.424 61.216
42.197 42.157 42.139 42.102 42.082 42.032 41.989 41.967 41.937 41.924 41.909 41.884 41.847 41.827 41.794 41.774 41.747 41.717 41.692 41.679 41.644 41.642 41.612 41.597 41.552 41.529 41.494 41.459 41.422 41.389 41.324 41.284 41.482 41.702 41.884 41.854 41.647 41.252 40.899 40.684 40.562 40.587 40.657 42.592 40.812 40.852 41.142 41.724 42.177 42.379 42.349 42.192 41.779 41.202 42.739 39.919 39.407 39.139 39.052 39.129 39.154 39.584 39.609 39.154 39.254 39.337 39.379 39.332 39.224 41.339 44.054 44.199 44.344 44.502 44.654 44.722 44.584 44.437 44.292 44.142 44.002 39.424 39.119 39.049 38.987 38.942 38.929 38.889 38.897 38.894 38.929 38.894 38.862 38.874 38.869 40.687 38.959 39.357 39.157 39.107 39.079 39.064 39.059 39.022 38.969 40.914 38.894 38.902 38.917 38.824 38.802 40.124 38.794 38.777 38.759 38.737 38.707 38.684 38.974 39.479 38.684 38.904 40.239 38.914 38.509 38.437 38.377 38.299 38.229 38.194 38.254 38.154 38.979 38.529 38.219 38.872 43.572 43.714 43.847 43.957 42.459 38.097 38.309 37.897 37.829 37.732 37.454 38.114 38.907 45.909 43.409 47.922 47.757 46.774 45.802 46.229 47.232 47.557 46.509 45.669 46.497 47.459 46.714 42.962 43.207 42.529 41.407 36.854 37.429 37.437 37.462 37.559 39.442 37.294 37.857 37.562 37.547 37.529 37.539 37.567 37.932 40.637 42.864 43.839 43.757 42.584 42.114 43.142 44.072 45.214 43.839 42.909 40.379 38.569 38.382 42.387 43.742 43.902 43.737 43.557 42.407 42.217 42.789 54.662 47.567 53.922 55.717 55.734 55.692 55.634 45.129 39.369 39.607 39.302 39.299 39.639 40.359 40.284 40.164 40.157 40.164 40.162 40.264 40.204 40.194 40.169 40.134 40.069 40.012 39.954 39.962 39.972 39.862 39.829 39.752 39.714 39.707 39.689 39.667 39.654 39.672 39.727 39.767 39.819 39.874 39.927 39.977 40.027 40.082 40.139 40.212 40.337 40.444 40.534 40.692 40.967 41.202 41.489 41.827 41.947 42.007 41.989 41.892 41.679 41.562 41.717 42.034 42.022 41.887 41.657 41.402 41.337 41.302 41.529 43.087 45.286 45.266 44.486 44.609 44.639 41.424 41.909 42.096 42.191 42.231 42.186 41.926 42.414 42.356 42.006 42.014 42.006 42.084 42.119 42.279 42.506 42.581 42.579 49.074 52.851 52.729 52.946 52.781 52.509 52.901 52.566 52.636 53.001 51.859 53.211 49.114 49.049 46.506 45.584 45.226 44.646 44.901 44.971 45.636 46.031 46.006 46.066 46.146 46.036 46.021 45.991 46.039 46.134 46.209 46.311 46.389 47.034 46.931 46.719 46.936 47.651 47.226 47.361 47.391 47.521 47.639 47.741 47.849 47.959 48.069 48.171 48.276 48.376 48.489 48.589 48.701 49.016 49.099 49.064 49.101 49.216 49.294 49.421 49.546 49.611 49.679 49.714 49.739 49.714 49.836 52.331 52.151 52.059 52.084 52.221 52.284 52.381 52.589 52.656 52.881 52.969 53.119 53.621 53.321 53.426 53.561 53.696 54.164 54.859 55.414 60.291 64.186 65.116 64.774 64.496 64.594 64.716 63.634 56.256 55.446 55.371 55.479 55.161 55.219 55.269 56.409 56.446 56.491 56.519 56.554 56.521 56.649 56.624 56.644 56.334 55.764 59.461 61.434 61.676 61.926 62.164 62.421 62.644 62.901 58.684 55.486 57.931 63.351 63.271 63.049 62.819 62.586
42.209 42.187 42.154 42.117 42.077 42.057 42.009 41.989 41.957 41.914 41.909 41.889 41.864 41.837 41.809 41.779 41.754 41.744 41.712 41.684 41.654 41.647 41.632 41.609 41.579 41.544 41.487 41.467 41.424 41.409 41.342 41.377 41.614 41.819 41.892 41.792 41.502 41.109 40.857 40.622 40.597 40.609 40.697 40.867 40.939 40.907 41.029 41.537 42.072 42.282 42.317 42.274 42.149 41.557 40.844 40.199 39.629 39.254 39.044 39.097 39.149 39.159 39.092 39.052 39.192 39.324 39.349 39.332 39.239 39.159 43.987 44.132 44.297 44.419 44.552 44.699 44.649 44.507 44.369 44.219 44.072 43.217 39.162 39.064 38.999 38.959 38.874 38.834 38.842 38.874 38.904 38.912 38.829 38.837 38.872 38.882 38.887 38.964 39.122 39.109 39.087 39.034 38.997 38.952 38.914 40.719 39.929 38.979 38.989 39.057 38.777 39.647 38.749 38.724 38.724 38.699 38.669 38.644 38.834 39.572 39.337 39.444 39.527 39.309 38.499 38.444 38.392 38.332 38.262 38.357 38.177 38.147 38.137 38.194 38.527 38.254 40.152 43.577 43.722 42.879 38.169 37.942 37.867 37.829 37.722 37.524 37.439 38.637 44.174 46.519 47.529 48.184 47.164 46.187 45.814 46.392 45.559 46.932 45.924 46.052 47.057 47.619 46.607 45.682 46.354 44.917 38.297 37.404 37.542 38.262 37.439 39.172 39.917 35.592 37.647 37.572 37.542 37.537 37.529 37.612 37.564 37.687 42.359 43.367 43.984 42.122 42.257 42.634 43.599 44.579 44.332 43.374 42.387 39.272 38.364 44.397 44.114 43.959 43.827 43.682 43.739 42.559 42.477 43.284 43.329 47.759 55.679 55.722 55.717 55.659 55.632 39.232 39.192 39.232 39.239 39.222 40.304 40.182 40.122 40.042 40.052 40.047 40.067 40.087 40.079 40.069 40.032 39.957 39.897 39.842 39.784 39.732 39.674 39.637 39.584 39.537 39.507 39.537 39.552 39.599 39.639 39.672 39.707 39.764 39.829 39.882 39.932 39.984 40.037 40.089 40.152 40.242 40.279 40.324 40.489 40.602 40.722 41.009 41.327 41.664 41.782 41.849 41.812 41.684 41.497 41.582 41.794 41.779 41.639 41.469 41.402 41.357 41.334 41.302 43.972 45.439 45.111 42.299 41.334 41.339 41.471 41.846 42.016 42.074 42.026 41.864 41.811 41.894 41.896 41.916 41.894 41.964 42.029 42.174 42.269 42.486 42.496 42.494 50.001 51.846 52.136 52.864 53.104 53.326 53.449 53.556 53.969 53.739 53.516 53.511 54.236 53.589 53.219 52.874 53.961 51.969 52.671 46.829 45.224 47.971 45.284 45.096 45.499 46.079 46.204 46.361 46.801 46.741 46.556 46.726 46.716 46.626 46.714 46.834 46.911 47.011 47.124 47.816 48.339 47.421 47.554 47.716 47.836 47.944 48.039 48.146 48.251 48.356 48.474 48.579 48.691 48.784 48.896 49.094 49.151 50.626 49.891 49.406 49.516 49.584 49.626 49.646 49.651 49.626 49.804 49.934 50.114 50.294 50.869 51.924 52.704 52.841 52.724 52.719 52.904 53.014 53.254 53.374 53.686 53.374 53.421 54.291 54.509 55.451 55.346 58.431 63.811 64.096 64.429 64.716 64.976 65.066 64.866 64.409 64.084 63.106 57.286 55.056 55.104 55.204 55.796 56.121 56.294 56.384 56.404 56.419 56.529 56.561 56.594 55.994 55.694 55.644 55.676 56.274 57.601 58.951 61.026 61.264 61.506 56.599 55.444 58.854 62.139 62.374 62.599 62.831 63.106
42.242 42.224 42.179 42.137 42.099 42.077 42.039 42.004 41.967 41.937 41.917 41.907 41.874 41.842 41.809 41.769 41.772 41.759 41.724 41.702 41.669 41.644 41.647 41.619 41.592 41.547 41.509 41.474 41.427 41.397 41.369 41.509 41.724 41.874 41.882 41.734 41.364 40.997 40.782 40.627 40.624 40.687 40.852 41.069 41.157 41.012 40.869 41.194 41.819 42.104 42.232 42.239 42.114 41.829 41.109 40.467 39.897 41.089 39.149 39.047 39.124 39.162 39.134 39.052 39.154 39.302 39.307 39.324 39.289 39.177 41.374 44.059 44.209 44.354 44.494 44.639 44.709 44.567 44.432 44.292 44.139 44.002 39.222 39.114 39.037 39.054 38.862 38.852 38.859 38.862 38.874 38.899 38.847 38.882 38.932 38.917 38.812 38.879 39.052 39.129 39.069 39.009 38.959 39.264 39.752 38.977 38.954 39.279 39.082 38.922 39.337 38.722 38.704 38.687 38.674 38.657 38.647 38.622 38.617 38.577 39.122 40.312 42.184 38.764 38.492 38.457 38.407 39.269 38.264 38.327 38.187 38.147 38.159 38.252 38.219 38.402 38.207 39.944 41.702 38.239 38.779 38.297 37.762 37.652 37.554 37.489 37.747 39.912 44.307 39.769 48.084 47.564 46.589 45.679 46.389 46.984 47.344 46.337 45.697 46.607 47.569 47.019 46.007 45.904 46.902 46.422 41.662 38.034 37.539 39.274 38.494 38.799 38.447 38.647 37.592 37.569 37.557 37.537 37.532 37.552 37.564 37.587 40.104 42.792 42.154 43.697 42.764 42.147 43.139 44.054 44.664 43.829 42.392 40.459 38.349 43.684 46.267 44.027 43.947 45.987 51.034 42.627 42.534 42.919 42.884 38.837 53.657 55.707 55.727 55.687 55.637 40.014 39.322 39.719 39.179 39.164 41.897 40.059 40.037 39.932 39.932 39.932 39.912 39.997 39.967 39.959 39.922 39.867 39.797 39.734 39.679 39.647 39.597 39.549 39.519 39.487 39.487 39.492 39.504 39.534 39.579 39.607 39.649 39.709 39.772 39.819 39.872 39.942 40.007 40.067 40.122 40.204 40.269 40.322 40.379 40.422 40.559 40.709 40.957 41.289 41.504 41.637 41.704 41.634 41.524 41.434 41.624 41.717 41.577 41.454 41.399 41.362 41.324 41.307 44.474 45.619 44.894 41.519 41.326 41.359 41.484 41.679 41.801 41.881 42.224 41.711 42.619 41.826 41.806 41.801 41.804 41.924 42.089 42.249 42.321 42.446 42.509 42.464 50.209 50.484 51.096 51.509 51.351 51.996 52.211 52.646 53.121 53.324 53.526 53.724 54.261 54.599 54.561 54.411 54.111 57.934 55.324 57.899 57.966 56.071 57.721 55.884 53.119 50.609 47.516 47.381 47.474 46.111 46.444 47.091 47.474 46.774 47.169 46.996 46.984 47.069 47.224 47.334 47.424 47.541 47.541 47.659 47.789 47.876 47.946 48.051 48.174 48.316 48.436 48.554 48.671 48.776 48.881 48.979 49.086 49.171 49.251 49.454 50.249 49.534 49.554 49.574 49.569 49.629 49.759 49.871 50.036 50.559 50.669 50.604 50.811 50.999 51.204 51.386 51.944 53.271 53.696 53.924 53.829 52.921 56.586 54.191 54.541 55.126 55.296 55.326 55.359 57.261 60.649 62.691 63.676 63.981 64.599 64.489 64.781 63.824 55.181 54.939 54.986 55.234 55.489 55.589 55.679 55.784 55.914 56.089 56.424 56.491 56.786 55.871 55.579 55.554 55.584 55.634 55.659 55.684 55.666 55.664 55.689 55.641 55.419 59.714 60.736 60.994 61.204 61.486 61.699
42.254 42.227 42.182 42.147 42.124 42.092 42.052 42.019 41.994 41.969 41.937 41.929 41.904 41.859 41.839 41.794 41.772 41.757 41.737 41.704 41.692 41.672 41.652 41.629 41.597 41.574 41.539 41.489 41.442 41.404 41.432 41.607 41.804 41.922 41.869 41.652 41.284 40.957 40.739 40.667 40.689 40.764 40.959 41.267 41.322 41.042 40.844 40.964 41.584 41.944 42.042 42.057 41.972 41.757 41.439 40.814 40.169 39.684 39.194 39.027 39.084 39.132 39.137 39.082 39.039 39.189 39.312 39.342 39.322 39.272 39.154 43.992 44.142 44.302 44.432 44.572 44.712 44.639 44.507 44.357 44.212 44.069 42.274 39.189 40.172 39.457 38.934 38.857 38.827 38.844 38.864 38.884 38.879 38.852 38.867 38.824 38.777 38.842 38.922 39.249 39.079 39.199 41.554 41.682 41.702 39.022 38.984 39.034 39.944 39.224 39.812 38.687 38.664 38.652 38.669 38.642 38.627 38.607 38.907 38.994 38.737 38.707 38.537 38.507 38.479 38.462 38.767 38.727 38.767 38.172 38.277 38.209 38.922 38.114 38.592 41.249 38.247 38.322 38.079 38.434 38.184 38.792 38.559 38.477 37.532 37.502 38.769 45.302 43.647 47.687 47.969 46.999 46.027 45.992 44.279 47.677 46.764 45.762 46.224 47.162 47.434 46.377 45.557 46.464 47.047 45.974 37.779 37.804 37.807 38.074 37.982 37.627 37.547 37.999 37.619 37.627 37.557 37.554 37.537 37.534 37.552 37.567 37.594 42.429 43.392 43.979 43.247 42.237 42.662 43.612 44.662 44.747 43.347 42.359 39.124 38.349 46.482 45.244 45.747 45.172 43.762 42.699 42.604 40.642 38.522 38.527 42.869 55.699 55.737 55.732 55.679 52.504 39.094 40.224 39.109 39.122 39.537 39.982 39.912 39.834 39.829 39.822 39.807 39.822 39.852 39.842 39.827 39.772 39.709 39.647 39.587 39.554 39.509 39.474 39.449 39.442 39.422 39.414 39.422 39.454 39.487 39.562 39.642 39.704 39.777 39.829 39.874 39.912 39.959 40.022 40.102 40.162 40.239 40.299 40.377 40.417 40.479 40.537 40.732 40.929 41.242 41.412 41.562 41.567 41.497 41.339 41.547 41.692 41.527 41.449 41.404 41.354 41.324 41.347 44.672 45.671 44.734 41.321 41.351 41.364 41.516 41.604 41.644 41.649 41.619 41.549 41.984 41.699 41.714 41.646 41.729 41.879 42.014 42.169 42.229 42.264 42.304 42.256 48.811 46.309 47.126 48.461 50.396 50.586 50.831 51.589 51.689 51.916 51.151 52.334 53.251 53.304 53.541 53.801 54.001 57.894 58.491 58.334 58.766 58.639 58.359 57.674 57.796 58.034 57.416 56.441 57.701 55.059 53.226 47.881 47.626 45.161 47.416 47.389 47.391 47.186 47.316 47.429 47.499 47.534 47.491 47.634 47.759 47.836 47.986 48.159 48.256 48.356 48.459 48.526 48.609 48.711 48.991 48.946 49.056 49.149 49.254 49.354 49.394 49.451 49.484 49.491 49.484 49.554 49.709 49.894 50.059 50.281 50.799 50.581 51.841 52.296 51.069 51.394 51.481 51.679 51.884 52.066 52.346 52.531 56.286 53.879 55.209 55.306 55.271 55.419 55.341 55.411 55.474 55.531 58.831 56.309 58.179 60.909 63.444 63.306 54.739 54.814 54.861 55.194 55.429 55.529 55.566 55.594 55.449 55.701 56.029 56.229 56.804 55.669 55.494 55.474 55.539 55.614 55.619 55.614 55.579 55.586 55.576 55.546 55.366 55.336 55.329 55.341 55.346 57.759 59.286
42.254 42.232 42.199 42.159 42.139 42.114 42.074 42.047 42.022 41.982 41.982 41.942 41.924 41.897 41.859 41.834 41.794 41.762 41.747 41.707 41.689 41.679 41.672 41.634 41.592 41.564 41.547 41.504 41.452 41.399 41.527 41.739 41.992 41.999 41.852 42.352 41.229 40.924 40.712 40.702 40.769 40.887 41.074 41.347 41.342 41.169 40.989 40.929 41.304 41.717 41.807 41.864 41.829 41.662 41.452 41.067 40.507 42.264 39.379 39.109 39.059 39.114 39.142 39.102 39.039 39.164 39.319 39.317 39.299 39.274 39.149 42.197 44.082 44.212 44.367 44.512 44.652 44.707 44.569 44.422 44.279 44.124 43.972 39.244 39.137 39.062 38.927 39.262 38.862 38.847 38.854 38.879 38.889 38.819 38.799 38.824 38.759 39.592 38.889 39.112 41.712 41.704 41.729 41.707 41.704 39.807 39.032 39.114 39.192 39.057 38.682 38.984 38.739 38.622 38.617 38.687 38.584 39.079 39.037 38.624 38.629 38.592 38.542 38.527 38.484 38.467 38.607 38.579 38.389 38.154 38.014 38.132 39.427 41.329 41.292 41.262 37.992 38.457 38.202 37.819 38.429 37.962 38.752 37.734 37.507 38.469 41.232 46.332 47.339 48.189 47.389 46.417 45.699 45.912 46.002 47.147 46.152 45.844 46.812 47.649 46.834 45.789 45.994 46.982 46.572 43.852 38.127 37.804 37.809 37.809 37.807 37.929 38.394 37.847 37.707 37.742 37.617 37.552 37.547 37.537 37.547 37.562 37.569 41.219 43.629 44.502 43.664 42.734 42.144 43.174 44.262 44.704 43.792 42.832 39.612 38.304 43.724 46.167 45.364 45.584 43.164 44.247 46.309 43.899 38.527 38.519 38.539 55.139 55.722 55.747 55.704 55.629 40.499 39.007 39.114 39.064 39.034 39.752 39.792 39.802 39.727 39.719 39.724 39.717 39.734 39.747 39.714 39.682 39.617 39.564 39.507 39.459 39.457 39.457 39.372 39.367 39.337 39.317 39.319 39.472 39.597 39.829 39.972 40.024 40.112 40.097 40.067 40.064 40.104 40.139 40.134 40.117 40.199 40.277 40.349 40.434 40.479 40.534 40.604 40.769 40.954 41.214 41.407 41.477 41.474 41.317 41.459 41.594 41.437 41.412 41.372 41.299 41.254 41.407 42.474 44.296 44.461 41.309 41.336 41.391 41.509 41.544 41.541 41.529 41.501 41.454 41.576 41.639 41.619 41.546 41.594 41.636 41.801 41.926 42.024 42.044 41.989 42.456 48.701 42.129 42.211 45.249 49.599 49.194 43.069 42.829 47.601 50.519 50.756 50.959 51.716 51.924 52.186 53.366 53.471 58.136 58.391 58.089 57.604 57.589 58.184 57.746 57.746 57.874 57.614 57.664 57.581 57.594 57.716 58.019 58.286 57.986 57.881 55.294 52.919 50.401 48.694 47.461 47.519 47.516 47.819 47.634 47.736 47.786 49.441 51.276 49.499 49.159 48.929 48.639 48.724 48.809 48.896 48.981 49.024 49.121 49.231 49.306 49.351 49.374 49.406 49.424 49.404 49.536 49.676 49.886 50.081 50.259 50.441 50.631 50.794 50.969 51.136 51.939 52.584 51.634 52.579 53.236 52.109 52.304 52.479 52.669 52.829 53.001 53.154 53.304 54.326 55.144 55.801 55.541 55.551 55.494 55.549 55.536 55.834 55.241 54.624 54.864 54.781 55.269 55.374 55.464 55.496 58.206 55.391 55.541 55.629 55.889 56.346 55.466 55.364 55.381 55.436 55.521 55.556 55.491 55.486 55.484 55.499 55.459 55.364 55.289 55.304 55.336 55.301 55.331 55.326
42.399 42.284 42.197 42.167 42.139 42.129 42.104 42.072 42.049 42.024 41.989 41.979 41.937 41.904 41.859 41.832 41.779 41.787 41.747 41.719 41.684 41.684 41.667 41.639 41.607 41.584 41.559 41.532 41.462 41.477 41.587 41.819 42.004 42.009 41.799 41.524 41.159 40.839 40.717 40.707 40.787 40.952 42.262 41.367 41.332 41.267 41.164 41.139 41.232 41.537 41.569 41.657 41.622 41.532 41.402 41.239 41.157 42.417 43.137 39.152 39.019 39.084 39.127 39.124 39.074 39.069 39.207 39.299 39.329 39.319 39.234 39.182 44.012 44.159 44.304 44.452 44.604 44.737 44.632 44.479 44.337 44.192 44.042 41.944 39.152 39.059 39.909 39.284 38.877 38.834 38.857 38.859 38.877 38.852 38.772 38.787 38.757 39.684 38.919 39.247 40.567 41.722 41.734 41.737 40.549 39.174 39.052 38.867 38.834 38.802 39.849 39.637 38.594 38.589 38.594 38.607 38.639 38.647 38.664 38.649 38.644 38.602 38.544 38.544 38.514 38.467 38.462 38.162 39.107 43.277 43.512 40.432 41.274 41.304 41.302 41.282 41.157 37.852 38.807 37.984 37.722 38.409 38.039 38.412 37.509 38.637 39.624 45.119 47.864 47.757 46.792 45.844 46.152 43.489 47.564 46.564 45.657 46.409 47.074 47.239 46.239 45.617 46.669 47.222 46.207 38.194 37.842 37.804 37.804 37.809 37.807 37.844 37.194 37.172 37.357 38.162 37.817 37.554 37.544 37.544 37.532 37.549 37.572 37.589 42.462 43.437 43.964 43.202 42.204 42.717 43.649 44.559 44.244 43.317 42.289 38.274 39.952 39.447 42.619 45.722 46.504 47.477 46.772 45.834 41.539 38.484 38.532 46.032 55.677 55.697 55.697 55.659 55.012 38.967 40.319 39.017 39.024 39.564 40.002 39.739 39.657 39.649 39.629 39.617 39.632 39.634 39.624 39.592 39.552 39.489 39.439 39.499 39.469 39.314 39.289 39.287 39.239 39.274 39.432 40.044 40.284 40.047 39.497 39.927 40.402 40.117 40.204 40.349 40.404 40.402 40.329 40.302 40.312 40.277 40.314 40.397 40.469 40.524 40.594 40.652 40.774 40.952 41.192 41.362 41.427 41.349 41.337 41.644 41.592 41.722 41.362 41.229 41.197 41.452 41.164 41.171 41.171 41.271 41.314 41.386 41.471 41.479 41.514 41.399 41.711 41.459 41.539 41.571 41.564 41.556 41.571 41.591 42.981 42.111 41.754 41.836 41.856 42.356 43.334 42.381 42.304 46.609 49.704 48.714 42.274 42.776 48.459 50.129 47.819 42.999 42.896 49.711 50.844 51.299 50.624 57.611 57.601 57.619 57.599 57.606 57.616 57.636 57.614 58.081 57.604 57.799 57.594 57.591 57.629 57.914 58.311 58.434 58.161 58.086 58.136 57.931 58.059 57.681 47.454 47.621 47.826 47.619 47.696 47.771 50.511 51.639 51.609 51.569 51.499 51.441 50.081 49.086 50.004 48.951 49.064 49.116 49.181 49.256 49.286 49.289 49.311 49.334 49.349 49.494 49.649 49.851 50.064 50.266 50.451 50.659 50.831 51.019 51.534 52.139 51.844 51.716 51.871 52.036 52.179 52.324 53.806 53.636 52.731 53.916 53.529 53.166 53.331 53.481 53.616 53.746 53.856 53.961 54.844 55.841 56.256 54.469 54.491 55.954 54.691 55.234 55.326 55.389 55.449 55.449 55.284 55.431 55.444 56.581 56.166 55.304 55.269 55.564 55.316 55.394 55.424 55.394 55.416 55.404 55.419 55.376 55.296 55.246 55.299 55.321 55.284 55.266 55.264
42.634 42.512 42.399 42.229 42.162 42.127 42.104 42.089 42.057 42.029 42.007 41.999 41.962 41.919 41.874 41.879 41.827 41.812 41.762 41.734 41.707 41.692 41.667 41.649 41.607 41.582 41.559 41.582 41.509 41.529 41.602 41.824 41.987 41.934 41.689 41.422 41.062 40.784 40.732 40.769 40.814 41.057 41.287 41.379 41.362 41.277 41.254 41.287 41.317 41.352 41.427 41.497 41.482 41.404 41.494 41.159 43.479 44.562 43.377 39.282 39.082 39.047 39.089 39.127 39.102 39.034 39.147 39.319 39.329 39.324 39.252 39.187 43.589 44.099 44.247 44.389 44.532 44.684 44.699 44.552 44.407 44.272 44.117 43.962 39.522 39.199 39.004 38.949 38.904 38.852 38.834 38.864 38.892 38.882 38.782 38.774 38.777 38.722 39.424 38.847 39.417 41.744 39.432 39.127 39.097 38.874 38.837 38.802 38.782 38.699 39.212 38.584 38.572 38.599 38.632 38.654 38.654 38.642 38.649 38.669 38.614 38.582 38.644 38.684 38.537 38.207 39.764 42.684 43.554 43.747 43.964 38.619 41.254 41.297 41.322 41.297 41.254 38.109 37.819 37.872 37.899 37.679 38.337 37.557 37.527 38.909 38.819 38.619 46.002 47.177 46.204 45.742 46.252 47.707 46.939 45.972 46.027 46.997 47.627 46.667 45.659 44.412 43.094 46.857 45.802 38.152 37.817 37.809 37.807 37.809 37.817 37.954 37.229 37.187 37.202 37.214 37.257 37.952 37.549 37.534 37.534 37.542 37.554 37.577 41.464 43.034 43.917 43.627 42.697 42.169 43.214 44.099 44.734 43.764 42.814 39.627 38.337 38.947 43.127 43.162 46.072 47.029 47.264 46.324 43.884 38.527 38.527 38.579 55.437 55.699 55.734 55.712 55.649 39.102 39.177 38.962 38.987 38.989 39.682 39.602 39.577 39.542 39.532 39.522 39.517 39.527 39.524 39.502 39.462 39.397 39.339 39.374 39.292 39.229 39.199 39.159 39.214 39.367 39.999 40.014 39.502 39.979 39.364 39.349 39.769 39.437 39.372 39.402 39.494 39.469 39.497 39.989 40.872 40.432 40.442 40.382 40.429 40.509 40.559 40.624 40.682 40.762 40.962 41.177 41.362 41.394 41.234 41.437 44.034 44.097 44.037 41.172 41.582 41.219 41.149 41.146 41.166 41.301 41.344 41.356 41.371 41.401 41.344 41.301 42.761 41.404 41.454 41.481 41.491 41.511 41.536 41.586 41.639 41.706 41.764 41.791 41.819 41.854 41.881 41.909 41.969 42.006 42.079 42.136 42.336 42.881 47.844 50.139 46.231 42.781 42.996 50.161 50.606 47.251 43.916 57.931 57.624 57.624 57.604 57.596 57.589 57.586 57.594 58.036 57.611 57.859 58.206 57.724 57.704 57.759 57.634 57.631 57.591 57.751 57.574 57.604 57.614 56.029 47.384 47.296 47.454 47.589 47.634 47.739 51.366 51.764 52.006 54.906 53.236 51.829 49.401 48.861 48.999 48.941 49.029 49.059 49.119 49.191 49.211 49.209 49.239 49.234 49.396 49.461 49.611 49.834 50.056 50.221 50.434 50.641 50.846 51.044 51.234 51.416 51.579 51.754 51.916 52.084 52.234 52.384 52.531 52.676 52.796 52.929 53.241 53.174 54.336 54.326 53.481 54.854 54.231 53.859 53.981 54.104 54.204 54.251 54.369 55.131 54.721 55.054 55.746 55.359 55.411 55.366 55.246 55.429 55.394 59.819 56.816 55.184 55.156 56.551 55.231 55.299 56.024 55.334 55.314 55.326 55.334 55.259 55.211 55.204 55.289 55.299 55.221 55.184 55.191
42.734 42.669 42.592 42.474 42.307 42.204 42.094 42.067 42.054 42.029 42.017 42.004 41.987 41.959 41.929 41.902 41.867 41.827 41.792 41.754 41.729 41.719 41.689 41.649 41.614 41.602 41.559 41.537 41.557 41.614 41.609 41.682 41.754 41.744 41.562 41.317 40.979 40.789 40.794 40.814 40.892 41.159 41.369 41.459 41.402 41.299 41.264 41.317 41.327 41.394 41.379 41.407 41.457 41.442 41.429 41.267 41.667 41.604 40.062 39.624 39.117 39.004 39.067 39.109 39.109 39.062 39.084 39.202 39.294 39.302 39.259 39.209 40.274 44.037 44.179 44.324 44.462 44.617 44.744 44.629 44.477 44.322 44.187 44.032 40.114 39.227 39.034 38.987 38.924 38.877 38.844 38.869 38.899 38.929 38.902 38.774 38.774 38.737 38.684 38.729 38.822 39.197 38.879 38.764 38.704 38.724 38.797 38.777 39.014 38.729 38.617 38.612 38.634 38.642 38.654 38.662 38.637 38.634 39.967 38.837 38.779 38.754 38.699 38.359 39.892 43.374 43.587 43.794 44.002 44.209 44.397 44.392 40.899 41.284 41.307 41.302 41.279 40.254 37.797 37.754 37.809 37.869 37.604 37.589 37.562 38.359 38.482 38.329 39.504 46.634 45.694 46.344 43.067 47.354 46.367 45.689 42.222 46.859 47.109 46.084 45.837 46.832 47.514 46.474 42.544 38.022 37.812 37.802 37.809 37.807 37.802 37.269 37.217 37.202 37.207 37.207 37.212 37.892 37.547 37.534 37.542 37.642 39.402 41.994 41.607 42.527 43.477 43.954 43.169 42.154 42.714 43.687 44.702 44.224 43.324 42.437 38.197 38.164 39.997 43.442 45.642 46.537 47.067 46.764 45.852 40.314 38.507 38.542 47.284 55.677 55.739 55.769 55.709 51.469 38.784 38.869 38.927 38.969 39.062 39.474 39.512 39.469 39.454 39.434 39.417 39.434 39.432 39.419 39.364 39.319 39.267 39.219 39.179 39.144 39.102 39.077 39.232 39.767 39.732 39.437 39.782 39.629 40.009 39.329 39.327 39.324 40.644 40.204 39.789 39.552 39.907 40.709 39.819 40.197 40.424 40.537 40.512 40.479 40.549 40.602 40.659 40.709 40.779 40.954 41.174 41.302 41.179 41.382 41.494 41.474 41.357 41.159 41.162 41.149 41.119 41.094 41.156 41.236 41.281 41.281 41.289 41.919 41.231 41.994 41.274 41.329 41.356 41.361 41.384 41.434 41.489 41.576 41.621 41.694 41.764 41.821 41.861 41.909 41.941 41.981 42.021 42.061 42.081 42.111 42.156 42.209 42.269 42.316 42.399 42.509 42.614 45.381 48.221 43.329 48.391 57.604 57.614 57.611 57.616 57.611 57.591 57.601 57.591 57.949 57.601 57.944 58.646 58.194 57.751 57.661 57.919 59.286 58.639 57.601 57.631 57.621 57.631 54.811 47.304 47.896 47.436 47.559 47.566 47.709 51.474 51.859 53.631 58.611 59.574 59.321 59.009 58.161 58.419 48.886 49.004 48.976 49.239 49.111 49.136 49.141 49.144 49.166 49.324 49.441 49.629 52.199 50.626 51.221 50.389 50.851 51.184 51.079 51.209 51.394 51.584 51.754 51.926 52.096 52.264 52.414 52.566 52.699 52.834 52.964 53.091 53.224 53.331 53.446 53.531 53.629 53.929 53.839 54.456 55.581 55.379 54.179 54.269 54.339 54.466 54.564 54.654 54.701 54.766 54.949 55.114 55.364 55.339 55.346 55.121 55.096 55.069 55.446 55.131 55.186 56.481 55.221 55.214 55.221 55.239 55.124 55.111 55.136 55.199 55.179 55.116 55.109 55.104
42.764 42.702 42.652 42.587 42.539 42.444 42.332 42.162 42.072 42.047 42.019 42.017 41.982 41.959 41.929 41.887 41.882 41.844 41.809 41.754 41.727 41.739 41.714 41.667 41.634 41.604 41.569 41.529 41.547 41.582 41.582 41.607 41.604 41.574 41.449 41.224 40.897 40.834 40.837 40.899 41.039 41.257 41.434 41.512 41.469 41.332 41.302 41.344 41.382 41.422 41.404 41.374 41.387 41.254 41.224 41.219 41.034 40.747 46.269 39.882 39.224 39.057 39.037 39.089 39.117 39.087 39.017 39.162 39.294 39.249 39.234 39.187 39.227 43.757 44.114 44.259 44.404 44.559 44.699 44.689 44.547 44.394 44.242 44.097 43.934 39.162 39.069 39.009 38.952 38.912 38.874 38.884 38.897 38.907 38.909 38.747 38.747 38.739 38.687 38.619 38.639 38.714 38.672 38.737 38.717 38.729 38.717 38.607 39.454 38.632 38.649 38.659 38.657 38.649 38.644 38.747 39.939 38.979 38.719 38.767 38.512 38.474 41.642 43.427 43.644 43.837 44.034 44.249 44.454 44.642 44.837 45.032 39.154 41.259 41.299 41.324 41.299 41.257 37.807 37.737 37.749 38.232 38.277 37.607 37.584 37.562 38.554 39.639 38.942 43.969 45.954 39.782 46.847 46.764 45.789 44.944 46.944 47.499 46.532 45.634 46.444 47.424 47.147 46.089 38.382 37.809 37.822 37.804 37.802 37.809 38.037 37.229 37.214 37.187 37.207 37.202 37.882 37.982 37.582 37.547 40.052 41.864 42.342 42.354 41.824 42.099 43.074 43.914 43.582 42.647 42.202 43.219 44.197 44.849 43.824 42.797 40.177 38.149 38.922 43.292 44.392 46.089 47.012 47.277 46.334 45.109 39.057 38.817 38.922 55.692 55.739 55.764 55.747 55.662 40.027 38.767 38.854 38.922 39.032 39.212 39.379 39.397 39.382 39.357 39.324 39.344 39.339 39.337 39.294 39.239 39.192 39.144 39.092 39.049 39.002 39.114 39.714 40.007 39.484 39.417 39.404 39.527 39.357 39.422 39.457 40.199 40.234 39.862 39.439 39.504 39.539 39.974 41.074 40.804 39.674 39.957 40.664 40.612 40.519 40.594 40.637 40.694 40.742 40.814 40.972 41.139 41.144 41.242 41.447 41.487 41.349 41.142 41.129 41.112 41.072 41.031 41.131 41.176 41.181 41.189 41.186 41.126 41.524 41.236 41.221 41.229 41.231 41.219 41.346 41.414 41.454 41.531 41.629 41.671 41.746 41.794 41.844 41.904 41.944 41.996 42.059 42.116 42.139 42.179 42.236 42.291 42.326 42.346 42.396 42.456 42.546 42.681 42.839 43.031 43.206 43.359 46.491 48.604 52.169 57.769 57.616 57.389 57.594 57.614 57.614 57.916 58.224 58.124 57.841 57.661 57.604 57.599 57.629 57.589 57.596 57.624 57.619 48.491 47.219 47.864 47.429 47.511 47.524 48.949 51.571 51.956 54.789 58.936 60.044 61.091 60.864 60.989 60.071 48.846 48.954 48.911 49.569 49.041 49.049 49.056 49.069 49.384 51.464 50.951 50.756 50.139 53.446 50.299 50.474 50.664 51.009 50.976 51.149 52.316 52.679 51.714 52.064 52.241 52.231 52.406 52.566 52.709 52.846 52.981 53.126 53.241 53.364 53.469 53.566 53.679 53.774 53.876 53.984 54.074 54.231 54.241 54.309 54.374 54.419 55.004 55.654 54.554 54.871 54.701 54.776 54.829 54.854 54.884 54.911 55.029 54.956 54.986 55.059 55.329 55.099 55.124 55.099 55.114 55.129 55.036 55.021 55.066 55.119 55.056 55.786 55.046 55.629
42.777 42.737 42.694 42.619 42.592 42.539 42.472 42.379 42.214 42.082 42.029 41.999 41.987 41.944 41.927 41.894 41.869 41.857 41.819 41.779 41.762 41.729 41.719 41.679 41.644 41.607 41.564 41.549 41.597 41.627 41.612 41.594 41.584 41.544 41.387 41.114 40.864 40.884 40.907 40.992 41.154 41.389 41.487 41.507 41.424 41.349 41.304 41.342 42.174 41.497 41.594 41.472 41.484 41.384 41.354 41.294 41.189 40.917 40.454 39.984 39.634 39.124 38.999 39.062 39.109 39.109 39.057 39.097 39.197 39.174 39.157 39.274 39.284 40.337 44.057 44.202 44.347 44.489 44.632 44.747 44.602 44.457 44.332 44.167 44.019 39.959 39.119 39.042 38.964 38.954 38.932 38.904 38.892 38.864 38.849 38.704 38.734 38.719 38.687 38.634 38.622 38.589 38.597 38.732 38.939 38.872 39.884 38.644 38.654 38.654 38.622 38.637 38.624 39.014 39.937 38.647 38.722 38.732 38.314 38.097 41.364 43.477 43.677 43.869 44.072 44.292 44.487 44.692 44.887 45.109 45.307 45.504 44.457 40.789 41.284 41.322 41.312 41.274 39.787 37.747 37.692 37.747 37.739 37.597 37.587 37.562 38.337 38.522 38.157 37.959 45.792 47.519 47.179 46.182 45.814 46.759 47.707 46.962 45.974 46.022 47.022 47.799 46.772 45.104 38.319 37.814 37.794 37.812 37.812 37.807 37.734 37.187 37.187 37.182 37.199 37.204 38.112 37.834 37.834 37.839 37.887 41.539 42.047 42.537 42.087 41.684 42.604 43.492 43.962 43.169 42.142 44.214 45.274 44.857 44.337 43.319 42.297 38.104 38.119 40.089 43.414 45.612 46.567 47.464 43.907 39.449 38.732 38.632 38.502 49.642 55.717 55.754 55.744 55.677 52.414 38.672 38.969 38.834 38.962 39.127 39.299 39.324 39.312 39.287 39.257 39.259 39.257 39.252 39.224 39.169 39.124 39.074 39.009 38.954 38.909 39.044 39.359 44.274 44.157 40.477 39.429 39.404 39.382 39.424 40.522 39.497 39.279 39.279 39.289 39.304 39.322 39.462 39.629 40.544 40.719 39.844 40.357 40.762 40.702 40.577 40.627 40.667 40.719 40.762 40.887 41.012 41.109 41.194 41.369 41.429 41.372 41.114 41.079 41.057 41.019 40.984 40.981 41.076 41.091 41.864 41.061 41.029 40.986 41.086 41.121 41.301 41.119 41.331 41.509 41.549 41.604 41.634 42.224 42.844 41.769 41.776 41.821 41.841 41.891 41.939 42.014 42.071 42.129 42.181 42.256 42.334 42.381 42.419 42.469 42.551 42.639 42.761 42.904 43.031 43.174 43.331 43.486 43.641 43.821 44.011 44.191 44.721 46.771 51.704 53.816 56.171 57.646 57.609 57.609 57.611 57.614 57.944 57.864 57.579 57.584 57.634 57.639 50.019 47.104 47.214 47.404 47.451 47.626 51.169 51.666 52.181 56.861 58.589 60.424 61.246 60.064 59.726 59.999 48.784 48.821 48.871 48.926 49.331 48.991 48.971 48.966 49.114 53.936 54.704 51.874 56.036 62.404 53.661 53.894 54.091 51.391 53.651 51.286 52.001 52.604 51.761 52.116 52.329 52.221 52.364 53.041 53.116 52.809 52.941 53.091 53.224 53.341 53.469 53.579 53.689 53.804 53.894 54.006 55.101 54.849 54.761 54.334 54.394 54.456 54.504 54.566 54.611 54.851 55.109 54.679 55.301 55.809 54.896 55.399 55.201 54.844 54.864 54.894 54.921 54.936 54.961 54.994 55.091 55.036 54.956 54.954 54.971 55.049 54.976 55.539 54.964 55.851
42.807 42.749 42.722 42.679 42.637 42.589 42.517 42.462 42.362 42.309 42.207 42.074 41.989 41.957 41.939 41.932 41.897 41.872 41.839 41.789 41.772 41.737 41.719 41.707 41.667 41.639 41.587 41.597 41.647 41.624 41.719 41.632 41.644 41.572 41.292 41.014 40.904 40.939 41.014 41.129 41.187 41.312 41.649 41.402 41.404 41.327 41.297 41.292 41.414 41.552 41.709 41.712 41.714 41.664 41.604 41.532 41.479 41.122 40.649 40.137 41.632 39.199 39.007 39.024 39.084 39.114 39.087 39.024 39.164 39.224 39.327 39.384 39.344 39.287 43.989 44.129 44.282 44.424 44.559 44.702 44.704 44.529 44.382 44.224 44.087 43.852 39.182 39.077 39.029 38.964 38.947 38.944 38.902 38.859 38.822 38.687 38.677 38.674 38.682 38.649 38.612 38.592 38.569 38.812 38.869 38.622 38.652 38.649 38.654 38.647 38.614 38.999 39.534 38.654 38.732 38.687 38.214 38.837 43.287 43.524 43.722 43.917 44.127 44.304 44.524 44.729 44.932 45.152 45.352 45.562 45.769 45.749 45.534 40.317 41.267 41.287 41.314 41.292 41.259 37.724 37.704 37.707 38.329 37.787 37.577 37.564 37.544 37.549 38.654 38.662 38.379 45.122 46.607 45.669 46.379 47.337 47.322 46.402 45.697 46.584 47.592 47.454 46.334 39.459 38.789 40.012 39.047 37.804 37.812 37.809 37.154 37.172 37.172 37.192 37.204 37.252 39.119 37.809 37.794 37.814 37.844 39.414 41.814 42.324 42.357 41.852 42.002 43.089 44.052 45.227 48.409 47.447 46.517 44.247 45.052 43.834 42.822 38.937 38.102 38.057 37.869 41.374 43.219 40.942 41.647 41.792 38.812 38.584 38.482 43.104 55.812 55.759 55.837 55.729 55.662 38.734 39.269 38.794 38.889 39.057 39.204 39.262 39.249 39.224 39.204 39.164 39.172 39.172 39.147 39.114 39.047 38.987 38.922 38.864 38.887 39.219 40.637 44.224 44.089 44.154 44.247 44.064 40.267 39.394 39.347 39.304 39.264 39.247 39.239 39.244 40.262 39.567 40.202 39.692 39.752 40.657 40.714 40.197 40.824 40.737 40.599 40.652 40.684 40.739 40.777 40.959 41.069 41.092 41.717 41.374 41.352 41.182 41.034 41.004 40.969 40.919 40.899 40.876 40.871 41.171 40.909 41.094 41.039 41.014 41.031 41.919 41.119 41.364 41.541 41.614 41.704 41.741 41.789 41.819 41.849 41.781 41.881 41.949 41.969 41.994 42.019 42.079 42.116 42.151 42.216 42.304 42.361 42.414 42.486 42.571 42.669 42.799 42.934 43.096 43.231 43.386 43.546 43.689 43.824 43.969 44.116 44.259 44.401 44.551 44.761 44.946 46.059 46.324 46.714 49.256 53.491 57.941 57.676 57.611 57.616 57.644 57.659 47.121 48.219 47.194 47.339 47.739 47.471 47.664 47.951 50.464 57.671 59.561 60.736 60.966 60.406 58.564 52.224 48.754 48.729 48.799 48.924 48.911 48.906 48.876 48.866 49.161 54.371 58.284 52.066 52.281 51.864 51.879 53.209 54.989 54.221 56.294 58.231 60.099 58.436 53.164 52.051 52.181 52.341 52.464 52.531 52.721 52.751 52.889 53.011 53.166 53.286 53.421 53.536 53.656 53.759 53.876 53.976 54.076 54.606 54.454 54.331 54.404 54.459 54.521 54.584 54.641 54.689 54.729 54.754 54.771 54.791 54.809 54.829 54.821 54.826 54.944 56.044 54.816 55.949 55.356 54.851 55.134 54.876 54.874 54.866 55.034 55.234 54.911 54.896 54.939 54.884
42.819 42.777 42.732 42.704 42.644 42.597 42.567 42.489 42.442 42.419 42.352 42.264 42.129 42.027 41.962 41.919 41.894 41.877 41.837 41.817 41.787 41.759 41.709 41.709 41.682 41.664 41.664 41.667 41.642 41.614 41.737 41.742 41.664 41.547 41.224 40.962 40.959 41.014 41.157 41.222 41.264 41.154 41.214 41.267 41.292 41.199 41.169 41.207 41.334 41.509 41.679 41.872 41.959 41.932 41.872 41.777 41.692 41.437 40.944 40.369 39.879 40.287 39.109 39.009 39.069 39.107 39.099 39.044 39.124 39.217 39.337 39.389 39.364 39.279 41.559 44.062 44.212 44.352 44.489 44.634 44.732 44.594 44.442 44.304 44.142 43.992 40.064 39.127 39.037 38.999 38.952 38.947 38.914 38.884 38.799 38.697 38.682 38.664 38.662 38.617 38.587 38.592 38.599 38.627 38.617 38.634 38.654 38.632 38.639 38.617 38.579 38.674 38.737 38.657 38.294 39.347 43.327 43.557 43.757 43.969 44.172 44.359 44.562 44.757 44.949 45.177 45.374 45.589 45.799 45.722 45.517 45.294 45.092 41.287 41.249 41.289 41.314 41.307 40.254 37.984 37.707 37.682 37.679 38.337 37.649 37.579 37.559 37.619 38.092 38.707 38.932 40.877 46.002 46.017 46.952 47.607 46.692 45.757 46.174 47.184 47.982 47.029 45.914 38.817 38.652 38.827 38.077 38.232 38.232 38.314 37.184 37.167 37.187 37.182 37.204 37.589 37.687 37.719 37.722 37.804 42.947 43.407 41.624 42.067 42.542 42.102 41.579 43.769 47.222 48.287 48.854 47.879 46.959 45.712 44.862 44.352 43.329 42.329 38.494 38.062 38.019 38.029 40.784 40.614 39.412 38.432 38.584 38.529 39.384 38.854 49.429 55.662 55.739 55.759 55.717 52.122 38.712 38.844 38.839 38.982 39.112 39.179 39.187 39.162 39.127 39.102 39.099 39.087 39.077 39.042 38.974 38.912 38.842 38.779 38.847 39.407 41.172 44.172 44.084 44.047 44.009 43.997 44.144 44.227 42.747 39.294 39.242 39.609 39.682 39.319 40.177 39.507 40.044 40.777 40.192 39.809 40.379 40.974 40.194 40.899 40.744 40.612 40.664 40.694 40.744 40.822 40.992 41.037 41.157 41.362 41.402 41.304 41.247 41.137 40.927 40.879 40.844 40.824 40.799 40.791 40.781 40.801 40.871 40.896 41.614 40.924 41.166 41.349 41.541 41.639 41.699 41.736 41.799 41.819 41.816 41.776 41.991 41.939 42.066 42.036 42.109 42.181 42.241 42.306 42.339 42.419 42.454 42.426 42.461 42.544 42.629 42.761 42.901 43.049 43.224 43.386 43.559 43.741 43.861 43.986 44.136 44.281 44.439 44.604 44.754 44.891 45.046 45.201 45.379 45.629 45.824 45.994 46.929 49.226 52.161 54.186 55.144 46.956 48.351 47.179 47.279 47.301 47.441 48.329 47.934 47.909 58.744 59.911 61.036 60.604 59.979 60.004 49.236 48.709 48.639 48.719 48.901 48.824 48.796 48.784 48.779 49.584 53.359 52.319 51.601 51.591 51.729 55.474 51.951 54.396 52.204 56.394 54.149 58.051 58.176 52.564 52.941 52.609 52.614 53.226 52.699 52.734 52.864 52.989 53.119 53.229 53.344 53.436 53.521 53.591 53.704 53.809 53.906 54.016 54.114 54.209 54.276 54.369 54.441 54.521 54.581 54.644 54.691 54.729 54.761 54.791 54.814 54.851 54.866 54.881 54.876 54.879 54.876 54.854 54.829 54.811 54.806 54.776 56.329 54.811 54.824 54.789 54.801 54.821 54.811 54.856 54.799
42.822 42.789 42.752 42.689 42.654 42.617 42.572 42.522 42.487 42.444 42.409 42.372 42.297 42.199 42.082 41.989 41.909 41.869 41.844 41.829 41.794 41.739 41.722 41.697 41.677 41.679 41.722 41.742 41.667 41.644 41.684 41.732 41.679 41.487 41.119 40.989 41.062 41.169 41.297 41.184 41.052 40.939 40.944 40.989 41.044 41.049 41.057 41.167 41.224 41.434 41.582 41.697 41.829 41.964 42.034 42.057 41.944 41.739 41.279 40.652 39.984 39.689 39.167 39.024 39.049 39.099 39.109 39.062 39.012 39.162 39.319 39.357 39.327 39.217 39.162 43.992 44.142 44.287 44.429 44.574 44.719 44.667 44.517 44.364 44.224 44.067 43.744 39.104 39.042 39.057 39.022 38.949 38.894 38.847 38.719 38.697 38.657 38.639 38.629 38.627 38.632 38.654 38.669 38.667 38.642 38.629 38.624 38.594 38.584 38.689 39.327 42.994 38.409 38.129 43.377 43.589 43.804 43.999 44.204 44.394 44.614 44.824 44.997 45.207 45.407 45.612 45.797 45.662 45.464 45.264 45.064 44.867 44.632 44.444 40.497 41.274 39.967 37.952 37.777 37.739 37.699 37.684 37.657 37.864 38.029 37.589 37.569 37.534 38.444 39.289 39.772 38.889 42.669 46.584 47.562 47.104 46.124 45.807 46.787 47.757 47.669 46.592 44.342 38.712 38.714 37.107 37.122 36.787 36.807 37.709 37.637 37.797 37.189 37.204 37.207 37.587 37.489 37.584 41.154 43.384 43.497 43.612 42.912 41.809 42.289 42.352 41.842 41.809 46.714 47.742 48.819 48.407 47.419 46.512 44.192 45.097 43.842 42.827 39.397 38.037 38.069 38.032 39.094 38.522 38.334 38.247 38.834 38.639 39.302 38.424 39.817 55.677 55.732 55.789 55.757 55.692 38.717 38.627 38.757 38.894 39.017 39.109 39.139 39.107 39.064 39.029 39.009 39.022 39.017 38.977 38.917 38.837 38.772 38.707 38.767 39.127 42.784 44.154 44.089 44.047 43.999 43.964 44.094 44.147 42.922 39.269 39.194 40.232 39.314 39.139 39.154 39.169 39.227 39.634 40.472 39.792 39.854 40.214 41.024 40.812 40.812 40.719 40.617 40.674 40.704 40.759 40.924 40.969 41.129 41.307 41.437 41.394 41.307 41.307 41.217 41.059 40.839 40.749 40.736 40.691 40.641 40.746 40.774 40.866 40.774 40.939 41.134 41.359 41.536 41.616 41.686 41.744 41.804 41.811 41.751 41.766 41.844 41.916 41.966 42.074 42.111 42.201 42.279 42.376 42.436 42.504 42.536 42.494 42.466 42.526 42.589 42.664 42.981 43.114 43.196 43.341 43.529 43.696 43.829 43.969 44.129 44.261 44.434 44.606 44.759 44.896 45.034 45.184 45.386 46.311 46.109 45.951 46.141 46.309 46.419 46.594 47.589 46.814 46.971 47.159 47.234 47.249 47.421 50.734 48.579 52.289 59.059 60.229 61.266 60.259 59.056 58.089 48.564 48.544 48.599 48.889 48.836 48.746 48.711 48.681 48.729 51.491 51.514 51.451 51.501 51.629 53.791 59.146 52.046 55.109 52.881 55.384 54.019 55.806 52.686 52.724 52.829 52.879 52.859 53.039 52.879 52.851 52.964 53.204 53.261 53.376 53.459 53.624 53.621 53.699 53.771 53.869 53.911 53.991 54.036 54.129 55.071 55.524 54.414 55.029 54.564 54.594 54.649 54.699 54.746 54.784 54.811 54.834 54.861 54.886 54.899 54.904 54.901 54.899 54.876 54.874 54.854 54.844 54.829 54.801 54.809 55.031 55.271 54.736 54.726 54.709 54.719
42.829 42.797 42.754 42.724 42.669 42.624 42.577 42.522 42.499 42.462 42.429 42.379 42.332 42.272 42.227 42.154 42.024 41.929 41.869 41.827 41.779 41.759 41.742 41.689 41.677 41.677 41.757 41.812 41.747 41.754 41.762 41.707 41.662 41.402 41.069 41.052 41.187 41.344 41.354 41.137 40.922 40.847 40.907 40.779 40.794 40.952 41.017 41.057 41.124 41.234 41.404 41.507 41.579 41.787 42.089 42.119 42.069 43.332 42.939 40.919 40.159 40.282 39.374 39.232 39.027 39.087 39.117 39.099 39.017 39.122 39.262 39.312 39.302 39.264 39.234 41.492 44.087 44.222 44.367 44.512 44.659 44.732 44.589 44.447 44.284 40.499 39.172 39.149 39.097 39.064 39.032 38.912 38.872 38.822 38.702 38.682 38.647 38.662 38.684 38.699 38.707 38.697 38.669 38.634 38.609 38.577 38.567 38.577 41.004 44.677 43.822 42.989 39.959 37.994 43.759 44.022 44.247 44.449 44.647 44.854 45.049 45.269 45.464 45.647 45.772 45.592 45.399 45.202 45.007 44.822 44.607 44.407 44.197 43.992 40.437 37.949 37.909 37.834 37.782 37.734 37.699 37.669 37.647 37.642 38.372 37.709 37.567 37.539 37.524 38.914 38.874 39.137 39.564 45.784 47.477 46.509 45.677 46.399 47.424 48.217 47.259 46.129 39.979 38.419 38.762 37.257 38.269 39.659 40.879 39.604 37.677 37.597 37.634 37.882 37.977 37.367 37.329 37.464 43.349 43.619 43.729 43.829 43.202 41.572 42.062 42.542 42.114 41.597 46.267 47.234 48.312 48.894 47.899 46.942 45.869 44.777 44.369 43.324 42.332 38.122 38.529 37.987 38.002 38.172 39.479 38.202 38.254 39.149 38.349 38.427 41.912 53.547 55.702 55.764 56.624 39.064 38.717 38.687 38.672 38.819 38.929 39.032 39.084 39.054 39.004 38.972 38.939 38.947 38.947 38.907 38.857 38.779 38.719 38.654 38.659 38.777 42.334 44.157 44.089 44.042 44.082 44.239 43.902 43.014 42.994 39.607 39.139 39.242 39.102 39.079 39.102 39.124 39.162 39.224 39.477 39.704 39.617 40.189 40.902 40.152 41.104 40.767 40.622 40.622 40.649 40.714 40.772 40.919 41.062 41.279 41.464 41.432 41.384 41.332 41.294 41.204 41.019 40.896 40.661 40.574 40.619 40.681 40.671 41.999 40.731 40.986 41.151 41.356 41.551 41.599 41.669 41.711 41.776 41.829 41.761 41.759 42.356 42.146 41.951 42.014 42.081 42.166 42.249 42.709 42.321 42.389 42.424 42.439 42.469 42.521 42.574 42.796 43.126 43.396 43.554 43.706 43.816 43.924 44.001 44.064 44.126 44.249 44.381 44.541 44.684 44.846 44.996 45.161 45.314 45.454 45.631 45.814 46.001 46.131 47.251 47.004 46.641 46.794 46.964 47.134 47.171 47.236 48.846 52.169 51.936 57.536 59.404 60.539 61.154 60.116 59.794 54.761 48.466 48.466 48.546 48.591 48.751 48.661 48.636 48.604 48.744 52.404 51.359 51.401 51.439 51.494 51.631 51.814 52.119 52.279 53.381 53.451 52.601 55.544 52.731 52.839 52.911 52.959 52.924 52.931 52.924 52.971 53.119 53.214 53.254 53.344 53.536 54.231 53.991 53.849 55.819 55.654 55.251 54.206 54.096 54.164 54.216 54.261 54.346 54.466 54.671 55.399 55.986 54.884 55.094 54.919 54.744 54.806 54.826 54.846 54.874 55.551 55.264 54.884 54.891 54.884 54.884 54.874 54.869 54.851 54.834 54.831 54.814 54.791 54.771 54.749 54.729
42.834 42.809 42.782 42.747 42.689 42.629 42.584 42.529 42.512 42.469 42.432 42.394 42.352 42.292 42.297 42.254 42.164 42.077 41.929 41.894 41.819 41.762 41.742 41.694 41.699 41.784 41.787 42.752 44.797 41.909 41.807 41.772 41.559 41.222 41.084 41.164 41.367 41.462 41.194 40.939 40.859 40.804 40.772 40.714 40.704 40.774 40.834 40.882 40.949 41.027 41.249 41.384 41.419 41.459 41.867 42.772 43.074 41.939 43.829 41.877 40.382 39.769 41.532 39.157 39.019 39.064 39.122 39.117 39.062 39.042 39.172 39.272 39.289 39.259 39.252 39.217 44.012 44.144 44.299 44.454 44.602 44.754 44.154 41.234 39.297 39.252 39.169 39.122 39.087 39.057 38.984 38.869 38.852 38.722 38.697 38.704 38.717 38.729 38.747 38.742 38.714 38.682 39.049 39.509 38.572 38.559 40.474 44.972 45.532 44.877 44.129 43.412 42.692 37.962 41.402 44.479 44.682 44.902 45.087 45.299 45.517 45.722 45.784 45.569 45.354 45.144 44.949 44.772 44.562 44.359 44.169 43.959 43.762 43.552 42.142 37.984 37.917 37.814 37.807 37.727 37.692 37.654 37.657 37.649 37.869 38.092 37.557 37.539 37.519 38.297 39.634 39.489 37.584 37.459 46.962 45.932 46.027 47.009 47.989 47.887 46.794 45.702 38.832 38.597 38.302 37.802 37.984 39.224 41.079 41.052 37.712 37.512 37.664 37.467 37.352 37.202 37.277 37.734 42.264 43.859 44.382 43.619 42.727 41.854 41.804 42.307 42.364 41.862 42.562 46.799 47.784 48.872 48.394 47.414 46.502 44.182 45.042 43.874 42.842 40.337 43.144 38.589 37.964 38.032 38.372 38.147 38.199 38.242 38.259 47.032 51.154 50.562 55.204 49.309 48.542 38.732 38.649 38.667 38.689 38.767 38.877 38.977 39.024 39.017 38.952 38.912 38.872 38.874 38.877 38.934 38.802 38.732 38.652 38.597 38.542 38.697 40.502 44.184 44.104 44.219 43.794 43.134 43.182 43.307 43.009 40.639 39.167 39.127 39.087 39.054 39.062 39.097 39.122 39.184 39.264 39.407 40.029 39.957 40.014 41.377 40.464 40.999 40.732 40.567 40.609 40.679 40.709 40.869 40.977 41.227 41.457 41.474 41.399 41.332 41.252 41.121 40.944 41.569 40.569 40.504 40.581 40.611 40.864 40.884 40.864 41.104 41.309 41.389 41.499 41.536 41.564 41.626 42.526 41.966 41.751 41.884 42.231 41.529 41.711 42.191 42.516 42.596 42.139 43.204 42.199 43.421 42.431 42.436 42.464 42.506 42.564 42.804 43.089 43.391 43.756 43.939 44.154 44.386 44.621 44.661 44.711 44.779 44.871 45.601 45.286 45.141 44.979 45.099 45.229 45.386 45.556 45.741 45.909 46.049 46.204 46.389 46.566 46.769 46.949 47.089 47.574 47.224 48.649 51.254 52.979 58.564 60.164 60.829 60.801 60.814 58.566 50.174 48.406 48.409 48.486 48.626 48.664 48.584 48.554 48.546 49.039 52.114 51.246 51.339 51.426 51.561 51.661 51.884 52.046 52.334 52.481 52.589 52.916 54.744 52.724 52.851 52.891 52.926 52.929 52.976 52.991 53.044 53.181 53.226 53.266 53.369 53.431 53.531 53.676 53.781 53.949 54.099 54.234 56.539 55.879 56.401 56.571 55.599 55.354 54.751 54.564 54.604 54.629 54.641 54.651 54.964 55.421 54.689 54.739 54.776 54.801 55.054 55.506 54.849 54.831 54.839 54.851 54.851 54.841 54.839 54.834 54.826 54.819 54.809 54.804 54.789 54.776
42.854 42.822 42.794 42.749 42.704 42.649 42.594 42.554 42.512 42.467 42.427 42.389 42.364 42.329 42.304 42.279 42.237 42.172 42.074 42.012 41.922 41.839 41.774 41.724 41.694 41.789 41.759 41.804 41.819 41.824 41.759 41.697 41.429 41.154 41.149 41.304 41.477 41.372 41.084 40.939 40.884 40.827 40.817 40.709 40.667 40.637 40.604 40.709 40.772 40.859 41.089 41.282 41.339 41.137 41.314 44.087 42.374 41.704 41.899 41.162 40.554 40.804 40.004 39.237 39.122 39.044 39.089 39.129 39.092 39.034 39.137 39.237 39.289 39.312 39.307 39.227 42.287 44.084 44.227 44.379 43.662 40.344 39.277 39.284 39.267 39.209 39.079 39.007 38.997 38.974 38.929 38.854 38.732 38.747 38.764 38.757 38.769 38.764 38.727 38.717 38.669 38.637 38.654 38.699 40.387 43.159 43.857 44.594 45.319 45.217 44.504 43.747 43.027 39.579 38.017 44.707 45.137 45.339 45.564 45.759 45.749 45.529 45.324 45.107 44.897 44.704 44.507 44.304 44.112 43.917 43.714 43.519 43.289 39.284 38.544 38.382 37.912 37.802 37.779 37.709 37.689 37.647 37.647 37.669 37.654 38.712 37.787 37.552 37.507 37.569 39.409 39.504 38.104 37.862 40.412 45.689 46.612 47.577 47.679 47.449 46.372 41.959 38.837 38.699 37.014 37.154 37.132 39.499 41.134 40.047 37.117 37.102 37.122 37.192 37.169 37.152 37.209 41.884 42.437 43.857 44.714 44.049 43.197 42.319 41.592 42.057 42.544 42.069 41.567 46.374 47.297 48.307 48.864 47.919 46.954 45.619 44.764 44.364 43.329 42.314 43.019 43.124 38.332 37.954 38.037 38.094 38.129 38.157 42.699 50.964 51.822 51.644 50.867 48.649 42.419 39.102 38.782 38.792 38.689 38.799 38.909 38.977 38.967 38.962 38.912 38.864 38.819 38.787 38.787 38.867 38.822 38.689 38.607 38.552 38.484 38.602 38.657 44.244 44.184 43.257 43.207 43.164 43.119 42.909 42.502 39.224 39.187 39.149 39.114 39.059 39.049 39.157 39.097 39.144 39.232 39.327 39.422 39.972 40.032 40.557 40.654 40.919 40.794 40.592 40.557 40.622 40.684 40.749 40.874 41.659 41.402 41.412 41.329 41.222 41.137 40.946 40.696 40.489 40.446 40.489 40.561 40.509 40.476 40.541 41.411 41.849 42.101 41.881 41.551 42.071 41.566 41.884 42.064 41.521 41.581 41.926 41.186 41.761 41.996 41.704 41.666 41.736 41.886 42.056 42.114 43.076 42.426 42.431 42.466 42.489 42.554 42.821 43.094 43.391 43.739 44.084 44.346 44.629 44.809 45.021 45.191 46.234 45.866 45.991 45.909 45.784 45.599 45.979 46.009 46.324 46.091 45.979 45.811 45.941 46.116 46.319 46.526 46.714 46.904 47.009 47.284 47.179 50.551 51.181 54.814 58.876 60.006 61.136 60.441 59.566 59.086 48.289 48.449 48.339 48.399 48.509 48.501 48.494 48.474 48.501 51.174 51.424 51.194 51.309 51.391 51.549 51.681 51.931 52.204 52.336 52.499 52.696 52.914 54.279 52.749 52.829 52.891 52.914 52.979 53.004 53.041 53.084 53.194 53.216 53.299 53.366 53.459 53.726 53.719 53.834 53.951 54.074 54.114 56.386 54.304 54.346 54.404 54.346 56.951 54.686 55.481 56.181 55.444 54.946 54.751 54.726 54.649 55.639 54.686 54.704 54.721 55.174 55.676 54.749 56.396 55.651 54.839 54.764 54.774 54.771 54.786 54.781 54.779 54.781 54.776 54.781 54.779
42.867 42.832 42.797 42.764 42.712 42.667 42.604 42.554 42.509 42.464 42.427 42.392 42.362 42.342 42.309 42.284 42.252 42.202 42.114 42.082 42.007 41.949 41.857 41.787 41.774 41.712 41.737 41.757 42.499 41.659 41.644 41.499 41.267 41.167 41.252 41.419 41.479 41.277 41.044 40.944 40.914 40.889 40.784 40.737 40.649 40.579 40.617 40.597 40.654 40.714 40.897 41.194 41.239 41.082 40.957 41.187 41.427 43.254 42.139 42.919 40.864 40.132 39.749 39.504 39.162 39.027 39.082 39.114 39.129 39.064 39.057 39.192 39.279 39.327 39.317 39.282 39.229 44.019 43.094 39.302 39.312 39.287 39.262 39.234 39.222 39.167 39.032 38.984 38.944 38.872 38.774 38.772 38.799 38.807 38.802 38.782 38.769 38.734 38.697 38.672 38.737 38.732 38.767 39.639 39.474 42.837 43.534 44.269 44.982 45.539 44.822 44.089 43.362 42.629 37.999 40.737 45.604 45.797 45.714 45.497 45.274 45.077 44.872 44.664 44.459 44.254 44.059 43.867 43.669 43.479 41.654 38.149 38.134 38.489 38.057 39.539 37.912 37.852 37.744 37.722 37.677 37.637 37.617 37.644 37.644 38.132 37.559 37.509 37.464 37.422 38.019 37.399 37.377 37.314 37.319 46.219 47.184 45.989 48.067 47.032 45.909 38.444 38.694 38.842 37.257 37.534 37.122 37.944 40.174 38.714 37.147 37.137 37.139 37.154 37.164 37.169 37.187 39.072 42.522 43.414 44.304 44.544 43.654 42.764 41.894 41.797 42.254 42.289 41.809 43.137 46.857 47.812 48.837 48.397 47.439 46.507 44.387 45.047 43.837 42.829 41.127 43.122 39.152 37.957 37.969 38.032 38.089 38.084 50.724 51.567 52.449 52.154 51.327 49.067 40.689 40.317 40.194 39.249 38.627 38.717 38.834 39.007 39.022 38.927 38.874 38.809 38.777 38.724 38.714 38.744 38.814 38.649 38.574 38.507 38.449 38.457 38.559 39.234 43.334 43.284 43.234 43.199 42.602 42.549 40.579 39.269 39.234 39.204 39.149 39.117 39.084 39.102 39.189 39.124 39.897 39.262 40.089 39.692 39.592 40.132 40.832 40.374 41.019 40.657 40.517 40.579 40.637 41.384 40.809 41.052 41.284 41.317 41.254 41.129 40.972 40.696 40.534 40.411 41.551 40.466 40.469 41.611 40.436 40.496 40.544 40.596 40.819 41.159 41.436 41.744 41.651 41.651 41.734 41.139 41.216 41.244 41.156 41.251 41.294 41.516 41.539 42.396 42.924 42.624 42.316 42.834 43.469 42.891 42.454 42.479 42.559 42.839 43.084 43.381 43.694 44.071 44.434 44.679 44.964 45.126 45.249 46.494 45.431 45.849 46.446 46.696 45.911 45.516 46.399 45.691 45.794 46.131 46.324 46.131 46.146 46.284 46.464 46.664 46.846 46.946 46.959 47.516 51.151 51.204 53.736 59.201 60.346 61.229 60.114 58.939 57.969 48.191 48.184 48.269 48.326 48.389 48.406 48.404 48.381 48.496 53.399 51.421 51.829 51.196 51.339 51.551 51.709 52.001 52.529 52.421 52.531 52.706 52.731 58.161 52.861 52.859 52.979 52.986 52.994 53.034 53.074 53.096 53.166 53.204 53.326 53.399 53.501 53.691 53.744 53.861 53.919 54.061 56.799 58.926 56.286 54.356 54.376 54.366 59.334 56.179 54.484 54.746 54.731 54.706 54.781 56.661 54.739 54.661 54.659 54.701 54.701 54.736 54.806 54.806 54.809 54.751 54.801 55.651 54.966 54.699 54.684 57.479 57.089 55.591 55.324 54.714 54.734
42.889 42.849 42.797 42.759 42.722 42.667 42.617 42.544 42.497 42.457 42.419 42.387 42.354 42.314 42.284 42.267 42.247 42.219 42.167 42.102 42.039 41.964 41.919 41.859 41.794 41.719 41.742 41.692 43.162 41.594 41.629 41.427 41.214 41.237 41.362 41.482 41.352 41.132 41.007 40.967 40.932 40.844 40.769 40.749 40.689 40.637 40.602 40.622 40.629 40.579 40.707 41.092 41.292 41.209 41.007 40.969 41.044 42.457 42.237 44.622 41.079 40.267 40.032 39.512 39.212 39.102 39.057 39.102 39.134 39.094 39.014 39.124 39.237 39.317 39.312 39.297 39.267 39.234 39.252 39.282 39.284 39.242 39.204 39.187 39.102 39.027 38.967 38.882 38.819 38.822 38.849 38.842 38.824 38.802 38.779 38.757 38.732 38.714 38.782 38.802 38.839 39.669 42.314 42.714 42.602 41.677 43.209 43.927 44.669 45.389 45.177 44.357 43.689 42.974 39.199 38.017 45.672 45.459 45.249 45.034 44.842 44.629 44.429 44.237 44.012 43.824 43.614 43.432 41.147 38.164 38.094 38.072 39.859 38.067 38.187 38.554 37.887 37.819 37.749 37.694 37.617 37.604 37.589 37.607 37.624 37.682 37.574 37.492 37.427 37.392 37.372 37.314 37.257 37.249 37.252 40.217 47.794 48.177 47.629 46.609 44.699 38.729 38.799 38.154 37.312 37.332 37.107 37.124 37.129 37.149 37.149 37.139 37.134 37.139 37.159 37.302 39.939 41.849 42.144 42.974 43.887 44.734 44.104 43.212 42.309 41.597 42.009 42.459 42.024 41.554 46.429 47.374 48.347 48.854 47.904 46.977 45.627 44.802 44.377 43.339 42.352 43.077 38.027 37.957 37.969 37.999 38.034 47.902 51.309 52.207 52.452 51.597 50.772 38.532 40.142 39.667 39.987 39.992 39.099 38.652 38.749 38.897 38.999 38.977 38.844 38.774 38.722 38.677 38.652 38.634 38.777 38.634 38.544 38.482 38.429 38.347 38.457 38.517 41.437 43.327 43.264 43.217 43.232 42.572 40.472 39.317 39.272 39.287 39.254 39.149 39.119 40.302 39.522 39.097 39.817 39.217 39.679 39.609 39.892 40.174 39.967 40.714 40.719 40.644 40.472 40.529 40.574 40.987 40.737 40.949 41.172 41.239 41.187 41.054 40.809 40.504 40.359 40.276 40.421 40.394 40.496 41.281 40.611 40.781 41.901 41.456 40.809 40.689 40.746 40.779 40.824 40.901 40.971 40.934 40.949 41.101 41.106 41.066 41.029 41.039 41.044 41.104 41.271 41.576 42.506 42.404 42.411 42.416 42.441 42.474 42.574 42.859 43.069 43.359 43.729 44.069 44.446 44.804 44.996 45.201 45.109 45.149 45.209 45.259 45.321 45.946 46.656 45.534 46.411 45.709 45.829 45.951 46.159 46.191 46.869 46.431 46.451 46.631 46.804 47.041 47.046 48.561 51.341 51.344 58.386 59.514 60.654 60.939 59.774 58.796 55.506 48.041 48.116 48.186 48.259 48.304 48.329 48.316 48.294 50.031 52.374 50.834 50.984 51.119 51.236 51.354 55.009 51.981 52.241 52.366 52.559 52.654 53.156 56.966 52.829 52.956 53.019 52.999 53.019 53.039 53.051 53.114 53.161 53.226 53.294 53.414 53.596 53.716 53.804 53.879 54.004 54.069 55.249 57.421 54.364 54.321 54.354 54.114 53.916 55.686 55.571 57.961 55.909 54.416 54.596 54.729 54.791 54.684 54.671 54.681 54.786 54.899 55.116 55.046 54.904 54.846 54.826 54.799 54.796 54.774 54.704 55.456 56.086 57.251 57.416 57.419 57.336
42.884 42.832 42.812 42.762 42.729 42.679 42.619 42.562 42.492 42.437 42.404 42.377 42.337 42.289 42.249 42.239 42.229 42.202 42.164 42.094 42.037 41.987 41.929 41.897 41.872 41.757 41.662 41.677 41.609 41.607 41.537 41.287 41.244 41.302 41.442 41.389 41.187 41.054 40.994 40.922 40.882 40.837 40.789 40.757 40.672 40.634 40.492 40.457 40.502 40.514 40.607 42.237 41.272 41.282 41.072 40.879 40.807 42.189 42.977 41.207 40.702 40.344 40.042 39.649 39.324 39.144 39.032 39.087 39.127 39.114 39.057 39.012 39.087 39.227 39.267 39.282 39.242 39.217 39.189 39.167 39.234 39.184 39.117 39.054 39.014 38.912 38.867 38.884 38.884 38.879 38.869 38.834 38.814 38.777 38.752 38.772 38.839 38.854 38.857 40.977 42.652 42.724 42.799 42.867 42.932 39.554 42.909 43.614 44.324 45.077 45.507 42.942 40.272 43.307 42.589 38.009 42.714 45.004 44.804 44.594 44.392 44.204 43.969 43.787 43.579 43.372 40.204 38.177 38.137 38.089 38.034 38.002 38.554 38.009 37.937 37.877 37.837 37.779 37.722 37.674 37.604 37.602 37.587 37.569 37.589 37.879 37.582 37.452 37.392 37.332 37.337 37.294 37.257 37.217 37.192 37.252 47.254 46.859 46.362 45.834 38.969 38.889 38.759 37.212 37.934 37.074 37.077 37.089 37.107 37.074 37.084 37.127 37.382 37.927 39.609 43.037 42.562 42.094 41.904 42.542 43.427 44.324 44.547 43.657 42.749 41.874 41.784 42.249 42.287 41.807 44.084 46.919 47.874 48.822 48.359 47.449 46.549 44.189 45.057 42.394 38.072 37.982 38.384 37.957 37.972 37.997 41.537 51.089 51.947 52.594 51.844 51.014 41.087 38.589 39.072 39.467 40.007 40.549 39.594 38.587 38.652 38.792 38.889 38.944 38.807 38.724 38.684 38.619 38.587 38.577 38.694 38.674 38.509 38.444 38.377 38.322 38.334 38.404 38.504 43.347 43.299 43.244 43.194 42.954 40.134 39.369 39.314 39.277 39.272 39.682 39.194 39.389 40.262 39.177 39.094 39.177 39.249 40.222 40.087 39.709 40.342 39.999 40.144 40.762 40.517 40.464 40.529 40.634 40.667 40.814 41.089 41.177 41.137 40.942 40.624 40.366 40.286 40.381 40.339 40.351 40.351 40.496 40.804 40.876 42.014 41.714 40.911 41.204 41.186 41.069 41.176 40.891 40.929 40.914 40.929 40.954 41.076 41.004 41.009 41.049 41.061 41.056 41.076 41.319 42.514 42.349 42.371 42.399 42.421 42.474 42.579 42.856 43.079 43.381 43.721 44.139 44.589 44.911 45.084 45.194 45.259 45.286 45.244 45.306 45.364 45.439 45.511 45.584 45.646 45.739 45.846 45.976 46.134 46.244 48.129 46.509 46.489 46.624 46.766 47.199 46.946 47.766 51.256 51.499 59.974 59.859 60.966 60.629 59.511 59.461 48.611 48.256 48.044 48.611 48.196 48.246 48.246 48.234 48.219 49.919 53.591 50.711 50.791 50.946 51.111 52.949 53.356 51.831 52.154 52.374 52.589 52.724 52.979 53.374 52.874 52.981 53.011 53.014 52.996 53.001 53.046 53.121 53.166 53.249 53.304 53.451 53.559 53.771 53.894 53.961 54.039 54.109 54.184 56.041 57.186 54.284 54.364 54.366 56.774 56.774 56.531 55.384 53.829 53.996 54.259 54.684 54.801 54.669 54.689 54.699 55.036 54.996 54.939 54.921 54.931 54.949 55.241 55.119 54.869 54.816 54.814 54.786 54.784 54.754 54.736 54.721 54.976
42.897 42.847 42.779 42.739 42.712 42.682 42.622 42.567 42.522 42.462 42.409 42.377 42.329 42.289 42.254 42.227 42.227 42.192 42.154 42.099 42.052 42.002 41.939 41.892 41.892 41.892 41.674 41.654 41.637 41.522 41.369 41.307 41.314 41.417 41.484 41.282 41.107 41.047 40.984 40.892 40.814 40.787 40.744 40.674 40.692 40.619 40.547 40.567 40.592 40.474 40.474 40.687 41.242 41.094 40.962 40.532 40.579 40.754 40.874 40.849 40.692 40.392 40.087 39.819 39.467 39.249 39.099 39.049 39.104 39.129 39.082 38.999 38.952 39.014 39.107 39.184 39.179 39.189 39.139 39.092 39.124 39.092 39.037 38.924 38.909 38.924 38.924 38.927 38.897 38.877 38.849 38.812 38.774 38.777 38.837 38.917 38.942 40.772 42.667 42.722 42.792 42.872 42.949 43.017 43.077 42.559 42.439 43.294 44.032 44.752 45.472 45.107 44.364 43.587 42.922 38.377 38.294 44.574 44.359 44.159 43.952 43.754 43.542 43.342 39.249 38.169 38.239 38.114 38.069 38.039 37.982 37.944 37.904 37.929 37.899 37.847 37.789 37.757 37.684 37.644 37.574 37.594 37.564 37.579 37.599 37.599 37.507 37.387 37.364 37.362 37.334 37.324 37.267 37.184 37.154 37.144 39.989 45.729 40.157 37.409 38.632 38.739 38.517 38.217 37.277 37.054 37.052 37.059 37.097 37.099 38.137 37.842 40.732 44.569 43.754 43.282 42.824 42.349 41.867 42.147 42.994 43.872 44.739 44.082 43.207 42.322 41.589 42.007 42.467 42.044 41.559 46.507 47.414 48.367 48.822 47.912 46.979 46.089 41.564 41.487 39.277 38.339 37.942 37.952 37.962 39.922 50.877 51.699 52.559 52.077 51.247 45.627 38.464 39.509 39.714 39.104 40.514 41.132 39.752 38.834 38.579 38.677 38.769 38.872 38.784 38.702 38.629 38.574 38.534 38.509 38.582 38.637 38.464 38.417 38.342 38.279 38.209 38.267 38.347 39.994 43.317 43.269 43.219 43.202 42.814 41.552 39.332 39.287 39.267 39.319 39.172 39.244 39.397 40.057 39.032 39.117 39.214 39.294 40.007 39.882 40.209 40.139 40.052 42.842 40.529 40.412 40.479 40.834 40.792 40.727 40.972 41.079 41.034 40.787 40.449 40.256 40.916 40.261 40.304 41.381 40.594 40.624 40.881 44.041 42.969 41.894 40.929 40.986 41.249 41.629 41.139 41.254 40.924 40.904 41.154 41.394 41.169 41.019 41.021 41.044 41.079 41.084 41.126 41.531 42.234 42.284 42.324 42.356 42.406 42.469 42.569 42.816 43.061 43.361 43.704 44.141 44.636 45.021 45.144 45.594 45.244 45.201 45.266 45.334 45.394 45.451 45.539 45.619 45.684 45.774 45.876 45.991 46.086 46.179 46.951 46.764 46.546 46.576 46.706 46.746 46.886 46.934 47.196 48.871 58.949 60.089 61.184 60.319 59.466 58.021 47.966 48.609 47.991 48.411 48.134 48.171 48.171 48.144 48.181 53.341 51.344 50.584 50.734 50.936 51.096 51.239 53.319 51.756 52.116 52.541 52.619 52.696 53.061 53.341 52.896 52.986 53.059 53.019 52.994 52.994 53.031 53.114 53.171 53.254 53.306 53.436 53.599 53.791 54.021 53.989 54.129 54.219 57.106 54.221 54.686 54.286 54.346 54.511 56.756 56.749 56.756 56.776 53.846 53.931 54.141 54.664 54.774 54.691 54.709 54.711 55.279 54.936 54.906 54.866 54.974 54.896 54.894 54.986 54.819 54.794 54.776 54.706 57.611 55.454 54.804 54.756 54.746
42.912 42.874 42.814 42.749 42.719 42.667 42.622 42.562 42.509 42.467 42.432 42.394 42.359 42.312 42.277 42.237 42.222 42.202 42.149 42.104 42.067 42.014 41.937 41.884 41.824 41.782 41.719 41.599 41.552 41.447 41.404 41.367 41.392 41.524 41.414 41.209 41.094 41.044 40.957 40.877 40.819 40.762 40.722 40.679 40.644 40.602 40.567 40.544 40.732 40.487 40.497 40.752 41.364 41.069 40.957 40.664 40.477 40.489 40.624 40.694 40.539 40.357 41.057 39.902 40.892 39.534 39.142 39.022 39.082 39.124 39.104 39.024 38.969 38.914 39.017 39.064 39.069 39.057 39.094 39.079 39.052 38.937 38.937 38.957 38.959 38.967 38.942 38.897 38.887 38.859 38.809 38.799 38.797 38.847 38.889 39.094 42.677 42.744 42.807 42.874 42.949 43.044 43.094 43.164 41.679 38.904 41.564 42.977 43.692 44.412 45.139 45.432 44.497 43.984 43.244 41.694 38.099 42.372 43.917 43.714 43.517 42.654 38.874 38.162 38.137 38.122 38.334 38.077 38.029 38.004 37.962 37.929 37.892 37.837 37.837 37.782 37.722 37.712 37.659 37.649 37.577 37.567 37.559 37.494 37.534 37.459 37.427 37.432 37.387 37.342 37.342 37.322 37.284 37.174 37.154 37.142 37.214 37.292 38.077 39.054 37.442 38.984 37.389 38.732 37.009 37.022 37.037 37.077 37.127 40.469 41.034 45.314 44.947 44.472 44.004 43.544 43.064 42.599 42.107 41.827 42.544 43.434 44.304 44.539 43.637 42.749 41.844 41.782 42.242 42.279 41.799 44.947 46.997 47.887 48.812 48.354 47.429 46.529 39.829 40.792 37.947 38.399 37.942 37.934 38.049 50.687 51.454 52.287 52.327 51.459 49.259 38.354 39.207 39.802 39.057 38.474 40.467 40.512 39.247 39.257 38.532 38.594 38.682 38.797 38.749 38.664 38.589 38.534 38.489 38.462 38.457 38.577 38.484 38.387 38.324 38.257 38.182 38.219 38.252 38.392 43.349 43.289 43.239 43.192 43.124 41.129 39.334 39.299 39.247 39.204 39.189 39.162 39.187 39.767 39.144 39.102 39.174 39.254 40.164 40.882 39.679 39.667 39.889 40.827 40.524 40.357 40.432 40.472 40.547 40.659 40.909 41.014 40.869 40.612 40.284 40.211 40.194 40.239 40.264 41.196 40.419 40.719 40.891 43.934 43.936 43.901 43.914 43.896 43.964 44.016 43.604 42.334 40.911 40.881 41.141 41.531 41.126 40.974 41.009 41.039 41.081 41.124 41.179 41.614 42.291 42.921 42.691 42.351 42.386 42.461 42.534 42.674 42.991 43.371 43.754 44.174 44.646 45.096 45.189 45.139 45.186 45.366 45.296 45.361 45.416 45.481 45.546 45.626 45.696 45.781 45.874 45.976 46.076 46.249 46.261 46.396 46.486 46.544 46.644 46.694 47.004 46.879 47.064 54.261 59.221 60.361 61.169 60.794 60.731 59.674 47.844 47.854 47.941 48.001 48.054 48.081 48.086 48.051 48.159 53.829 51.941 50.504 50.634 50.794 50.959 51.146 51.419 51.851 52.874 54.824 52.599 52.681 53.344 52.779 52.909 53.009 53.036 53.006 53.001 52.999 53.029 53.104 53.151 53.224 53.294 53.521 53.664 53.841 54.284 54.094 54.121 57.161 56.529 59.304 54.239 54.274 54.336 54.856 56.729 56.811 57.311 56.764 53.879 54.004 54.301 54.701 54.749 54.676 54.704 54.751 54.796 54.839 54.861 54.876 55.119 54.856 54.781 54.946 54.716 54.756 54.726 55.229 60.524 61.334 61.539 60.726 59.081
42.932 42.884 42.839 42.782 42.729 42.704 42.649 42.592 42.537 42.492 42.452 42.407 42.357 42.317 42.279 42.247 42.232 42.184 42.134 42.079 42.024 41.994 41.927 41.937 41.854 41.769 41.717 41.584 41.542 41.514 41.447 41.392 41.549 41.552 41.292 41.159 41.094 41.024 40.937 40.897 40.832 40.769 40.717 40.689 40.632 40.582 40.564 40.562 40.487 40.484 40.549 40.927 41.399 40.964 40.542 40.474 40.509 40.587 40.509 40.559 40.449 40.312 40.169 40.517 41.242 39.362 39.144 39.057 39.057 39.102 39.127 39.072 38.999 38.944 38.919 38.902 38.932 38.962 38.959 38.954 38.974 38.984 38.987 38.984 38.989 38.949 38.909 38.877 38.857 38.857 38.837 38.849 38.834 38.844 39.497 38.904 40.304 42.892 42.959 43.022 43.107 43.169 41.217 38.919 39.699 39.082 39.017 42.647 43.359 44.054 44.812 45.544 45.029 44.294 43.577 42.857 38.122 38.414 43.474 42.889 38.199 38.174 38.147 38.129 38.097 38.069 38.057 38.024 38.007 37.967 37.942 37.909 37.882 37.862 37.829 37.754 37.709 37.697 37.662 37.667 37.722 37.524 37.477 37.454 37.479 37.479 37.454 37.434 37.417 37.377 37.362 37.349 37.329 37.257 37.184 37.177 37.174 37.192 37.182 37.179 38.002 40.374 37.804 37.059 37.004 37.039 37.449 41.129 40.424 44.262 44.742 45.232 45.207 44.724 44.264 43.784 43.307 42.832 42.357 41.859 42.129 42.972 43.862 44.709 44.067 43.189 42.297 41.579 41.994 42.444 42.029 42.109 46.527 47.407 48.322 48.847 47.882 46.987 45.087 39.202 37.952 37.917 37.899 37.907 44.452 51.237 52.089 52.582 51.732 50.922 39.414 38.699 40.224 39.414 37.492 37.644 39.947 40.854 40.174 39.399 38.699 38.534 38.619 38.717 38.724 38.627 38.557 38.497 38.447 38.412 38.384 38.522 38.512 39.797 38.297 38.239 38.177 38.099 38.239 38.284 39.397 43.317 43.269 43.224 42.522 42.814 39.312 39.282 39.247 39.209 39.207 40.392 39.217 39.102 39.099 39.617 39.224 39.212 39.307 40.324 40.227 40.129 41.044 40.239 40.497 40.342 40.377 40.424 40.434 40.584 40.844 40.904 40.662 40.347 40.209 41.146 40.189 40.206 41.196 40.256 40.554 40.856 40.889 43.986 43.984 43.954 44.079 43.954 43.881 43.871 43.861 43.931 43.214 42.581 41.379 40.939 40.874 40.899 40.934 40.966 41.016 41.084 41.136 41.671 42.149 42.194 42.256 42.311 42.381 42.446 42.514 42.589 42.956 43.286 43.736 44.259 44.709 45.079 45.216 45.556 46.471 45.256 45.316 45.381 45.591 46.884 46.244 46.091 45.701 45.786 45.876 45.969 46.066 46.154 46.589 46.761 46.426 46.526 46.599 46.699 46.989 46.879 47.146 56.739 59.164 60.621 60.974 59.751 59.034 52.599 47.734 47.799 47.864 47.936 47.984 48.001 47.999 47.951 48.109 50.516 50.809 50.511 50.689 50.709 50.869 51.111 51.426 51.816 53.574 52.756 52.606 52.681 53.321 52.781 52.944 52.991 53.001 52.999 53.006 52.994 53.026 53.121 53.199 53.221 53.306 53.501 53.691 53.856 54.021 54.064 54.014 56.581 57.591 55.656 54.266 54.224 54.019 55.266 56.731 56.921 57.406 56.786 53.916 54.081 54.376 54.716 54.709 54.666 54.689 54.739 54.756 54.829 54.851 54.849 55.849 54.881 54.806 54.794 54.626 56.994 57.416 58.529 60.679 61.481 61.401 60.584 56.961
42.967 42.924 42.869 42.809 42.742 42.694 42.649 42.589 42.547 42.507 42.457 42.409 42.362 42.317 42.282 42.239 42.224 42.199 42.139 42.072 42.007 41.962 41.924 41.927 42.837 41.767 41.719 41.629 41.579 41.519 41.412 41.479 41.564 41.402 41.242 41.142 41.082 41.009 40.959 40.909 40.842 40.767 40.704 40.667 40.664 40.607 40.612 40.667 40.614 40.477 40.444 41.007 41.367 40.934 40.209 41.427 41.834 40.019 40.489 39.977 40.064 40.117 40.087 40.049 39.867 39.574 39.219 39.134 39.027 39.094 39.127 39.102 39.032 38.982 38.937 38.924 38.924 38.962 39.009 39.012 39.007 38.999 39.004 38.987 38.957 38.917 38.894 38.964 38.992 39.014 38.879 38.842 38.832 38.832 38.837 39.734 39.774 43.047 43.129 42.867 40.267 38.932 38.902 38.869 38.882 39.637 39.964 40.047 43.039 43.754 44.467 45.207 45.364 44.639 43.899 43.184 41.022 38.144 38.732 38.202 38.169 38.149 38.124 38.094 38.074 38.044 38.027 37.989 37.972 37.947 37.917 37.884 37.864 37.854 37.837 37.789 37.737 37.694 37.767 37.752 37.634 37.487 37.507 37.529 37.492 37.467 37.422 37.362 37.349 37.354 37.412 37.412 38.564 37.502 37.204 37.177 37.174 37.164 37.162 37.152 37.159 37.142 37.099 37.092 37.434 39.627 40.762 43.077 43.547 44.034 44.509 44.989 45.402 44.982 44.507 44.019 43.539 43.077 42.589 42.117 41.852 42.532 43.409 44.304 44.522 43.614 42.714 41.837 41.754 42.239 42.287 41.822 44.272 46.947 47.834 48.789 48.332 47.412 48.144 40.492 38.389 37.869 37.859 37.872 41.664 48.092 51.612 52.019 51.169 41.024 38.232 40.132 40.229 40.244 37.462 37.454 38.604 40.734 40.724 40.172 38.794 38.472 38.539 38.594 38.667 38.592 38.529 38.464 38.394 38.354 38.344 38.407 38.467 38.579 39.047 38.202 38.139 38.069 38.167 38.242 38.317 42.534 43.307 39.749 39.369 40.279 40.437 39.254 39.234 39.207 40.022 39.644 40.444 39.132 39.307 39.084 39.102 39.169 39.267 39.574 40.769 39.647 39.629 39.769 40.467 40.349 40.324 40.367 40.387 40.497 41.087 40.662 40.402 40.174 40.082 40.331 40.176 40.579 40.854 40.519 40.809 40.904 42.156 44.044 44.034 43.999 44.146 43.986 43.926 43.906 43.916 43.904 43.901 43.904 43.919 43.909 44.016 43.589 43.134 41.256 40.966 41.066 41.104 41.696 42.089 42.154 42.239 42.284 42.356 42.446 42.496 42.571 42.979 43.401 43.806 44.216 44.691 45.106 45.239 45.176 45.226 45.281 45.339 45.399 45.651 46.106 45.731 45.721 46.111 45.794 45.874 45.979 46.044 46.131 47.226 46.589 46.359 46.494 46.531 46.691 51.016 50.771 50.054 57.869 59.029 60.124 59.899 58.724 57.804 48.024 47.646 47.746 47.804 47.864 47.916 47.916 47.904 47.891 49.294 50.421 50.481 50.516 50.544 50.604 50.826 51.049 51.369 52.086 52.054 52.359 52.656 52.684 52.779 52.846 52.941 52.981 53.004 52.979 53.021 53.004 53.046 53.141 53.176 53.219 53.356 53.496 53.716 53.889 54.319 54.119 54.099 58.319 57.586 54.244 54.276 54.211 53.951 56.551 56.726 56.739 56.729 56.029 53.901 54.081 54.374 54.654 54.654 54.649 54.679 54.724 54.791 54.856 54.839 54.891 54.891 54.886 54.821 54.756 54.629 54.729 54.686 59.274 60.801 61.579 61.164 60.441 57.771
