ncols 450
nrows 26
xllcorner    430086
yllcorner    438108
cellsize     2
NODATA_value -9999
-9999 -9999 -9999 125.741 123.647 123.353 123.411 123.426 123.778 125.175 129.841 130.674 131.924 126.908 123.995 123.218 123.2 123.463 123.579 123.47 125.187 133.368 135.257 138.302 138.349 135.007 136.527 127.263 123.927 123.533 123.465 123.459 123.409 123.448 124.741 129.614 130.864 131.262 130.175 123.734 122.127 122.143 122.211 122.373 123.586 123.408 126.942 128.616 128.965 129.282 128.146 124.486 122.522 122.62 122.519 122.055 126.418 132.63 134.488 136.656 136.563 127.968 121.81 135.153 133.028 135.496 129.29 123.636 122.306 123.372 126.148 125.42 124.252 122.359 124.094 124.254 127.527 128.558 128.971 125.059 122.456 121.994 121.953 122.001 123.314 124.576 124.628 127.801 128.104 127.888 122.996 125.609 126.958 123.699 122.146 122.169 122.278 123.767 125.555 125.058 123.656 122.959 121.586 121.726 122.383 122.434 121.797 121.511 121.548 121.547 121.528 121.531 121.923 122.156 122.013 121.7 121.68 121.765 128.432 126.637 121.997 121.17 121.172 121.16 121.132 121.105 121.117 121.092 121.895 122.475 122.022 121.68 121.205 121.327 121.39 125.425 125.762 123.462 121.402 121.225 121.267 121.257 121.242 121.155 126.937 129.755 129.12 128.372 123.047 120.982 121.037 121.285 126.897 126.815 126.722 125.627 126.542 125.437 125.442 121.07 121.29 121.762 121.555 121.53 126.62 128.677 130.227 129.462 125.94 121.552 121.59 121.547 121.53 122.245 121.397 121.342 121.387 121.335 121.4 122.51 125.39 121.972 122.125 122.17 122.17 122.212 122.285 125.44 122.417 122.33 122.307 122.315 122.305 122.325 122.28 122.26 122.385 122.395 122.452 122.417 122.287 122.25 122.295 126.662 123.797 122.567 122.365 123.092 125.289 126.242 122.509 122.532 122.614 124.972 124.959 124.949 124.932 124.912 122.874 122.674 122.817 124.027 131.232 131.239 131.257 131.247 131.262 125.809 123.027 123.262 123.372 123.467 123.487 123.287 123.217 123.322 123.509 123.577 123.582 123.559 123.587 123.599 123.659 124.477 123.512 123.319 123.282 123.284 123.254 123.257 123.357 123.442 123.529 123.597 123.652 123.774 124.954 123.822 123.862 126.292 125.567 124.012 124.097 124.382 124.402 124.647 124.252 125.869 124.677 124.477 124.604 124.707 124.804 124.884 124.927 124.954 124.982 124.997 125.027 125.022 125.039 125.072 125.084 125.102 125.134 125.147 125.177 125.219 125.242 125.267 125.789 125.317 126.672 125.449 125.634 125.687 125.732 125.754 125.692 125.629 125.629 125.654 125.644 125.634 125.649 125.709 125.719 125.744 125.757 125.754 125.732 125.724 125.749 125.877 127.379 126.182 126.832 126.622 125.887 125.852 125.842 125.907 125.942 126.177 126.157 126.154 127.932 126.259 126.214 126.224 129.159 128.704 128.727 128.922 126.072 126.062 126.259 131.044 132.777 134.252 134.797 133.387 129.982 126.412 126.374 126.369 126.787 127.474 126.592 126.472 126.509 126.532 126.529 126.597 126.629 128.089 129.014 128.944 127.177 126.927 126.912 127.237 126.989 126.989 127.109 128.714 129.202 127.799 127.204 127.229 127.234 127.284 127.302 127.372 127.399 128.314 128.872 129.002 127.384 127.452 127.482 127.494 127.747 127.484 129.019 130.492 127.947 128.962 127.897 128.047 128.997 127.824 127.824 128.134 128.692 129.889 127.642 127.582 128.052 127.474 127.487 129.649 129.177 130.047 127.864 127.552 127.489 127.439 127.399 128.552 129.877 129.607 127.644 127.377 128.282 127.567 127.472 128.899 127.379 129.647 128.387 127.209 127.189 129.612 130.129 129.164 127.834 127.222 127.224 131.027 132.969 133.152 133.622 133.527 133.734 132.244 126.937 126.642 131.802 134.254 134.247 134.104 133.899 133.702 132.389 126.477 126.089 132.399 132.197 132.017
-9999 -9999 -9999 128.139 127.171 123.084 123.191 123.156 123.381 123.588 123.204 123.395 124.085 123.148 123.136 123.143 123.283 123.467 123.542 123.385 127.707 134.616 135.694 138.868 138.863 136.664 138.689 127.055 124.711 123.526 123.501 123.455 123.407 123.272 125.067 129.388 130.569 131.25 130.626 129.345 122.48 123.815 125.858 127.706 128.123 128.688 129.188 129.652 129.916 129.826 128.659 126.386 122.68 122.227 122.589 121.922 123.782 122.279 133.949 134.829 135 134.512 133.453 125.794 134.501 132.389 129.382 123.395 123.719 122.828 122.48 121.974 121.975 122.008 125.032 128.541 129.259 130.483 129.498 128.484 123.27 121.968 121.944 121.947 123.544 122.65 123.852 123.2 122.87 122.316 122.017 122.734 124.02 122.913 121.978 122.029 122.084 123.414 125.498 125.11 123.539 121.913 121.376 121.38 121.418 121.426 121.407 121.422 121.456 121.488 121.46 121.511 121.378 121.212 121.115 121.76 122.235 122.135 121.372 121.472 121.235 121.107 121.045 121.022 121.017 120.982 120.952 121.032 121.61 121.67 121.747 121.23 121.092 121.02 121.487 122.73 123.255 122.64 121.435 121.185 121.172 121.165 121.152 121.087 125.317 130.052 130.045 129.952 124.572 120.925 121.077 121.995 128.532 128.445 127.552 129.172 129.392 129.405 129.395 121.37 123.042 122.342 123.77 121.447 121.34 121.37 121.377 121.49 121.535 121.53 121.597 121.927 121.452 122.377 121.332 121.237 121.285 121.21 121.812 121.347 122.297 121.482 121.575 121.685 121.89 121.955 122.045 122.102 122.145 122.192 122.217 122.24 122.245 122.232 122.225 122.237 122.247 122.23 122.21 122.19 122.195 122.187 122.202 127.307 124.95 122.605 122.972 125.174 128.569 133.337 124.152 122.509 122.477 124.777 124.922 124.904 123.609 122.522 122.534 122.552 122.989 122.717 130.694 131.267 131.279 131.307 131.342 125.072 122.949 123.182 123.342 123.407 123.394 123.252 123.124 123.087 123.379 123.504 123.519 123.567 123.562 123.569 124.077 123.247 123.102 123.117 123.164 123.149 123.207 123.289 123.387 123.469 123.524 123.574 123.639 123.842 123.704 123.744 124.972 124.717 123.982 124.234 124.104 124.464 124.332 125.549 124.204 124.234 124.329 124.479 124.612 124.689 124.792 124.927 128.552 129.032 132.204 132.964 132.297 129.397 126.312 125.774 125.097 125.114 125.144 125.164 125.182 125.219 125.652 125.247 125.279 125.297 125.314 125.347 125.427 125.504 125.532 125.544 125.642 125.639 125.627 125.957 125.672 125.679 125.684 125.754 125.702 126.202 125.734 125.782 126.144 126.424 125.812 125.799 125.789 125.829 125.909 125.942 125.972 126.829 127.484 126.242 126.052 126.229 126.142 126.504 126.369 126.207 126.144 126.212 127.834 128.489 129.724 126.902 126.049 126.059 126.252 131.982 133.179 133.892 134.072 132.629 128.509 126.779 126.569 126.397 126.392 127.489 126.409 126.457 126.462 126.482 126.702 126.549 126.574 126.632 126.662 127.499 126.779 126.892 126.879 127.022 126.944 126.954 127.494 129.152 129.287 127.922 127.179 127.209 127.677 127.292 127.262 127.332 127.344 129.509 129.327 129.299 127.252 127.402 127.427 127.434 128.122 127.452 127.467 127.482 127.517 128.244 127.607 127.512 129.092 127.907 128.402 128.017 128.397 128.649 127.682 127.514 127.572 127.452 127.442 129.209 127.899 127.692 127.732 127.537 127.602 127.379 127.387 129.194 129.817 129.509 127.599 127.392 127.652 127.419 127.367 127.379 127.374 129.627 127.394 127.184 127.182 127.684 127.329 128.249 127.184 127.429 127.254 127.399 127.424 127.357 128.894 131.184 132.152 129.907 126.924 126.582 132.517 134.222 134.244 133.514 133.329 133.522 130.554 126.474 126.049 133.639 133.349 132.874
-9999 -9999 129.464 129.099 125.747 123.232 123.118 123.162 123.207 123.203 123.152 123.102 123.1 123.166 123.118 123.164 123.308 123.448 123.389 123.325 125.678 133.894 134.187 136.642 135.92 138.891 136.062 132.471 123.591 123.431 123.391 123.413 123.377 123.318 123.818 127.782 130.097 130.823 130.472 129.66 128.421 128.056 128.34 128.912 129.395 129.876 130.14 129.982 129.692 130.254 129.11 127.63 124.442 122.072 122.163 122.076 121.761 121.737 124.03 133.747 136.083 133.918 136.761 123.937 128.761 136.171 127.761 122.451 122.199 121.85 121.843 121.872 121.917 121.965 124.087 129.686 129.931 129.747 129.757 128.729 123.464 121.938 122.342 122.083 121.854 122.339 121.913 122.822 122.308 121.931 121.921 123.563 124.33 123.756 121.614 122.331 121.696 121.696 124.936 124.443 121.618 121.351 121.346 121.347 121.361 121.326 121.33 121.355 121.509 121.544 121.7 121.445 121.202 121.147 121.007 120.932 121.552 121.487 121.335 121.322 121.167 120.947 120.92 120.875 120.855 120.837 121.155 120.935 120.975 121.61 122.062 121.04 120.745 120.725 120.712 120.757 121.52 121.852 122.335 128.442 126.42 121.06 121.062 121.027 122.51 129.767 129.517 128.517 127.84 120.857 121.117 121.665 129.492 129.57 129.6 129.645 129.635 129.65 129.672 121.445 123.427 124.197 124.557 123.622 121.27 121.265 121.27 121.255 121.422 121.447 121.522 121.437 121.405 121.287 121.167 121.137 121.185 121.1 121.75 121.635 123.69 121.49 121.637 121.727 121.94 121.94 122.03 122.12 122.237 122.147 122.517 122.17 122.14 122.162 122.16 122.177 122.195 122.237 122.205 122.185 122.175 122.155 126.095 123.975 127.425 122.127 122.285 123.894 124.177 122.309 122.332 122.357 122.379 123.229 122.577 122.462 122.434 122.422 122.457 122.527 122.577 122.647 125.119 131.289 127.849 123.019 122.694 122.824 122.994 123.169 123.289 123.322 123.312 123.234 123.047 122.959 123.752 123.399 123.492 123.512 123.867 125.839 123.059 122.964 123.004 123.527 123.957 123.147 123.244 123.332 123.399 123.447 123.494 123.554 123.582 123.614 123.624 123.689 123.802 123.939 124.479 123.944 123.992 123.987 125.372 124.309 124.149 124.194 124.279 124.439 124.574 124.652 124.747 124.919 128.619 128.619 132.367 133.934 133.299 132.852 133.797 132.969 132.399 132.912 132.124 131.892 131.447 130.529 129.169 127.467 126.864 127.109 126.354 125.857 125.374 125.382 125.414 125.479 125.567 125.584 125.612 125.799 125.612 125.624 126.172 125.774 125.794 126.022 126.082 125.742 125.722 125.769 125.832 125.857 125.877 125.874 125.852 125.829 125.857 125.947 125.984 126.312 127.309 127.562 127.552 126.142 126.199 126.149 126.164 126.187 126.134 126.167 126.189 126.207 126.049 126.754 126.282 129.584 131.814 132.442 133.222 131.752 126.169 126.204 126.759 126.602 127.017 128.062 126.572 129.944 126.419 126.439 126.729 126.519 126.572 126.594 126.677 126.727 126.774 126.859 126.862 127.282 126.979 126.989 128.514 129.179 128.657 127.232 127.197 127.232 127.232 127.279 127.304 127.294 127.314 129.559 129.082 129.307 127.302 127.347 127.362 127.369 127.427 127.429 127.439 127.472 127.524 128.154 127.514 127.452 127.682 132.899 130.179 128.134 128.272 128.254 127.694 127.852 127.634 128.564 127.749 129.722 127.737 127.732 127.639 127.484 127.839 127.412 127.347 127.832 127.544 127.589 127.709 127.354 127.537 127.384 127.354 127.362 127.759 130.067 127.159 127.182 127.602 127.569 127.264 127.319 127.169 129.382 128.774 127.389 127.392 127.689 128.454 130.099 130.097 127.544 126.949 126.602 132.489 132.627 132.254 131.979 131.987 132.297 127.792 126.449 126.082 133.684 133.674 133.687
-9999 129.947 129.722 128.583 123.752 123.132 123.209 123.255 123.286 123.203 123.104 123.058 123.068 123.058 123.064 123.185 123.351 123.361 123.259 123.29 123.581 131.423 129.492 134.313 135.954 137.412 134.376 124.658 123.224 123.22 123.241 123.274 123.352 123.358 123.252 126.853 129.694 129.635 125.762 124.501 128.444 129.06 129.516 130.05 130.26 129.954 129.308 128.891 128.985 130.048 129.564 128.629 126.457 122.149 122.126 122.886 121.755 121.622 121.932 132.63 130.059 131.691 134.91 136.792 131.655 135.608 134.136 122.171 122.606 121.749 121.731 121.787 121.871 122.283 121.876 127.057 128.887 129.142 129.819 129.246 127.988 123.836 122.872 122.184 121.804 122.776 121.805 123.09 122.361 123.562 123.94 123.973 124.335 123.312 121.337 121.341 121.32 121.281 121.337 121.536 121.307 121.296 121.572 122.377 121.501 121.512 121.325 121.305 121.442 121.383 121.28 121.062 121.132 121.152 120.855 121.937 121.127 121.657 121.74 122.887 121.855 120.777 120.735 121.535 121.79 120.752 121.532 121.562 120.847 120.935 122.49 120.977 120.63 120.61 120.63 120.64 120.64 120.642 123.85 125.39 123.382 121.465 120.935 120.93 122.07 127.425 127.237 127.632 125.52 120.772 120.715 123.032 127.845 127.897 127.972 128.2 128.132 128.212 128.272 124.425 120.945 123.845 123.96 121.672 120.945 121.687 121.16 121.18 121.195 121.232 121.275 121.285 121.702 122.615 121.197 121.022 121.082 121.035 121.147 125.485 124.245 122.485 123.06 123.857 125.42 122.365 122.515 122.385 122.67 123.82 122.51 122.595 122.515 122.83 122.36 122.387 123.19 122.515 122.55 122.885 122.562 124.645 123.527 124.657 122.767 122.115 123.087 122.454 123.109 122.207 122.247 122.262 122.289 123.477 123.139 122.352 122.334 122.357 122.397 122.474 124.299 122.574 122.657 122.642 122.597 122.687 122.739 122.842 122.974 123.104 123.189 123.214 123.239 123.204 122.969 122.889 124.107 124.804 123.419 123.194 122.944 124.474 122.877 123.234 123.057 127.964 123.089 123.187 123.254 123.319 124.109 123.409 123.442 123.479 123.502 123.562 123.659 123.729 124.149 124.474 124.017 124.914 123.882 123.927 123.974 124.029 124.064 124.077 124.114 124.304 124.484 124.602 124.682 124.839 128.819 128.747 133.577 134.089 134.572 134.457 134.322 134.159 134.309 134.152 133.847 133.494 134.169 133.549 132.962 133.529 133.444 132.482 133.452 133.649 131.962 128.412 126.887 125.449 125.492 125.474 126.049 125.674 125.454 126.404 125.507 125.652 126.444 126.434 129.567 127.207 125.782 125.789 125.819 126.744 125.934 125.869 125.912 125.912 125.922 125.899 125.882 125.899 125.962 126.032 126.067 126.064 126.019 126.087 126.154 126.147 126.109 126.179 126.587 127.847 127.249 126.147 127.134 129.082 129.317 130.869 132.737 127.667 126.267 126.497 126.284 127.747 128.387 126.992 127.979 132.969 132.777 132.354 131.777 129.947 126.844 126.554 126.677 126.717 126.767 128.189 128.304 127.337 126.744 126.799 128.672 126.822 127.092 128.384 128.742 128.394 128.029 127.347 127.232 127.294 127.347 127.362 129.444 128.219 127.157 127.209 127.239 127.404 127.347 127.372 127.374 130.104 129.377 127.549 127.432 127.424 130.244 132.674 133.147 127.409 127.427 127.422 127.559 127.489 127.517 127.634 127.677 127.714 128.194 128.484 128.112 127.552 128.442 127.404 127.332 127.334 128.277 127.624 127.602 127.432 127.457 127.244 127.224 129.867 129.407 128.989 127.162 127.139 127.124 127.094 127.212 127.144 127.204 129.292 127.609 127.337 127.332 127.282 126.952 126.914 126.904 128.829 127.397 126.819 129.439 129.542 129.452 126.924 126.852 126.469 126.432 126.334 126.127 129.282 131.714 133.174
-9999 130.259 129.785 128.328 123.85 123.195 123.194 123.357 123.322 123.264 123.152 123.076 123.033 123.021 123.029 123.22 123.342 123.285 123.245 123.183 125.269 131.164 132.905 129.482 130.634 130.829 126.264 123.108 122.997 123.059 123.096 123.183 123.282 123.333 123.262 123.341 124.425 123.526 122.468 122.47 126.986 129.267 129.784 129.639 129.082 128.768 127.967 126.85 128.64 129.655 130.06 129.193 127.933 123.191 122.028 123.831 123.276 121.593 121.558 121.58 124.281 123.914 129.515 136.207 135.134 132.925 134.124 128.719 123.448 121.756 121.659 121.673 121.696 121.83 121.85 122.243 124.861 128.583 129.51 129.83 128.292 125.269 121.89 123.762 127.124 127.082 124.622 123.081 124.999 124.925 124.636 122.012 122.818 121.984 121.208 121.216 121.242 121.259 121.253 121.249 121.274 121.293 121.311 121.339 121.456 124.547 121.157 121.873 122.445 120.94 120.945 120.707 120.715 125.937 126.272 127.007 121.63 120.945 122.73 122.952 122.855 120.777 121.35 120.76 120.942 122.68 121.005 120.702 120.767 121.88 122.362 120.867 120.565 120.497 120.505 120.505 120.522 120.555 120.51 120.495 120.87 122.69 121.482 121.287 121.987 120.78 120.762 121.447 120.785 121.485 120.62 122.12 127.537 124.305 125.042 124.672 126.2 125.945 127.135 123.78 120.842 121.247 123.277 122.372 120.805 120.942 121.095 121.092 121.115 121.072 121.132 121.995 124.502 123.4 121.562 120.905 120.955 121 121.387 125.46 125.39 123.225 125.145 126.325 126.602 123.122 122.452 121.967 122.135 124.072 121.857 122.22 121.505 121.255 121.405 121.67 122.022 122.157 122.027 121.947 121.29 121.002 121.192 122.312 122.33 122.03 123.545 123.089 122.177 122.087 122.147 122.162 122.164 122.237 122.254 122.302 122.347 122.364 127.382 130.479 130.474 125.047 122.597 122.629 122.622 122.662 122.742 122.859 122.932 123.014 123.049 123.067 123.067 123.072 122.952 122.817 123.322 123.294 122.859 122.732 122.742 122.764 122.774 128.992 122.932 123.029 123.099 123.159 123.212 124.129 123.454 123.342 123.359 123.412 123.504 123.622 123.799 123.704 124.147 124.172 124.794 124.982 123.869 123.909 123.927 123.954 124.029 125.632 125.569 124.167 125.502 124.529 124.604 124.647 127.774 127.684 133.889 134.324 135.342 135.512 135.564 135.612 135.582 135.467 135.269 135.112 134.912 134.769 134.612 134.417 134.264 134.229 133.909 133.467 131.779 128.647 128.664 125.577 125.397 125.402 125.429 125.277 125.317 125.442 125.892 125.417 126.242 126.339 129.849 126.059 125.744 126.914 125.882 125.957 126.459 125.919 125.857 125.952 125.897 125.912 125.949 125.947 125.957 125.952 125.959 126.002 126.052 126.092 128.007 126.187 126.077 126.077 126.099 126.777 126.247 126.192 126.189 126.209 126.232 126.289 127.339 126.514 126.574 126.639 126.739 128.472 128.457 126.369 131.977 133.467 134.252 134.029 133.434 133.002 132.572 129.289 126.699 128.377 132.659 132.647 132.544 133.249 134.117 132.629 130.099 126.734 127.094 132.597 133.507 133.429 133.344 133.239 133.329 132.557 127.307 127.324 127.259 127.102 127.702 127.352 127.807 127.354 127.279 127.304 129.059 130.127 128.774 129.209 128.157 127.604 128.837 133.442 127.972 127.374 127.377 127.377 127.442 127.392 127.362 127.372 127.344 127.459 127.617 128.074 127.602 127.579 130.102 130.032 127.597 127.297 127.707 127.524 127.352 127.327 127.432 127.222 127.709 129.849 128.442 127.087 127.124 127.097 127.559 127.064 127.099 127.107 127.204 127.409 127.247 127.309 127.302 127.379 127.147 126.889 126.869 128.932 127.487 126.494 129.419 129.309 128.112 126.452 126.479 126.572 128.662 126.462 126.207 126.207 126.369 126.154
130.643 130.438 129.261 123.71 123.285 123.203 123.236 123.492 123.253 123.228 123.179 123.003 123.008 122.977 123.024 123.212 123.373 123.27 123.23 123.232 123.083 123.534 125.695 128.636 131.847 132.183 124.691 122.744 122.748 122.776 122.831 122.894 123.017 123.145 123.189 123.118 122.981 122.431 122.365 122.362 126.913 128.887 128.875 128.583 127.891 123.856 122.179 122.279 125.592 129.039 129.957 129.364 127.894 123.129 121.803 122.232 122.823 121.521 121.487 121.487 122.123 129.747 124.427 136.318 133.444 128.454 132.89 129.71 125.334 121.947 121.613 121.608 121.637 121.754 121.87 121.994 122.19 126.727 128.964 129.326 124.267 122.731 125.98 126.745 128.511 128.258 125.005 122.246 123.742 124.24 123.835 121.496 121.18 121.187 121.176 121.179 121.156 121.214 122.239 124.228 125.014 123.858 121.142 121.017 120.911 121.221 120.952 121.535 121.155 120.822 122.82 126.465 126.89 127.392 127.88 127.862 126.337 120.782 122.077 122.912 122.812 120.432 121.055 120.497 120.427 120.382 120.4 120.577 120.492 120.81 120.96 120.487 120.46 120.427 120.515 120.465 122.1 121.412 120.585 120.345 120.482 120.692 121.752 124.28 122.1 120.735 120.725 120.717 120.67 120.702 120.537 120.567 120.73 120.69 123.66 123.13 120.762 121.002 120.84 122.865 123.115 123.27 123.22 123.207 121.615 122.055 121.152 121.04 121.037 121.02 121.052 123.775 125.39 125.02 121.152 120.785 120.847 120.762 121.51 123.782 122.617 124.485 121.95 125.082 124.63 121.267 121.295 121.25 121.212 121.187 121.085 121.007 120.692 119.99 121.702 121.285 120.267 121.162 121.385 120.59 121.232 120.772 120.915 121.702 122.045 121.932 123.79 122.982 122.082 121.977 122.044 122.039 122.084 122.189 122.244 125.119 125.182 126.354 130.359 130.397 130.437 130.309 122.397 122.467 122.579 122.654 122.747 122.792 122.819 122.867 122.859 122.942 122.912 122.879 122.934 122.747 122.652 122.672 122.704 122.952 123.122 122.732 122.817 122.904 122.969 123.009 123.079 123.114 123.162 123.199 123.224 123.242 123.369 123.469 123.739 123.704 123.539 123.592 123.614 124.629 123.722 123.759 123.824 123.839 123.892 125.082 130.432 131.592 130.204 124.144 124.944 124.477 124.517 124.544 127.649 127.679 132.839 133.649 133.762 133.947 134.077 134.264 134.444 134.594 134.784 134.982 135.119 135.277 135.462 135.589 135.569 135.587 135.002 134.232 131.407 128.702 128.569 126.634 125.319 125.342 125.237 128.269 129.362 126.587 130.204 125.777 125.342 125.309 125.349 126.302 126.662 127.442 127.074 125.899 126.504 126.397 125.979 126.714 127.362 125.897 125.892 125.932 125.979 126.004 126.032 126.052 126.344 126.987 126.079 126.089 126.044 125.967 126.104 126.332 128.404 127.959 126.174 126.214 126.217 126.219 126.699 126.309 126.469 126.502 126.467 127.659 128.554 126.359 132.389 133.687 134.287 134.734 134.854 134.017 132.499 127.357 126.742 128.947 132.867 134.009 133.977 134.457 134.794 134.772 131.652 126.692 127.309 132.729 134.159 134.847 134.809 134.649 133.852 132.434 127.262 127.162 130.677 130.012 131.414 128.139 128.334 127.549 127.407 127.299 129.867 129.839 129.627 132.307 132.569 127.312 127.319 128.027 127.314 127.319 127.307 127.384 127.384 127.349 127.314 127.297 127.267 127.317 127.297 127.314 127.317 129.287 130.534 132.382 127.522 127.409 127.682 127.672 127.517 127.404 127.309 127.204 128.222 129.817 127.754 127.082 127.092 127.072 127.212 127.052 128.414 129.334 127.212 127.169 127.207 127.239 127.204 127.297 126.829 126.799 126.877 128.857 126.797 126.464 129.149 126.839 126.477 126.452 126.454 126.667 128.572 126.219 126.192 126.104 126.097 126.334
130.578 130.094 129.019 124.551 123.202 123.287 123.359 123.501 123.193 123.197 123.081 122.992 122.98 122.982 123.125 123.27 123.313 123.145 123.152 123.113 123.177 123.343 124.149 127.864 129.216 126.526 123.763 125.926 128.343 126.536 125.463 123.098 122.712 122.901 122.95 122.768 122.482 122.364 122.275 122.28 122.749 125.03 126.852 123.801 122.211 122.18 122.166 122.145 122.756 128.098 129.299 129.355 128.311 125.451 121.844 121.662 122.222 121.641 121.388 121.412 131.475 134.566 136.429 136.065 135.011 134.968 135.502 134.165 133.362 130.102 121.706 121.547 121.553 121.609 121.706 122.531 121.691 123.03 123.493 122.117 121.614 125.1 129.283 128.991 127.897 126.009 122.355 121.114 121.192 122.056 121.326 121.126 121.109 121.089 121.074 121.107 121.152 125.934 127.246 125.859 126.467 122.386 120.945 120.928 122.052 126.795 122.335 120.92 121.242 125.282 127.237 127.757 128.305 128.877 129.292 128.357 126.977 120.712 120.682 120.387 120.972 120.392 120.392 120.372 120.36 120.33 120.337 120.38 120.457 120.49 120.49 121.177 120.38 120.345 121.65 123.592 123.48 120.267 120.302 120.31 120.302 120.302 121.522 120.315 122.227 121.545 121.02 120.862 120.617 120.407 120.435 120.482 121.015 120.575 122.377 123.597 120.617 120.632 120.645 120.725 120.757 120.792 123.17 123.12 123.097 120.937 120.567 120.955 121.017 120.977 120.972 122.422 125.035 124.537 120.807 120.692 120.747 120.707 120.832 121.217 121.25 120.94 120.927 120.942 121.047 120.932 120.817 120.702 120.597 120.445 120.305 120.217 120.065 119.76 120.165 119.99 120.075 121.007 121.7 120.435 121.302 120.647 120.79 121.735 122.007 121.857 123.945 122.149 122.777 121.889 121.959 121.939 122.109 127.852 130.434 130.374 130.429 130.012 130.344 130.377 130.419 130.472 122.467 122.322 122.502 122.594 122.644 122.637 122.669 123.392 122.767 122.754 122.812 122.807 122.704 122.539 122.542 122.609 122.517 123.644 123.614 122.757 122.834 122.892 122.949 123.709 123.039 123.067 123.082 123.099 123.187 123.287 123.532 123.509 123.462 123.569 123.817 123.549 123.607 123.644 123.692 123.714 123.769 123.817 128.352 130.432 131.352 132.274 131.064 127.497 124.124 124.302 124.424 124.472 125.319 127.012 131.869 132.197 133.212 132.892 133.232 132.697 132.859 133.529 133.254 133.407 133.614 133.702 134.119 133.994 134.182 134.352 134.449 133.552 130.584 128.574 126.949 125.774 125.269 125.302 125.377 128.772 131.272 131.577 132.032 130.902 129.879 128.947 125.239 126.127 125.414 127.834 125.929 125.664 126.034 127.107 126.687 127.189 126.027 125.947 125.922 125.934 125.939 125.959 126.017 126.052 126.064 126.107 126.104 126.087 126.072 126.022 125.989 126.127 126.157 126.142 126.184 126.984 126.239 126.284 126.442 126.469 126.839 126.337 126.359 126.344 126.364 126.637 131.237 132.377 132.784 133.482 133.639 133.577 131.629 128.034 126.907 129.589 132.919 134.319 134.757 134.839 134.872 134.902 131.122 126.747 128.009 132.644 134.237 134.479 134.727 134.689 133.747 132.099 127.229 127.064 131.819 133.822 133.299 132.797 132.387 130.104 128.354 127.394 127.759 127.777 129.662 128.072 130.117 127.279 127.679 127.827 127.282 127.257 127.317 127.369 127.519 127.314 127.294 127.252 127.244 127.274 127.269 127.244 127.244 127.252 127.364 127.344 127.304 127.539 129.372 127.399 127.999 128.597 127.809 131.084 128.067 129.229 127.869 127.122 127.084 127.019 129.084 127.002 129.242 128.959 127.114 127.387 127.109 127.134 127.092 127.702 126.747 126.714 126.729 127.617 129.332 129.564 126.632 126.437 126.469 126.387 126.367 126.332 127.562 126.137 126.099 126.307 126.014 125.854
129.562 129.684 126.777 123.222 123.262 123.483 123.564 123.182 123.204 123.153 122.992 122.96 122.965 122.969 123.13 123.242 123.147 123.164 123.127 123.099 123.209 123.319 123.257 124.418 123.073 122.844 124.371 127.932 129.233 129.216 128.918 128.096 123.502 122.521 122.592 122.465 122.349 122.205 122.234 122.255 122.245 122.269 122.217 122.181 122.146 122.212 122.415 122.075 122.066 126.189 128.783 129.623 128.704 127.504 122.637 121.67 121.652 121.863 121.358 121.324 128.16 134.042 135.951 135.359 133.007 136.387 136.929 136.29 135.274 133.08 122.874 121.471 121.463 121.495 121.5 122.238 121.99 121.762 121.645 121.788 122.515 123.719 127.938 128.252 123.756 121.628 121.168 120.996 121.044 121.042 121.041 121.226 121.912 121.207 121.134 121.969 121.24 122.084 124.706 121.745 121.041 121.213 121.024 120.791 126.732 127.717 125.532 120.765 123.022 123.245 127.35 128.765 129.65 129.86 129.36 128.715 127.497 122.095 120.57 120.332 120.337 120.317 120.317 120.317 120.305 120.295 121.29 120.375 120.42 121.037 121.335 122.27 120.307 120.307 121.975 121.915 122.45 120.215 122.19 122.462 123.135 123.852 123.765 120.73 120.257 120.3 120.157 120.215 120.76 120.185 120.312 121.067 120.485 120.545 121.955 122.88 120.607 120.582 120.555 120.68 120.702 120.705 121.572 121.812 120.557 120.872 120.522 120.505 120.96 121.03 121.1 122.737 124.612 124.35 120.742 120.58 120.635 120.59 120.657 120.752 120.762 120.762 120.762 120.74 120.695 120.607 120.46 120.317 120.152 120.025 119.877 119.74 119.627 119.6 119.697 119.807 119.935 120.042 120.165 120.295 120.42 120.537 120.652 121.1 121.907 121.752 122.172 122.009 121.889 121.797 121.857 121.857 122.539 130.472 130.424 130.382 130.342 130.294 130.334 130.364 130.392 130.439 127.789 122.344 122.472 122.497 122.449 122.442 122.514 122.619 122.584 122.812 122.607 122.444 122.392 122.412 122.357 122.439 122.537 122.609 122.702 122.762 122.809 122.864 123.764 123.079 122.962 122.977 123.014 123.057 123.184 123.429 123.337 123.394 123.404 123.417 123.569 123.529 123.569 123.587 123.639 123.734 126.282 130.324 131.429 131.884 132.622 133.102 133.007 130.337 124.134 124.212 124.334 124.389 124.447 124.942 128.069 131.737 133.394 132.747 128.084 125.792 123.502 131.439 133.112 132.924 132.044 130.887 131.374 132.862 132.902 133.162 133.542 132.879 130.259 127.959 125.509 125.214 125.194 125.744 127.029 128.654 131.727 133.112 132.687 132.899 131.909 131.159 130.514 126.934 125.537 125.557 125.414 125.319 125.332 125.377 125.382 125.634 125.684 126.022 125.984 126.239 126.052 126.009 125.949 126.012 126.019 126.039 126.067 126.077 126.077 126.077 126.079 126.034 126.037 126.104 126.184 126.197 126.204 126.319 126.497 126.614 126.304 127.059 126.364 126.387 126.384 126.377 126.359 126.387 127.027 130.272 132.157 132.577 129.604 127.857 126.747 127.149 132.944 133.232 133.317 133.407 133.454 133.494 127.524 126.792 127.059 132.802 132.942 133.054 133.144 133.249 133.347 128.419 127.347 127.652 133.304 134.499 134.677 134.387 133.672 133.184 131.684 129.249 128.049 127.184 127.174 128.639 127.969 127.232 127.357 127.257 127.239 127.247 127.287 127.397 128.949 127.269 127.229 127.234 127.259 127.249 127.247 127.227 127.199 127.272 127.317 127.267 127.257 127.217 127.234 127.242 127.294 127.357 129.392 131.484 129.282 131.914 133.372 127.682 130.664 132.019 128.742 127.317 129.149 127.577 127.222 127.079 127.024 127.024 126.987 127.019 126.639 126.634 126.644 126.659 129.582 129.827 126.419 126.399 126.387 126.322 126.292 126.219 126.292 126.027 125.982 125.927 125.887 125.964
127.303 125.282 124.018 123.258 123.287 123.48 123.77 123.204 123.129 123.041 122.93 122.963 122.965 122.985 123.198 123.273 123.098 123.082 123.395 123.176 123.202 123.236 123.197 124.151 123.005 122.711 124.393 128.042 129.683 130.221 129.337 125.449 122.508 122.331 122.371 122.32 122.253 122.132 122.12 121.988 122.081 122.408 122.18 122.13 122.179 125.666 127.01 122.915 122.018 122.828 128.339 129.35 129.218 128.07 126.303 121.978 121.57 121.647 121.362 121.884 122.912 128.179 127.298 132.711 132.365 137.302 137.616 136.086 133.834 132.489 123.892 121.372 121.413 121.413 121.453 121.389 121.389 122.156 123.506 123.391 121.729 121.569 122.58 121.456 120.941 120.983 120.973 120.978 120.964 120.974 121.063 121.313 121.145 121.721 121.674 122.121 121.09 121.29 121.313 124.142 126.544 120.75 120.665 120.77 124.042 127.575 126.942 121.27 122.4 123.035 126.822 128.232 129.005 128.51 127.942 127.43 126.902 125.862 120.447 120.255 120.255 120.24 120.242 120.245 120.227 120.215 121.565 121.847 123.262 121.865 120.697 121.405 122.152 120.3 120.27 120.26 120.342 120.177 123.345 126.187 127.29 127.2 126.73 120.972 120.155 120.89 119.99 119.97 120 120.005 120.115 120.232 120.452 122.932 123.412 122.18 120.627 120.492 120.53 120.57 120.565 120.542 121.19 120.987 120.46 120.417 121.207 122.17 125.52 122.097 120.947 122.265 123.79 122.592 120.57 120.447 120.517 120.487 120.55 120.657 120.71 120.745 120.715 120.68 120.642 120.562 120.4 120.232 120.075 119.917 119.752 119.617 119.502 119.48 119.545 119.642 119.77 119.86 120.012 120.172 120.327 120.44 120.557 121.062 121.767 121.62 122.417 121.929 121.797 121.732 121.789 121.772 121.947 129.242 130.432 130.392 130.354 130.339 130.317 130.357 130.392 130.464 126.622 122.294 122.304 122.232 122.309 122.374 122.369 122.622 122.472 122.329 122.282 122.289 122.254 122.302 122.394 122.474 122.554 122.622 122.672 122.732 122.777 122.804 122.834 122.847 122.884 122.912 122.992 123.057 123.162 123.244 123.284 123.324 123.364 123.419 123.474 123.489 123.499 123.627 124.852 130.209 131.024 131.732 132.719 133.337 134.077 133.619 132.467 131.049 127.799 125.197 124.247 124.307 124.344 124.464 124.797 128.184 131.062 131.022 127.104 124.919 124.377 131.677 133.297 132.809 129.339 124.897 124.319 131.462 133.012 132.962 131.219 127.444 126.217 128.212 125.119 125.157 125.127 125.262 127.867 130.242 132.212 133.064 133.567 133.717 133.274 132.072 130.192 128.189 125.174 125.229 125.712 129.364 125.272 125.334 125.364 125.842 125.664 125.784 125.754 125.852 126.777 126.104 125.959 125.979 125.994 125.994 125.997 125.997 125.997 126.037 126.072 126.097 126.117 126.122 126.122 126.109 126.144 126.227 126.274 126.284 126.327 126.509 126.469 126.419 126.399 126.387 126.377 126.377 126.417 126.509 126.492 126.499 126.492 127.047 126.764 126.717 127.334 128.322 128.754 129.742 129.567 131.682 126.757 126.837 127.864 127.077 127.497 127.434 127.549 127.764 127.852 127.212 127.464 127.364 132.239 133.099 133.642 135.129 134.639 134.567 133.779 129.382 127.157 127.164 127.314 127.264 127.197 129.482 127.339 127.239 127.214 127.259 127.297 128.807 130.097 127.912 127.174 127.189 127.297 127.234 127.217 127.184 127.179 129.987 127.277 127.247 127.207 127.164 127.074 127.097 127.124 127.622 130.382 130.662 129.482 128.192 130.337 130.629 134.289 136.252 137.487 135.137 131.334 129.192 130.814 130.324 127.559 126.974 126.934 127.042 126.634 126.609 126.637 126.597 129.744 129.664 126.409 126.379 126.292 126.154 126.169 126.202 127.694 126.137 125.914 125.884 125.839 125.734
123.123 123.048 123.092 123.949 123.566 123.827 123.569 123.092 123.058 122.899 122.865 122.922 122.91 123.558 124.994 123.188 123.036 129.867 132.233 132.726 129.678 130.832 125.62 123.395 122.97 122.723 126.795 128.784 130.104 130.166 128.966 125.192 122.476 122.366 122.228 122.255 122.211 121.978 121.884 121.873 122.366 122.14 122.129 122.117 122.115 124.302 127.216 125.268 122.056 121.864 127.884 128.992 129.503 128.564 127.253 122.291 121.427 121.423 121.557 121.672 121.362 121.297 123.655 131.113 130.874 137.275 136.8 135.388 132.757 130.859 123.597 123.46 121.384 121.434 123.047 122.894 121.091 121.55 121.878 120.967 120.917 120.874 120.924 120.919 120.918 120.906 120.873 120.991 121.055 121.622 121.805 121.6 121.326 121.137 121.27 120.948 120.995 120.89 121.652 127.343 127.193 121.365 120.845 124.207 125.825 127.112 127.46 123.122 120.675 122.997 124.722 127.72 127.592 127.072 124.19 120.602 120.617 120.432 120.265 120.435 120.222 120.202 120.165 120.38 120.302 122.275 122.86 123.282 120.102 120.11 120.14 120.22 121.955 120.32 120.07 120.09 120.105 120.147 123.21 126.262 127.665 128.132 126.73 120.645 120.135 120.83 120.012 119.985 120.022 120.022 119.985 120.095 120.232 120.235 120.427 120.587 120.987 121.167 121.362 121.572 121.327 121.387 121.507 121.84 121.425 120.307 120.305 120.355 120.28 123.072 121.647 121.99 122.502 120.525 120.452 120.377 120.422 120.392 120.502 120.612 121.02 120.922 120.667 120.612 120.597 119.145 119.07 118.852 118.547 118.752 118.705 119.262 119.455 119.432 119.402 119.495 119.605 119.69 119.857 120.052 120.232 120.36 120.465 121.49 121.562 121.477 122.595 121.837 121.729 121.662 121.714 121.692 121.847 123.492 130.447 130.407 130.362 130.359 125.467 130.359 122.507 122.279 122.172 122.164 122.157 122.182 122.207 122.262 122.272 122.184 122.124 122.157 122.124 122.167 122.259 122.337 122.417 122.484 122.537 122.672 123.409 122.677 122.707 122.722 122.817 122.884 122.957 123.327 123.534 123.129 123.222 123.232 123.234 123.324 123.382 123.417 123.429 123.522 124.609 130.077 130.837 131.974 132.877 133.197 133.947 133.777 132.997 132.182 131.339 130.589 128.474 125.239 124.209 124.254 124.262 124.637 124.504 126.967 127.527 127.512 124.277 124.239 124.272 127.754 127.777 127.772 126.464 124.737 124.649 130.522 132.784 132.782 129.727 125.259 124.862 125.362 125.044 125.062 125.069 125.004 124.984 127.142 130.962 131.447 131.977 132.039 132.899 131.544 127.849 126.834 125.107 125.272 131.352 132.482 129.204 125.264 125.892 125.524 125.634 127.262 125.944 126.469 126.119 126.032 126.022 125.952 125.972 125.994 125.969 125.949 125.972 126.044 126.047 125.979 126.042 126.094 126.132 126.164 126.192 126.192 126.202 126.204 126.292 126.297 126.339 126.377 126.432 126.724 127.099 126.454 126.427 126.527 126.559 126.574 126.537 127.262 126.739 126.654 126.637 126.717 126.697 126.749 126.922 126.759 126.777 126.912 127.852 127.064 127.072 127.797 127.154 127.132 127.174 128.167 127.419 127.417 127.067 127.024 129.554 132.309 133.244 133.754 133.307 127.554 127.117 130.027 133.132 132.589 132.034 127.829 127.317 127.312 127.189 127.249 127.274 129.664 129.799 127.167 127.139 127.122 127.204 127.199 127.182 127.169 127.157 129.277 127.197 127.149 127.139 127.122 127.042 127.104 127.082 127.057 129.312 127.749 127.069 126.914 127.062 130.687 128.949 135.824 137.042 134.992 131.474 129.857 130.849 130.854 130.767 130.259 126.944 126.692 126.622 127.487 126.684 126.657 129.642 129.507 126.404 126.374 126.169 126.097 126.059 126.114 128.587 125.924 125.884 125.849 125.802 125.684
125.647 123.182 123.041 123.301 123.411 124.02 123.176 123.012 122.944 122.86 122.851 122.929 123.01 123.107 123.259 123.098 127.661 133.56 133.557 134.392 128.106 131.109 130.52 123.407 122.859 123.446 127.467 129.165 130.383 129.786 128.275 123.145 122.44 122.29 122.228 122.477 122.902 122.01 121.833 121.72 121.791 122.679 122.324 121.995 121.993 122.15 123.437 122.892 121.934 121.869 126.286 128.556 129.555 129.555 127.235 123.532 121.287 121.325 121.563 121.296 121.176 121.018 120.989 121.931 122.641 124.258 129.919 131.265 126.736 125.974 128.577 128.24 121.87 121.868 124.618 121.938 120.929 120.749 120.847 120.854 120.874 120.872 120.864 120.84 120.845 120.916 120.926 121.616 120.954 120.882 121.287 121.541 120.991 123.92 126.205 120.986 121.091 120.904 120.775 127.285 127.725 126.165 126.512 127.215 127.745 128.282 127.992 126.575 120.317 122.872 123.04 126.702 122.86 120.247 120.492 120.54 120.315 120.127 120.135 120.155 120.675 120.202 120.942 122.38 122.862 120.842 120.035 120.01 120.022 119.735 119.972 119.995 121.465 123.297 119.86 119.892 119.905 120.122 122.232 126.335 127.715 128.025 126.677 120.987 120.092 120.39 120.167 120.785 120.08 120.057 120.01 119.922 119.98 120.002 120.045 120.062 120.16 120.26 120.157 120.215 120.235 120.315 120.317 120.34 120.37 120.162 120.145 120.162 120.16 120.222 122.222 120.352 120.395 120.392 120.305 120.302 120.32 120.297 120.44 120.757 121.782 121.367 121.005 120.8 120.477 118.115 118.117 118.43 118.137 118.182 118.35 118.715 119.135 119.52 120.11 120.265 120.62 119.597 119.745 119.935 120.135 121.38 121.522 120.96 121.43 121.372 121.822 121.717 121.654 121.574 121.632 121.622 121.987 121.887 130.467 130.424 129.554 125.437 122.122 122.092 122.074 122.089 122.082 122.109 123.012 124.512 122.519 122.029 121.992 122.004 122.002 122.004 122.099 122.194 122.274 122.337 122.402 122.457 122.499 123.529 122.677 122.602 122.677 122.804 122.892 123.187 122.999 123.479 123.004 123.207 123.267 123.299 123.314 123.312 123.352 123.392 124.084 128.567 130.669 132.712 132.312 133.067 133.819 133.867 133.114 132.307 131.509 130.729 129.624 124.539 124.044 124.117 124.189 124.232 124.227 124.242 124.282 127.004 127.467 127.347 124.314 124.239 124.244 127.547 127.602 127.592 124.917 124.774 124.612 127.859 127.864 127.859 127.724 127.509 127.004 124.969 124.984 124.997 125.399 124.694 124.889 124.952 124.964 125.052 127.399 129.712 131.352 131.094 125.069 127.644 126.359 131.184 132.419 132.154 130.997 125.507 125.632 126.302 129.234 126.992 125.689 126.919 125.797 125.982 126.027 125.929 125.987 125.972 125.947 126.062 126.089 126.139 126.154 126.139 126.167 126.152 126.077 126.107 126.152 126.207 126.259 126.287 126.289 126.267 126.262 126.282 126.342 126.462 126.484 126.549 126.714 126.629 126.582 126.622 126.639 126.969 126.717 126.682 126.712 126.752 126.732 127.112 126.784 126.817 126.822 126.932 127.592 127.029 127.119 127.659 127.154 127.147 127.224 127.534 127.979 127.067 127.052 127.012 127.114 127.509 127.567 130.609 132.724 127.114 127.114 132.604 134.192 133.942 133.412 132.864 132.307 129.614 127.199 127.237 127.219 127.479 128.764 127.189 127.189 128.187 127.299 127.159 127.162 127.154 127.222 127.202 127.227 127.059 127.037 127.077 127.054 127.059 127.029 126.979 129.277 128.114 127.267 126.859 126.944 128.037 126.782 127.907 127.187 126.974 127.007 126.902 127.027 129.777 128.589 130.669 127.557 126.924 128.832 128.997 128.669 127.177 128.932 127.832 126.424 126.409 126.154 126.929 126.019 126.092 129.432 125.887 125.854 125.817 125.809 125.642
127.525 124.524 123.107 123.055 123.039 123.02 122.995 123.275 122.818 122.792 122.861 122.83 122.977 123.098 123.079 123.257 131.881 133.829 134.361 134.074 128.507 133.784 130.216 123.271 122.798 125.666 128.775 129.647 130.4 129.399 126.917 122.582 122.427 122.243 122.136 122.056 122.867 122.186 121.76 121.622 121.681 121.683 121.819 121.909 121.871 121.864 121.897 121.905 121.857 121.638 122.702 127.944 128.595 128.552 127.306 124.913 121.429 121.537 121.137 121.748 121.57 121.343 120.913 120.874 120.829 120.957 122.984 127.841 128.723 129.667 123.686 129.87 124.529 120.835 120.791 120.784 120.779 120.805 120.828 120.784 120.806 120.838 120.876 120.892 120.925 122.671 121.612 121.49 120.987 120.675 120.722 120.864 121.348 127.001 127.606 124.057 121.99 121.63 120.575 125.142 127.665 127.507 128.082 128.635 128.662 128.23 127.712 127.002 120.917 121.39 120.307 120.297 120.212 120.205 120.172 120.807 120.042 120.025 120.047 120.405 120.597 121.102 121.165 120.357 119.972 119.937 119.905 119.842 119.847 119.587 119.842 119.9 120.125 123.225 122.115 122.25 119.79 120.03 120.092 126.392 127.772 127.957 126.605 120.417 120.122 120.467 119.902 119.96 120.002 120.055 120.035 120.01 120.01 120.017 120.035 120.05 121.007 120.7 120.06 120.062 120.08 120.115 120.117 120.12 120.12 120.1 120.107 120.11 120.117 120.137 120.157 120.182 120.16 120.18 120.215 120.21 120.217 120.212 120.32 121.157 121.997 121.73 121.477 120.372 120.3 118.107 127.132 127.34 127.35 126.957 118.212 118.542 119.032 119.542 120.095 119.307 119.4 119.51 119.66 119.857 120.03 121.347 121.207 120.872 121.207 121.227 122.45 121.437 121.394 121.519 121.534 121.544 121.864 121.782 124.224 122.052 122.087 122.054 121.994 121.984 122.012 122.002 121.969 122.514 126.502 122.012 121.832 121.842 121.862 121.872 121.949 122.042 122.134 122.197 122.257 122.312 122.362 122.404 122.454 122.487 122.579 122.747 123.047 123.694 123.049 122.939 122.912 123.007 122.737 124.067 123.269 123.309 123.247 123.327 123.907 129.207 130.557 131.347 132.164 133.077 133.734 134.014 133.224 132.419 131.687 130.817 130.169 126.534 124.369 124.174 123.959 124.047 124.147 124.197 124.194 124.222 124.274 124.722 124.367 124.384 124.409 124.692 124.444 126.187 126.017 126.762 124.707 124.652 124.564 127.637 127.719 127.717 127.514 127.422 126.912 124.904 124.932 124.939 124.947 124.629 124.632 124.644 124.642 125.212 125.677 124.974 124.989 126.052 125.179 125.769 130.684 132.307 133.629 133.052 132.242 131.009 125.537 126.999 129.774 126.057 126.432 125.717 125.997 125.922 125.929 125.937 125.984 125.954 126.052 126.047 126.017 126.259 126.259 126.302 126.244 126.187 126.192 126.214 126.212 126.172 126.172 126.224 126.274 126.312 126.337 126.334 126.362 126.364 126.417 126.489 126.532 126.549 126.589 126.854 126.619 126.872 126.692 126.692 126.717 126.777 126.827 127.112 126.799 126.804 126.859 126.929 127.617 127.964 127.289 127.247 127.149 127.327 127.129 127.549 127.097 127.129 127.054 126.997 127.179 127.279 127.149 127.139 127.149 127.094 128.302 133.212 133.842 134.419 134.724 134.224 133.662 133.124 131.579 127.242 127.129 127.102 127.097 127.084 127.159 128.317 127.249 127.129 127.642 128.369 128.237 127.137 127.092 127.042 126.999 127.049 127.007 127.002 126.937 126.902 127.777 126.862 126.867 126.822 127.669 126.952 126.707 126.682 126.652 126.672 126.819 126.857 126.897 126.959 130.334 130.517 127.884 126.849 129.747 127.467 126.672 126.587 127.994 126.589 126.422 127.577 126.169 126.089 126.019 126.064 129.272 125.852 125.859 125.869 125.704 125.602
127.629 123.337 123.253 123.257 123.57 125.265 126.607 129.352 123.867 122.798 122.789 122.76 122.978 123.067 123.02 123.102 132.449 135.006 134.585 128.262 135.095 135.207 132.408 122.967 122.715 127.638 129.154 130.211 129.844 128.422 123.514 122.473 122.322 122.116 121.981 122.14 122.149 122.461 121.656 121.528 121.378 121.866 122.699 122.017 121.739 121.677 121.681 121.618 121.535 121.331 121.138 125.103 127.851 128.593 127.785 126.756 122.574 121.103 121.301 121.991 121.873 121.729 120.89 120.838 120.74 125.678 130.115 131.436 131.617 130.686 126.999 123.097 121.03 120.691 120.698 120.712 120.757 120.732 120.763 120.836 120.877 123.711 124.407 122.349 120.799 120.896 121.737 120.889 124.926 127.128 125.5 123.942 125.336 126.602 127.812 126.697 121.017 120.555 120.53 120.697 127.167 128.517 128.387 127.872 127.35 126.79 124.735 120.502 120.077 120.99 120.497 120.17 120.125 120.155 120.1 122.42 119.975 122.015 120.367 120.252 120.492 119.99 120.757 119.82 119.802 119.792 121.12 120.15 119.61 119.59 120.66 119.892 119.852 122.372 122.63 122.77 119.96 119.682 119.972 126.44 127.3 127.38 126.495 120.042 120.097 120.627 120.132 120.427 120.172 120.007 119.967 119.95 119.945 119.96 119.975 119.967 119.99 120.02 120.037 120.035 120.07 120.085 120.1 120.122 120.122 120.115 120.137 120.162 120.172 120.185 120.182 120.18 120.175 120.175 120.152 120.125 120.122 120.092 120.222 120.55 121.212 120.8 119.757 119.28 119.292 118.107 127.197 128.82 127.877 126.16 118.212 118.542 118.907 119.322 119.372 119.33 119.977 119.44 119.577 119.772 119.94 120.89 120.737 120.892 121.067 121.165 124.1 124.062 123.922 121.714 121.437 121.472 121.464 122.074 121.859 121.964 121.912 121.912 121.944 121.889 122.267 122.217 122.627 122.424 121.694 121.744 121.732 121.727 121.807 121.902 121.979 122.052 122.112 122.182 122.237 122.287 122.317 122.347 122.457 123.872 123.959 124.342 122.897 122.829 122.847 122.739 122.769 122.752 122.579 123.102 123.284 123.289 123.887 131.702 131.054 131.234 132.229 132.862 133.619 134.034 133.359 132.609 131.774 131.197 130.297 130.007 129.929 124.647 123.949 123.937 123.912 123.917 124.122 124.152 124.152 124.197 124.232 124.299 124.357 124.392 124.412 124.439 124.464 124.482 124.479 124.479 124.514 124.559 124.597 124.669 125.237 125.274 124.737 125.149 124.842 124.869 124.887 124.877 124.707 124.587 124.604 124.619 124.629 125.614 124.804 124.847 124.894 128.004 125.332 125.242 128.592 132.002 133.042 131.884 132.222 131.942 127.277 132.527 132.697 128.592 129.589 125.712 126.437 125.859 125.862 125.937 125.962 125.902 125.994 126.309 125.872 125.864 125.879 125.882 125.869 126.099 126.317 126.454 126.267 126.269 126.259 126.224 126.219 127.057 126.564 126.332 126.389 126.419 126.437 126.442 126.444 126.459 126.539 126.542 126.572 126.614 126.642 126.837 126.782 126.769 126.992 127.272 126.977 127.437 126.917 126.964 127.132 126.947 126.967 126.997 127.037 127.009 127.039 127.044 127.047 127.057 127.102 127.352 127.134 127.122 127.137 127.102 128.234 127.077 127.057 127.962 130.407 132.292 134.049 134.192 134.699 133.837 130.817 127.217 127.467 130.202 128.562 129.247 129.264 127.452 127.102 127.104 128.524 129.569 128.809 127.914 127.067 127.029 127.009 127.009 126.992 126.944 126.924 127.292 127.012 126.797 126.784 127.417 127.627 129.229 126.624 126.619 126.559 126.569 126.672 126.737 126.824 127.279 132.684 130.684 126.554 126.502 126.919 127.549 126.449 126.659 126.384 126.342 126.549 126.547 126.897 126.137 126.064 126.332 126.989 125.804 125.799 125.849 125.542 125.557
123.854 123.221 123.281 123.322 124.028 129.923 131.601 131.662 128.555 122.848 122.745 122.75 122.984 123.148 122.94 122.859 131.531 133.569 134.156 134.896 134.223 133.922 132.163 124.365 123.816 128.334 129.564 130.263 129.675 128.02 123.08 122.445 122.261 122.038 121.886 122.279 122.261 122.412 121.613 121.373 121.199 121.159 121.439 122.395 121.456 121.369 121.327 121.152 121.084 120.989 121.161 126.69 127.697 128.592 128.398 127.372 124.784 121.537 121.18 121.316 121.063 120.966 120.77 120.759 121.951 128.483 130.249 131.097 130.199 129.823 127.815 121.865 120.643 120.646 120.634 120.774 121.186 120.744 122.986 123.716 124 122.964 122.609 120.821 120.57 120.509 120.829 120.894 125.466 127.782 126.812 126.787 127.358 127.864 128.335 127.222 122.132 120.41 121.112 120.397 126.637 127.495 126.992 126.037 121.905 122.035 120.197 120.21 120.08 122.212 121.08 120.415 120.145 120.105 120.102 121.412 120.372 119.867 119.827 119.845 119.815 119.767 119.832 119.682 120.245 120.862 121.47 121.522 119.545 119.557 119.842 119.807 120.165 121.405 122.575 122.782 122.127 119.572 119.902 122.64 122.55 125.112 124.047 119.967 120.017 120.635 120.102 120.395 120.11 119.93 119.965 120.125 120.217 120.155 120.167 120.16 120.082 120.122 120.107 120.085 120.11 120.115 120.12 120.155 120.162 120.175 120.15 120.182 120.182 120.192 120.195 120.175 120.117 120.052 120.032 120.037 120.035 119.992 120.205 120.46 120.787 121.04 118.167 118.112 118.115 119.68 127.215 128.9 127.857 122.665 118.305 118.535 118.767 118.935 119.2 119.462 119.847 119.477 119.557 119.74 119.907 120.187 120.507 120.985 120.965 122.035 124.56 124.519 124.084 121.764 121.339 121.372 121.367 122.524 121.582 121.697 121.824 121.814 121.837 121.737 122.059 121.917 121.542 121.564 121.584 121.584 121.677 121.757 121.847 121.909 121.979 122.022 122.092 122.132 122.177 122.217 122.277 122.419 122.567 123.772 122.862 122.754 122.724 122.722 122.662 122.664 122.622 122.707 122.724 122.514 123.624 123.304 130.409 131.777 131.977 132.709 133.492 134.059 133.467 132.689 131.887 131.097 130.339 127.257 129.964 124.734 124.307 123.872 123.882 123.884 123.859 123.904 124.299 124.114 124.109 124.082 124.067 124.099 124.184 124.232 124.369 124.437 124.429 124.412 124.434 124.469 124.504 124.554 124.604 124.652 124.694 124.707 124.749 124.782 124.827 124.849 124.834 124.927 124.644 124.579 124.592 124.582 124.667 125.989 124.804 124.864 124.854 127.157 124.904 125.214 125.559 127.779 131.802 129.802 130.672 127.807 126.989 128.704 127.117 126.119 126.692 125.729 125.807 125.834 125.837 125.932 125.924 125.967 125.909 125.979 125.772 125.729 125.764 125.764 125.992 126.092 126.102 126.249 125.977 126.352 126.862 126.339 126.312 126.329 126.772 126.357 126.334 126.359 126.399 126.432 126.479 126.522 126.534 126.517 126.507 126.522 126.599 126.934 126.759 126.769 126.934 127.402 127.132 126.894 126.869 126.864 126.862 126.862 126.872 126.914 126.957 126.972 126.992 127.014 128.002 127.524 127.097 127.082 127.052 127.322 127.237 127.297 127.142 127.052 127.279 127.042 127.004 127.157 130.072 131.427 133.364 133.267 127.407 127.099 129.534 133.297 132.739 132.164 130.194 127.022 127.019 127.229 129.569 128.652 128.882 127.062 127.047 127.027 127.024 126.929 126.922 126.894 126.837 128.424 126.882 126.717 126.662 126.709 127.052 128.149 126.569 126.512 126.484 127.079 126.577 126.602 126.674 126.734 126.639 126.557 126.464 126.799 126.337 126.347 126.349 126.329 126.329 126.294 127.067 126.054 126.067 126.519 126.302 125.909 125.999 125.887 125.919 125.822 125.519 125.537
125.085 123.435 123.3 123.455 127.359 131.128 129.431 128.153 126.538 122.733 122.734 122.847 123.03 123.014 122.876 122.834 125.382 132.482 133.195 132.228 132.514 132.155 125.622 122.655 125.388 128.809 129.794 130.256 129.148 124.244 122.531 122.412 122.22 121.929 121.799 123.279 121.708 122.264 121.753 121.271 121.134 121.033 121.205 121.144 121.076 121.063 120.984 120.874 121.931 125.84 127.127 127.81 128.235 128.686 128.725 127.712 126.46 122.143 121.122 121.174 121.457 121.391 120.697 120.702 120.882 127.309 130.247 130.67 130.462 130.314 128.513 120.67 120.561 120.609 121.283 124.342 123.301 121.791 122 122.258 121.299 120.732 120.699 120.762 120.669 122.408 120.677 120.963 121.981 127.303 127.739 128.293 128.852 129.315 129.217 127.725 125.995 120.312 120.962 120.292 124.2 123.732 120.305 120.525 121.365 120.147 119.897 119.902 119.837 122.152 122.122 120.212 120.12 120.615 120.225 119.99 119.802 119.805 119.735 119.697 119.665 119.765 119.787 119.565 119.657 120.26 119.812 120.727 119.42 119.485 119.505 119.862 120.057 120.5 120.03 121.372 120.97 119.685 119.512 119.61 119.85 119.832 119.907 120.712 120.34 120.09 119.942 119.96 119.97 119.967 120.34 120.037 120.055 120.025 120.045 120.01 120.015 120.155 120.767 121.02 120.242 120.522 120.24 120.222 120.335 120.367 120.45 120.392 120.432 120.402 120.425 120.41 120.197 120.07 119.91 119.89 119.942 119.917 120.092 120.327 120.61 120.762 118.14 129.812 129.99 129.982 129.692 128.882 127.855 122.722 118.247 118.427 118.632 118.795 119.102 119.457 119.885 119.6 119.622 119.797 119.962 120.58 120.782 120.757 120.897 122.882 125.012 124.984 124.329 121.402 121.454 121.264 121.299 121.269 121.367 121.542 121.652 121.664 121.607 121.562 121.414 121.412 121.429 121.442 121.512 121.607 121.742 121.769 121.834 122.077 123.132 121.999 122.027 122.072 122.137 122.229 122.322 122.794 123.367 122.789 122.602 122.627 122.604 122.587 122.552 122.572 122.559 122.674 122.417 122.434 122.809 123.452 127.592 131.034 132.604 133.849 133.647 132.802 131.994 131.219 130.429 128.627 126.604 124.522 123.832 123.757 123.799 123.829 123.812 123.799 124.347 124.217 125.369 124.047 124.022 123.974 125.137 123.989 124.137 124.009 124.337 124.032 124.034 124.244 124.272 124.334 124.404 124.462 124.512 124.557 124.612 124.662 124.717 124.759 124.792 124.829 124.832 124.959 126.089 124.542 124.592 124.617 124.957 124.827 124.827 124.834 125.434 124.884 124.922 124.984 125.097 125.699 126.599 125.272 125.269 125.284 125.724 126.019 125.604 126.324 125.622 125.699 126.024 125.879 126.289 125.902 125.879 125.952 125.899 125.792 125.714 125.644 127.079 125.654 127.039 127.734 126.337 125.857 125.899 126.389 126.324 126.449 126.349 126.362 127.222 126.819 126.369 126.432 126.469 126.382 126.402 126.454 126.512 126.577 126.594 126.582 126.572 127.584 128.097 126.729 126.752 126.774 126.817 126.772 126.764 126.817 126.854 126.887 126.912 126.924 126.947 126.982 126.997 127.032 127.057 127.072 127.099 128.504 127.449 127.104 127.019 127.044 127.024 128.802 127.354 127.544 127.109 127.289 126.952 127.519 127.897 131.342 127.142 127.069 133.182 134.267 134.139 133.564 133.004 132.459 130.637 127.002 126.962 127.134 128.479 127.062 127.072 127.044 126.954 126.874 126.854 126.747 126.649 128.222 128.037 126.587 126.594 126.904 127.439 126.517 126.472 126.439 126.434 127.059 126.474 126.477 126.507 127.384 126.532 126.419 126.369 128.017 126.184 126.189 126.182 126.207 126.242 126.234 125.992 125.739 125.744 126.169 126.277 128.484 125.809 125.614 125.904 125.902 125.554 125.524
124.389 124.621 124.588 123.942 129.194 126.384 124.498 131.707 129.28 123.001 122.631 122.864 122.973 122.831 122.782 122.767 123.979 128.333 130.893 131.723 131.1 127.16 123.053 122.829 126.492 129.149 130.29 129.791 128.651 123.633 122.557 122.405 122.156 121.932 127.529 128.348 124.025 122.406 121.324 121.22 121.029 120.94 120.809 120.762 120.842 121.202 124.53 125.835 127.366 127.965 128.239 129.027 128.77 128.297 127.875 127.487 126.963 122.558 121.083 121.117 121.134 120.86 120.559 120.582 120.511 123.524 128.839 128.569 129.403 128.115 126.531 120.58 120.609 123.266 123.73 123.443 123.701 122.505 120.638 120.733 120.804 122.896 125.311 126.459 124.731 123.127 121.762 120.706 120.717 126.751 128.216 129.54 129.247 128.72 128.18 127.677 126.827 120.185 120.152 120.377 121.74 120.13 120.062 119.962 119.94 121.592 119.825 119.785 119.727 121.48 120.647 120.475 120.275 119.747 122.062 119.81 119.647 119.645 119.585 119.51 119.457 119.437 120.167 119.43 119.545 119.517 119.395 119.367 119.387 119.41 119.43 119.425 119.857 121.765 119.315 119.877 120.88 119.612 119.672 122.945 120.602 121.212 120.39 122.145 121.552 119.915 119.967 119.987 119.937 120.097 119.88 119.892 119.885 119.84 119.872 119.872 119.9 119.94 119.942 119.92 119.97 119.987 119.962 119.977 120.002 119.997 119.972 120.007 119.98 120.015 120.032 120.062 120.11 119.982 119.857 119.782 119.832 119.807 119.99 120.192 120.372 119.295 118.187 129.897 131.507 131.342 130.035 130.6 129.85 123.495 118.352 119.057 118.327 118.357 118.607 119.885 120.192 119.782 119.75 119.887 120.035 120.19 120.342 120.75 120.815 124.975 126.677 126.479 124.829 121.114 121.184 121.152 121.219 121.214 121.177 121.242 121.352 121.367 121.287 121.307 121.302 121.282 121.357 121.457 121.759 122.767 121.769 121.749 121.794 122.309 121.907 121.929 121.982 122.122 122.202 122.862 122.772 122.499 122.487 122.452 122.504 122.479 122.482 122.462 122.477 122.532 123.134 122.242 122.302 122.354 125.524 128.302 123.372 130.312 132.557 132.819 132.154 131.322 130.559 129.492 127.169 125.164 123.659 123.699 123.724 123.727 123.752 123.747 123.852 123.887 123.782 124.869 123.939 124.219 123.912 123.922 124.139 124.477 136.167 137.377 129.714 126.809 132.624 132.677 124.297 124.099 124.212 124.299 124.359 124.424 124.482 124.539 124.599 124.659 124.729 124.764 124.799 125.339 126.009 125.034 124.652 124.604 125.819 124.812 125.032 124.819 125.492 124.874 124.917 124.972 125.042 125.064 125.092 127.149 127.459 125.367 125.457 125.357 126.372 125.594 125.507 125.632 125.829 125.892 127.149 125.867 125.844 125.887 127.527 126.834 125.697 126.907 132.042 132.209 132.182 132.162 129.392 125.839 125.877 126.274 127.422 126.667 126.397 126.389 128.999 126.409 128.052 129.174 127.382 126.469 126.479 126.537 126.477 126.467 126.519 126.584 126.619 126.644 126.674 126.689 126.712 127.174 126.994 126.799 126.842 126.822 126.817 126.827 126.824 126.894 126.964 126.989 126.987 126.949 126.942 126.994 127.047 127.059 127.059 127.029 126.997 127.019 127.029 127.449 127.239 127.227 127.129 127.224 126.972 126.949 126.889 127.064 127.037 128.964 132.822 133.369 133.957 134.679 134.409 133.849 133.314 132.624 126.924 126.532 128.999 127.077 126.697 126.974 126.454 126.679 126.804 127.162 128.979 128.894 128.327 127.887 126.474 127.292 128.779 126.372 126.302 126.274 126.437 128.004 128.547 126.244 126.442 128.622 126.387 126.272 126.302 127.859 126.077 126.059 125.989 125.942 125.984 126.317 126.254 125.657 125.742 126.212 125.842 125.759 125.639 125.752 125.552 126.187 126.584 125.462
122.998 123.006 123.306 124.221 125.68 126.117 129.365 127.166 123.769 122.643 122.704 122.89 122.943 122.794 122.745 122.68 128.035 130.296 130.273 124.313 124.988 124.618 123.459 124.655 128.542 129.888 130.409 129.41 127.757 122.638 122.557 122.652 127.872 131.088 132.326 133.28 131.214 129.064 122.086 121.117 121.108 120.887 120.785 120.714 120.743 126.03 127.375 128.158 128.557 128.747 128.53 128.144 127.787 127.017 126.619 122.665 121.679 121.013 121.03 121.279 120.842 120.536 120.451 120.438 120.456 120.347 121.78 125.49 126.366 126.039 124.426 124.169 126.822 122.78 122.556 121.378 121.425 120.705 120.524 120.558 123.775 126.835 127.365 127.327 126.072 123.82 122.805 120.442 120.424 125.09 127.682 128.327 127.775 127.272 126.725 123.83 119.977 120.157 120.007 122.567 123.487 120.697 119.875 119.852 119.832 120.74 119.695 119.682 121.447 121.942 119.737 119.742 120.842 119.322 121.73 120.65 119.447 119.427 119.397 119.335 119.297 119.295 119.975 119.337 119.335 119.34 119.35 119.33 119.337 119.377 119.367 119.322 121.705 120.107 119.285 119.35 122.155 128.077 120.505 123.762 120.877 119.82 121.542 119.702 119.662 119.757 119.805 119.787 119.697 119.615 119.642 119.67 119.727 122.327 122.937 121.595 120.802 121.932 122.507 122.147 120.637 122.047 122.547 122.485 121.502 119.995 120.792 122.827 121.345 119.852 119.962 120.025 120.032 119.885 119.767 119.662 119.717 119.695 119.932 120.11 119.795 118.745 118.395 129.907 131.6 131.342 130.257 134.072 132.792 125.862 125.872 126.125 122.85 118.2 118.23 119.577 119.627 119.74 119.84 119.967 120.095 121.527 121.347 120.825 120.77 126.547 128.615 128.597 126.024 120.952 120.989 121.029 121.094 121.089 121.079 121.057 121.077 121.092 121.134 121.149 121.212 121.299 121.377 121.467 121.527 121.707 122.692 121.707 121.749 121.787 121.829 121.944 122.049 122.377 122.382 122.394 122.352 122.409 122.407 122.389 122.384 122.412 122.359 122.349 122.282 122.392 122.112 122.167 122.234 122.294 122.362 128.342 123.934 125.599 130.839 131.462 130.684 129.804 127.522 127.422 127.229 123.679 123.684 123.644 123.642 123.617 124.502 123.899 124.017 124.694 123.794 123.819 123.814 123.879 123.884 123.899 123.944 124.919 139.079 139.039 139.009 138.592 136.452 136.364 136.399 131.234 124.404 124.132 124.219 124.299 124.364 125.062 124.482 124.572 124.592 124.669 124.704 124.704 126.624 126.072 125.469 127.334 127.167 124.812 125.864 125.474 124.904 124.859 125.039 124.954 124.999 125.932 125.207 125.304 126.204 130.579 132.539 130.299 125.364 125.444 125.502 125.587 125.819 125.872 126.237 125.862 125.792 125.849 126.182 125.704 125.702 130.167 132.087 133.467 133.612 132.509 130.502 128.312 125.859 126.417 127.202 127.569 128.592 128.257 128.689 126.344 126.407 128.567 126.564 126.497 128.922 127.979 126.582 126.569 126.804 126.729 126.604 126.567 126.624 126.682 126.732 126.772 126.807 126.827 126.807 126.747 126.864 127.029 127.039 127.047 127.024 127.052 127.067 127.087 127.154 127.172 127.107 126.969 126.989 127.024 127.019 126.967 126.952 127.002 128.432 127.079 126.979 126.887 126.897 126.944 126.892 127.039 126.947 126.914 126.847 127.939 131.194 133.139 133.687 134.242 133.502 129.347 126.777 128.409 131.984 131.574 130.629 127.024 126.437 126.374 126.357 127.474 127.827 129.174 127.437 126.379 126.599 129.072 126.764 126.599 126.252 126.659 127.912 128.564 127.722 126.087 126.254 126.314 126.217 126.239 126.552 126.287 125.999 125.942 125.849 125.832 126.487 128.112 125.662 125.579 125.707 125.717 125.682 125.414 125.557 125.487 125.649 125.484 125.544 125.419
123.003 123.027 123.089 122.905 122.728 123.558 122.912 122.581 122.626 122.605 122.758 122.884 122.93 122.783 122.706 122.641 125.722 129.428 129.376 124.864 124.803 125.794 122.784 127.491 128.692 129.904 129.983 128.85 125.182 122.573 126.551 127.053 128.899 132.614 133.745 133.145 132.579 129.145 123.196 122.177 121.333 121.199 120.805 120.691 120.622 124.473 127.239 128.329 128.478 127.964 127.66 127.058 126.562 121.595 121.498 121.138 121.028 121.046 122.347 125.516 121.225 120.423 120.347 120.339 120.351 120.275 120.253 121.344 125.362 126.811 128.208 129.09 129.633 124.081 121.27 120.605 120.502 120.469 120.435 120.389 120.487 126.639 128.049 127.94 126.521 120.461 120.32 120.297 120.727 120.787 127.115 126.85 125.9 120.105 121.087 120.005 119.852 120 119.97 120.492 123.517 122.307 120.77 119.67 119.667 119.91 121.987 121.525 122.055 119.32 119.257 119.137 119.097 119.077 121.82 121.827 119.215 119.172 119.78 119.715 120.177 120.955 119.77 120.485 120.237 120.877 120.487 119.222 119.377 119.385 119.285 121.7 119.42 120.065 119.552 119.387 124.157 122.657 121.245 121.217 120.427 119.462 119.44 119.485 119.45 119.475 119.527 119.507 119.505 119.467 119.482 119.502 119.5 126.572 126.565 126.542 126.57 126.555 126.55 126.552 126.515 126.502 126.517 126.525 126.552 127.7 128.647 127.2 125.485 119.892 119.94 119.905 119.89 119.855 119.652 119.552 119.627 119.577 119.775 120.015 119.82 118.7 125.657 130.01 131.607 131.332 131.112 134.122 132.892 127.662 128.967 128.355 127.667 127.625 120.387 119.552 119.632 119.75 119.862 119.975 120.105 120.205 120.345 120.852 120.685 126.657 127.842 127.879 126.377 120.882 120.899 120.902 120.959 120.957 120.949 120.972 120.999 121.052 121.102 121.152 121.227 121.309 121.384 121.439 121.497 122.292 121.667 121.637 121.692 121.759 121.844 122.369 123.624 122.357 122.222 122.262 122.269 122.339 122.352 122.299 122.257 122.314 122.632 124.002 125.669 122.119 122.092 122.094 122.152 122.224 122.302 124.262 126.024 123.412 130.167 129.287 128.419 127.604 127.347 127.332 127.247 126.044 123.782 124.047 123.567 123.574 123.777 124.477 124.269 123.839 123.787 123.807 123.747 123.789 123.827 123.844 123.854 123.884 136.779 139.024 138.979 138.974 139.012 136.832 136.322 136.284 136.499 132.734 124.129 124.152 124.307 125.732 124.364 124.442 124.497 124.567 124.622 124.627 124.647 124.694 124.767 124.842 128.202 128.237 131.297 131.682 128.834 124.894 124.892 125.152 127.302 127.274 125.634 131.264 132.687 134.494 132.984 130.979 125.487 125.459 125.489 125.629 125.812 125.857 125.772 125.829 125.767 125.799 125.902 125.687 125.712 130.239 132.169 133.539 133.984 132.529 130.384 128.567 125.989 126.499 126.864 126.559 128.667 128.697 126.992 126.352 126.319 126.364 126.389 126.432 126.752 128.524 127.067 126.739 126.639 126.787 126.634 126.662 126.672 126.612 126.697 126.777 126.799 126.819 126.742 126.834 127.054 127.024 126.997 126.979 126.994 127.002 127.024 127.064 127.107 127.112 127.117 127.117 127.079 126.909 126.944 126.969 126.922 126.952 126.977 128.272 127.737 126.909 126.902 126.867 126.962 127.174 126.897 126.812 126.819 126.817 126.779 127.412 130.344 132.842 132.949 127.799 126.474 131.152 133.137 133.007 132.627 132.244 131.872 131.507 126.344 126.317 126.354 126.569 126.342 126.237 126.484 127.444 125.977 125.984 125.997 128.064 127.507 128.542 126.322 126.084 126.312 126.737 126.302 128.917 128.392 126.027 125.857 125.864 125.774 125.689 126.782 128.089 125.612 125.557 125.627 125.667 125.617 125.364 125.412 125.454 126.507 125.817 125.349 125.364
122.971 123.002 123.005 122.695 122.773 122.678 122.565 122.598 122.559 122.489 122.807 122.905 122.74 122.697 122.638 122.59 122.665 124 123.851 123.216 122.813 123.122 124.627 127.953 129.418 130.499 129.682 128.571 122.708 122.731 127.04 128.844 128.543 132.227 133.514 133.791 132.851 129.663 123.683 123.534 123.514 123.926 121.497 120.738 120.541 120.823 126.84 127.446 127.565 126.735 125.198 124.923 121.76 120.855 121.007 121.013 121.207 121.9 121.61 120.995 120.301 120.3 120.279 120.21 120.254 120.219 120.112 120.015 125.086 128.787 129.3 129.254 129.089 128.434 121.382 120.369 120.401 120.368 120.376 120.316 120.313 125.936 127.562 128.361 127.026 122.212 120.3 120.295 120.347 120.192 121.547 120.135 120.275 120.117 119.747 119.69 119.585 119.547 119.96 119.95 123.15 123.165 119.817 121.92 120.672 121.107 120.727 119.592 120.065 119.277 120.347 119.082 119.065 119.04 120.477 122.002 120.76 122.147 122.2 121.872 121.882 122.325 122.16 122.305 122.425 122.407 121.227 119.322 119.342 121.23 120.762 121.202 119.22 119.457 119.177 119.235 121.095 121.06 122.46 119.26 119.172 119.225 119.262 119.207 119.255 119.212 122.695 125.567 125.552 125.535 125.542 125.515 125.525 127.98 127.975 127.97 127.982 127.962 127.93 127.975 127.91 127.917 127.92 127.932 127.942 127.997 128.63 127.2 124.487 119.852 119.837 119.8 119.79 119.802 119.575 119.47 119.52 119.495 119.705 119.97 119.775 118.792 118.53 131.1 131.685 131.607 131.735 134.145 133.077 129.337 129.395 129.345 129.31 128.27 120.26 120.24 120.647 120 119.79 119.915 120.047 120.497 120.402 120.755 120.557 126.095 127.985 127.734 124.239 120.802 120.832 120.802 120.822 120.817 120.839 120.884 120.954 121.107 121.349 121.204 121.214 121.284 121.344 121.389 121.432 121.479 121.529 121.614 121.684 121.742 122.039 122.002 122.054 122.077 122.157 122.209 122.247 122.277 122.294 122.212 122.149 122.267 125.214 126.492 127.739 124.477 122.072 122.044 122.062 122.132 122.214 122.309 125.142 124.834 123.692 127.594 127.422 127.384 127.447 127.302 127.279 127.239 123.794 123.589 123.582 123.587 123.594 123.749 123.792 123.787 123.774 123.717 123.717 123.744 123.772 123.802 123.827 123.847 123.869 123.909 139.409 138.919 139.034 136.454 136.297 136.262 136.227 136.182 134.002 126.387 124.299 124.394 124.284 124.322 124.394 124.457 124.499 124.499 124.514 124.554 124.614 124.694 124.774 130.194 129.669 130.734 131.752 124.889 124.947 125.142 125.429 125.117 125.172 130.617 132.434 134.267 133.419 132.032 128.242 126.174 127.522 126.927 125.822 125.834 125.757 125.822 125.739 125.754 125.899 125.747 125.779 129.972 132.047 133.524 134.062 132.562 130.124 125.937 126.232 126.262 126.732 126.349 127.107 126.764 130.197 133.419 134.394 130.402 126.312 126.357 126.524 126.704 128.942 126.569 126.947 126.797 127.794 126.949 126.699 126.644 127.024 127.109 126.764 126.789 126.737 126.877 126.987 126.952 126.927 126.962 126.962 126.967 126.962 127.039 127.077 127.107 127.122 127.112 127.107 127.054 126.942 126.862 126.909 126.872 126.919 126.947 126.959 126.842 126.894 126.779 126.942 126.812 126.804 126.809 126.737 126.787 129.082 126.764 126.959 127.747 128.987 127.527 126.364 132.172 133.379 133.919 133.997 133.759 133.294 132.917 132.412 126.327 126.369 126.969 126.272 125.927 126.069 128.282 131.304 131.794 125.959 128.079 126.147 126.879 126.082 126.084 127.142 126.012 127.412 128.824 125.709 125.644 125.617 125.624 125.544 125.527 125.817 126.617 125.544 127.159 127.789 127.547 126.422 126.599 126.079 125.282 125.374 125.317 125.324 125.287
122.674 122.693 123.034 122.638 122.711 122.659 122.447 122.53 122.536 122.564 122.83 122.892 122.684 122.605 122.565 122.523 122.659 122.713 122.723 122.73 122.66 122.593 124.763 128.477 129.851 130.425 129.129 125.23 122.675 122.607 126.432 128.696 127.065 131.306 132.951 132.272 130.788 127.936 124.055 124.013 124.035 124.06 122.54 121.146 120.564 120.495 125.475 126.53 124.606 122.952 121.496 120.668 120.765 120.91 120.941 120.97 121.452 122.192 121.435 120.428 120.232 120.232 120.211 120.223 120.125 120.26 120.076 120.069 125.48 128.566 128.692 128.271 127.628 128.783 124.845 120.356 120.271 120.237 120.223 120.273 120.428 122.649 127.045 128.755 127.52 125.87 123.225 120.265 120.322 120.89 122.35 120.122 120.12 119.937 119.742 119.525 119.465 119.45 119.945 120.93 122.727 123.537 120.922 120.122 119 119.167 120.135 119.615 119.56 118.9 118.982 120.467 118.892 118.777 119.227 118.757 119.445 122.657 122.64 124.807 124.9 124.982 125.065 125.097 125.18 123.32 121.035 119.222 121.795 122.237 119.072 118.897 118.88 119.16 119.182 119.16 119.39 119.417 119.257 119.092 122.002 120.682 120.607 120.485 121.475 121.535 125.542 126.955 126.965 126.935 126.947 126.912 126.897 127.477 127.477 127.487 127.487 127.472 127.485 127.497 127.485 127.515 127.542 127.527 127.56 127.792 128.655 127.202 124.882 119.805 119.762 119.685 119.687 119.585 119.48 119.362 119.417 119.422 119.692 119.862 119.792 118.827 118.21 131.855 133.152 133.125 133.132 134.157 133.08 131 130.992 131.005 129.937 129.187 119.832 119.35 119.472 119.595 119.707 119.83 119.97 120.185 120.385 120.97 120.43 128.055 128.115 127.612 124.027 120.747 120.727 120.664 120.677 120.697 120.764 120.839 120.912 121.212 121.049 121.119 121.184 121.237 121.269 121.324 121.444 121.577 121.614 121.679 121.679 121.719 121.749 121.832 121.867 121.922 122.067 122.129 122.177 122.222 122.259 122.242 122.287 123.079 124.534 127.817 126.734 125.467 122.132 122.054 122.017 122.047 122.134 122.217 122.839 124.887 123.427 125.747 127.359 127.322 127.429 127.332 127.299 125.804 124.119 123.504 124.044 123.724 123.714 123.719 123.722 123.717 123.717 123.692 123.679 123.689 123.719 123.764 123.799 123.824 123.852 123.962 137.297 138.024 138.032 136.332 136.287 136.274 136.247 136.337 133.657 133.719 133.227 126.169 124.189 124.219 124.297 124.344 124.352 124.339 124.384 124.429 124.504 124.584 124.682 126.277 131.542 131.407 125.689 124.927 124.979 125.004 125.019 125.094 125.159 127.377 132.084 133.797 133.932 132.402 129.947 125.534 125.459 126.152 125.824 125.837 125.749 125.812 125.717 125.774 126.002 125.794 125.752 129.529 132.114 133.432 134.022 132.567 128.894 125.969 125.807 125.842 125.874 125.929 128.037 126.944 132.289 133.922 134.017 132.409 130.254 128.384 126.732 126.532 127.239 126.932 126.522 126.642 127.837 126.749 126.729 126.927 126.694 127.294 126.734 126.774 126.774 126.754 126.947 126.947 126.959 126.942 126.954 126.874 126.884 127.939 130.127 127.084 127.099 127.104 127.102 127.082 127.047 126.957 126.787 126.847 126.842 126.882 126.902 126.947 126.777 126.869 126.912 126.802 126.684 126.759 126.732 126.712 127.457 126.694 126.709 127.087 126.499 126.519 126.449 130.537 132.134 132.517 132.912 133.279 133.667 133.594 132.177 126.239 126.424 132.157 132.122 131.689 131.264 130.429 132.267 133.357 131.759 127.674 126.007 127.497 127.184 126.504 127.017 125.852 127.302 128.392 126.312 127.642 127.219 126.809 125.444 125.437 125.382 125.357 125.379 129.292 129.007 128.569 127.174 128.377 126.539 125.239 125.417 125.314 125.307 125.292
122.552 122.497 122.495 122.497 122.482 122.474 122.459 122.533 122.502 122.633 122.803 122.808 122.619 122.489 122.482 122.448 122.625 122.693 122.781 122.755 122.699 123.908 127.549 128.832 130.256 129.981 128.798 125.152 122.661 126.469 129.306 129.535 126.897 126.301 129.649 127.463 124.971 125.102 124.074 124.337 124.219 124.017 121.637 121.499 120.822 120.421 120.337 120.992 120.611 120.524 120.426 120.591 120.685 120.789 121.667 122.126 121.674 120.564 120.809 120.138 120.139 120.15 120.445 123.989 125.631 124.305 120.158 119.899 121.145 126.422 127.073 126.941 125.721 126.708 125.668 122.394 120.227 120.174 120.146 120.169 120.2 120.209 126.491 127.557 127.067 126.46 123.362 120.465 120.23 121.09 122.48 120.025 119.537 119.517 119.5 119.482 119.385 119.412 119.59 121.955 120.705 119.265 119.102 119.052 118.987 119.39 121.5 121.842 121.072 118.775 118.787 118.95 118.885 121.425 121.74 118.672 118.665 122.132 122.095 124.87 125.975 125.84 126.227 126.275 125.59 123.132 118.95 121.12 122.352 119.685 119.125 121.412 121.627 119.132 119.095 119.057 119.275 119.155 119.232 119.092 125.132 125.917 125.945 125.907 125.9 125.905 127.035 127.797 127.82 127.842 127.855 127.825 127.837 126.045 126.06 126.067 126.08 126.075 126.06 126.077 126.017 126.11 126.132 126.122 126.337 127.727 128.64 127.182 125.217 119.735 119.682 119.595 119.6 119.472 119.397 119.262 119.325 119.28 119.505 119.747 119.652 118.847 118.237 132.307 133.987 134.817 134.825 134.652 133.105 130.07 130.087 130.095 129.94 128.505 119.895 119.255 119.37 119.507 119.627 119.75 119.9 120.042 120.19 120.707 120.312 120.335 122.76 121.172 120.794 120.569 120.484 120.562 120.607 120.667 120.754 120.827 120.887 120.949 122.714 122.772 122.699 121.179 121.337 121.409 121.602 122.354 122.142 121.647 121.667 121.687 121.719 121.829 121.914 121.932 121.957 122.074 122.107 122.162 122.144 122.267 123.549 124.084 122.809 126.097 123.774 122.317 122.292 122.104 122.007 121.972 122.039 122.117 122.157 122.307 123.437 123.384 127.262 127.279 127.309 126.654 126.309 123.609 123.382 123.649 123.727 123.724 123.707 123.704 123.707 123.709 123.697 123.664 123.647 123.609 123.677 123.724 123.772 123.807 123.849 124.932 138.022 138.039 138.084 138.124 137.449 136.317 136.287 133.692 133.679 133.714 133.782 133.852 124.124 124.139 124.182 124.209 124.207 124.209 124.232 124.297 124.392 124.477 124.604 124.727 125.989 125.039 124.999 124.934 124.974 125.014 125.037 125.099 126.534 126.787 131.637 133.337 134.357 132.622 130.714 125.312 125.427 126.092 125.807 125.822 125.737 125.799 125.729 125.787 125.877 125.792 125.774 127.122 131.967 132.867 132.537 132.577 130.722 127.567 125.842 125.894 125.889 125.942 126.824 128.147 132.777 134.439 133.464 131.927 129.817 127.452 126.884 128.782 131.109 126.587 126.594 127.234 126.677 126.737 126.764 126.752 126.849 126.774 126.702 126.712 126.782 126.729 126.872 126.932 126.942 126.949 126.944 126.914 126.892 126.939 130.697 130.089 126.952 127.017 127.054 127.039 127.034 127.004 126.832 126.777 126.829 126.802 126.812 126.844 126.854 126.842 126.787 126.734 126.709 126.719 126.697 128.284 127.094 126.654 128.312 130.882 126.397 126.324 126.282 126.324 126.329 126.462 128.669 131.244 132.232 132.617 130.127 126.114 127.574 132.559 133.587 132.999 132.737 132.304 132.697 133.007 128.787 125.814 126.664 128.932 128.719 128.127 126.234 125.659 125.634 125.632 127.119 130.024 130.567 130.919 131.037 131.149 130.207 125.307 125.307 132.519 132.137 131.742 131.232 131.064 130.972 125.182 125.062 125.117 124.949 125.119
122.514 122.546 122.534 122.44 122.464 122.443 122.445 122.47 122.457 122.566 122.724 122.63 122.587 122.516 122.405 122.4 122.515 122.601 122.81 122.738 122.671 123.104 128.137 129.744 130.19 129.586 127.393 123.465 123.077 129.725 131.395 130.53 127.436 125.541 125.88 126.569 125.001 124.716 124.549 124.672 124.167 124.106 122.015 121.563 120.757 121.055 120.425 120.154 120.717 120.59 120.322 120.404 120.653 121.423 121.833 120.686 120.198 119.99 120.035 120.071 120.07 120.137 126.575 127.717 126.733 126.107 123.861 120.036 120.36 122.934 125.869 126.318 126.202 126.302 127.589 123.327 120.529 120.08 120.072 120.041 120.091 120.077 126.017 126.995 126.475 123.482 123.155 121.027 120.732 120.202 122.41 122.105 119.492 119.495 119.437 119.4 119.365 119.387 119.882 119.462 122.932 119.035 119.09 118.945 118.815 119.272 121.932 120.54 122.092 118.815 118.687 118.695 121.365 122.1 124.022 123.732 118.612 118.88 118.845 124.672 125.917 126.715 126.955 126.56 125.667 123.477 118.857 118.86 119.94 123.922 124.765 124.122 121.115 120.495 118.957 118.982 118.975 119.08 119.077 119.047 125.07 126.5 127.355 127.35 127.332 127.33 127.32 126.427 126.45 126.482 126.48 126.477 126.455 119.727 119.63 120.255 119.987 119.637 119.785 119.665 119.717 119.705 121.37 120.16 126.257 127.735 128.637 127.175 125.472 119.542 119.537 119.482 119.51 119.332 119.3 119.17 119.235 119.207 119.412 119.71 121.785 118.732 121.18 132.32 133.997 135.69 136.28 134.777 132.827 128.397 129.167 128.95 129.012 129.865 123.102 119.11 119.262 119.42 119.547 119.687 119.99 120.905 120.98 120.54 120.185 120.22 120.322 120.327 120.392 120.359 120.444 120.517 120.789 120.662 120.734 120.792 123.032 123.972 124.182 121.029 121.174 121.254 121.634 122.722 121.592 121.524 121.497 121.557 121.629 121.652 121.689 121.724 121.847 121.927 121.944 121.949 121.982 122.047 122.154 125.827 126.379 124.534 123.627 122.347 122.317 122.319 122.339 122.244 122.052 121.952 121.952 122.027 122.429 122.142 123.437 123.367 123.332 125.294 123.397 123.789 123.372 123.434 123.529 123.529 123.569 123.654 127.447 123.759 123.677 123.702 124.079 123.647 125.564 123.784 123.694 123.712 123.752 123.784 123.937 136.844 138.057 138.069 138.112 138.227 138.482 138.077 136.029 133.739 133.724 133.729 133.797 125.829 124.089 124.089 124.097 124.084 124.094 124.109 124.107 124.142 124.247 124.389 124.527 124.672 124.822 124.972 125.324 124.912 124.964 125.219 126.617 126.402 125.214 125.317 131.169 132.849 133.684 132.987 131.372 125.454 125.424 125.727 125.812 125.734 125.722 125.789 125.722 125.689 125.727 125.767 125.777 126.527 131.462 131.459 131.487 131.532 129.564 125.937 125.849 125.862 126.042 125.982 127.142 130.812 133.312 134.514 132.962 130.614 129.489 127.184 129.199 132.969 133.072 132.292 128.749 126.694 126.674 126.719 126.767 126.747 126.829 126.857 126.797 126.724 126.754 126.809 126.734 126.899 126.954 126.954 126.922 126.899 126.944 126.987 126.974 127.907 126.997 126.989 126.964 126.944 126.939 127.194 126.924 126.707 126.794 126.799 126.749 126.689 126.699 126.694 126.677 126.644 126.777 126.744 127.164 127.242 126.607 128.017 132.119 133.394 126.304 126.239 126.242 126.289 126.272 126.387 126.324 125.919 126.212 126.364 126.029 125.952 130.609 132.514 132.934 133.347 133.794 133.732 133.387 132.649 128.054 125.649 129.819 133.524 133.057 131.384 131.154 130.312 127.402 125.487 126.889 131.552 131.987 132.109 132.212 132.187 131.042 125.262 127.027 132.949 132.929 132.867 132.462 132.284 132.177 125.199 124.944 129.204 130.777 130.154
122.513 123.059 122.602 122.405 122.427 122.41 122.451 122.433 122.405 122.494 122.573 122.569 122.521 122.463 122.363 122.389 122.47 122.62 122.789 122.807 122.634 126.669 128.811 129.496 130.15 128.912 123.543 122.564 123.048 128.239 129.706 130.956 129.528 124.978 124.512 122.467 123.893 124.149 124.097 124.1 124.122 124.145 123.907 120.728 120.616 121.155 120.939 120.103 120.131 120.516 120.565 120.144 121.152 120.494 120.043 119.948 119.954 119.993 120.005 121.902 121.371 122.357 126.034 128.138 127.345 126.727 124.21 120.336 120.221 124.01 125.245 126.2 125.773 126.919 124.748 123.403 121.003 120.081 119.975 119.983 120.017 119.992 120.007 126.507 126.977 121.255 120.172 120.197 120.427 122.247 120.702 119.627 119.452 119.45 119.485 119.697 120.4 119.005 119.595 118.942 119.182 118.887 118.882 118.785 118.805 118.66 121.557 119.56 118.567 118.565 118.58 118.552 122.32 124.627 125.152 124.685 118.995 118.597 118.735 124.62 125.585 125.515 125.447 125.352 125.275 123.735 118.79 118.805 118.75 122.71 125.127 124.737 122.145 120.202 118.847 118.872 118.9 118.935 118.942 118.97 125.08 126.51 126.815 126.84 126.825 126.82 126.882 123.1 122.555 123.972 123.46 123.055 122.705 119.387 119.39 119.415 119.51 119.5 119.492 119.5 119.612 119.807 119.537 120.092 126.29 127.757 128.642 127.192 124.465 119.54 119.5 119.47 119.435 119.22 119.237 119.057 119.147 119.112 119.307 119.532 119.617 118.595 126.887 132.43 133.995 134.92 134.927 134.722 133.097 128.962 126.72 126.717 125.387 126.27 118.23 118.425 119.127 119.862 119.84 120.157 120.617 120.482 120.08 120.062 120.052 120.102 120.14 120.184 120.262 120.342 120.427 121.307 120.559 120.634 120.697 120.752 122.427 120.867 121.019 121.099 121.687 121.377 121.392 121.444 121.384 121.392 121.444 121.482 121.584 121.622 121.634 121.662 121.794 121.869 121.942 122.017 122.007 122.179 122.212 127.099 126.674 124.142 124.062 122.347 122.382 122.389 122.387 123.847 122.127 121.984 121.914 121.927 122.039 122.924 122.947 123.854 123.272 123.314 123.332 123.474 125.664 124.009 123.477 137.384 127.439 126.259 138.079 137.377 128.514 123.784 125.779 125.907 128.324 128.349 127.179 123.989 123.767 123.807 126.212 138.142 138.104 138.097 138.117 138.094 138.072 137.802 133.659 133.679 133.729 133.774 133.862 124.627 124.607 124.067 124.057 124.027 124.017 124.024 124.007 124.024 124.164 124.307 124.449 124.607 124.759 124.917 128.249 130.049 127.664 125.127 124.969 124.992 125.057 125.314 129.554 132.204 131.939 131.509 130.417 125.492 125.534 125.664 125.787 125.734 125.684 125.772 125.707 125.679 125.697 126.314 127.099 126.104 128.342 128.357 128.067 126.039 125.899 125.949 125.847 126.052 126.112 126.212 128.789 126.154 130.477 131.022 132.462 128.199 129.077 127.914 131.329 134.494 134.249 132.677 132.784 131.962 127.119 126.669 126.697 126.762 126.842 126.779 127.634 126.884 126.814 126.789 126.837 126.787 126.882 126.957 126.929 126.919 126.959 126.972 127.974 126.977 126.994 126.977 126.982 126.989 126.964 126.912 126.907 126.642 126.744 126.772 126.749 126.694 126.632 126.569 126.539 126.529 126.554 126.459 126.432 126.419 127.034 127.762 129.997 130.094 126.292 126.194 127.514 126.204 126.219 127.357 126.142 126.749 127.097 126.187 125.884 125.854 126.587 126.947 129.627 131.927 132.329 132.732 133.162 132.284 125.614 125.459 132.147 133.584 133.554 133.309 132.559 132.119 127.692 125.442 125.759 131.422 132.632 132.824 132.692 132.334 131.149 125.192 126.912 131.914 132.009 132.149 132.274 132.414 132.577 125.159 124.922 132.337 131.937 131.592
122.442 122.804 122.448 122.436 122.384 122.35 122.387 122.399 122.378 122.471 122.503 122.508 122.42 122.433 122.388 122.394 122.501 123.293 124.115 125.129 122.677 123.852 128.317 128.612 129.015 128.446 124.164 122.545 122.536 122.851 128.703 125.442 124.876 121.63 121.132 121.768 123.383 124.089 124.124 124.132 124.168 124.164 123.268 120.701 120.468 120.513 120.846 119.902 119.807 120.054 120.709 119.983 119.991 119.891 119.9 119.901 119.924 119.94 120 122.6 123.151 124.927 126.846 128.434 127.003 125.017 122.946 119.713 120.894 123.026 123.42 124.135 123.657 122.999 122.096 124.5 120.008 119.821 119.847 119.862 119.895 119.92 119.927 125.105 126.707 125.375 119.71 122.552 122.97 123.42 119.822 119.472 119.542 119.687 119.672 119.805 118.88 119.732 118.867 118.937 119.407 118.792 118.75 118.777 118.697 118.655 118.435 119.32 118.497 118.502 122.9 124.54 125.1 125.687 126.155 125.22 123.702 118.47 118.777 120.875 121.635 124.13 119.19 122.572 118.925 119.252 118.812 118.65 119.3 123.282 124.752 125.265 123.715 121.837 120.057 118.812 119.02 120.155 119.692 118.895 125.095 125.385 125.39 125.392 125.37 125.38 123.877 119.052 119.095 119.187 119.187 119.225 119.237 119.205 119.235 119.282 119.367 119.37 119.41 119.42 119.347 119.377 119.432 119.607 126.3 127.762 128.642 127.185 125.097 119.472 119.407 119.372 119.317 119.222 119.122 118.962 119.037 119.017 119.225 119.445 119.63 118.802 118.395 132.335 133.217 133.537 133.702 133.272 133.03 125.185 118.155 118.165 118.165 118.265 118.367 118.87 119.512 120.577 121.075 121.33 121.65 121.607 119.985 119.94 119.98 120.032 120.112 120.177 120.267 120.319 120.397 120.464 120.532 120.567 120.609 120.707 120.854 120.952 121.484 123.509 122.172 121.277 121.217 121.247 121.279 121.304 122.757 121.429 121.542 121.577 121.589 121.584 121.747 121.817 121.927 122.024 122.082 122.104 122.819 126.987 127.574 123.994 123.137 122.354 126.922 130.199 126.377 125.912 125.264 122.089 121.977 121.902 122.019 122.282 122.779 122.999 123.767 123.254 123.454 123.394 123.377 123.369 129.582 137.117 137.114 137.797 138.047 138.034 138.089 138.387 130.964 126.462 128.349 128.399 128.379 128.339 126.397 124.104 136.857 138.184 138.157 138.159 138.172 138.147 138.132 133.969 133.594 133.627 133.719 133.802 127.842 124.294 124.424 124.072 124.029 124.004 123.987 123.979 123.974 124.032 124.139 124.267 124.394 124.557 124.714 127.122 130.807 129.619 129.852 124.877 124.922 124.974 125.032 125.327 126.497 127.414 126.022 125.397 125.419 125.452 125.999 127.124 125.782 125.722 125.652 125.757 125.702 125.719 125.674 126.404 126.027 126.834 126.779 126.637 126.129 125.714 125.674 125.804 125.869 125.894 125.919 127.424 126.402 126.197 126.194 126.204 126.259 129.772 126.909 129.679 132.164 133.792 134.434 134.604 134.007 133.194 132.437 128.912 126.682 126.737 126.752 126.764 126.752 127.862 126.854 126.834 126.782 126.847 126.839 126.787 126.872 126.942 126.962 126.997 126.994 126.994 126.979 126.929 126.939 126.954 126.904 126.909 126.812 126.687 126.729 126.744 126.722 126.677 126.619 126.577 126.547 126.507 126.432 126.369 126.322 126.297 126.267 126.222 126.157 126.127 126.149 126.132 127.757 127.347 126.534 127.294 125.989 125.774 125.739 125.717 125.752 126.052 126.247 125.617 125.574 125.527 125.657 128.447 131.619 131.579 125.467 125.347 132.324 132.559 133.057 133.307 133.349 131.934 125.494 125.372 125.277 131.322 131.679 131.622 131.449 131.319 131.162 125.139 125.169 130.147 130.567 130.964 131.074 131.202 131.362 125.682 125.147 131.789 132.149 132.479
122.609 122.391 122.47 122.448 122.312 122.358 122.347 122.343 122.38 122.503 122.496 122.562 122.426 122.321 122.341 122.398 122.338 122.795 125.249 126.231 124.035 122.626 122.799 124.458 125.679 127.734 123.093 122.545 122.468 122.408 122.338 122.202 122.411 121.911 121.358 121.242 123.395 124.106 124.139 124.01 122.058 122.6 121.287 121.545 120.494 120.174 119.877 119.815 119.757 119.768 119.75 119.787 119.802 119.827 119.86 119.892 119.893 119.968 120.84 123.207 121.993 124.429 126.638 126.641 126.241 124.984 121.529 119.549 119.635 121.883 122.13 122.677 122.365 121.565 120.836 123.337 120.85 119.67 119.7 119.677 119.747 119.775 119.835 120.272 119.655 119.655 119.657 121.007 123.507 123.11 121.982 119.787 118.972 118.97 119.032 119.62 118.68 118.572 119.022 119.897 121.747 118.842 118.647 119.002 118.525 118.572 118.47 118.515 119.392 118.44 124.335 125.352 126.14 126.422 125.09 125.257 124.642 118.685 118.495 118.447 118.472 118.485 119.002 119.047 119.797 118.667 119.065 119.167 121.96 125.077 125.862 125.805 124.625 122.092 120.23 119.427 118.987 121.28 121.2 118.857 118.91 118.915 118.932 120.665 118.955 118.982 118.91 118.847 118.91 119.042 119.012 119.082 119.087 119.06 119.075 119.04 119.09 119.147 119.225 119.237 119.12 119.187 119.252 119.312 126.235 127.68 128.655 127.222 125.16 119.25 119.27 119.227 119.22 119.035 119.035 118.862 118.932 118.94 119.127 119.375 119.627 118.955 118.227 123.905 125.985 133.445 133.675 131.585 125.517 121.517 118.412 118.602 118.79 119.035 119.11 119.507 120.135 120.677 120.662 121.65 121.09 119.905 119.915 119.872 119.945 120.022 120.1 120.169 120.229 120.299 120.367 120.414 120.447 120.534 120.674 120.764 121.674 121.417 121.219 121.009 121.054 121.094 121.117 121.122 121.454 121.249 121.344 121.402 121.502 121.469 121.504 121.544 121.647 121.709 121.854 122.004 122.089 122.169 122.212 124.589 124.112 123.759 122.884 129.554 131.752 131.654 129.279 126.394 125.754 124.672 122.064 122.017 122.084 122.164 122.564 122.814 123.082 123.667 125.289 123.357 123.307 123.297 137.312 137.157 137.147 138.214 138.097 138.079 138.119 138.159 138.209 138.272 131.749 128.449 128.434 128.394 128.372 128.699 138.187 138.194 138.162 138.144 138.162 138.182 137.557 133.609 133.624 133.669 133.734 133.069 124.122 125.612 125.012 124.042 124.017 124.002 123.969 123.962 123.979 124.044 124.147 124.254 124.372 124.524 124.667 125.172 131.062 130.754 127.589 124.939 125.399 126.002 127.204 125.234 125.229 125.282 125.334 125.399 125.594 126.217 125.804 125.567 125.922 125.719 125.684 125.749 125.702 125.697 125.672 126.584 125.747 125.737 125.797 130.869 131.972 127.497 131.219 127.109 125.877 126.034 125.979 128.097 126.139 126.189 126.214 126.239 126.962 128.662 126.914 128.407 129.817 130.594 132.747 134.222 134.339 133.759 132.559 127.384 126.614 127.202 126.732 126.729 126.727 126.722 127.354 126.837 126.824 126.782 126.852 126.892 126.887 126.854 126.827 126.897 126.954 126.977 126.984 126.939 126.907 126.852 126.774 126.724 126.704 126.712 126.722 126.687 126.652 126.604 126.552 126.514 126.489 126.474 126.439 126.379 126.314 126.254 126.172 126.099 126.042 125.992 125.964 125.939 125.909 125.844 126.342 125.864 126.447 126.542 126.347 125.604 125.627 126.462 125.604 125.584 125.539 125.824 125.389 125.362 125.309 125.389 125.347 126.277 131.102 131.357 131.589 131.807 131.997 131.719 125.274 125.252 125.182 129.567 129.067 128.134 127.047 126.314 125.724 125.017 124.992 124.974 125.284 125.877 125.974 126.007 126.587 124.962 127.002 130.612 130.949 132.104
122.78 122.432 122.968 122.384 122.273 122.302 122.326 122.31 122.416 122.478 122.46 122.468 122.414 122.307 122.333 122.368 122.368 122.403 122.641 123.905 122.721 122.63 122.596 122.6 122.544 122.463 122.492 122.514 122.454 122.399 122.262 122.199 121.881 121.737 122.348 121.108 121.219 121.667 122.172 121.032 121.029 121.237 122.053 121.174 120.998 120.121 119.838 119.763 119.677 119.682 119.735 119.756 119.804 119.808 119.78 119.821 119.869 119.981 121.679 121.384 121.327 122.951 125.075 124.786 124.511 123.854 119.875 119.436 119.754 130.917 130.495 128.429 130.717 120.314 119.643 120.437 123.327 119.52 119.532 119.567 119.617 119.635 119.927 119.57 119.592 119.612 119.627 119.68 122.585 120.89 119.887 120.985 119.15 119.005 118.825 118.71 118.565 118.742 121.29 121.345 121.442 120.782 118.545 118.492 119.112 118.435 118.762 118.18 118.6 118.31 118.602 124.785 125.792 125.32 124.805 124.215 118.365 119.042 118.27 118.277 118.285 118.307 119.287 118.795 118.542 118.502 119.752 118.55 120.727 124.822 125.72 126.337 125.182 122.895 121.182 120.452 118.785 118.387 118.55 118.81 118.765 118.76 118.787 118.9 118.792 118.737 118.727 118.76 118.817 118.917 118.92 118.942 118.885 118.88 118.947 118.947 119.027 118.992 119.025 119.117 118.937 119.302 119.082 119.115 125.397 126.832 127.68 126.195 123.567 119.01 119.097 120.655 119.142 118.917 118.932 118.747 118.825 118.825 119.035 119.295 119.685 119.24 118.587 118.265 125.307 133.465 133.647 124.66 118.315 118.542 118.932 119.29 119.577 119.852 120.037 120.185 120.375 120.432 122.027 119.71 119.762 119.827 119.857 119.845 119.925 120.01 120.075 120.134 120.377 120.429 120.284 120.387 120.524 120.599 121.312 120.812 120.754 120.814 120.882 120.934 120.967 121.022 121.034 121.047 121.122 121.199 121.332 121.382 121.422 121.422 121.472 121.502 121.569 121.687 121.804 121.942 122.064 122.167 122.202 123.654 123.612 123.489 129.622 130.402 131.077 132.329 131.334 127.814 126.257 122.192 122.189 122.112 122.129 122.202 122.337 122.702 122.994 124.484 125.239 123.527 123.349 123.269 136.944 137.184 137.712 138.089 138.109 138.157 138.132 138.184 138.234 138.262 138.209 138.174 130.877 128.469 128.434 137.532 138.134 138.154 138.144 138.107 138.124 138.152 125.192 124.082 127.247 133.734 133.792 126.912 124.097 124.087 124.049 124.032 124.012 123.987 123.974 123.967 124.007 124.077 124.162 124.277 124.372 124.504 124.639 124.762 127.492 128.947 125.604 129.912 130.664 128.544 127.392 125.562 125.194 125.309 126.894 129.274 131.472 131.587 125.454 125.457 125.674 125.734 125.732 126.102 125.714 125.619 125.697 126.472 125.832 125.764 125.749 131.829 132.897 132.027 132.774 131.679 125.854 125.929 126.452 127.117 128.724 126.187 126.219 126.839 128.889 129.387 126.797 126.562 127.632 126.697 130.172 132.334 133.082 132.957 131.762 126.539 126.667 127.769 129.819 126.662 126.672 127.152 127.614 127.412 126.922 126.812 126.782 126.829 127.599 127.062 126.934 126.904 126.867 126.827 126.809 126.789 126.772 126.772 126.764 126.757 126.744 126.684 126.622 126.639 126.704 126.687 126.619 126.564 126.472 126.359 126.309 126.267 126.227 126.187 126.149 126.102 126.054 125.987 125.919 125.859 125.794 125.727 125.739 125.752 125.702 125.617 125.589 125.539 125.492 126.519 126.207 125.607 125.624 125.422 125.339 125.329 125.257 125.812 125.157 125.714 126.297 125.154 126.149 127.357 128.829 129.662 125.154 125.194 125.099 125.089 125.637 125.669 126.289 125.027 125.702 124.864 124.827 124.814 125.012 125.657 125.124 125.597 125.852 124.817 125.442 125.307 126.927 129.069
