ncols 433
nrows 32
xllcorner    430048
yllcorner    431150
cellsize     2
NODATA_value -9999
44.557 44.761 44.474 44.515 44.614 49.588 50.963 53.038 54.237 54.38 53.255 51.601 42.945 42.919 42.447 42.104 42.004 42.139 42.129 42.05 42.065 42.219 42.258 49.712 51.146 52.067 52.143 50.941 49.976 47.47 43.836 41.517 41.117 41.006 41.684 41.742 44.193 45.302 49.674 50.386 50.961 49.838 45.52 41.286 39.873 39.86 39.796 39.637 41.823 43.233 42.432 39.908 39.94 39.962 43.187 47.047 48.11 49.595 51.254 50.327 49.722 49.05 48.771 45.31 41.706 40.745 43.167 40.366 45.915 44.736 38.822 44.817 41.374 38.981 46.563 48.802 47.647 44.451 40.179 37.93 35.718 35.663 35.717 35.751 35.821 35.764 35.8 35.919 36.698 36.026 36.033 35.962 35.934 35.864 35.832 38.742 36.37 36.673 36.811 36.806 36.891 39.191 45.072 46.957 46.518 45.316 42.346 36.738 38.713 47.328 51.051 51.023 51.263 44.485 38.19 35.78 35.957 35.774 35.697 35.705 35.619 35.665 35.494 35.461 35.46 35.467 35.593 41.211 44.115 45.011 45.382 44.359 43.259 35.424 35.295 35.323 34.965 35.5 34.865 34.846 34.838 34.674 34.684 34.968 34.724 37.904 40.434 41.477 42.424 41.931 40.812 38.842 35.36 34.53 34.52 34.179 34.255 34.262 34.164 34.147 35.868 35.444 34.27 39.474 42.592 43.666 43.8 42.702 41.642 35.12 34.315 34.619 34.209 34.702 33.86 33.766 33.66 33.758 39.213 42.095 42.961 42.677 41.408 33.354 33.918 33.786 33.448 33.396 34.046 34.427 33.886 37.486 39.572 40.926 40.09 38.638 34.143 34.008 33.202 33.063 33.177 33.241 33.075 33.178 33.497 33.767 34.172 34.686 35.118 35.351 35.402 35.376 35.394 35.314 34.952 34.251 33.825 37.598 39.35 40.698 40.496 40.739 31.467 29.85 29.878 30.041 30.095 30.125 30.142 30.343 30.344 30.724 30.518 30.494 30.419 30.465 30.45 30.467 30.556 30.507 30.619 34.767 34.514 38.507 36.819 35.365 39.763 38.967 38.052 38.05 36.009 34.39 34.409 34.48 34.536 34.832 34.568 34.504 34.422 34.318 34.539 34.493 34.484 37.169 38.85 38.943 39.548 37.919 34.527 33.358 32.843 32.235 31.937 31.727 32.014 32.11 32.141 32.203 32.2 32.202 32.226 32.339 32.255 32.469 35.475 36.631 37.014 35.859 32.726 33.742 33.788 32.764 32.547 32.465 32.466 32.416 32.632 32.793 32.733 32.757 32.805 32.781 32.726 32.496 32.408 32.383 32.423 32.433 32.426 32.432 32.451 36.486 33.405 32.258 32.232 32.288 35.327 32.174 32.116 32.088 32.063 31.963 31.993 32.149 32.313 31.964 31.946 31.856 31.771 31.72 31.704 31.677 31.787 31.646 31.558 31.542 31.481 31.395 31.349 31.302 31.283 31.227 31.21 31.185 31.241 31.267 31.298 31.337 32.242 31.388 31.423 31.392 31.36 31.361 31.315 31.252 31.197 31.166 31.168 31.079 31.018 31.015 30.991 30.947 30.924 30.859 30.807 30.831 30.749 30.823 30.843 30.891 31.738 33.829 33.937 38.471 38.408 38.647 38.927 39.185 39.061 38.745 38.542 38.2 38.47 38.708 38.978 39.132 39.433 39.696 39.877 40.148 40.096 39.757 39.503 39.306 39.023 38.794 38.598 38.377 38.409 38.64 38.825 39.156 39.295 38.979 38.665 38.48 36.629 31.005 30.858 30.87 30.738 30.685 30.59 30.539 30.522 30.436 30.396 30.335 30.297 30.243 30.189 30.153 30.114 30.562 32.868 33.224 33.874 33.127 33.091 31.856 32.552
44.366 44.719 44.429 45.008 45.497 46.728 51.503 52.872 54.64 54.391 53.019 49.977 43.524 42.751 42.767 42.145 42.07 42.138 42.132 42.108 42.056 42.121 42.167 43.559 44.523 49.153 50.407 46.163 47.117 43.031 42.134 42.594 41.133 41.048 41.08 41.299 42.198 47.997 49.191 50.017 49.994 49.73 42.811 40.307 40.203 40.073 39.825 39.66 42.176 44.746 41.007 39.883 39.916 40.072 44.063 47.288 47.547 48.398 49.803 50.437 47.835 47.274 43.031 39.806 39.845 39.279 41.919 43.643 43.947 43.177 45.764 43.554 43.664 46.704 49.03 49.162 48.76 48.588 47.603 45.54 36.378 37.28 35.742 35.733 35.788 35.769 35.868 35.902 36.062 36.152 36.246 36.169 36.14 40.867 39.45 43.553 43.746 41.199 37.581 36.734 36.782 36.807 36.864 38.643 39.483 39.949 36.778 36.749 37.022 39.75 48.639 49.56 50.896 42.449 36.079 35.933 36.122 36.717 35.882 35.668 35.63 35.557 35.509 35.454 35.397 35.339 35.398 37.059 42.914 45.563 44.638 43.838 38.518 35.457 35.856 35.032 34.858 34.906 34.888 34.789 34.728 34.673 34.78 34.841 36.283 39.519 41.207 42.11 42.31 41.149 40.481 35.775 34.578 34.465 34.285 34.21 34.309 34.256 34.124 34.201 34.458 34.521 35.346 42.166 43.344 44.388 43.307 42.139 35.971 34.323 34.637 33.896 33.777 33.925 33.806 33.811 33.732 37.752 42.566 42.585 42.781 42.123 37.349 33.636 34.313 33.48 33.466 33.497 33.552 35.136 37.362 39.358 41.445 40.948 39.376 34.047 33.51 33.269 33.128 33.148 33.214 33.159 33.107 33.152 33.539 34.11 34.568 35.003 35.291 35.42 35.405 35.402 35.441 35.27 34.546 33.99 37.152 40.01 36.763 40.062 40.535 38.286 31.109 29.863 29.965 30.012 30.059 30.084 30.171 30.293 30.386 30.523 30.401 30.445 30.404 30.441 30.428 30.476 30.431 30.46 30.649 34.901 37.473 37.42 33.228 35.443 38.164 37.622 36.847 36.225 35.47 34.483 34.478 34.502 34.595 34.811 34.617 34.497 34.411 34.446 34.549 34.51 34.514 35.497 37.771 39.062 39.795 39.116 34.731 33.004 32.488 32.086 31.82 31.903 32.01 32.117 32.151 32.127 32.172 32.19 32.209 32.158 32.111 32.208 36.186 36.763 37.173 36.87 36.035 32.867 33.067 32.722 32.59 32.573 32.575 32.48 32.764 32.911 32.728 32.852 32.873 32.852 33.493 32.587 32.472 32.446 32.407 32.458 32.479 32.431 32.394 32.897 32.36 32.294 32.282 32.22 32.224 32.191 32.138 32.069 32.051 31.974 32.009 31.999 32.021 32.017 31.988 31.872 31.805 31.733 31.706 31.706 31.723 31.626 31.579 31.552 31.475 31.452 31.362 31.31 31.289 31.222 31.207 31.177 31.227 31.298 31.325 31.359 31.387 31.424 31.411 31.42 31.364 31.375 31.414 31.296 31.254 31.209 31.154 31.153 31.08 31.046 31.041 31.043 31.596 30.913 30.848 30.812 30.795 30.81 30.824 30.877 30.929 31.66 33.829 33.894 37.571 38.453 38.661 38.899 38.793 38.504 38.353 38.537 38.775 38.95 39.237 39.462 39.642 39.896 40.181 39.996 39.764 39.518 39.282 39.029 38.752 38.559 38.309 38.374 38.598 38.89 39.103 39.318 39.515 39.2 38.948 38.694 38.419 33.767 31.022 30.86 30.845 30.716 30.635 30.566 30.492 30.483 30.434 30.358 30.333 30.218 30.185 30.133 30.124 30.229 30.494 31.065 32.626 33.471 33.29 33.883 31.954
46.05 46.739 46.333 44.704 44.57 45.051 51.11 53.244 54.635 54.332 52.8 45.786 42.948 42.487 42.327 42.171 42.142 42.19 42.162 42.131 42.032 42.108 42.165 42.186 42.084 41.959 42.099 41.714 41.637 41.529 41.444 41.188 41.089 41.03 42.114 41.507 41.516 46.411 50.244 50.155 50.7 49.76 42.05 40.19 41.373 39.954 39.858 42.096 48.609 49.537 41.815 39.87 39.878 39.925 41.255 45.501 46.391 46.525 46.596 43.663 41.386 39.667 39.59 39.532 39.443 39.384 39.293 39.188 40.868 39.939 43.859 46.294 47.503 48.803 48.823 49.032 45.948 48.67 48.675 48.982 47.977 38.313 36.125 37.71 35.82 35.793 35.812 35.884 36.06 36.164 36.374 36.39 36.524 45.421 48.032 50.586 50.156 46.115 42.141 37.541 36.843 36.715 36.774 36.87 39.464 37.743 36.862 36.825 43.186 45.885 48.538 46.932 45.57 36.204 36.201 36.073 35.952 35.815 35.644 35.619 35.553 35.543 35.502 35.496 35.401 35.403 35.321 35.392 37.106 43.089 44.001 42.967 35.275 35.365 35.346 34.957 34.893 34.944 34.851 35.147 34.741 35.162 34.887 34.804 39.103 41.041 42.379 42.476 41.509 40.504 36.328 34.828 34.624 34.417 35.261 34.34 34.293 34.15 34.213 34.626 34.454 34.727 41.9 42.899 43.893 43.39 42.639 41.423 34.649 34.163 34.226 34.655 33.949 33.804 33.819 33.746 34.011 41.355 42.712 42.957 42.235 36.826 34.567 33.796 33.736 33.436 33.559 34.467 33.543 33.974 38.658 40.2 40.884 40.008 35.965 33.852 33.597 33.163 33.163 33.21 33.171 33.127 33.274 33.45 33.823 34.239 34.799 35.305 35.377 35.463 35.437 35.415 35.359 35.102 35.549 38.564 41.518 41.69 40.403 42.76 41.06 31.395 29.917 29.882 29.976 29.97 30.071 30.121 30.256 30.292 30.743 30.537 30.414 30.369 30.409 30.407 30.362 30.375 30.409 30.444 31.028 35.803 37.246 33.303 36.222 33.423 38.399 38.192 37.865 35.587 34.597 34.478 34.531 34.604 34.857 34.86 34.594 34.532 34.425 34.334 34.595 34.557 34.53 37.1 38.572 39.09 39.035 39.183 35.302 33.566 32.181 31.881 31.701 31.916 32.067 32.11 32.115 32.159 32.126 32.157 32.109 32.073 32.154 35.113 37.255 37.075 37.194 36.805 36.088 32.876 32.75 32.757 32.601 32.73 32.565 32.582 32.842 32.966 32.836 32.939 32.92 32.949 33.009 32.554 32.512 32.471 32.482 32.49 32.516 32.484 32.428 32.416 32.388 32.331 32.313 32.296 32.265 32.21 32.168 32.128 32.033 32.003 31.998 32.019 32.038 32.007 31.938 31.866 31.786 31.74 31.719 31.665 31.811 31.665 31.542 31.521 31.483 31.437 31.374 31.312 31.226 31.19 31.163 31.146 31.25 31.249 31.297 31.363 31.376 31.418 31.432 31.467 31.41 31.454 31.461 31.352 31.275 31.215 31.175 31.158 31.117 31.032 30.987 31.516 31.271 30.915 30.838 30.894 30.824 30.781 30.772 30.821 30.883 30.874 31.507 33.117 33.998 38.428 38.412 38.63 38.509 38.398 38.52 38.768 39.006 39.244 39.516 39.681 39.939 40.157 39.99 39.817 39.448 39.23 39.048 38.775 38.536 38.333 38.452 38.648 38.947 39.069 39.435 39.635 39.675 39.457 39.117 38.906 38.737 38.296 35.941 32.364 30.862 30.802 30.693 30.605 30.55 30.531 30.439 30.386 30.361 30.29 30.253 30.163 30.113 30.025 30.294 30.55 32.689 33.307 33.214 33.451 33.327
44.898 45.091 46.21 45.476 47.721 50.61 52.599 53.337 54.806 53.968 52.99 48.203 42.687 42.489 42.407 42.212 42.173 42.132 42.211 42.176 42.064 42.062 42.273 42.162 42.099 42.025 41.882 41.784 41.666 41.569 41.364 41.153 41.051 40.987 41.347 41.398 41.489 47.252 49.164 50.549 49.73 48.55 41.626 40.234 40.319 39.914 39.854 39.715 41.514 46.658 40.252 39.873 39.827 39.882 39.917 39.932 40.265 40.396 39.925 40.497 39.736 39.64 39.595 39.554 39.481 39.407 39.35 39.246 39.137 39.062 40.206 44.819 45.364 44.588 45.379 50.093 49.995 48.043 49.295 48.84 49.036 47.547 47.72 38.781 35.852 36.458 35.816 36.061 36.117 36.288 36.419 36.59 36.85 46.189 49.428 46.377 49.139 47.88 42.592 41.944 40.287 40.386 36.84 36.819 36.89 36.876 36.858 42.954 45.171 46.935 39.146 46.899 38.741 36.611 36.317 36.207 36.034 35.88 35.814 35.588 35.598 35.523 35.541 35.498 35.42 35.411 35.328 35.212 35.226 35.286 37.612 37.03 35.12 35.047 34.923 34.956 34.893 34.898 34.974 35.544 34.836 35.22 36.505 35.219 40.63 41.484 42.264 43.651 41.407 38.719 35.37 34.656 34.744 34.867 34.615 34.337 34.354 34.267 34.471 34.514 34.712 39.731 42.658 44.852 45.168 42.934 38.933 34.171 34.171 34.709 34.011 34.666 33.924 33.871 33.766 33.932 40.326 43.141 42.963 42.567 41.563 38.275 34.047 34.418 33.527 33.553 33.923 33.903 34.613 37.128 39.742 40.741 40.295 38.269 34.33 33.967 33.295 33.139 33.206 33.259 33.211 33.42 33.439 33.661 34.136 34.595 34.971 35.329 35.511 35.495 35.463 35.425 35.263 34.638 38.277 39.615 40.871 41.069 40.312 42.597 36.657 30.043 29.821 29.876 29.977 30.038 30.122 30.17 30.208 30.398 30.503 30.367 30.368 30.392 30.377 30.311 30.363 30.399 30.374 30.657 32.989 36.891 33.861 33.073 40.294 38 37.809 37.644 37.454 35.349 34.496 34.542 34.59 34.641 34.873 34.801 34.59 34.523 34.428 34.405 34.618 34.57 34.52 35.494 38.301 39.204 39.207 39.583 38.247 36.247 32.041 31.788 31.847 31.983 32.048 32.071 32.101 32.132 32.119 32.056 32.027 32.17 32.342 32.904 35.782 36.497 37.321 36.059 36.495 33.039 33.138 32.738 32.648 32.678 32.647 32.757 32.924 32.995 32.932 33.019 33.01 33.016 32.897 32.611 32.573 32.544 32.54 32.563 32.566 32.553 32.499 32.453 32.442 32.389 32.369 32.342 32.287 32.243 32.201 32.121 32.055 31.996 32.004 32.035 32.027 31.97 31.939 31.86 31.804 31.712 31.692 31.747 31.748 31.654 31.588 31.529 31.489 31.419 31.406 31.351 31.309 31.21 31.156 31.169 31.166 31.24 31.307 31.35 31.463 31.406 31.45 31.412 31.413 31.462 31.4 31.328 31.333 31.243 31.208 31.176 31.129 31.071 31.066 31.045 30.98 30.958 30.916 30.905 30.897 30.818 30.785 30.798 30.796 30.804 30.916 30.959 31.968 32.388 36.706 38.463 38.587 38.464 38.664 38.898 39.228 39.388 39.665 39.947 40.144 39.983 39.688 39.537 39.267 39.01 38.734 38.584 38.254 38.483 38.742 38.885 39.16 39.414 39.583 39.865 39.991 39.743 39.41 39.215 38.905 38.659 38.331 32.503 31.167 30.906 30.802 30.641 30.558 30.515 30.484 30.434 30.356 30.292 30.279 30.183 30.13 30.08 30.006 30.644 31.027 31.241 32.966 32.882 33.169
44.599 44.547 44.539 44.528 46.428 48.133 52.164 53.847 54.788 55.349 52.947 45.9 43.156 42.359 42.681 42.15 42.246 42.223 42.233 42.177 42.166 42.068 42.2 42.119 42.144 42.137 42.413 41.784 41.67 41.575 41.356 41.088 41.018 41.002 42.995 42.129 41.495 47.537 49.658 50.224 49.643 48.242 41.142 40.216 40.065 40.029 39.902 39.763 42.614 43.871 39.965 39.896 39.87 39.846 39.872 39.873 39.896 39.87 39.805 39.788 39.71 39.645 39.632 39.492 39.476 39.418 39.329 39.277 39.166 39.081 38.954 43.771 45.06 47.354 49.522 48.251 42.616 49.882 43.259 46.741 46.901 40.938 47.3 44.965 44.601 36.468 36.351 36.216 36.295 36.413 36.495 36.639 37.062 44.866 48.029 48.866 46.788 46.738 45.605 40.405 39.983 36.938 37.388 41.751 36.994 36.942 36.769 36.86 41.615 45.38 47.144 46.862 45.932 37.552 36.409 36.267 36.072 36.006 35.881 35.781 35.695 35.486 35.553 35.422 35.441 35.417 35.357 35.262 35.203 35.137 35.138 35.079 35.078 34.972 34.955 34.927 34.95 34.843 35.045 35.118 35.366 35.065 35.741 38.997 41.163 42.042 42.487 41.254 40.317 37.361 34.948 34.661 34.822 34.414 34.362 34.311 34.191 34.299 34.544 34.452 35.682 41.511 43.234 44.149 43.337 42.649 36.778 35.067 34.355 34.06 33.841 33.832 33.967 33.98 33.886 37.699 41.635 42.402 42.699 42.128 37.376 34.724 35.132 33.628 33.58 34.153 33.609 33.776 37.467 39.074 40.586 40.706 39.462 36.112 33.804 33.583 33.142 33.279 33.265 33.183 33.239 33.516 33.604 33.763 34.232 34.687 35.354 35.452 35.511 35.485 35.453 35.379 35.049 35.943 38.656 40.446 42.309 41.69 41.567 34.369 30.94 29.814 29.866 29.854 29.988 30.06 30.108 30.191 30.261 30.542 30.394 30.357 30.385 30.345 30.333 30.333 30.338 30.311 30.401 34.132 34.668 37.427 33.102 35.294 37.783 34.168 38.39 36.589 35.358 34.7 34.564 34.608 34.578 34.72 34.909 34.747 34.646 34.565 34.459 34.504 34.712 34.612 34.548 34.615 38.476 38.601 39.019 39.528 38.563 35.829 32.38 31.619 31.852 32.007 32.039 32.027 32.084 32.027 31.951 31.98 32.197 32.297 32.407 32.575 36.93 37.299 37.92 37.332 33.535 33.678 33.67 33 32.813 32.707 32.736 32.799 32.928 33.002 33.046 33.089 33.098 33.038 33.028 32.657 32.636 32.601 32.572 32.596 32.586 32.527 32.525 32.482 32.442 32.419 32.378 32.351 32.311 32.284 32.212 32.169 32.082 32.017 32.013 31.993 31.989 31.957 31.894 31.853 31.781 31.737 31.707 31.694 31.709 31.665 31.573 31.542 31.47 31.422 31.392 31.294 32.322 31.199 31.125 31.199 31.18 31.261 31.299 31.392 33.588 31.404 31.441 31.449 31.464 31.434 31.402 31.347 31.317 31.254 31.212 31.194 31.153 31.124 31.117 31.061 31.035 31.036 30.988 30.964 30.914 30.895 30.815 30.772 30.779 30.8 30.822 30.961 30.986 31.009 32.438 38.24 33.356 38.034 38.455 38.711 38.956 39.244 39.476 39.721 39.937 39.73 39.414 39.223 39.045 38.741 38.482 38.309 38.5 38.685 38.918 39.239 39.361 39.658 39.897 40.161 39.961 39.788 39.504 39.279 39.04 38.764 38.584 38.346 32.534 31.013 30.863 30.764 30.612 30.557 30.504 30.458 30.39 30.347 30.261 30.186 30.182 30.098 30.065 30.495 31.415 32.611 32.529 32.182 33.151
44.847 44.578 44.732 44.575 48.138 49.773 53.241 53.978 54.482 53.553 51.881 43.019 42.613 42.622 42.25 42.141 42.257 42.266 42.268 42.213 42.185 42.147 42.082 42.637 42.117 42.086 42.029 41.972 41.774 41.67 41.446 41.198 41.017 40.954 42.056 41.918 41.727 47.548 49.753 50.227 49.744 48.171 42.072 40.625 40.11 40.099 39.908 39.954 40.093 40.55 40.002 39.95 39.91 39.849 39.785 39.744 39.749 39.774 39.73 39.688 39.655 39.652 39.578 39.49 39.459 39.404 39.35 39.257 39.174 39.085 39.01 38.91 39.364 43.929 43.452 46.4 47.862 48.828 49.758 49.871 48.96 47.488 48.381 47.956 47.094 38.803 36.22 36.452 36.563 36.55 36.604 36.692 36.936 37.608 45.391 48.077 48.699 41.568 44.425 41.541 38.372 37.2 41.568 44.858 40.134 37.126 36.854 36.919 36.813 37.156 43.374 44.061 40.174 36.583 36.486 36.324 36.224 36.133 36.01 35.947 35.805 35.724 35.627 35.516 35.446 35.403 35.337 35.344 35.261 35.188 35.062 35.018 35.036 34.906 34.93 34.915 34.95 34.878 34.866 34.789 34.908 34.905 38.948 40.824 41.631 42.351 41.791 40.771 38.215 34.678 35.113 34.633 35.404 34.525 34.365 34.344 34.315 34.509 34.422 34.327 41.083 42.902 43.772 43.761 42.706 37.964 34.355 34.274 34.332 34.621 34.189 33.85 34.358 34.596 35.39 41.572 42.274 43.096 42.232 41.151 34.723 34.204 34.085 33.565 34.367 34.613 34.943 38.011 38.806 40.302 41.48 40.322 36.146 33.396 33.332 33.288 33.25 33.289 33.343 33.193 33.489 33.804 33.817 34.008 34.501 34.941 35.406 35.496 35.544 35.431 35.457 35.279 34.641 35.032 42.111 36.415 43.333 41.418 35.351 32.249 30.022 29.79 29.843 29.905 29.944 30.035 30.082 30.173 30.363 30.461 30.347 30.333 30.285 30.251 30.294 30.297 30.319 30.258 30.562 35.234 37.221 37.639 33.029 34.365 36.667 38.146 38.777 39.216 37.927 34.623 34.603 34.633 34.682 34.868 34.933 34.875 34.646 34.573 34.512 34.388 34.603 34.601 34.555 36.091 38.429 38.266 38.774 38.97 38.832 35.791 32.194 31.765 31.902 31.996 32.055 32.012 31.942 31.884 32.07 32.175 32.33 32.431 32.56 34.373 36.717 37.215 38.085 38.496 36.329 33.03 33.827 33.027 32.751 32.729 32.779 32.849 32.978 33.017 33.11 33.142 33.152 33.107 33.011 32.73 32.667 32.652 32.622 32.633 32.662 32.615 32.593 32.518 32.49 32.439 32.449 32.403 32.356 32.314 32.252 32.192 32.106 32.053 32.023 31.958 31.985 31.961 31.932 31.859 31.805 31.736 31.727 31.715 31.754 31.643 31.559 31.533 31.498 31.456 31.392 31.326 31.28 31.216 31.156 31.122 31.169 31.288 31.32 31.328 34.249 31.416 31.423 31.458 31.439 31.441 31.404 31.42 31.321 31.289 31.249 31.978 32.776 31.177 31.11 31.108 31.049 31.033 31.018 30.993 30.954 30.883 30.842 30.786 30.782 30.728 30.79 30.81 30.925 30.992 30.992 31.021 31.025 32.539 37.511 38.438 38.693 39.027 39.176 39.446 39.666 39.423 39.208 38.889 38.752 38.516 38.37 38.441 38.783 38.982 39.179 39.413 39.673 39.935 40.1 39.944 39.75 39.52 39.221 39.047 38.809 38.517 38.408 34.495 31.831 30.978 30.969 30.855 30.724 30.535 30.496 30.429 30.394 30.364 30.277 30.214 30.177 30.12 30.044 30.717 30.676 31.246 31.539 31.761 31.492
44.686 44.371 44.553 44.717 49.583 47.484 52.404 53.952 54.621 53.074 52.058 43.544 42.744 42.791 42.32 42.253 42.312 42.286 42.322 42.268 42.189 42.159 42.133 42.051 42.12 42.023 41.964 41.932 41.875 41.804 41.599 41.243 41.004 40.979 41.84 41.734 41.427 47.724 49.421 50.235 49.112 45.562 42.545 40.818 40.117 40.103 39.977 39.923 40.138 40.043 40.009 39.91 39.889 39.822 39.738 39.715 39.714 39.701 39.625 39.643 39.603 39.556 39.528 39.474 39.41 39.388 39.331 39.23 39.164 39.112 39.045 38.947 38.891 39.349 43.257 46.424 47.78 48.799 49.584 49.481 48.61 49.266 49.065 48.046 41.154 44.56 36.666 36.585 36.762 36.855 36.769 36.907 37.001 37.204 40.339 43.902 42.73 50.423 49.333 40.224 37.28 37.064 46.719 44.447 46.162 44.775 38.414 37.024 36.833 36.907 36.784 36.74 36.727 36.649 36.575 36.449 36.361 36.29 36.139 36.046 35.885 35.794 35.711 35.621 35.472 35.457 35.368 35.238 35.27 35.2 35.192 35.077 34.988 35.015 34.914 34.926 34.908 34.843 34.842 34.897 35.048 36.516 40.38 41.32 42.213 42.112 41.058 37.987 35.222 34.674 34.809 34.438 34.806 34.436 34.329 34.306 34.453 34.442 34.443 38.96 42.413 43.491 44.176 43.126 42.149 35.38 34.272 34.39 34.008 34.584 34.022 34.021 34.611 34.292 40.399 43.02 42.891 42.991 41.821 37.712 34.038 34.139 33.666 33.695 36.807 37.292 40.271 41.658 41.18 40.841 40.329 38.787 34.476 33.596 33.439 34.437 33.431 33.283 33.217 33.32 33.688 33.93 33.971 34.084 34.603 35.225 35.516 35.569 35.455 35.46 35.383 35.029 34.524 37.006 41.22 38.041 41.098 35.741 30.995 30.221 29.827 29.806 29.881 30.004 30.026 30.048 30.194 30.211 30.408 30.401 30.258 30.268 30.315 30.261 30.301 30.232 30.206 30.328 32.305 35.004 37.112 36.981 33.57 37.43 37.455 39.124 39.101 38.806 38.325 34.681 34.685 34.699 34.736 34.955 34.986 35.064 34.634 34.557 34.479 34.455 34.628 34.632 34.588 34.53 36.011 37.736 38.53 37.579 36.896 35.158 31.614 31.82 31.914 31.944 31.917 31.799 31.837 32.017 32.203 32.405 32.438 32.563 32.574 32.718 37.426 36.991 37.194 37.463 34.098 33.065 33.842 32.931 32.828 32.826 32.827 32.915 33.094 33.095 33.194 33.199 33.216 33.159 33.403 32.801 32.758 32.726 32.713 32.666 32.684 32.636 32.617 32.548 32.526 32.494 32.423 32.406 32.331 32.344 32.328 32.234 32.102 32.057 32.004 31.984 31.981 31.948 31.942 31.874 31.813 31.753 31.733 31.707 31.775 31.622 31.556 31.532 31.516 31.394 31.408 31.337 31.301 31.241 31.173 31.128 31.217 31.246 31.268 31.32 31.398 31.421 31.403 31.438 31.422 31.455 31.465 31.441 31.365 31.333 31.373 36.215 32.792 31.18 31.17 31.117 31.082 31.017 31.03 31.009 30.988 30.951 30.858 30.833 30.781 30.714 30.718 30.754 30.812 30.934 30.998 31.001 30.995 32.592 34.841 38.268 38.465 38.749 39.022 39.269 39.37 39.138 38.978 38.694 38.443 38.31 38.529 38.759 38.996 39.188 39.48 39.702 39.951 40.117 39.968 39.742 39.511 39.236 39.035 38.729 38.502 38.329 34.432 31.091 31.006 31.021 30.933 30.909 30.765 30.664 30.53 30.453 30.378 30.365 30.294 30.258 30.171 30.145 30.056 30.549 30.339 31.564 31.216 30.243 29.776
44.37 44.455 44.455 44.768 44.719 49.311 53.145 54.164 54.699 53.642 51.17 43.778 43.108 42.716 42.269 42.253 42.26 42.313 42.274 42.243 42.199 42.209 42.12 42.069 41.975 41.915 41.926 41.986 41.793 41.666 41.507 41.349 41.142 41.122 41.475 41.11 41.031 43.007 47.829 48.409 48.396 46.454 40.82 40.321 40.195 40.17 40.001 40.137 40.137 40.198 40.113 40.073 39.957 39.76 39.756 39.706 39.658 39.62 39.632 39.602 39.572 39.5 39.431 39.404 39.317 39.228 39.23 39.189 39.195 39.082 39.033 38.969 38.907 38.843 38.771 40.586 44.799 46.708 48.461 48.938 43.077 47.037 48.498 46.02 46.3 46.424 37.708 36.803 36.988 37 37.025 36.997 37.098 37.344 37.142 42.368 49.495 46.909 41.147 47.539 38.419 42.042 49.446 39.745 45.449 46.722 41.047 40.202 36.931 36.852 36.855 36.815 36.743 36.69 36.581 36.471 36.396 36.288 36.224 36.168 35.986 35.936 35.839 35.734 35.627 35.431 35.422 35.285 35.264 35.197 35.154 35.113 35.02 35.02 34.96 34.987 34.811 34.795 34.887 34.955 35.003 36.008 40.965 42.098 42.16 41.514 40.34 36.018 34.752 34.589 34.522 34.462 34.402 34.431 34.381 34.363 34.422 34.465 38.099 42.251 43.243 44.544 43.39 42.21 34.652 34.454 34.242 34.267 33.996 33.924 33.973 33.912 35.567 34.321 41.81 43.024 43.042 42.196 39.661 33.496 34.056 33.786 33.662 36.029 37.178 37.457 42.1 42.878 43.565 42.794 39.968 35.03 33.405 33.439 33.859 33.852 33.358 33.38 33.308 33.703 33.991 34.147 34.099 34.36 34.866 35.259 35.571 35.529 35.497 35.423 35.382 35.712 37.419 41.698 37.925 42.687 38.707 32.051 30.318 29.956 29.784 29.806 29.887 29.885 30.024 30.029 30.127 30.427 30.445 30.275 30.206 30.255 30.232 30.258 30.308 30.222 30.272 33.684 32.715 32.707 39.652 38.845 37.528 38.321 38.377 38.187 39.225 37.946 35.08 34.658 34.668 34.696 34.881 35.107 34.993 34.774 34.653 34.613 34.494 34.41 34.628 34.627 34.595 34.573 34.344 36.441 36.818 36.591 35.092 32.314 31.696 31.815 31.845 31.899 31.744 31.857 31.974 32.225 32.382 32.53 32.601 32.723 32.809 35.42 37.445 37.721 39.64 36.459 33.401 33.277 33.859 32.898 32.94 32.883 32.925 32.973 33.137 33.205 33.227 33.269 33.23 33.167 33.175 32.859 32.819 32.778 32.702 32.692 32.688 32.65 32.731 33.414 32.55 32.518 32.473 32.428 32.408 32.327 32.325 32.25 32.123 32.049 32.02 32.035 31.969 31.951 31.932 31.862 31.777 31.736 31.719 31.679 31.779 31.627 31.582 31.496 31.473 31.411 31.395 31.339 31.282 31.258 31.196 31.156 31.225 31.209 31.285 31.304 31.38 31.404 31.439 31.451 31.493 31.526 31.454 31.435 31.398 31.36 31.326 31.303 31.284 31.223 31.218 31.14 31.107 31.077 31.045 31.035 30.973 30.917 30.897 30.852 30.816 30.753 30.706 30.743 30.793 30.839 30.942 31.013 30.985 32.604 33.921 37.269 38.371 38.513 38.768 39.008 39.122 38.947 38.687 38.497 38.327 38.559 38.697 39.045 39.276 39.498 39.724 39.94 40.114 39.923 39.691 39.396 39.233 39.022 38.762 38.541 38.549 34.529 31.022 31.045 30.962 30.939 30.915 30.912 30.811 30.721 30.608 30.501 30.428 30.368 30.276 30.252 30.171 30.154 30.113 30.577 30.478 30.865 30.876 29.813 29.794
44.626 44.604 44.567 44.725 48.888 50.887 52.687 54.082 54.329 53.089 47.545 43.036 43.576 42.65 42.285 42.265 42.321 42.319 42.334 42.253 42.22 42.245 42.161 42.127 42.059 41.944 41.882 41.704 41.752 41.626 41.483 41.351 41.267 41.211 41.183 41.174 41.09 40.99 40.918 40.875 40.792 40.622 40.602 40.451 40.262 40.14 40.093 40.068 40.135 40.203 40.145 40.088 40.026 39.839 40.95 40.984 40.232 39.598 39.605 39.645 39.515 39.48 39.397 39.351 39.279 39.239 39.136 39.121 39.09 39.091 39.045 39.02 38.945 38.866 38.776 38.758 42.532 44.388 46.519 47.066 46.855 46.022 46.359 45.885 45.017 42.208 37.729 37.284 37.157 37.237 37.134 37.212 37.221 37.274 37.36 42.02 45.694 48.027 43.303 46.621 42.472 46.159 48.824 46.395 48.42 50.959 45.181 38.1 36.911 36.911 36.858 36.864 36.821 36.768 36.652 36.533 36.469 36.33 36.276 36.143 36.051 35.933 35.911 35.865 35.716 35.622 35.468 35.3 35.231 35.23 35.201 35.12 35.054 35.099 34.964 34.996 34.85 34.854 34.856 34.931 34.971 35.015 35.083 36.525 41.5 40.724 38.552 35.067 34.71 34.809 34.474 34.487 34.468 34.404 34.328 34.416 34.486 34.507 40.131 42.947 43.761 43.977 42.704 41.945 35.313 34.227 34.326 34.038 34.003 34.024 34.047 33.953 34.219 41.438 43.022 43.343 42.762 41.361 34.929 33.938 33.784 33.692 33.833 34.131 34.998 41.254 43.197 43.582 43.349 42.617 40.905 33.818 33.445 33.329 33.386 33.449 33.371 33.296 33.562 33.917 34.159 34.314 34.346 34.48 35.05 35.436 35.574 35.564 35.54 35.431 35.145 38.781 41.919 43.207 43.157 41.156 33.342 32.133 30.101 29.735 29.866 29.818 29.913 29.949 30.038 30.048 30.132 30.349 30.3 30.228 30.244 30.239 30.229 30.205 30.153 30.134 30.382 31.902 32.401 38.469 39.331 38.274 38.383 39.685 39.511 37.987 38.27 37.036 34.714 34.682 34.783 34.787 35.066 35.139 35.057 34.881 34.698 34.584 34.528 34.382 34.62 34.618 34.6 34.507 34.063 33.425 34.51 35.126 32.698 31.501 31.669 31.746 31.714 31.681 31.814 31.988 32.23 32.454 32.535 32.635 32.725 32.846 34.803 37.524 36.912 37.213 39.042 35.997 33.08 33.838 33.512 32.932 32.944 32.989 32.986 33.057 33.062 33.199 33.281 33.327 33.306 33.247 33.247 32.892 32.828 32.802 32.731 32.758 32.711 32.68 32.665 35.491 32.594 32.527 32.509 32.48 34.75 32.439 32.305 32.276 32.185 32.075 32.066 32.017 31.956 31.907 31.913 31.89 31.785 31.752 31.715 31.777 31.703 31.664 31.576 31.513 31.483 31.427 31.413 31.328 31.288 31.235 31.177 31.215 31.172 31.251 31.341 31.362 31.362 31.412 31.436 31.452 31.451 31.532 31.505 31.465 31.446 31.374 31.352 31.337 31.298 31.257 31.241 31.186 31.149 31.2 31.058 31.057 30.972 30.938 30.888 30.872 30.848 30.794 30.77 30.706 30.734 30.782 30.835 30.97 30.974 30.984 33.378 33.961 34.525 38.232 38.526 38.759 38.826 38.686 38.416 38.316 38.591 38.823 38.958 39.349 39.496 39.724 39.991 40.095 39.862 39.693 39.432 39.197 38.912 38.734 38.49 38.391 33.325 31.051 31.003 30.959 30.984 30.924 30.866 30.832 30.867 30.778 30.661 30.584 30.459 30.386 30.366 30.266 30.216 30.149 30.09 30.619 31.093 30.802 29.872 29.817 29.758
44.47 44.485 44.222 44.169 45.579 51.419 52.945 54.262 53.747 48.406 46.671 43.573 42.768 42.454 42.279 42.361 42.299 42.371 42.288 42.313 42.28 42.214 42.171 42.125 42.081 41.947 41.938 41.76 41.744 41.616 41.58 41.448 41.4 41.291 41.183 41.119 41.021 40.925 40.866 40.825 40.734 40.63 40.569 40.422 40.351 40.287 40.184 40.153 40.191 40.228 40.149 40.073 39.977 39.947 41.397 42.025 41.964 39.946 39.626 39.569 39.572 39.488 39.443 39.359 39.339 39.279 39.222 39.13 39.074 39.038 39.023 38.976 38.913 38.861 38.814 38.745 38.67 39.012 40.151 40.791 42.062 40.708 42.13 42.244 41.897 38.392 37.699 37.62 37.534 37.551 37.226 37.351 37.335 37.418 37.424 38.154 40.258 40.872 45.361 48.098 48.94 49.432 49.056 50.202 41.437 46.701 46.58 37.821 36.955 36.907 36.828 36.828 36.799 36.736 36.601 36.604 36.452 36.348 36.317 36.225 36.164 36.013 35.924 35.926 35.844 35.792 35.585 35.436 35.357 35.22 35.24 35.153 35.146 35.1 35.031 34.917 34.847 34.826 34.798 34.928 34.931 34.987 34.932 34.956 36.102 37.867 35.91 34.695 34.7 34.56 34.522 34.521 34.409 34.415 34.349 34.386 34.485 34.579 36.694 41.639 43.836 43.265 41.995 35.138 34.451 34.265 34.077 34.025 34.076 34.044 34.067 34.057 39.387 42.242 43.095 42.917 41.868 35.405 34.051 34.094 33.803 33.753 34.105 34.061 39.599 42.376 43.189 43.448 43.137 42.292 37.395 33.875 33.516 33.422 33.434 33.379 33.41 33.322 33.777 34.139 34.357 34.466 34.382 34.693 35.168 35.514 35.661 35.654 35.636 35.302 34.914 38.906 42.089 42.307 41.83 36.229 36.748 33.523 29.922 29.715 29.789 29.811 29.894 29.979 30.106 30.107 30.263 30.52 30.262 30.213 30.147 30.176 30.194 30.13 30.176 30.174 32.65 34.219 35.878 37.491 38.326 38.518 35.518 39.565 38.356 38.276 36.316 36.152 34.72 34.747 34.83 34.938 35.126 35.139 35.047 34.944 34.722 34.604 34.576 34.468 34.505 34.653 34.609 34.497 33.754 33.007 32.704 32.485 31.561 31.545 31.659 31.583 31.664 32.308 33.922 32.416 32.436 32.62 32.656 32.766 33.924 34.463 36.427 37.393 37.541 36.912 35.157 33.201 33.183 34.005 33.206 33.003 33.04 33.113 33.108 33.128 33.06 33.175 33.34 33.337 33.322 33.282 33.15 32.899 32.872 32.848 32.791 32.781 32.79 32.723 32.699 32.663 32.616 32.543 32.511 32.45 32.41 32.326 32.339 32.258 32.198 32.111 32.097 33.896 34.302 32.005 31.948 31.877 31.808 31.786 31.733 31.728 31.719 31.618 31.555 31.476 31.459 31.41 31.384 31.355 31.318 31.268 31.194 31.243 31.222 31.277 31.261 31.336 31.378 31.427 31.454 31.489 31.485 31.511 31.54 33.61 32.263 31.44 31.389 31.332 31.337 31.297 31.263 31.22 31.185 31.133 31.09 31.029 30.948 30.942 30.911 30.892 30.871 30.83 30.772 30.75 30.75 30.734 30.781 30.859 30.968 30.988 31.002 31.906 33.913 37.759 38.284 38.592 38.627 38.382 38.445 38.679 38.855 39.088 39.283 39.514 39.781 40.053 40.061 39.871 39.644 39.403 39.172 38.928 38.673 38.513 38.41 31.962 31.046 31.042 31.007 30.969 30.92 30.88 30.838 30.865 30.803 30.805 30.702 30.629 30.478 30.392 30.417 30.297 30.245 30.133 30.116 30.594 30.713 30.528 29.856 29.821 29.754
44.114 44.041 43.771 43.728 43.451 43.436 43.267 43.192 43.042 44.489 42.726 42.64 42.529 44.295 42.34 42.38 42.404 42.355 42.355 42.355 42.256 42.343 42.231 42.383 42.136 41.957 41.969 41.821 41.754 41.656 41.542 41.513 41.38 41.342 41.265 41.143 41.061 40.976 40.873 40.826 40.786 40.594 40.543 40.472 40.432 40.288 40.315 40.181 40.129 40.086 39.988 39.922 39.87 39.864 39.721 39.705 39.594 39.521 39.531 39.58 39.505 39.51 39.365 39.288 39.254 39.196 39.073 39.082 38.98 38.944 38.904 38.899 38.9 38.836 38.815 38.757 38.705 38.683 38.612 38.521 38.425 38.369 38.563 38.249 38.115 38.001 38.009 37.904 37.775 37.58 37.407 37.47 37.386 37.464 37.551 37.491 37.404 37.195 39.548 48.291 47.331 48.329 44.784 46.828 49.609 48.364 41.557 37.912 36.929 36.871 36.888 36.787 36.73 36.667 36.578 36.54 36.456 36.418 36.298 36.257 36.155 36.045 35.975 35.914 35.879 35.829 35.773 35.588 35.476 35.367 35.165 35.162 35.147 35.105 35.096 35.023 34.888 34.851 34.778 34.858 34.896 34.891 34.908 34.945 34.889 34.838 34.951 34.979 34.68 34.488 34.497 34.484 34.46 34.449 34.337 34.412 34.476 34.555 34.438 34.566 37.278 42.511 38.262 34.534 34.424 34.166 34.107 34.115 34.144 34.094 34.081 37.86 41.651 43.269 43.284 42.73 37.691 35.219 33.987 33.821 33.759 36.355 36.948 35.893 41.178 42.807 43.623 43.115 42.739 39.756 33.997 33.728 34.618 33.99 33.518 33.416 33.445 33.741 34.019 34.31 34.562 34.629 34.631 34.897 35.328 35.588 35.592 35.62 35.638 35.966 35.876 34.817 41.71 41.664 34.795 37.146 34.389 30.126 29.667 29.737 29.808 29.874 29.925 29.967 30.06 30.125 30.264 30.197 30.2 30.23 30.172 30.14 30.092 30.089 30.074 30.082 30.605 35.756 35.736 37.322 38.727 38.678 37.562 36.287 38.403 38.256 36.071 34.859 34.745 34.855 34.88 35.086 35.113 35.122 35.075 34.966 34.786 34.724 34.543 34.472 34.406 34.599 34.59 34.151 33.471 32.706 32.021 31.68 31.447 31.594 31.587 32.285 32.985 33.982 36.232 34.017 33.055 32.824 32.931 36.313 36.698 36.736 36.661 36.975 37.377 36.665 33.44 33.096 33.717 33.967 33.067 33.053 33.116 33.122 33.17 33.183 33.161 33.141 33.187 33.353 33.366 33.335 33.222 32.966 32.943 32.879 32.866 32.813 32.778 32.768 32.715 32.648 32.631 32.614 32.555 32.516 32.447 32.368 32.374 32.304 32.213 32.137 32.074 32.058 31.983 31.942 31.938 31.863 31.839 31.773 31.736 31.736 31.763 31.602 31.562 31.508 31.487 31.432 31.388 31.342 31.29 31.248 31.215 31.196 31.247 31.315 31.396 31.358 31.423 31.522 31.489 31.514 31.522 31.517 31.58 31.526 32.279 31.489 31.46 31.412 31.353 31.299 31.291 31.225 31.235 31.12 31.111 31.034 30.988 30.98 30.949 30.932 30.909 30.858 30.782 30.794 30.793 30.735 30.766 30.862 30.934 30.972 31.006 30.988 33.284 33.902 35.9 38.416 38.277 38.392 38.6 38.833 39.099 39.274 39.574 39.815 40.034 40.104 39.86 39.589 39.419 39.158 38.946 38.647 38.498 38.359 33.2 31.044 30.991 30.982 30.964 30.956 30.931 30.872 30.87 30.805 30.748 30.702 30.695 30.661 30.578 30.454 30.371 30.303 30.239 30.172 30.15 30.712 30.895 30.193 29.866 29.773 29.76
44.209 44.056 43.903 43.646 43.516 43.508 43.406 43.811 43.633 43.992 43.654 42.656 42.439 42.484 42.328 42.335 42.428 42.367 42.31 42.266 42.22 42.385 42.276 42.348 42.394 42.18 42.243 42.025 41.794 41.716 41.613 41.554 41.5 41.339 41.285 41.206 41.155 41.011 40.969 40.865 40.793 40.761 40.625 40.539 40.474 40.347 40.314 40.204 40.161 40.128 39.962 39.987 39.887 39.878 39.754 39.685 39.637 39.572 39.561 39.467 39.416 39.434 39.365 39.401 39.253 39.237 39.171 39.115 39.05 38.971 38.92 38.8 38.806 38.714 38.727 38.658 38.608 38.614 38.482 38.41 38.286 38.311 38.272 38.123 38.117 37.959 37.975 37.854 37.824 37.651 37.53 37.536 37.429 37.47 37.462 37.518 37.432 37.346 37.32 39.796 43.312 39.545 40.4 43.392 45.676 46.625 39.344 36.937 36.868 36.849 36.815 36.707 36.737 36.651 36.538 36.491 36.414 36.35 36.324 36.324 36.235 36.119 36.057 35.96 35.945 35.877 35.82 35.726 35.606 35.478 35.325 35.263 35.132 35.127 35.052 34.976 34.981 34.914 34.899 34.767 34.831 34.782 34.743 34.699 34.701 34.799 34.768 34.888 34.518 34.534 34.565 34.479 34.473 34.414 34.396 34.469 34.447 34.523 34.513 34.446 34.479 36.579 36.206 34.466 34.775 34.638 34.406 34.126 34.109 34.093 34.069 36.275 42.183 43.092 42.789 41.723 35.085 34.549 34.127 33.811 33.764 33.862 35.175 41.512 42.442 43.553 43.247 42.464 41.742 35.623 33.795 33.518 35.096 33.519 33.538 33.413 33.745 33.965 34.304 34.582 34.808 34.851 34.769 35.043 35.48 35.556 35.615 35.665 37.604 37.748 42.124 37.208 42.829 40.256 32.819 34.22 30.388 29.903 29.69 29.731 29.818 29.881 29.917 29.958 30.097 30.198 30.436 30.24 30.156 30.114 30.151 30.102 30.141 30.107 29.994 32.21 34.084 35.554 37.913 37.898 38.331 38.756 38.377 38.724 39.153 38.198 35.139 34.829 34.866 34.9 34.932 35.157 35.193 35.126 35.093 35.029 34.78 34.688 34.605 34.521 34.41 34.427 34.698 34.773 33.425 32.395 31.693 31.441 31.386 31.493 31.808 33.265 34.121 35.101 35.499 35.323 35.291 34.459 36.136 38.242 38.047 37.319 37.882 37.649 36.672 34.504 33.228 33.189 33.996 33.433 33.098 33.126 33.151 33.219 33.288 33.264 33.313 33.211 33.184 33.335 33.376 33.375 33.603 33.05 32.938 32.922 32.896 32.84 32.808 32.778 32.747 32.721 32.641 32.588 32.542 32.494 32.417 32.397 32.366 32.318 32.25 32.178 32.133 32.085 32.034 31.95 31.893 31.838 31.79 31.751 31.706 31.772 31.754 31.591 31.544 31.507 31.456 31.426 31.375 31.327 31.267 31.203 31.197 31.19 31.249 31.276 31.344 31.338 31.329 31.471 31.413 31.455 31.456 31.506 31.512 31.526 31.536 31.503 31.465 31.47 31.38 31.379 31.333 31.268 31.185 31.117 31.105 31.034 30.991 30.963 30.954 30.924 30.863 30.873 30.876 30.801 30.773 30.724 30.777 30.825 30.871 30.945 30.981 31.014 31.563 33.433 33.983 38.494 38.417 38.542 38.815 39.063 39.274 39.552 39.827 40.021 39.989 39.891 39.592 39.388 39.076 38.854 38.587 38.36 34.541 31.771 31.025 31.019 30.98 30.963 30.917 30.926 30.894 30.831 30.852 30.795 30.765 30.673 30.623 30.644 30.618 30.562 30.439 30.36 30.286 30.214 30.179 31.101 30.741 31.115 29.914 29.823 29.758
44.18 43.962 43.824 43.735 43.647 43.399 43.489 43.923 44.785 45.316 44.649 43.135 42.467 42.437 42.309 42.438 42.409 42.387 42.373 42.317 42.229 42.159 42.162 43.033 42.1 42.104 42.011 41.961 41.823 41.749 41.643 41.607 41.515 41.411 41.341 41.263 41.202 41.13 40.989 40.923 40.856 40.768 40.689 40.617 40.501 40.418 40.361 40.254 40.236 40.089 40.106 40.043 39.9 39.902 39.818 39.776 39.693 39.636 39.604 39.547 39.453 39.332 39.378 39.272 39.246 39.16 39.069 39.043 38.998 38.969 38.906 38.902 38.837 38.789 38.71 38.638 38.602 38.545 38.581 38.463 38.427 38.337 38.226 38.241 38.134 38.084 38.011 37.862 37.814 37.706 37.708 37.488 37.509 37.483 37.348 37.403 37.324 37.308 37.264 37.246 37.94 37.092 37.075 36.977 36.914 37.748 36.812 36.799 36.707 36.772 36.641 36.597 36.568 36.568 36.507 36.402 36.325 36.363 36.225 36.197 36.188 36.156 36.046 36.06 35.996 35.848 36.262 35.887 35.606 35.521 35.529 35.447 35.319 35.275 34.999 35.067 35.039 34.962 34.938 34.909 34.893 34.794 34.834 34.698 34.71 34.706 34.639 34.613 34.585 34.532 34.533 34.556 34.528 34.439 34.491 34.37 34.439 34.383 34.405 34.415 34.377 34.343 34.256 34.331 34.164 34.721 34.315 34.135 34.144 34.007 34.094 34.185 34.373 41.356 41.874 38.151 34.856 34.233 33.819 33.832 33.806 34.539 34.026 35.518 42.969 43.577 42.951 41.915 39.049 34.025 33.602 33.451 33.508 33.584 33.472 33.53 33.893 34.248 34.496 34.805 35.049 35.038 34.984 35.226 35.573 35.619 35.552 35.765 42.519 40.989 38.488 38.576 43.564 37.344 36.316 31.546 30.158 29.669 29.711 29.712 29.746 29.837 29.939 30.003 30.119 30.218 30.293 30.091 30.112 30.161 30.051 30.114 30.004 29.978 29.996 33.358 35.964 38.447 38.991 36.915 37.33 39.037 38.626 38.611 38.838 37.752 34.911 34.881 34.952 34.964 35.208 35.247 35.118 35.111 35.069 35.021 34.807 34.733 34.634 34.556 34.419 34.36 34.572 34.823 33.856 32.158 31.525 31.383 31.401 31.576 31.793 33.616 34.799 35.46 35.364 35.965 35.302 34.87 35.548 36.87 38.454 37.93 37.524 36.222 34.926 33.455 33.271 33.93 34.048 33.207 33.123 33.183 33.252 33.291 33.307 33.335 33.317 33.314 33.262 33.197 33.279 33.396 33.527 33.197 33.037 32.955 32.935 32.9 32.827 32.778 32.724 32.71 32.645 32.599 32.531 32.502 32.443 32.389 32.361 32.351 32.282 32.195 32.163 32.064 32.033 31.969 31.907 31.862 31.787 31.776 31.711 31.738 31.727 31.588 31.56 31.525 31.465 31.42 31.359 31.333 31.349 31.36 31.304 31.201 31.265 31.295 31.313 31.328 31.279 31.317 31.401 31.479 31.406 31.46 31.456 31.506 31.533 31.498 31.471 31.431 31.403 31.431 31.294 31.266 31.161 31.153 31.077 31.047 31.007 30.964 30.937 30.908 30.882 30.882 30.83 30.83 30.814 30.816 30.739 30.786 30.828 30.944 30.973 30.975 31.014 31.602 33.889 34.743 37.612 38.376 38.617 38.871 39.118 39.349 39.667 39.93 39.816 39.587 39.248 39.068 38.861 38.625 38.427 34.414 31.817 31.022 30.993 30.958 30.979 30.933 30.949 30.934 30.87 30.853 30.809 30.792 30.799 30.718 30.679 30.642 30.615 30.566 30.491 30.397 30.296 30.283 30.182 30.37 31.164 30.695 31.178 29.872 29.803
44.067 43.949 43.76 43.662 43.492 43.405 43.406 43.34 44.21 44.311 44.432 43 42.405 42.345 42.375 42.418 42.468 42.454 42.337 42.4 42.275 42.236 42.159 42.123 42.066 42.046 41.98 41.932 41.847 41.783 41.737 41.646 41.569 41.456 41.442 41.382 41.212 41.111 41.098 40.965 40.901 40.802 40.755 40.672 40.574 40.504 40.445 40.348 40.273 40.199 40.174 40.066 40.016 39.957 39.902 39.819 39.677 39.701 39.58 39.541 39.453 39.444 39.357 39.309 39.267 39.204 39.161 39.055 39.033 38.957 38.834 38.86 38.788 38.773 38.669 38.574 38.55 38.396 38.45 38.406 38.351 38.271 38.239 38.186 38.055 38.063 38.019 37.954 37.801 37.758 37.744 37.719 37.603 37.464 37.413 37.418 37.38 37.322 37.261 37.254 37.185 37.179 37.09 37.048 36.994 36.922 36.821 36.778 36.689 36.759 36.67 36.631 36.528 36.531 36.445 36.361 36.366 36.295 36.279 36.13 36.084 35.985 35.965 35.969 35.867 35.818 35.78 35.765 35.689 35.582 35.544 35.522 35.47 35.384 35.317 35.248 35.138 35.11 35.034 35.083 35.017 34.949 34.885 34.801 34.801 34.721 34.763 34.739 34.656 34.666 34.539 34.58 34.561 34.497 34.526 34.406 34.491 34.349 34.336 34.265 34.287 34.21 34.228 34.105 34.122 34.139 34.14 34.137 34.104 34.022 34.07 34.14 34.173 34.28 36.174 34.985 34.082 33.992 33.852 33.842 33.775 33.827 34.272 33.865 33.918 41.415 42.083 38.866 34.532 33.945 33.501 33.483 33.575 33.475 33.459 33.805 34.136 34.486 34.79 35.059 35.169 35.161 35.07 35.397 35.68 35.655 35.827 43.839 45.197 44.664 42.329 42.69 41.31 38.975 38.214 31.176 29.831 29.707 29.747 29.789 29.813 29.891 29.937 29.994 30.308 30.383 30.131 30.092 30.065 30.012 30.062 29.969 30.003 29.898 30.174 33.798 35.724 38.687 38.934 36.998 37.833 38.86 38.189 39.031 38.749 36.921 34.959 34.957 35.006 35.027 35.415 35.31 35.079 34.933 34.886 34.827 34.771 34.689 34.648 34.554 34.472 34.382 34.337 34.388 34.181 32.706 31.445 31.324 31.614 31.871 32.216 32.977 33.512 33.864 34.933 35.148 35.519 35.384 37.163 37.81 37.664 37.682 36.751 34.879 33.565 33.305 33.509 34.171 33.352 33.196 33.183 33.316 33.313 33.423 33.38 33.404 33.37 33.377 33.303 33.245 33.23 33.282 33.348 33.234 33.324 33.011 32.969 32.911 32.843 32.821 32.746 32.747 32.686 32.61 32.524 32.499 32.451 32.433 32.374 32.293 32.259 32.196 32.162 32.088 32.052 31.997 31.913 31.84 31.834 31.773 31.74 31.775 31.714 31.595 31.536 31.48 31.439 31.419 31.383 31.398 31.377 31.356 31.242 31.171 31.227 31.303 31.313 31.304 31.291 31.273 33.702 32.781 31.376 31.45 31.43 31.485 31.468 31.485 31.485 31.407 31.439 31.426 31.318 31.238 31.206 31.148 31.097 31.017 31.026 30.976 30.955 30.908 30.874 30.854 30.837 30.858 30.812 30.764 30.776 30.735 30.845 30.88 30.942 30.968 31.004 31.013 31.635 33.894 34.174 38.508 38.5 38.693 38.928 39.135 39.426 39.64 39.514 39.317 39.101 38.829 38.593 38.412 34.501 31.072 31.036 30.992 30.973 30.995 30.959 30.945 30.937 30.932 30.867 30.847 30.806 30.794 30.724 30.687 30.638 30.58 30.591 30.552 30.507 30.445 30.321 30.298 30.195 30.139 30.364 31.09 31.038 30.72 30.159
47.788 44.199 43.978 44.028 45.519 43.561 43.356 43.253 42.988 43.098 42.791 43.418 42.456 42.339 42.357 42.458 42.479 42.459 42.343 42.399 42.264 42.954 42.23 42.106 42.188 42.08 42.012 41.985 41.911 41.837 41.798 41.707 41.657 41.559 41.444 41.347 41.272 41.155 41.076 40.981 40.905 40.828 40.746 40.712 40.677 40.569 40.43 40.387 40.293 40.195 40.162 40.069 40.061 40.02 39.908 39.831 39.749 39.772 39.62 39.561 39.574 39.424 39.397 39.372 39.279 39.216 39.163 39.143 39.063 38.999 38.953 38.895 38.831 38.76 38.713 38.634 38.592 38.488 38.524 38.413 38.371 38.291 38.208 38.182 38.107 38.089 38.024 37.939 37.885 37.88 37.741 37.716 37.647 37.532 37.493 37.347 37.324 37.312 37.236 37.229 37.102 37.094 36.983 36.967 36.948 36.824 36.841 36.691 36.684 36.63 36.645 36.546 36.591 36.444 36.342 36.242 36.327 36.276 36.198 36.359 36.038 36.066 35.894 35.914 35.937 36.047 35.893 36.106 35.707 35.712 35.615 35.589 35.577 35.487 35.426 35.421 35.361 35.276 35.207 35.186 35.158 35.12 35.083 35.029 35.017 34.911 34.883 34.929 34.841 34.864 34.706 34.75 34.561 34.674 34.455 34.507 34.459 34.39 34.44 34.321 34.267 34.315 34.271 34.226 34.188 34.223 34.126 34.2 34.101 34.121 34.017 34.006 34.078 34.032 34.083 34.243 33.981 33.898 33.838 33.883 33.779 33.823 33.815 33.833 33.81 33.806 35.304 35.118 35.304 33.804 33.482 33.549 33.619 33.448 33.586 33.887 34.26 34.636 35 35.276 35.393 35.349 35.271 35.535 35.689 37.636 41.531 43.661 44.894 44.86 43.099 40.419 39.978 36.379 36.681 32.865 29.639 29.631 29.715 29.789 29.848 29.9 29.963 30.041 30.151 30.36 30.125 30.006 29.995 30.015 29.974 29.953 29.924 29.966 30.436 33.308 35.227 36.762 36.773 37.804 37.505 37.979 38.499 38.198 37.475 35.185 34.988 35.005 35.077 35.072 35.034 34.983 34.909 34.926 34.857 34.762 34.739 34.675 34.623 34.54 34.477 34.427 34.319 34.324 34.285 34.182 32.219 32.841 33.077 32.84 33.164 33.562 33.646 33.558 33.562 34.506 35.114 36.937 37.166 37.691 36.676 35.96 36.298 33.412 33.297 33.435 33.95 33.824 33.255 33.276 33.266 33.427 33.436 33.454 33.474 33.499 33.423 33.442 33.373 33.331 33.25 33.15 33.419 33.662 33.733 33.226 33.028 32.927 32.869 32.806 32.778 32.742 32.628 32.594 32.544 32.511 32.453 32.391 32.359 32.317 32.263 32.22 32.149 32.094 32.068 31.962 31.897 31.832 31.802 31.742 31.716 31.712 31.712 31.669 31.587 31.473 31.472 31.425 31.463 31.389 31.319 31.26 31.198 31.176 31.194 31.251 31.276 31.307 31.282 31.301 32.094 32.524 31.413 31.476 31.44 31.394 31.425 31.457 31.435 31.38 31.386 31.33 31.36 31.269 31.188 31.135 31.064 31.038 30.984 30.973 30.942 30.915 30.898 30.882 30.848 30.803 30.849 30.849 30.766 30.744 30.791 30.852 30.92 30.943 30.971 30.963 30.995 31.008 31.574 31.646 38.02 38.39 38.621 38.912 39.153 39.39 39.319 39.04 38.878 38.59 38.289 34.647 31.011 31.032 31.057 31.022 30.986 30.992 30.956 30.953 30.932 30.927 30.884 30.858 30.84 30.781 30.741 30.686 30.639 30.599 30.532 30.541 30.503 30.463 30.377 30.247 30.238 30.175 30.084 30.285 31.037 30.798 30.992
49.72 51.068 52.178 53.165 50.795 50.829 48.829 47.221 46.588 46.758 42.759 42.518 42.48 42.352 42.427 42.46 42.47 42.474 42.393 42.506 42.887 42.216 42.272 42.159 42.182 42.128 42.102 42.003 42.169 42.191 41.803 41.723 41.673 41.481 41.474 41.337 41.291 41.225 41.181 41.016 40.982 40.855 40.825 40.734 40.675 40.601 40.435 40.448 40.373 40.249 40.243 40.126 40.06 40.004 39.973 39.923 39.881 39.788 39.646 39.616 39.598 39.505 39.478 39.368 39.324 39.262 39.268 39.127 39.091 39.063 38.934 38.897 38.867 38.858 38.699 38.701 38.698 38.527 38.521 38.476 38.428 38.331 38.277 38.249 38.121 38.145 38.028 38.024 37.948 37.857 37.837 37.749 37.695 37.657 37.544 37.456 37.431 37.3 37.344 37.27 37.18 37.17 37.042 37.019 36.99 36.92 36.826 36.734 36.667 36.652 36.609 36.471 36.418 36.397 36.311 36.223 36.204 36.131 36.082 36.015 35.976 35.901 35.857 35.829 35.771 35.727 35.651 35.655 35.595 35.572 35.541 35.554 35.508 35.514 35.39 35.534 35.26 35.277 35.253 35.264 35.616 35.222 35.173 35.088 35.116 35.038 35.076 35.043 35.014 34.989 35.072 35.233 35.101 35.256 35.577 35.01 34.78 35.427 35.409 34.735 34.452 34.386 34.355 34.283 34.308 34.225 34.208 34.141 34.159 34.15 34.083 34.117 34.001 34.04 34.047 34.024 33.988 33.925 33.937 33.857 33.78 33.673 33.75 33.788 33.792 33.754 33.76 33.997 33.764 33.625 33.593 33.583 33.528 33.507 33.67 33.944 34.273 34.749 35.248 35.505 35.599 35.516 35.367 35.881 41.187 41.74 43.557 43.951 41.181 44.383 38.604 34.092 32.461 35.461 30.368 29.812 29.624 29.682 29.689 29.798 29.855 29.909 29.968 30.173 30.288 30.095 30.047 30.026 29.984 29.96 29.984 29.936 29.881 30.157 33.332 34.893 35.802 37.234 37.561 38.06 36.329 38.043 36.796 36.123 35.473 35.142 35.05 35.089 35.104 35.106 35.041 34.988 34.914 34.891 34.776 34.752 34.615 34.605 34.556 34.528 34.491 34.4 34.371 34.389 34.206 34.223 34.21 34.132 33.982 34.497 34.912 34.139 33.794 33.769 33.662 33.628 33.768 34.47 34.917 34.646 34.103 33.72 33.446 33.427 33.492 34.154 34.028 33.332 33.363 33.337 33.418 33.463 33.532 33.556 33.533 33.55 33.515 33.495 33.457 33.369 33.314 33.174 33.177 33.249 33.997 33.366 32.955 32.907 32.864 32.841 32.755 32.696 32.668 32.592 32.55 32.515 32.468 32.409 32.386 32.33 32.266 32.218 32.117 32.117 32.041 32 31.91 31.833 31.806 31.772 31.745 31.729 31.775 31.7 31.641 31.525 31.497 31.455 31.389 31.364 31.304 31.261 31.211 31.169 31.229 31.281 31.275 31.309 31.312 31.31 31.354 31.392 31.41 31.357 31.402 31.426 31.39 31.382 31.382 31.341 31.314 31.316 31.29 31.328 31.186 31.139 31.101 31.001 30.973 30.927 30.948 30.886 30.908 30.898 30.808 30.846 30.846 30.779 30.785 30.724 30.744 30.852 30.905 30.947 30.972 30.992 31.021 31.011 31.04 31.037 31.209 38.537 38.428 38.719 38.912 39.178 39.061 38.754 38.578 38.534 38.376 31.898 31.042 31.006 30.984 30.982 31.035 30.989 30.967 30.996 30.914 30.894 30.91 30.862 30.827 30.787 30.75 30.71 30.651 30.637 30.536 30.502 30.482 30.448 30.401 30.272 30.228 30.175 30.162 30.091 30.205 30.726 31.229
49.878 51.022 52.139 53.192 52.345 51.244 50.038 49.093 47.878 48.171 42.841 42.54 42.569 42.438 42.476 42.544 42.465 42.449 42.389 42.349 42.229 42.199 42.203 42.137 42.13 42.057 42.053 42.031 41.946 42.048 41.821 41.759 41.667 41.621 41.469 41.424 41.325 41.244 41.153 41.043 40.96 40.891 40.803 40.766 40.657 40.611 40.515 40.456 40.433 40.358 40.259 40.217 40.097 40.018 40.001 39.953 39.875 39.776 39.731 39.707 39.61 39.565 39.49 39.448 39.319 39.304 39.244 39.168 39.1 39.02 38.997 38.893 38.886 38.844 38.794 38.737 38.707 38.639 38.558 38.52 38.453 38.363 38.328 38.256 38.194 38.19 38.099 38.07 37.964 37.886 37.849 37.798 37.733 37.681 37.614 37.504 37.435 37.386 37.362 37.225 37.192 37.203 37.094 37.022 37.026 36.96 36.85 36.852 36.782 36.657 36.604 36.498 36.5 36.391 36.32 36.266 36.167 36.105 36.04 35.994 35.912 35.846 35.842 35.764 35.757 35.689 35.63 35.614 35.539 35.537 35.431 35.415 35.366 35.402 35.351 35.275 35.271 35.212 35.132 35.227 35.128 35.157 35.076 35.129 35.03 35.007 35.019 34.959 34.99 34.976 35.001 34.931 35.016 35.016 35.004 35.103 35.006 35.054 35.078 35.077 35.272 35.314 35.21 35.025 35.174 34.717 35.582 34.619 34.835 35.066 34.242 34.183 34.077 34.062 34.029 34.061 33.954 33.959 33.906 33.882 33.867 33.808 33.799 33.709 33.692 33.576 33.673 33.622 33.611 33.621 33.571 33.587 33.512 33.778 34.056 34.22 34.413 34.712 35.111 35.607 35.808 35.73 37.602 39.61 43.523 40.378 44.114 39.347 43.541 43.686 42.428 37.533 42.327 33.745 29.978 29.584 29.595 29.675 29.738 29.793 29.875 29.894 29.955 30.084 30.27 30.023 29.975 30.016 29.912 29.961 29.9 29.858 29.889 30.512 34.991 35.004 34.892 37.603 37.71 38.096 38.668 39.687 37.524 35.692 35.095 35.113 35.108 35.122 35.157 35.101 35.017 34.917 34.831 34.799 34.668 34.62 34.596 34.516 34.485 34.441 34.348 34.383 34.363 34.266 34.269 34.203 34.172 34.13 34.11 34.258 34.998 35.202 34.595 34.029 33.853 33.705 33.606 33.551 33.519 33.511 33.48 33.517 33.543 34.065 34.365 33.683 33.325 33.403 33.375 33.456 33.499 33.544 33.624 33.605 33.625 33.577 33.597 33.534 33.467 33.407 33.314 33.275 33.178 33.118 33.186 33.942 33.258 33.865 33.525 33.716 33.272 33.647 33.538 33.532 33.321 33.391 32.498 32.434 32.364 32.336 32.262 32.189 32.156 32.112 32.023 32 31.942 31.874 31.796 31.752 31.811 31.787 31.776 31.672 31.568 31.469 31.448 31.434 31.356 31.367 31.312 31.314 31.211 31.208 31.226 31.297 31.355 31.33 31.335 31.303 31.317 31.422 31.363 31.345 31.37 31.391 31.37 31.347 31.296 31.262 31.308 31.258 31.216 31.217 31.209 31.126 31.062 31.022 30.963 30.971 30.921 30.886 30.904 30.841 30.881 30.822 30.801 30.788 30.725 30.723 30.797 30.874 30.942 30.939 30.959 31.003 31.017 31.099 31.071 31.04 34.981 38.408 38.388 38.465 38.753 38.922 38.792 38.548 38.331 34.517 31.002 30.978 30.997 31.011 31.007 30.997 31.034 30.97 30.979 30.973 30.937 30.918 30.877 30.881 30.829 30.778 30.718 30.698 30.649 30.614 30.539 30.55 30.493 30.485 30.35 30.284 30.251 30.204 30.147 30.09 30.034 30.692 30.692
50.056 51.235 52.277 53.156 52.182 51.13 49.958 49.043 48.289 46.474 42.766 42.541 42.878 42.424 42.533 42.542 42.522 42.466 42.343 42.37 42.286 42.283 42.213 42.32 42.281 42.304 42.35 42.312 42.127 42.056 41.877 41.83 41.742 41.74 41.679 41.431 41.436 41.272 41.227 41.038 41.076 40.95 40.954 40.971 40.743 40.721 40.587 40.541 40.433 40.386 40.343 40.28 40.159 40.122 40.072 39.983 39.872 39.839 39.697 39.667 39.597 39.596 39.482 39.449 39.438 39.269 39.274 39.196 39.286 39.134 39.089 39.043 38.986 38.925 38.921 38.955 38.779 38.765 38.608 38.592 38.515 38.53 38.372 38.352 38.327 38.3 38.335 38.222 38.145 38.112 37.978 37.908 37.85 37.809 37.821 37.693 37.619 37.531 37.493 37.335 37.387 37.197 37.251 37.191 37.044 37.028 36.935 36.886 36.848 36.721 36.644 36.635 36.522 36.446 36.307 36.279 36.189 36.169 36.018 36.008 35.895 35.874 35.788 35.773 35.67 35.627 35.556 35.535 35.524 35.435 35.372 35.349 35.308 35.308 35.264 35.259 35.251 35.17 35.161 35.111 35.136 35.109 35.037 35.071 34.999 34.982 35.009 34.989 34.958 34.911 34.905 34.863 34.912 34.902 34.929 34.895 34.9 34.923 34.905 35.008 34.962 35.046 35.021 35.09 35.075 35.106 35.174 35.197 35.169 35.346 35.248 35.366 35.372 35.326 35.527 35.105 35.076 35.163 34.248 34.024 33.986 33.931 33.845 33.801 33.736 33.754 33.715 33.673 33.618 33.618 33.611 33.515 33.813 34.153 34.54 34.734 34.9 36.407 37.43 38.476 36.506 35.845 36.326 41.34 44.022 43.236 43.259 44.509 44.332 42.798 43.082 43.645 35.543 31.82 29.701 29.641 29.725 29.652 29.709 29.801 29.867 29.989 30.205 30.354 30.089 29.912 29.941 30.006 29.958 29.934 29.883 29.838 30.158 33.038 35.37 38.122 35.448 37.966 36.938 37.805 38.974 39.775 37.836 35.188 35.122 35.156 35.226 35.208 35.155 35.035 34.957 34.859 34.824 34.76 34.7 34.588 34.522 34.502 34.375 34.377 34.311 34.304 34.236 34.206 34.17 34.243 34.192 34.161 34.131 34.07 34.141 34.416 34.665 35.023 34.785 34.526 34.303 33.909 34.029 34.119 34.134 34.283 34.424 34.307 33.518 33.428 33.492 33.569 33.535 33.568 33.593 33.617 33.675 33.717 33.726 33.726 33.687 33.548 33.487 33.454 33.341 33.273 33.178 33.082 33.12 33.323 33.894 33.518 33.736 33.928 34.052 33.913 33.64 33.612 33.745 33.557 32.482 32.432 32.366 32.329 32.276 32.203 32.151 32.094 32.048 31.999 31.944 31.906 31.854 31.863 31.864 31.828 31.794 31.674 31.582 31.515 31.48 31.447 31.372 31.364 31.347 31.328 31.287 31.237 31.265 31.278 31.344 31.365 31.357 31.352 31.354 31.339 31.328 31.385 31.345 31.32 31.386 31.331 31.27 31.258 31.23 31.222 31.225 31.176 31.152 31.19 31.052 31.017 30.959 30.938 30.897 30.859 30.868 30.85 30.799 30.804 30.774 30.743 30.694 30.772 30.845 30.875 30.927 30.954 30.966 31.002 32.574 32.934 34.011 36.553 38.467 38.698 38.639 38.211 38.445 38.754 38.547 38.378 34.475 30.947 30.966 30.97 31.012 30.994 30.996 31.002 30.971 31 30.981 30.979 30.949 30.946 30.88 30.907 30.837 30.779 30.715 30.628 30.591 30.551 30.587 30.59 30.491 30.436 30.35 30.331 30.249 30.181 30.167 30.09 30.066 29.988 31.104
50.12 51.277 52.213 53.226 52.201 50.999 49.849 48.77 47.385 44.887 42.751 42.537 42.476 42.445 42.516 42.52 42.507 42.408 42.387 42.342 42.289 42.315 42.265 42.607 42.322 42.369 42.01 42.251 42.2 41.999 42.059 41.984 41.892 41.837 41.788 41.703 41.671 41.539 41.421 41.387 41.244 41.181 41.141 41.113 40.978 40.911 40.886 40.833 40.742 40.679 40.625 40.557 40.434 40.224 40.223 40.064 40.064 39.959 39.831 39.796 39.705 39.728 39.63 41.04 40.567 39.62 39.723 39.339 39.293 39.224 39.274 39.228 39.257 40.787 39.415 40.612 38.871 38.488 38.451 38.445 38.809 39.253 39.001 38.158 38.129 38.106 38.709 38.085 37.948 37.863 37.899 37.802 37.747 37.733 37.668 37.63 37.511 37.414 37.469 37.372 37.375 37.326 37.333 37.255 37.169 37.235 37.142 37.096 37.064 37.058 36.926 36.839 36.786 36.675 36.597 36.452 36.531 36.156 36.14 36.057 35.859 35.857 35.762 35.607 35.599 35.551 35.548 35.437 35.435 35.392 35.397 35.321 35.28 35.214 35.198 35.194 35.165 35.127 35.118 35.062 35.093 35.026 35.078 35.578 35.049 35.007 35.084 34.96 34.898 34.917 34.838 34.907 34.904 34.921 34.918 34.864 34.841 34.889 34.893 34.966 34.915 34.939 34.891 34.974 34.939 34.975 35.025 35.004 35.127 35.079 35.164 35.131 35.304 35.285 35.389 35.376 35.425 35.471 35.793 35.591 35.461 35.524 36.161 35.412 35.235 35.871 34.215 34.902 33.755 33.992 34.11 34.203 34.392 34.883 35.335 35.615 36.605 37.73 41.267 41.213 37.315 36.065 40.672 42.733 44.775 38.984 43.89 45.09 44.855 43.607 40.57 42.727 34.008 30.027 29.665 29.655 29.678 29.773 29.738 29.821 29.885 29.922 30.147 30.108 29.985 29.881 29.938 29.915 29.882 29.776 29.821 29.786 30.461 33.641 35.11 37.606 37.979 37.664 37.014 38.655 40.261 39.181 36.355 35.222 35.21 35.329 35.23 35.19 35.098 34.946 34.922 34.836 34.749 34.641 34.656 34.541 34.486 34.481 34.389 34.25 34.202 34.177 34.181 34.144 34.193 34.09 34.137 34.117 34.14 34.108 34.018 33.989 34.042 34.013 34.645 34.726 34.821 34.652 34.594 34.594 34.451 33.929 33.729 33.556 33.548 33.584 33.676 33.606 33.646 33.67 33.702 33.725 33.772 33.829 33.896 33.852 33.793 33.754 33.637 33.528 33.363 33.251 33.206 33.086 33.018 33.024 33.233 33.141 33.25 33.505 33.624 33.637 33.363 33.412 33.711 33.637 32.491 32.441 32.378 32.315 32.256 32.23 32.177 32.107 32.094 32.003 31.967 31.894 31.86 31.857 31.898 31.85 31.726 31.759 31.609 31.528 31.483 31.439 31.405 31.375 31.375 31.356 31.307 31.292 31.273 33.846 32.275 31.423 31.382 31.36 31.369 31.407 31.384 31.34 31.25 31.309 31.651 31.24 31.186 31.137 31.131 31.153 31.157 31.122 31.086 31.063 31.058 30.959 30.958 30.914 30.904 30.873 30.841 30.87 30.767 30.712 30.69 30.707 30.777 30.811 30.827 30.921 30.973 30.967 31.035 33.137 34.149 34.037 37.862 38.414 38.693 38.935 38.859 38.596 38.247 38.456 38.545 33.169 30.934 30.89 30.895 30.927 30.931 30.958 30.98 30.982 30.994 30.977 31.012 30.965 30.97 30.952 30.883 30.88 30.806 30.739 30.7 30.673 30.645 30.588 30.53 30.538 30.477 30.392 30.338 30.325 30.299 30.236 30.176 30.122 30.102 31.118 31.333
50.116 51.363 52.405 53.061 52.302 51.078 49.956 48.329 48.026 44.784 42.618 42.603 42.63 42.443 42.6 42.532 42.526 42.415 42.368 42.306 42.343 42.345 42.31 42.441 45.73 42.247 41.896 41.596 41.605 41.547 43.717 44.018 44.307 43.665 44.113 43.49 43.031 42.056 43.216 41.554 41.541 41.231 41.168 41.157 41.114 40.975 40.859 40.794 40.723 40.659 40.61 40.522 40.442 40.345 40.259 40.19 40.134 40.081 40.024 39.94 39.838 39.802 39.731 39.683 42.816 45.277 43.851 40.49 41.211 41.586 40.954 41.483 41.728 40.377 40.652 41.275 38.608 38.413 38.211 38.215 38.188 38.155 38.363 38.001 37.956 37.848 37.909 37.83 37.814 37.824 37.749 37.669 37.566 37.526 37.523 37.51 37.444 37.369 37.272 37.215 37.217 37.198 37.134 37.078 37.088 36.972 36.945 36.94 36.827 36.858 36.839 36.666 36.718 36.679 36.612 36.495 36.385 36.395 36.349 36.272 36.075 35.898 35.734 35.648 35.579 35.512 35.459 35.341 35.394 35.306 35.362 35.278 35.238 35.23 35.167 35.207 35.146 35.088 35.077 34.98 34.981 35.04 34.992 34.981 34.949 34.901 34.948 34.939 34.781 34.92 34.874 34.882 34.865 34.857 34.839 34.863 34.856 34.875 34.84 34.865 34.873 34.895 34.855 34.944 34.929 34.948 34.939 34.976 35.01 35.026 35.039 35.126 35.148 35.174 35.24 35.247 35.323 35.301 35.425 35.422 35.464 35.505 35.551 35.66 35.686 35.924 35.761 36.044 35.832 35.516 36.228 36.134 36.013 36.432 36.105 36.23 36.303 37.83 41.672 41.453 40.352 36.183 42.32 43.532 44.394 42.559 43.855 44.494 43.36 41.923 39.969 39.227 30.643 29.699 29.619 29.621 29.641 29.709 29.744 29.811 29.856 29.958 30.177 29.969 29.914 29.986 29.863 29.833 29.826 29.839 29.738 30.007 30.655 31.917 32.455 36.906 38.346 37.595 36.863 39.968 40.215 36.528 35.347 35.319 35.299 35.3 35.212 35.132 35.092 34.937 34.881 34.81 34.672 34.722 34.703 34.76 34.631 34.495 34.443 34.345 34.186 34.105 34.072 34.027 34.041 34.017 34.037 34.017 34.073 34.036 34.007 34.057 33.996 33.949 33.915 33.855 33.957 33.84 33.838 33.736 33.669 33.645 33.626 33.709 33.722 33.732 33.748 33.735 33.723 33.882 33.747 33.783 33.802 33.892 33.983 34.143 34.468 33.811 33.737 33.523 33.402 33.176 33.168 33.104 33.019 32.905 32.944 32.973 33.086 33.13 33.409 34.337 33.441 33.404 33.615 33.585 32.518 32.424 32.392 32.348 32.267 32.244 32.215 32.21 32.145 32.101 32.018 31.914 31.882 31.836 31.842 31.765 31.686 31.646 31.653 31.556 31.448 31.439 31.39 31.313 31.403 31.337 31.376 31.322 31.33 34.408 32.084 31.498 31.391 31.365 31.351 31.391 31.356 31.364 31.354 31.316 31.206 31.278 31.129 31.142 31.125 31.078 31.115 31.097 31.072 31.031 31.038 31.024 30.925 30.883 30.85 30.86 30.801 30.753 30.746 30.677 30.676 30.747 30.782 30.824 30.903 30.893 30.948 30.957 32.579 33.633 32.657 38.113 38.55 38.749 38.915 39.154 39.077 38.802 38.574 38.446 32.005 31.003 30.947 30.931 30.876 30.907 30.94 30.947 30.933 30.954 30.97 30.984 31 30.997 30.98 30.933 30.921 30.855 30.811 30.754 30.679 30.654 30.622 30.565 30.534 30.508 30.467 30.42 30.384 30.32 30.583 30.402 30.633 30.171 30.061 30.016 29.94
50.388 51.403 52.54 53.224 52.236 50.838 49.71 48.423 47.081 43.195 42.66 42.569 42.458 42.5 42.579 42.572 42.572 42.457 42.398 42.494 42.387 42.291 42.214 45.646 48.312 42.689 41.813 41.567 41.548 41.53 44.421 44.766 44.834 44.802 44.703 44.678 44.645 44.623 44.725 44.985 45.021 44.998 43.83 43.78 41.533 41.048 41.062 40.991 40.876 41.204 40.945 40.634 40.55 40.514 42.497 41.049 40.248 40.072 40.003 39.941 39.864 39.916 39.905 40.599 45.644 42.646 45.279 46.319 42.089 40 39.702 39.272 39.972 39.081 41.903 42.96 39.212 38.639 38.77 38.196 38.085 38.045 38.012 38.089 38.668 37.975 38.531 37.755 37.729 37.655 37.634 37.528 37.482 37.458 39.915 38.472 38.539 38.529 37.935 37.15 37.023 37.054 37.022 36.894 36.919 36.773 36.809 36.771 36.644 36.694 36.647 36.534 36.516 36.407 36.388 36.3 36.288 36.173 36.138 35.991 35.87 35.79 35.761 35.661 35.616 35.842 35.535 35.485 35.343 35.255 35.265 35.198 35.17 35.153 35.151 35.06 35.1 35.051 35.054 35.043 34.987 34.976 34.915 34.922 34.87 34.847 34.894 34.82 34.811 34.773 34.824 34.836 34.877 34.793 34.872 34.806 34.76 34.803 34.875 34.856 34.892 34.919 34.92 34.856 34.881 34.951 34.884 35.014 35.039 35.01 35.024 35.065 35.136 35.185 35.197 35.175 35.294 35.247 35.339 35.374 35.432 35.415 35.522 35.462 35.562 35.586 35.658 35.782 35.749 35.846 35.841 35.955 35.949 36.064 36.011 36.17 36.14 36.292 36.657 37.302 36.616 36.117 41.423 43.011 42.666 40.051 40.157 40.682 40.995 39.943 37.944 30.523 29.94 29.688 29.606 29.679 29.659 29.754 29.75 29.827 29.885 30.081 30.103 29.92 29.892 29.871 29.88 29.794 29.737 29.783 29.893 30.327 32.429 31.933 35.671 36.808 38.332 38.004 37.176 37.609 34.262 35.471 35.342 35.362 35.427 35.291 35.204 35.128 35 34.892 34.899 34.887 35.284 34.993 34.996 34.962 36.608 35.936 36.587 34.409 34.1 34.39 34.15 33.979 33.9 33.883 33.898 33.926 33.94 33.945 33.98 33.987 33.979 33.982 33.952 33.879 33.852 33.861 33.8 33.831 33.794 33.769 33.774 33.819 33.809 33.737 33.812 33.807 33.805 33.804 33.823 33.864 33.929 33.96 35.049 33.972 33.79 33.629 33.572 33.517 33.52 33.399 33.135 33.068 33.015 32.928 32.862 32.801 32.899 32.943 33.051 33.387 33.49 33.339 33.588 33.28 32.52 32.452 32.382 32.303 32.304 32.253 32.216 32.156 32.134 32.107 31.991 31.926 31.892 31.869 31.805 31.773 31.696 31.639 31.534 31.602 31.482 31.451 31.376 31.334 31.349 31.356 31.374 31.365 31.377 31.436 31.532 31.486 31.428 31.412 31.407 31.38 31.354 31.298 31.286 31.208 32.128 31.49 31.089 31.096 31.026 31.02 31.05 31.017 31.015 30.998 30.956 30.967 30.899 30.872 30.879 30.813 30.809 30.689 30.692 30.69 30.758 30.778 30.812 30.862 30.933 30.922 30.951 32.622 33.958 36.521 38.545 38.517 38.691 38.896 39.225 39.393 39.337 39.039 38.712 38.502 34.989 31.133 30.991 30.977 30.926 30.925 30.919 30.922 30.96 30.952 30.978 31.005 30.982 30.971 30.966 30.979 30.94 30.91 30.831 30.784 30.729 30.644 30.596 30.54 30.502 30.494 30.5 30.405 30.448 30.836 31.077 31.083 31.157 31.102 30.325 30.098 29.99
50.368 51.592 52.579 53.099 52.058 50.966 49.807 48.289 47.112 43.472 42.605 42.639 42.504 42.581 42.57 42.608 42.521 42.405 42.403 42.31 42.321 42.187 42.102 42.174 44.679 42.46 41.775 41.649 41.545 41.634 44.248 45.397 45.379 45.362 45.281 45.267 45.15 45.189 45.077 45.363 45.674 45.326 44.783 44.073 41.179 41.098 40.925 40.874 40.904 40.803 40.757 40.651 40.574 40.523 44.003 45.24 41.223 40.21 39.984 39.882 39.962 39.956 39.872 42.882 45.056 40.975 45.17 44.68 43.013 39.757 39.275 39.816 39.204 39.301 48.167 47.236 44.075 41.594 40.041 38.441 38.234 38.014 37.942 37.928 38.136 38.581 38.077 39.249 37.65 37.536 37.513 37.482 37.431 37.371 37.895 37.609 37.64 37.538 37.193 37.088 36.983 36.976 36.849 36.797 36.818 36.712 36.679 36.619 36.609 36.472 36.414 36.388 36.29 36.267 36.15 36.122 36.096 36.055 35.97 35.975 35.918 35.842 35.702 35.719 35.603 35.568 35.652 35.539 35.437 35.372 35.252 35.171 35.191 35.133 35.133 35.027 35.055 35.085 35.014 34.984 34.914 34.944 34.93 34.842 34.876 35.759 34.901 34.886 34.913 34.839 34.866 34.754 34.778 34.81 34.845 34.849 34.777 34.765 34.762 34.796 34.786 34.79 34.853 34.823 34.872 34.896 34.89 34.971 34.977 35.033 35.027 35.083 35.058 35.064 35.159 35.229 35.196 35.256 35.289 35.356 35.428 35.404 35.419 35.538 35.585 35.598 35.653 35.629 35.678 35.803 35.734 35.859 35.835 35.916 35.944 35.979 35.981 36.124 36.086 36.15 36.144 36.171 37.165 39.911 36.985 37.732 37.18 35.008 34.803 32.253 32.566 30.228 29.683 29.64 29.616 29.623 29.671 29.821 29.835 29.914 29.945 30.03 29.967 29.898 29.863 29.794 29.784 29.767 29.744 29.72 29.998 33.659 35.567 37.718 37.966 36.956 38.299 37.971 36.747 33.001 35.338 35.408 35.364 35.361 35.341 35.255 35.208 35.079 35.008 35 35.502 35.158 36.36 37.777 36.869 37.769 37.879 38.891 38.122 35.908 33.486 31.811 31.132 33.913 33.946 33.846 33.795 33.88 33.872 33.931 33.909 33.89 33.936 33.955 34.055 34.011 33.976 34.014 34.006 33.938 33.899 33.862 33.856 33.792 33.852 33.833 33.798 33.794 33.821 33.903 33.894 33.95 34.237 33.97 33.807 33.736 34.269 33.51 33.319 33.351 33.471 33.416 33.293 33.047 32.934 32.845 32.775 32.725 32.763 32.764 32.95 32.974 33.075 33.285 33.592 33.596 32.667 32.441 32.381 32.315 32.269 32.241 32.161 32.111 32.024 31.997 31.947 31.905 31.818 31.799 31.781 31.739 31.662 31.593 31.541 31.56 31.567 31.467 31.397 31.371 31.322 31.312 31.324 31.385 31.444 31.506 31.441 31.469 31.405 31.411 31.378 31.357 31.295 31.269 31.231 31.189 31.104 31.07 31.028 31.067 31.009 30.968 30.94 30.965 30.987 30.954 30.92 30.915 30.945 30.895 30.783 30.761 30.743 30.672 30.685 30.755 30.783 30.825 30.884 30.926 30.941 31.063 33.589 33.926 33.957 38.495 38.584 38.771 38.992 39.204 39.453 39.644 39.519 39.324 38.988 38.745 38.503 36.642 31.422 30.998 30.961 30.942 30.901 30.901 30.904 30.903 30.946 30.973 30.957 30.962 30.987 30.982 30.953 30.863 30.855 30.743 30.632 30.617 30.59 30.543 30.512 30.476 30.431 30.42 30.687 31.054 31.243 30.287 30.811 31.023 30.227 30.058 30.009
50.696 51.661 52.826 52.995 51.876 50.828 49.594 48.188 45.005 43.3 42.629 42.982 42.533 42.589 42.613 42.574 42.444 42.457 42.429 42.327 42.319 42.184 42.155 41.986 41.927 41.837 41.721 41.665 41.547 41.929 45.188 45.62 45.63 45.665 45.726 45.692 45.732 45.696 45.561 45.673 45.685 45.228 44.679 42.66 41.169 41.096 40.791 40.7 40.675 40.577 40.576 40.482 40.478 40.418 43.167 44.603 42.047 40.147 39.919 39.909 39.937 39.935 39.827 39.887 40.139 41.043 40.255 43.487 43.497 41.69 39.803 39.291 39.15 47.031 49.131 48.474 47.939 45.932 45.156 43.241 38.557 38.334 37.946 37.875 37.889 37.884 37.827 37.734 38.387 38.385 37.532 37.428 37.376 37.37 37.319 37.335 37.242 37.134 37.104 37.017 36.989 36.952 36.829 36.815 36.725 36.639 36.653 36.589 36.578 36.517 36.428 36.361 36.272 36.222 36.157 36.103 36.045 35.936 35.849 35.835 35.894 35.81 35.767 35.701 35.708 35.609 35.529 35.477 35.487 35.406 35.254 35.241 35.185 35.117 35.123 35.069 35.062 34.998 34.92 35.064 35.048 35.018 35 34.978 34.833 34.826 34.848 34.796 34.782 34.81 34.861 34.851 34.848 34.772 34.785 34.769 34.717 34.737 34.677 34.801 34.747 34.772 34.793 34.836 34.779 34.882 34.888 34.945 34.918 34.972 34.948 35.03 34.994 35.086 35.083 35.132 35.189 35.236 35.177 35.29 35.246 35.377 35.358 35.436 35.49 35.506 35.601 35.619 35.733 35.76 35.801 35.8 35.881 35.922 35.896 36.013 35.928 36.041 35.998 36.098 36.082 36.207 36.138 36.164 36.2 36.286 36.361 36.318 36.397 36.092 34.725 30.213 34.515 29.716 29.688 29.879 29.752 29.844 29.825 29.875 30.048 29.987 29.906 29.9 29.872 29.769 29.738 29.737 29.671 29.766 31.879 34.49 36.568 35.782 37.534 34.295 34.828 34.51 34.239 35.686 35.467 35.486 35.474 35.393 35.301 35.276 35.133 35.109 35.133 34.931 34.677 36.82 38.573 38.207 37.882 37.924 37.821 38.747 38.321 36.504 34.307 31.553 31.047 31.346 32.231 33.72 33.769 33.758 33.812 33.838 33.822 33.867 33.963 33.907 34.018 34.049 34.078 34.039 34.043 33.964 33.867 33.876 33.927 33.841 33.83 33.821 33.849 33.847 33.899 33.908 33.894 37.195 34.767 33.76 33.653 33.543 33.464 33.256 33.278 33.257 33.271 33.314 33.278 33.067 33.002 32.793 32.787 32.709 32.59 32.673 32.656 32.854 32.811 33.177 33.363 33.505 33.059 32.918 32.55 32.299 32.25 32.22 32.167 32.085 32.016 31.987 31.95 31.876 31.843 31.787 31.815 31.744 31.662 31.594 31.537 31.493 31.468 31.511 31.379 31.35 31.334 31.295 31.306 31.348 31.398 31.414 31.426 31.457 31.421 31.383 31.385 31.381 31.259 31.247 31.203 31.166 31.083 31.055 31.005 30.922 30.942 30.903 30.938 30.945 30.923 30.882 30.925 30.85 30.859 30.834 30.764 30.731 30.714 30.71 30.74 30.799 30.855 30.945 30.924 30.96 32.617 34.012 33.889 36.539 37.657 38.234 38.531 38.797 39.006 39.25 39.532 39.798 39.75 39.557 39.286 38.988 38.768 38.423 34.535 31 30.978 30.955 30.91 30.927 30.932 30.924 30.945 30.95 30.963 31.001 30.963 30.994 30.907 30.872 30.786 30.711 30.677 30.629 30.583 30.544 30.478 30.481 30.457 30.773 30.995 30.667 30.273 30.192 30.254 30.217 30.132 31.41 30.069
50.682 51.79 52.828 52.817 51.979 50.812 49.485 48.14 46.134 44.788 42.741 42.592 42.554 42.608 42.582 42.608 42.545 42.449 42.393 42.275 42.226 42.313 42.133 42.032 41.899 41.929 41.728 41.654 41.552 41.775 44.422 45.156 45.204 45.25 45.338 45.323 45.37 45.386 45.616 45.564 45.698 45.176 44.606 42.137 41.09 40.932 40.829 40.695 40.679 40.54 40.513 40.369 40.396 40.286 40.214 40.775 40.026 40.016 39.885 39.875 39.924 39.88 39.889 39.835 39.729 39.664 40.534 44.605 45.073 42.565 40.008 39.004 43.726 48.534 48.965 49.417 49.067 48.495 47.458 46.342 43.408 38.365 38.012 37.957 37.798 37.734 37.762 37.729 37.639 38.418 37.613 37.458 37.433 37.417 37.295 37.354 37.323 37.239 37.205 37.048 36.972 36.82 36.824 36.759 36.723 36.67 36.552 36.597 36.469 36.42 36.379 36.26 36.257 36.191 36.123 36.086 36.008 35.954 35.86 35.831 35.662 35.671 35.704 35.741 35.737 35.707 35.685 35.507 35.479 35.697 35.388 35.171 35.136 35.153 35.083 35.096 35.058 34.993 35.093 35.08 35.073 34.965 35.509 36.289 36.382 35.532 35.307 35.349 34.899 34.79 34.772 34.807 34.867 34.816 34.846 34.767 34.739 34.682 34.705 34.675 34.7 34.768 34.783 34.676 34.733 34.771 34.791 34.837 34.844 34.937 34.952 34.982 35.008 34.996 35.017 35.036 35.161 35.153 35.212 35.311 35.365 35.501 35.549 35.567 35.524 35.665 35.559 35.654 35.651 35.678 35.799 35.768 35.862 35.916 35.96 35.938 36.018 36.081 36.099 36.148 36.116 36.167 36.185 36.225 36.182 36.202 36.227 36.305 36.3 36.299 36.464 36.398 36.416 35.976 34.48 30.778 34.707 29.967 29.867 30.081 30.205 29.981 29.891 29.827 29.772 29.74 29.743 29.726 29.658 29.941 31.127 32.583 35.159 36.026 34.721 34.252 34.466 34.712 34.567 35.584 35.497 35.515 35.476 35.418 35.279 35.184 35.171 35.202 33.398 33.459 35.112 37.908 38.984 38.112 38.381 37.484 37.693 37.754 37.198 35.749 33.255 31.439 31.155 31.739 32.341 33.009 33.996 33.688 33.647 33.732 33.757 33.773 33.832 33.893 33.878 34.049 34.05 34.051 33.911 33.894 33.838 33.809 33.843 33.82 33.855 33.837 33.786 33.814 33.933 33.951 36.853 35.608 34.737 34.651 33.28 33.122 33.142 33.748 35.518 37.367 33.647 40.564 40.532 40.258 38.676 34.791 32.844 32.634 32.581 32.489 32.518 32.593 32.73 32.801 33.13 33.21 33.277 32.72 32.351 32.303 32.249 32.21 32.155 32.051 32.066 31.995 31.939 31.893 31.86 31.795 31.716 31.743 31.658 31.563 31.514 31.486 31.423 31.41 31.469 31.361 31.299 31.268 31.318 31.349 31.394 31.454 31.45 31.424 31.375 31.41 31.366 31.268 31.24 31.194 31.128 31.123 31.063 31.022 30.996 30.951 30.916 30.879 30.864 30.865 30.842 30.86 30.834 30.827 30.813 30.778 30.762 30.724 30.722 30.767 30.785 30.872 30.947 30.96 30.978 30.962 32.988 33.97 36.512 38.24 38.652 38.523 38.221 38.536 38.838 39.103 39.35 39.651 39.893 39.739 39.444 39.249 38.944 38.702 38.364 34.777 32.532 30.986 30.925 30.928 30.873 30.881 30.923 30.943 30.966 30.969 30.934 30.97 30.904 30.858 30.779 30.716 30.676 30.639 30.59 30.53 30.468 30.435 30.937 31.051 30.694 30.319 30.27 30.242 30.196 30.168 30.104 30.071 30.152
50.499 51.991 52.84 52.902 51.644 50.616 49.498 47.628 44.079 42.673 42.686 42.654 42.663 42.636 42.549 42.589 42.48 42.614 42.567 46.215 49.57 48.011 45.657 46.294 42.18 42.292 41.777 41.621 41.572 41.783 44.523 44.636 44.608 44.746 44.674 44.786 44.824 44.826 44.99 45.458 45.727 45.143 44.503 42.059 41.145 40.929 40.813 40.736 40.688 40.586 40.494 40.424 40.359 40.225 40.22 40.106 39.996 39.975 39.923 39.866 39.848 39.919 39.884 39.862 39.732 41.517 44.35 45.916 45.875 42.928 39.745 38.942 45.689 47.665 47.86 48.893 49.442 49.012 48.321 47.381 43.317 42.38 38.927 38.615 38.254 37.8 37.677 37.659 37.576 37.557 37.538 37.505 37.47 37.463 37.293 37.331 37.335 37.221 37.233 37.16 37.023 36.795 36.761 36.708 36.626 36.634 36.595 36.531 36.543 36.549 36.423 36.403 36.183 36.123 36.11 36.031 35.918 35.842 35.788 35.771 35.644 35.8 35.789 35.615 35.747 35.78 35.766 35.693 35.548 35.426 35.458 35.194 35.139 35.111 35.118 35.119 35.042 40.035 35.265 34.997 35.053 35.388 36.28 35.877 39.743 38.524 35.283 35.311 35.387 35.119 35.154 35.044 34.924 35.296 35.262 34.781 34.769 34.643 34.701 34.643 34.72 34.693 34.63 34.662 34.74 34.721 34.754 34.85 34.752 34.821 34.849 34.877 34.878 34.955 35.024 35.042 35.101 35.116 35.155 35.188 35.3 35.212 35.405 35.448 35.569 35.692 35.727 35.779 35.846 35.904 35.917 36.019 35.868 35.991 35.914 35.929 36.075 36.05 36.111 36.18 36.253 36.135 36.17 36.301 36.246 36.321 36.281 36.355 36.314 36.338 36.325 36.341 36.386 36.374 36.491 36.472 36.405 36.642 34.644 32.353 31.291 30.141 31.201 30.021 29.742 29.702 29.673 29.668 29.667 31.645 31.729 33.799 34.741 34.728 34.703 35.056 35.236 35.572 35.659 35.49 35.629 35.511 35.464 35.42 35.304 35.2 35.677 33.08 32.186 32.425 35.8 37.738 38.775 38.082 37.235 35.961 35.657 35.349 34.776 33.508 31.583 31.14 32.205 32.922 33.11 33.386 33.794 33.907 33.697 33.655 33.679 33.726 33.768 33.783 33.826 33.904 34.004 33.931 33.875 33.853 33.838 33.782 33.794 33.815 33.803 33.774 33.847 33.883 33.918 34.072 38 34.813 37.102 33.508 33.028 32.97 32.856 35.027 37.292 40.256 43.044 41.858 37.936 42.522 42.863 36.071 33.506 32.587 32.527 32.485 32.386 32.444 32.983 32.936 32.839 33.34 33.37 32.42 32.322 32.299 32.247 32.182 32.107 32.087 32.026 32.003 31.975 31.911 31.815 31.785 31.74 31.738 31.651 31.601 31.521 31.47 31.458 31.37 31.434 31.4 31.338 31.364 31.33 31.354 31.393 31.41 31.427 31.389 31.397 31.396 31.334 31.962 31.189 31.123 31.103 31.078 31.017 31.004 30.963 30.885 30.887 30.848 30.808 30.8 30.777 30.775 30.799 30.804 30.756 30.721 30.716 30.726 30.75 30.813 30.893 30.922 30.948 30.979 30.98 31.152 33.977 37.342 38.521 38.578 38.827 38.748 38.556 38.357 38.593 38.817 39.12 39.352 39.641 39.844 39.653 39.368 39.182 38.927 38.653 38.27 32.515 31.164 30.97 30.912 30.895 30.881 30.936 30.926 30.96 30.913 30.934 30.911 30.886 30.841 30.739 30.728 30.663 30.594 30.569 30.51 30.594 31.057 31.058 30.497 30.35 30.309 30.283 30.268 30.203 30.162 30.085 30.056 30.041
50.561 51.807 52.829 52.676 51.571 50.452 49.443 47.86 42.911 42.714 42.708 42.673 42.639 42.702 42.592 42.616 42.564 42.671 42.703 48.8 51.246 52.339 51.408 49.805 42.864 42.433 41.852 41.68 41.557 41.56 44.028 44.08 44.066 44.128 44.151 44.261 44.226 44.439 44.871 45.356 45.651 45.056 44.56 41.74 41.092 40.893 40.796 40.726 40.577 40.615 40.451 40.389 40.311 40.225 40.185 40.088 40.006 39.891 39.851 39.857 39.781 39.743 39.86 39.857 40.341 43.565 45.327 45.811 42.379 40.737 40.368 38.99 41.153 43.818 46.951 49.142 49.043 49.143 49.235 48.625 47.593 46.34 42.994 39.224 37.939 37.909 37.734 37.603 37.61 37.535 37.528 37.582 37.495 37.406 37.498 43.7 41.193 37.642 37.189 37.128 37.104 36.895 36.808 36.699 36.722 36.616 36.517 36.588 36.77 36.752 36.769 36.506 36.213 36.098 36.08 35.947 35.925 35.821 35.728 35.739 35.822 35.882 36.684 39.453 35.635 35.69 35.733 35.686 35.658 35.423 35.362 35.21 35.187 35.094 35.061 35.079 35.099 35.729 35.011 35.061 34.994 36.244 35.899 39.896 40.741 40.076 38.432 35.323 35.481 35.489 35.458 35.382 35.022 34.821 34.779 34.804 34.921 34.686 34.625 34.551 34.559 34.519 34.597 34.705 34.709 34.777 34.709 34.798 34.734 34.827 34.818 34.903 34.866 34.917 34.979 35.002 35.009 35.067 35.005 35.145 35.212 35.255 35.307 35.355 35.404 35.388 35.447 35.517 35.652 35.769 35.886 36.016 36.086 36.02 35.892 35.98 35.961 36.054 36.046 36.117 36.227 36.187 36.312 36.291 36.322 36.32 36.358 36.389 36.36 36.429 36.349 36.343 36.322 36.369 36.33 36.354 36.416 36.397 36.459 36.443 36.411 36.376 35.281 35.272 34.437 29.923 29.808 29.603 30.074 33.172 35.426 35.36 35.362 35.356 35.574 35.821 36.226 35.923 35.598 35.619 35.607 35.571 35.493 35.399 35.263 35.299 33.521 34.229 33.85 36.111 34.027 33.401 36.86 36.852 36.447 32.463 32.033 31.691 31.678 31.651 31.275 31.666 32.988 34.418 34.617 35.014 35.343 34.123 33.923 33.628 33.55 33.603 33.653 33.697 33.717 33.773 33.9 33.852 33.831 33.845 33.797 33.8 33.757 33.786 33.793 33.836 33.868 33.91 34.099 34.915 37.683 36.421 34.441 33.039 32.741 32.729 34.147 36.083 37.395 42.438 37.36 41.211 43.347 43.241 42.803 42.47 36.785 32.556 32.479 32.408 32.345 32.249 32.525 32.792 32.773 33.3 33.104 35.752 34.449 32.33 32.234 32.175 32.125 32.08 31.996 32.002 31.985 31.911 31.859 31.804 31.755 31.727 31.66 31.565 31.5 31.468 31.392 31.352 31.301 31.367 31.369 31.351 31.329 31.368 31.421 31.368 31.359 31.348 31.367 31.275 32.076 31.687 31.112 31.106 31.067 30.995 31.003 30.956 30.944 30.913 30.886 30.818 30.789 30.764 30.818 30.75 30.757 30.74 30.735 30.707 30.737 30.789 30.849 30.898 30.949 31.049 32.92 31.075 31.012 32.106 38.142 38.505 38.591 38.871 39.163 38.997 38.723 38.446 38.443 38.572 38.876 39.055 39.336 39.586 39.805 39.668 39.447 39.132 38.928 38.647 38.338 32.01 31.005 30.913 30.977 30.923 30.939 30.955 30.932 30.905 30.913 30.874 30.822 30.818 30.761 30.734 30.659 30.608 30.552 30.746 31.079 30.796 30.56 30.366 30.354 30.331 30.286 30.171 30.161 30.119 30.082 30.027 29.986
50.746 51.704 52.963 52.669 51.525 50.493 49.266 47.34 43.595 42.707 42.679 42.582 42.733 42.746 42.65 42.623 42.605 42.667 43.45 49.644 51.658 52.401 51.354 48.441 42.365 42.484 41.72 41.597 41.662 41.877 41.489 41.435 41.375 41.404 41.45 41.658 43.316 44.44 44.951 45.467 45.546 45.002 44.513 41.759 41.106 40.904 40.79 40.715 40.751 40.692 40.489 42.193 40.331 40.237 40.19 40.119 40 39.928 39.898 39.845 40.518 39.732 39.816 39.747 39.599 43.637 47.296 45.459 42.192 39.502 39.11 39.89 39.423 39.438 43.099 44.49 47.623 48.172 48.789 48.965 48.626 47.865 47.343 46.145 39.542 38.117 38.114 40.408 37.617 37.528 37.534 37.544 37.467 37.482 41.36 45.936 46.566 39.806 37.259 37.101 36.968 36.85 36.78 36.731 36.712 36.635 36.654 36.711 36.85 36.834 36.73 36.655 36.306 36.17 36.051 36.034 35.961 35.873 35.835 35.878 36.043 35.886 36.255 41.426 39.024 36.666 35.603 35.669 35.609 35.444 35.351 35.212 35.124 35.085 35.097 35.12 35.112 35.104 35.066 35.67 36.27 36.42 40.344 39.499 40.114 40.813 40.523 39.272 38.941 35.456 35.443 35.404 34.959 34.858 34.822 34.801 34.649 34.655 34.507 34.493 34.53 34.548 34.46 34.549 34.688 34.665 34.851 34.852 34.806 34.755 34.795 34.82 34.892 34.896 34.974 34.969 34.981 35.05 35.021 35.125 35.17 35.271 35.151 35.267 35.346 35.358 35.473 35.474 35.58 35.569 35.632 35.693 35.743 35.79 35.853 35.952 35.989 36.069 36.097 36.204 36.287 36.366 36.369 36.478 36.484 36.383 36.361 36.353 36.405 36.48 36.462 36.392 36.386 36.452 36.43 36.386 36.356 36.416 36.4 36.36 36.325 36.267 36.286 36.275 36.293 36.176 30.597 35.217 35.986 35.57 35.748 35.831 36.049 38.889 36.83 36.04 35.862 35.723 35.646 35.602 35.641 35.575 35.467 35.392 35.329 35.976 35.852 37.229 37.987 38.831 34.669 35.342 32.416 32.223 31.987 31.514 31.426 31.282 31.248 31.215 31.237 32.164 33.329 34.098 35.074 35.515 35.036 35.333 34.084 33.717 33.578 33.596 33.582 33.671 33.671 33.761 33.811 33.82 33.792 33.788 33.76 33.778 33.753 33.78 33.803 35.237 35.707 35.714 34.907 35.008 37.816 35.56 33.566 32.703 32.601 34.689 36.849 36.522 40.165 42.768 43.578 42.647 40.596 42.474 42.792 41.518 36.834 32.596 32.435 32.386 32.324 32.269 32.21 32.304 32.537 33.082 33.218 35.046 33.508 32.296 32.218 32.181 32.121 32.101 32.054 31.996 31.922 31.87 31.816 31.765 31.751 31.672 31.62 31.589 31.507 31.478 31.39 31.338 31.339 31.344 31.34 31.369 31.33 31.389 31.364 31.35 31.345 31.297 31.227 31.201 31.169 31.136 31.094 31.057 31.02 31.008 30.946 30.899 30.905 30.883 30.818 30.73 30.748 30.705 30.74 30.762 30.721 30.722 30.703 30.763 30.833 30.894 31.002 31.545 31.195 31.052 31.018 31.057 31.077 36.255 38.48 38.652 38.847 39.089 39.315 39.279 39.031 38.663 38.449 38.369 38.599 38.844 39.18 39.407 39.6 39.88 39.69 39.383 39.086 38.916 38.614 37.099 36.915 31.241 30.968 30.964 30.968 30.96 30.959 30.917 30.889 30.854 30.827 30.797 30.773 30.659 30.664 30.597 30.864 31.017 30.771 30.52 30.416 30.387 30.382 30.307 30.246 30.164 30.16 30.131 30.092 30.016 30.01
50.955 52.145 53.151 52.625 51.456 50.247 49.257 43.895 42.819 42.689 42.711 42.658 42.724 42.694 42.657 42.602 42.662 42.718 42.868 50.268 51.677 52.154 51.256 46.677 45.076 43.732 41.773 41.653 41.943 41.596 41.514 41.473 41.483 41.439 41.413 41.412 43.179 44.518 45.051 45.462 45.528 45.02 44.414 41.251 41.151 41.128 44.262 45.723 47.841 46.462 45.408 44.902 40.441 40.425 40.739 40.093 40.003 39.969 39.921 43.268 42.961 42.481 41.68 40.433 43.787 45.627 48.017 42.233 39.528 38.879 39.833 38.779 40.654 41.208 39.476 42.272 44.29 47.156 47.684 48.154 48.738 48.703 48.411 48.24 47.418 39.426 37.818 37.744 37.615 37.611 37.604 37.528 37.46 41.225 45.026 46.088 46.583 46.11 43.369 38.355 36.969 36.839 36.784 36.79 36.666 36.647 36.745 36.819 36.878 36.773 36.688 36.604 36.246 36.121 36.136 36.006 35.911 35.824 35.865 36.163 36.001 36.154 43.644 45.256 45.067 43.41 36.314 35.477 35.589 35.503 35.307 35.256 35.154 35.122 35.062 35.103 35.175 35.132 35.633 36.28 36.431 38.337 40.464 40.691 39.917 39.723 40.488 40.769 39.73 38.615 35.237 35.303 37.244 34.975 34.859 34.807 34.697 34.557 34.476 34.512 34.501 34.538 34.4 34.334 34.427 34.536 34.562 34.814 34.875 34.917 34.921 34.936 34.932 34.865 34.878 34.899 34.95 35.038 35.004 35.105 35.067 35.183 35.154 35.312 35.327 35.371 35.403 35.453 35.519 35.566 35.656 35.596 35.672 35.785 35.864 35.905 35.972 36.114 36.165 36.352 36.37 36.383 36.431 36.504 36.574 36.6 36.652 36.566 36.618 36.554 36.527 36.416 36.454 36.408 36.431 36.502 36.421 36.391 36.371 36.373 36.359 36.316 36.312 36.26 36.173 36.147 36.121 36.112 36.032 36.201 36.163 36.176 39.231 40.123 36.673 35.76 35.696 35.734 35.694 35.675 35.612 35.539 35.461 35.377 36.51 36.945 36.803 38.382 39.357 39.827 38.789 37.329 32.85 31.579 31.483 31.426 31.435 31.303 31.289 31.228 31.235 31.712 33.406 36.134 36.066 35.933 35.011 35.143 34.281 33.875 33.496 33.555 33.565 33.596 33.634 33.694 33.799 33.805 33.742 33.767 33.736 33.724 33.897 34.021 34.065 34.501 34.725 35.005 35.16 35.518 39.886 38.845 34.259 32.504 32.447 33.638 37.636 38.905 42.269 42.158 42.267 37.353 42.646 42.856 41.458 39.513 36.721 33.264 32.46 32.368 32.278 32.253 32.138 32.159 32.238 32.459 32.897 32.704 32.528 34.379 32.371 32.156 32.098 32.076 32.023 32.006 31.893 31.874 31.783 31.8 31.733 31.679 31.611 31.668 31.504 31.463 31.409 31.391 31.38 31.288 31.266 31.34 31.374 31.385 31.362 31.311 31.305 31.235 31.23 31.137 31.121 31.093 31.047 31.022 30.982 30.963 30.968 30.906 30.898 30.841 30.828 30.769 30.656 30.737 30.75 30.833 30.747 30.708 30.756 30.826 30.917 32.53 33.713 36.383 33.518 34.82 35.183 32.465 34.892 38.453 38.691 38.932 39.164 39.345 39.586 39.462 39.132 38.968 38.744 38.348 38.416 38.614 38.932 39.15 39.389 39.724 39.882 39.623 39.423 39.12 38.833 38.504 36.841 32.059 31.134 31.006 30.967 31.004 30.934 30.944 30.831 30.853 30.827 30.775 30.749 30.653 30.629 30.82 31.106 31.032 30.576 30.48 30.445 30.384 30.352 30.312 30.266 30.19 30.149 30.121 30.093 31.008 29.973
45.644 49.559 52.922 53 52.601 50.839 49.094 43.672 42.761 42.748 42.629 42.73 42.737 42.78 42.686 42.558 42.789 42.882 47.646 50.537 51.836 51.634 50.283 46.336 46.021 42.721 41.696 41.711 42.059 41.561 41.664 41.517 41.502 41.458 41.633 41.445 42.88 44.571 45.118 45.651 45.485 44.94 44.388 41.747 41.171 43.538 46.943 48.502 49.105 46.505 47.407 42.661 43.41 41.792 40.364 40.061 39.995 39.952 39.871 41.034 42.401 43.899 48.978 41.447 45.381 46.614 43.542 41.087 39.512 38.902 38.837 40.131 38.973 39.301 39.633 39.005 38.925 40.283 45.115 47.348 47.934 48.705 48.931 48.209 47.991 47.889 39.585 37.683 37.664 37.644 37.642 37.6 37.706 44.156 45.665 46.808 46.142 45.81 44.238 37.086 36.878 36.879 36.81 36.77 36.815 36.756 36.834 36.905 36.822 36.699 36.615 36.388 36.126 36.235 36.086 35.989 35.955 35.964 36.099 36.127 36.091 39.976 45.515 45.148 45.333 44.871 41.906 36.395 35.47 35.445 35.334 35.182 35.112 35.153 35.192 35.206 35.268 35.155 36.05 36.588 38.875 39.934 39.678 40.359 40.79 40.115 39.629 40.189 40.885 40.166 38.591 38.721 38.055 36.085 34.939 34.78 34.764 34.595 34.476 34.472 34.453 34.458 34.426 34.408 34.319 34.271 34.329 34.563 34.744 34.893 35.038 35.031 35.145 34.978 35.031 35.021 35.044 35.004 34.968 35.032 35.024 35.077 35.159 35.21 35.23 35.32 35.335 35.411 35.423 35.559 35.53 35.627 35.706 35.724 35.807 35.884 35.947 35.992 36.082 36.098 36.245 36.249 36.287 36.419 36.513 36.541 36.582 36.63 36.631 36.663 36.649 36.676 36.694 36.622 36.576 36.485 36.476 36.49 36.372 36.456 36.368 36.315 36.316 36.314 36.256 36.204 36.184 36.107 36.051 35.92 35.88 35.878 35.784 35.801 35.763 35.739 35.804 35.788 35.725 35.687 35.645 35.517 35.459 35.471 36.495 36.374 38.043 39.222 39.339 39.623 40.683 38.098 36.868 31.674 31.549 31.528 31.498 31.452 31.351 31.27 31.502 32.025 32.962 34.419 36.93 36.916 36.061 36.681 36.113 34.475 33.564 33.451 33.508 33.574 33.634 33.644 33.694 33.814 33.766 33.699 33.837 34.054 34.093 34.127 34.161 34.099 34.102 34.072 37.81 39.965 39.493 34.957 33.32 32.451 32.523 33.423 34.104 38.818 42.53 43.134 42.168 41.992 41.032 35.133 39.232 36.384 35.996 35.427 33.881 32.405 32.238 32.207 32.165 32.109 32.114 32.176 32.819 32.909 32.705 36.466 34.96 32.255 32.1 32.043 32.024 31.907 31.86 31.9 31.819 31.762 31.727 31.671 32.062 31.676 31.574 31.428 31.431 31.349 31.366 31.302 31.34 31.382 31.367 31.377 31.396 31.324 31.225 31.242 31.205 31.153 31.093 31.044 31.006 30.967 30.976 30.937 30.88 30.898 30.796 30.815 30.745 30.776 30.739 30.795 30.823 30.778 30.817 30.776 30.845 30.97 33.139 33.934 38.157 38.56 38.545 37.596 38.622 37.806 38.351 38.532 38.811 39.149 39.273 39.573 39.783 39.724 39.436 39.18 38.902 38.724 38.419 38.418 38.639 38.837 39.16 39.481 39.734 39.842 39.62 39.334 39.083 38.813 38.596 38.097 32.051 30.986 30.994 30.991 30.936 30.893 30.884 30.876 30.818 30.795 30.67 30.666 30.622 31.113 30.86 30.596 30.537 30.487 30.427 30.471 30.345 30.305 30.289 30.228 30.136 30.162 30.052 30.011 29.922
46.569 47.854 52.276 53.453 53.797 52.783 51.792 44.128 42.845 42.764 42.672 42.787 42.802 42.74 42.705 42.626 42.813 42.901 48.886 51.299 52.064 51.988 50.174 47.078 46.101 42.106 41.731 41.654 41.687 41.573 41.952 41.506 41.55 41.469 41.42 41.408 43.188 44.597 45.119 45.66 45.487 44.861 44.268 41.196 41.162 45.921 49.439 48.809 46.964 48.723 46.331 42.137 41.837 45.692 41.131 40.583 40.072 39.968 39.952 39.985 40.042 43.828 46.289 41.873 44.813 45.452 40.18 39.112 39.785 39.086 38.842 38.714 38.804 38.614 38.503 38.512 39.174 38.733 39.732 45.469 46.923 48.72 48.354 48.849 48.084 38.972 37.737 37.791 37.701 37.658 37.601 37.751 44.022 46.219 46.5 46.321 45.544 43.816 39.04 37.698 36.895 36.919 36.871 36.863 36.932 37.087 36.931 36.967 36.731 36.631 36.44 36.216 36.072 36.018 36.074 35.989 35.992 36.025 36.18 36.345 36.546 44.496 45.93 46.195 45.405 44.756 39.766 35.712 36.128 35.415 35.271 35.198 35.173 35.205 35.155 35.269 35.155 35.79 36.603 38.445 40.351 40.986 39.837 39.713 40.215 40.888 40.174 39.536 40.118 40.626 40.325 39.42 39.414 39.908 37.889 35.734 35.393 34.66 34.54 34.426 34.412 34.342 34.449 34.375 34.314 34.262 34.179 34.318 34.429 34.688 34.759 34.765 34.927 35.051 35.14 35.141 35.05 35.164 35.152 35.173 35.121 35.162 35.105 35.135 35.15 35.234 35.291 35.3 35.427 35.454 35.459 35.584 35.686 35.769 35.792 35.818 35.936 35.904 36.054 36.025 36.163 36.174 36.262 36.278 36.356 36.4 36.46 36.514 36.56 36.684 36.635 36.644 36.666 36.694 36.693 36.701 36.627 36.596 36.531 36.51 36.468 36.402 36.336 36.359 36.299 36.223 36.139 36.146 36.132 36.037 35.991 35.926 35.906 35.878 35.858 35.814 35.813 35.759 35.698 35.678 35.609 35.536 35.419 35.954 35.616 38.091 39.099 40.766 39.796 40.563 39.441 38.827 37.118 31.665 31.573 31.633 31.555 31.433 31.327 31.295 31.723 32.429 33.23 35.077 35.891 37.58 38.061 38.014 38.696 35.977 33.731 33.414 33.493 33.548 33.614 33.655 33.656 33.747 33.692 33.873 34.02 34.155 34.147 34.188 34.252 34.147 34.082 34.145 37.364 40.267 37.719 35.931 32.492 32.405 32.794 33.137 35.365 38.673 41.745 41.127 42.244 40.901 35.732 32.323 34.388 35.7 35.649 36.138 35.46 33.066 32.286 32.209 32.139 32.06 32.03 32.097 32.135 32.903 32.71 33.853 33.339 32.77 32.138 32.024 32.013 31.937 31.931 31.838 31.771 31.739 31.713 31.659 31.62 31.68 31.657 31.449 31.416 31.376 31.337 31.363 31.43 31.377 31.404 31.388 31.309 31.246 31.181 31.181 31.146 31.069 31.087 30.991 30.957 30.934 30.895 30.888 30.901 30.848 30.798 30.785 30.784 30.793 30.831 30.913 30.928 30.873 30.895 30.887 32.595 33.65 34.028 38.177 38.456 38.689 38.925 39.159 39.045 38.746 38.487 38.4 38.648 38.869 39.074 39.352 39.653 39.874 39.704 39.422 39.154 38.884 38.615 38.373 38.438 38.712 38.962 39.205 39.438 39.773 39.848 39.612 39.297 39.064 38.761 38.577 36.956 32.484 30.995 30.968 30.964 30.936 30.904 30.848 30.794 30.739 30.702 31.091 31.217 30.656 30.623 30.591 30.523 30.5 30.461 30.415 30.347 30.307 30.241 30.221 32.327 33.393 30.119 30.054 29.95
44.544 48.494 52.305 53.587 53.803 52.523 50.943 43.999 42.521 42.806 42.68 42.795 42.78 42.846 42.653 42.743 42.798 43.076 49.349 51.563 52.349 51.19 49.726 45.392 45.433 41.848 41.756 42.014 42.273 42.037 44.137 41.537 41.498 41.441 41.42 41.4 42.85 44.712 45.124 45.708 45.459 44.836 42.734 41.166 41.158 44.011 48.531 47.852 49.116 42.577 41.558 45.064 45.687 42.529 40.599 40.093 40.083 40.097 43.433 44.966 47.203 47.914 43.202 41.97 42.379 39.707 41.209 41.811 38.936 39.471 38.808 38.815 38.756 38.647 38.542 38.416 38.439 38.736 38.707 39.703 42.054 46.074 47.7 47.96 39.063 37.852 37.726 37.874 37.699 37.631 37.637 42.947 47.391 46.487 46.528 46.022 44.884 39.035 37.397 37.42 36.982 36.93 36.872 36.92 37.063 37.172 37.053 36.941 36.764 36.621 36.258 36.06 36.11 36.061 36.075 35.925 36.569 36.252 36.235 37.141 44.683 45.694 45.849 45.437 45.041 38.803 34.984 35.47 36.537 35.401 35.255 35.19 35.238 35.216 35.179 35.246 35.294 35.544 36.058 39.789 39.508 40.475 40.557 40.169 39.642 40.074 40.777 40.524 39.732 40.032 40.564 40.716 39.573 39.674 39.027 36.063 34.873 34.593 34.515 34.592 34.407 34.312 34.341 34.333 34.368 34.314 34.323 34.239 34.278 34.288 34.389 34.454 34.523 34.803 34.783 35.037 36.201 35.515 36.942 35.486 35.283 35.217 35.201 35.285 35.3 35.304 35.288 35.306 35.35 35.439 35.505 35.555 37.284 35.773 35.761 35.87 35.843 35.935 35.949 36.021 36.109 36.195 36.227 36.253 36.296 36.273 36.386 36.433 36.445 36.499 36.487 36.584 36.609 36.618 36.675 36.691 36.712 36.684 36.656 36.611 36.592 36.593 36.482 36.419 36.357 36.287 36.209 36.223 36.136 36.088 36.026 35.975 35.965 35.916 35.906 35.843 35.84 35.815 35.718 35.694 35.625 35.534 35.531 35.606 35.61 38.953 39.891 40.49 39.372 38.927 36.893 38.27 37.061 31.62 31.567 31.583 31.611 31.399 31.316 31.557 32.122 32.739 33.589 37.468 38.301 38.793 38.984 38.862 39.856 37.678 34.531 33.499 33.417 33.491 33.558 33.61 33.633 33.711 33.724 33.943 34.11 34.15 34.16 34.214 34.226 34.178 34.185 38.335 35.004 38.696 34.489 32.555 32.407 33.409 34.26 36.566 37.172 39.508 39.732 41.006 40.758 38.748 33.101 32.023 31.982 32.909 35.104 35.024 35.071 36.695 32.572 32.636 32.097 32.052 31.989 31.946 31.941 32.279 32.448 32.931 33.657 33.153 32.524 32.054 31.982 31.948 31.839 31.835 31.804 31.733 31.687 31.651 31.663 31.83 31.761 31.466 31.467 31.424 31.426 31.392 31.36 31.393 31.364 31.294 31.299 31.19 31.139 31.142 31.099 31.076 31.049 30.985 30.946 30.907 30.904 30.881 30.834 30.777 30.776 30.781 30.834 30.823 30.957 30.973 30.905 30.926 30.906 32.495 33.94 33.893 36.248 38.446 38.673 38.889 39.215 39.439 39.3 39.064 38.718 38.485 38.369 38.613 38.867 39.113 39.373 39.691 39.918 39.641 39.393 39.125 38.817 38.618 38.312 38.383 38.703 38.946 39.259 39.448 39.827 39.871 39.545 39.341 39.052 38.79 38.546 37.731 31.275 30.995 30.966 30.936 30.896 30.837 30.825 30.785 30.949 31.234 30.802 30.636 30.59 30.606 30.547 30.478 30.466 30.397 30.341 30.298 30.283 30.215 30.913 31.37 30.047 30.011 29.951
44.961 50.769 53.862 54.086 53.662 52.676 46.429 43.494 42.94 42.808 42.714 42.874 42.769 42.805 42.747 42.817 42.846 43.146 50.294 51.382 52.076 50.733 47.703 45.721 43.479 41.815 41.74 41.868 41.94 43.574 44.503 42.157 41.496 41.446 41.395 41.677 43.534 44.699 45.218 45.652 45.32 44.84 44.259 41.215 41.112 40.982 42.06 44.305 47.812 47.592 46.536 41.165 40.546 40.322 40.211 40.094 40.049 40.14 47.81 50.741 50.316 51.419 50.653 46.93 46.741 44.419 42.621 43.066 39.606 38.927 38.67 38.649 38.681 38.669 38.562 38.525 39.244 38.529 38.39 38.592 38.417 41.659 46.118 42.26 37.95 37.861 37.86 37.786 37.644 37.715 41.654 46.266 46.373 46.974 46.611 45.205 40.456 37.095 37.243 36.987 37.022 36.969 36.956 40.456 37.182 37.05 36.942 36.856 36.63 36.41 36.155 36.151 36.143 36.084 36.06 36.131 36.54 36.367 36.513 44.392 45.59 45.55 45.539 45.16 44.995 36.424 35.905 36.144 35.462 35.348 35.291 35.251 35.259 35.23 35.44 35.309 36.531 36.601 40.22 40.713 40.066 39.5 39.891 40.71 40.612 40.102 39.889 40.521 40.827 39.716 39.695 40.329 40.904 40.298 39.387 38.889 35.494 34.841 34.64 34.627 34.439 34.517 34.263 34.267 34.315 34.349 34.376 34.249 34.265 34.167 34.243 34.224 34.376 34.44 34.531 34.886 36.239 36.898 36.668 37.562 35.862 35.477 35.788 35.805 35.836 36.071 35.432 35.373 35.355 35.408 35.502 35.557 35.637 35.673 35.715 35.779 36.069 36.121 36.059 36.147 36.073 36.126 36.164 36.199 36.241 36.309 36.347 36.354 36.417 36.416 36.409 36.493 36.488 36.546 36.485 36.533 36.497 36.547 36.665 36.632 36.657 36.624 36.563 36.535 36.514 36.486 36.415 36.334 36.263 36.204 36.089 36.037 36.084 35.922 35.889 35.813 35.823 35.759 35.707 35.653 35.632 35.549 35.832 35.686 35.651 38.277 40.301 40.771 40.054 38.539 36.25 35.896 32.59 31.659 31.59 31.553 31.503 31.413 31.336 31.699 32.599 33.25 34.638 39.16 39.492 40.198 40.137 40.348 39.477 38.333 34.617 33.467 33.431 33.483 33.526 33.615 33.677 33.71 33.842 34.07 34.193 34.177 34.218 34.233 34.226 34.177 34.909 37.604 38.821 36.137 32.85 32.407 34.233 35.818 36.626 38.747 39.369 40.543 38.571 33.499 33.519 32.363 32.009 32.01 31.939 31.893 31.935 33.769 36.586 37.427 37.256 33.188 32.038 31.99 31.951 31.935 31.85 31.937 32.042 32.907 34.495 36.026 33.667 32.518 32.003 31.966 31.886 31.812 31.811 31.738 31.699 31.629 31.849 31.764 31.548 31.483 31.446 31.439 31.409 31.435 31.335 31.359 31.256 31.214 31.202 31.258 31.118 31.068 31.033 31.049 31.008 30.992 30.914 30.891 30.868 30.853 30.802 30.78 30.781 30.812 30.868 30.996 30.999 31.012 30.994 30.982 30.994 33.877 33.932 36.639 38.346 38.67 38.981 39.23 39.48 39.699 39.417 39.238 38.938 38.721 38.478 38.362 38.62 38.889 39.157 39.397 39.647 39.854 39.654 39.335 39.065 38.851 38.62 38.296 38.492 38.788 38.971 39.305 39.473 39.814 39.755 39.558 39.301 39.046 38.721 37.543 34.591 31.152 30.994 30.97 30.903 30.875 30.821 30.761 30.775 30.745 30.686 30.707 30.651 30.549 30.56 30.512 30.427 30.362 30.327 30.307 30.277 30.206 30.143 30.122 30.097 29.985 29.934
