ncols 435
nrows 31
xllcorner    431112
yllcorner    431078
cellsize     2
NODATA_value -9999
29.313 29.247 29.216 29.216 29.198 29.19 29.258 29.251 29.274 29.297 29.213 29.262 29.224 29.237 29.287 29.273 29.269 29.271 29.224 29.222 29.217 29.182 29.188 29.226 29.201 29.193 29.166 29.158 29.106 29.044 30.096 29.329 29.411 29.237 29.291 31.607 31.531 30.191 29.329 28.939 28.888 28.877 28.883 28.875 28.882 28.892 28.866 28.882 28.96 28.904 28.878 28.846 28.837 29.142 30.103 31.24 28.86 28.83 28.821 28.813 28.862 28.806 28.712 29.355 29.409 30.079 29.443 30.535 30.139 30.452 29.962 30.018 29.474 30.969 29.694 29.322 29.327 29.358 29.375 29.416 29.443 29.479 29.568 35.02 37.806 38.906 39.862 39.989 39.259 38.197 37.191 35.884 36.201 37.11 38.123 39.087 40.038 39.103 38.287 37.04 36.726 37.753 38.685 39.595 39.72 38.781 37.635 36.759 37.146 38.152 39.141 40.037 39.401 38.572 37.488 36.783 37.407 38.124 38.931 39.377 38.582 37.773 37.091 39.645 42.891 43.022 43.241 43.427 43.572 43.807 43.79 43.64 43.455 43.275 43.111 42.956 34.273 29.432 29.384 29.351 29.303 29.365 29.363 29.406 29.489 29.327 29.012 29.06 29.076 29.089 29.144 29.113 29.192 29.174 29.233 29.215 29.173 29.179 29.249 32.889 36.495 36.395 36.207 35.984 35.779 40.056 41.994 42.018 42.05 41.995 42.064 42.077 42.097 42.133 42.151 42.305 42.243 42.202 42.182 42.144 42.116 42.085 42.07 42.011 41.989 41.826 32.631 30.564 30.697 35.118 35.704 36.494 37.09 37.787 38.351 37.797 37.085 36.559 35.688 35.65 35.605 35.704 35.669 35.672 35.687 35.609 35.723 35.644 35.682 35.659 35.637 35.733 35.665 35.7 35.651 35.701 35.721 35.63 35.681 35.527 30.108 28.67 28.484 28.458 28.508 28.522 28.589 28.591 28.573 28.624 28.501 28.408 28.376 28.343 28.354 28.301 28.361 28.33 28.416 28.421 28.333 28.277 28.322 28.31 28.313 28.349 28.276 28.267 28.266 28.12 28.112 28.169 28.338 28.386 28.427 30.954 32.849 31.59 30.261 29.522 29.597 29.78 29.975 30.221 30.364 30.577 30.688 30.781 30.888 30.878 30.868 30.798 30.727 30.519 30.289 29.943 29.668 29.338 29.166 28.819 28.695 28.814 28.88 28.961 29.031 29.124 29.172 29.189 29.254 29.258 29.26 29.26 29.279 29.291 29.305 29.312 29.346 29.37 29.363 29.358 29.402 29.365 29.393 29.366 29.373 29.412 29.441 29.447 29.488 29.507 29.521 29.522 29.553 29.536 29.526 29.571 29.576 29.553 29.521 29.5 29.479 29.476 29.448 29.454 29.442 29.436 29.418 29.483 29.464 29.446 29.44 29.45 29.445 29.474 29.449 29.414 29.47 29.465 29.483 29.473 29.471 29.441 29.397 29.396 29.402 29.395 29.422 29.433 29.405 29.449 29.314 29.226 29.152 29.39 29.52 30.776 33.695 36.479 34.22 29.53 29.331 29.114 29.108 28.934 35.601 33.489 33.556 28.492 28.276 28.157 27.899 27.863 27.744 27.759 27.909 27.671 27.825 27.891 27.925 27.825 27.795 27.636 27.542 27.479 27.321 27.318 27.356 27.272 27.29 27.281 27.999 28.95 28.388 31.709 30.74 27.882 27.744 27.59 27.232 26.966 26.603 26.549 26.513 26.428 26.376 26.362 26.44 28.101 29.489 29.46 29.475 29.514 29.453 32.292 33.715 33.948 34.156 34.318 34.513 34.656 34.687 34.444 32.982 27.757 26.483 26.036 26.322 27.472 31.444 31.445 28.79 28.441 28.483 29.169 29.699
29.243 29.194 29.146 29.177 29.141 29.157 29.277 29.297 29.293 29.295 29.262 29.187 29.15 29.265 29.157 29.279 29.324 29.334 29.196 29.199 29.158 29.176 29.161 29.217 29.186 29.215 29.223 29.202 29.125 29.114 29.115 30.17 29.675 29.126 30.806 31.132 31.574 29.669 29.061 28.958 28.93 28.938 28.954 28.948 28.946 28.887 28.867 28.86 29.467 28.987 28.871 28.857 28.893 28.835 29.123 30.658 30.931 28.89 28.772 28.835 28.816 28.846 29.148 29.239 29.352 30.111 30.72 29.372 29.287 29.324 29.473 29.633 29.454 29.449 29.421 29.327 29.341 29.353 29.376 29.42 29.443 29.493 29.558 35.602 37.79 38.853 39.615 40.003 39.091 38.3 37.164 35.729 36.382 37.262 38.168 39.244 39.866 39.282 38.112 37.196 36.583 37.677 38.579 39.839 39.902 38.812 37.787 36.859 37.104 38.024 39.053 40.103 39.392 38.467 37.509 36.72 37.344 38.132 38.994 39.307 38.65 37.836 37.191 40.795 42.94 43.042 43.256 43.416 43.575 43.797 43.827 43.651 43.466 43.287 43.115 42.934 31.951 29.384 29.429 29.402 29.342 29.398 29.386 29.381 29.523 30.271 29.289 29.598 29.088 29.128 29.158 29.156 29.141 29.164 29.224 29.212 29.14 29.145 29.288 36.731 36.597 36.414 36.217 35.989 35.809 38.922 42.007 42.037 42.031 42.051 42.068 42.095 42.121 42.161 42.175 42.239 42.2 42.212 42.173 42.155 42.123 42.06 42.053 42.029 42.006 41.832 32.351 30.667 33.817 35.123 35.819 36.595 37.198 37.798 38.294 37.875 37.11 36.601 36.176 36.215 36.172 36.234 36.234 36.189 36.294 36.238 36.266 36.137 36.261 36.197 36.196 36.256 36.22 36.268 36.309 36.224 36.261 36.207 36.162 36.043 28.758 28.506 28.478 28.454 28.465 28.491 28.569 28.546 28.57 28.541 28.518 28.426 28.379 28.39 28.342 28.421 28.384 28.386 28.424 28.346 28.335 28.353 28.371 28.372 28.343 28.329 28.252 28.227 28.18 28.114 28.176 28.331 28.448 28.465 30.164 31.541 32.22 30.082 29.4 29.683 29.779 30.036 30.197 30.406 30.581 30.724 30.772 30.873 30.888 30.883 30.769 30.698 30.536 30.383 30.111 29.817 29.505 29.27 28.946 28.78 28.807 28.925 28.962 29.039 29.068 29.155 29.203 29.257 29.272 29.305 29.288 29.33 29.311 29.312 29.315 29.361 29.377 29.394 29.425 29.423 29.408 29.409 29.399 29.43 29.435 29.401 29.409 29.454 29.457 29.463 29.5 29.561 29.608 29.583 29.587 29.585 29.581 29.564 29.566 29.552 29.581 29.539 29.502 29.484 29.535 29.464 29.489 29.509 29.503 29.511 29.462 29.453 29.482 29.53 29.499 29.516 29.508 29.529 29.512 29.493 29.525 29.468 29.462 29.439 29.441 29.436 29.474 29.47 29.487 29.476 29.454 29.475 29.585 30.665 30.72 31.373 33.15 32.216 30.397 29.701 29.682 29.635 29.549 33.406 37.711 38.223 35.576 29.373 29.131 29.13 28.987 28.766 28.683 28.55 28.446 28.579 28.752 28.583 28.664 28.595 28.521 28.357 28.548 28.108 27.49 27.419 27.383 27.393 27.42 27.379 28.683 30.153 28.257 32.142 32.603 31.488 27.863 27.523 27.409 26.74 26.574 26.569 26.489 26.454 26.404 26.387 28.654 29.51 29.441 29.506 29.459 29.454 29.488 33.257 33.865 34.046 34.199 34.408 34.603 34.701 34.509 34.332 34.14 33.979 31.86 27.326 26.402 27.771 28.229 28.386 28.506 28.538 28.474 28.482 28.469
29.197 29.155 29.106 29.157 29.158 29.177 29.225 29.28 29.313 29.291 29.253 29.18 29.239 29.223 29.199 29.138 29.209 29.182 29.278 29.195 29.214 29.157 29.18 29.198 29.215 29.165 29.196 29.208 29.187 29.166 29.095 29.384 29.077 29.074 29.131 29.072 29.738 28.993 29.02 28.98 28.958 28.991 31.543 29.437 28.936 28.94 29.302 30.66 29.063 28.886 28.908 28.866 28.866 28.832 28.769 29.055 29.494 29.655 28.788 28.785 28.895 28.86 28.833 28.829 29.219 29.588 29.693 30.162 29.844 30.706 29.47 29.45 29.44 29.438 29.432 29.301 29.342 29.355 29.374 29.413 29.43 29.503 29.572 35.581 37.944 38.839 39.711 40.146 39.061 38.119 37.281 35.975 36.201 37.338 38.234 39.199 39.934 39.394 38.257 37.077 36.717 37.659 38.586 39.655 39.948 38.804 37.747 36.888 37.021 37.925 38.974 39.82 39.454 38.385 37.52 36.693 37.217 38.171 38.936 39.342 38.702 37.885 37.222 39.683 42.888 43.054 43.243 43.391 43.63 43.769 43.829 43.676 43.464 43.269 43.124 42.924 34.526 29.436 29.447 29.411 29.349 29.394 29.43 29.43 29.507 29.389 33.206 30.075 29.071 29.103 29.143 29.147 29.163 29.187 29.179 29.216 29.209 29.137 29.248 36.509 36.59 36.442 36.262 35.995 35.788 40.033 41.982 42.028 42.088 42.035 42.114 42.088 42.144 42.183 42.209 42.31 42.255 42.184 42.129 42.13 42.118 42.073 42.071 42.033 42.028 41.848 32.666 30.589 33.176 35.208 35.707 36.533 37.053 37.796 38.324 37.834 37.162 36.623 36.399 36.389 36.465 36.362 36.442 36.365 36.33 36.441 36.412 36.493 36.376 36.369 36.394 36.363 36.419 36.384 36.521 36.432 36.378 36.376 36.359 36.286 30.132 28.5 28.448 28.437 28.458 28.47 28.538 28.538 28.529 28.518 28.495 28.45 28.424 28.392 28.485 28.491 28.374 28.439 28.465 28.413 28.343 28.408 28.416 28.418 28.375 28.339 28.298 28.226 28.207 28.235 28.349 28.456 28.487 28.813 30.76 31.004 29.738 29.403 29.637 29.841 30.031 30.156 30.405 30.55 30.715 30.742 30.811 30.821 30.859 30.787 30.702 30.543 30.399 30.221 29.845 29.648 29.336 29.131 28.884 28.861 28.97 28.994 28.997 29.068 29.163 29.199 29.212 29.274 29.299 29.32 29.345 29.364 29.409 29.386 29.408 29.416 29.407 29.429 29.457 29.455 29.417 29.413 29.418 29.435 29.454 29.43 29.443 29.475 29.497 29.506 29.575 29.621 29.576 29.607 29.59 29.616 29.605 29.592 29.577 29.578 29.575 29.57 29.544 29.583 29.575 29.5 29.531 29.531 29.549 29.528 29.511 29.511 29.53 29.538 29.575 29.564 29.628 29.608 29.563 29.579 29.518 29.481 29.471 29.473 29.503 29.473 29.479 29.474 29.513 29.508 29.453 29.481 29.729 32.225 32.272 31.715 30.566 29.577 29.382 29.506 29.488 29.539 29.503 34.484 38.653 39.063 37.442 31.042 29.189 29.243 29.243 29.212 29.103 29.135 29.053 29.068 29.041 29.007 28.937 28.921 29.286 29.129 29.035 29.461 27.676 27.508 27.487 27.519 27.458 27.438 27.837 28.115 28.411 28.544 32.41 34.486 29.209 27.986 27.62 26.7 26.62 26.575 26.519 26.484 26.407 26.506 29.456 29.495 29.491 29.512 29.49 29.512 33.12 33.864 33.96 34.191 34.361 34.608 34.696 34.549 34.329 34.126 33.996 33.761 32.137 26.278 29.51 29.614 28.779 28.668 28.535 28.549 28.554 28.525 28.509
29.204 29.184 29.164 29.152 29.187 29.191 29.188 29.268 29.286 29.293 29.247 29.172 29.199 29.202 29.133 29.101 29.12 29.12 29.235 29.179 29.205 29.166 29.19 29.17 29.206 29.128 29.156 29.197 29.192 29.202 29.179 29.114 29.07 29.126 29.072 29.105 29.078 30.334 29.303 29.021 29.195 29.028 31.497 29.383 28.891 29.116 29.799 30.268 29.114 28.918 28.906 28.89 28.848 28.81 28.732 28.781 28.718 31.107 31.557 28.893 28.786 28.892 28.916 28.898 29.402 30.009 29.497 29.299 29.908 30.242 29.416 29.437 29.45 29.436 29.449 29.383 29.333 29.357 29.385 29.417 29.428 29.778 29.764 32.436 34.005 35.593 35.572 36.52 36.731 35.472 34.765 34.456 35.243 37.135 38.098 39.102 39.904 39.215 38.281 37.318 36.688 37.543 38.628 39.627 39.946 38.78 37.832 36.71 37.075 37.912 38.983 39.892 39.528 38.62 37.643 36.754 37.354 38.109 38.833 39.357 38.671 37.921 37.195 37.405 42.816 43.065 43.237 43.371 43.596 43.781 43.803 43.623 43.461 43.286 43.107 42.926 33.655 29.368 29.41 29.397 29.351 29.408 29.431 29.418 29.468 29.462 33.184 30.661 29.072 29.096 29.128 29.19 29.15 29.163 29.226 29.218 29.18 29.175 29.237 35.825 36.648 36.428 36.224 36.004 35.771 40.922 42.035 42.047 42.084 42.095 42.125 42.165 42.153 42.198 42.261 42.31 42.228 42.208 42.179 42.129 42.092 42.104 42.039 42.037 42.026 41.909 33.701 30.591 33.74 35.092 35.777 36.425 37.148 37.821 38.406 37.905 37.227 36.629 35.957 35.958 35.898 35.849 35.891 35.886 35.915 35.856 35.877 35.915 35.906 35.92 35.918 35.87 35.903 35.943 35.927 35.925 35.813 35.88 35.865 35.729 29.481 28.512 28.481 28.49 28.476 28.525 28.564 28.553 28.547 28.499 28.487 28.451 28.444 28.44 28.918 28.527 28.331 28.373 28.357 28.388 28.341 28.444 28.433 28.456 28.382 28.344 28.322 28.262 28.148 28.277 28.442 28.528 30.135 30.658 30.999 30.276 29.431 29.624 29.879 30.02 30.178 30.434 30.585 30.662 30.726 30.745 30.716 30.722 30.724 30.603 30.57 30.38 30.21 30.017 29.743 29.448 29.244 28.98 28.999 29.028 29.038 29.049 29.11 29.142 29.188 29.265 29.255 29.33 29.323 29.377 29.381 29.383 29.438 29.404 29.421 29.438 29.447 29.445 29.477 29.452 29.415 29.465 29.475 29.462 29.429 29.431 29.489 29.505 29.537 29.57 29.588 29.614 29.6 29.592 29.612 29.62 29.602 29.591 29.628 29.623 29.592 29.601 29.567 29.629 29.634 29.594 29.551 29.559 29.548 29.556 29.537 29.565 29.586 29.6 29.624 29.609 29.614 29.616 29.585 29.6 29.56 29.543 29.509 29.534 29.505 29.483 29.53 29.517 29.57 29.536 29.506 29.556 31.639 32.768 33.073 31.861 30.201 29.111 29.311 29.282 29.336 29.287 29.294 33.45 37.654 37.824 36.531 31.746 29.459 29.456 29.292 29.77 29.859 29.944 29.728 29.893 29.726 29.646 29.709 29.778 29.121 29.561 29.346 28.602 28.052 27.599 27.534 27.548 27.539 27.536 27.687 28.301 31.945 33.884 33.959 32.671 28.393 30.512 28.488 26.608 26.603 26.565 26.555 26.483 26.509 28.641 29.475 29.449 29.487 29.49 29.421 31.711 33.726 33.927 34.143 34.335 34.518 34.724 34.587 34.46 34.264 34.051 33.937 33.423 26.824 28.683 31.506 31.32 30.077 28.986 28.614 28.608 28.57 28.598 28.596
29.16 29.159 29.248 29.25 29.259 29.259 29.243 29.254 29.286 29.302 29.324 29.293 29.196 29.176 29.121 29.114 29.071 29.105 29.138 29.146 29.167 29.165 29.161 29.179 29.179 29.172 29.157 29.183 29.157 29.176 29.189 29.149 29.122 29.119 29.092 29.092 30.296 31.374 29.155 29.023 29 29.522 30.253 28.973 28.908 28.902 29.167 29.354 28.958 29.428 28.894 28.887 28.853 28.825 30.706 30.45 28.775 28.812 31.565 30.103 28.869 28.811 28.856 28.818 28.88 29.21 29.159 29.332 29.646 30.614 29.414 29.428 29.456 29.441 29.429 29.394 29.378 29.371 29.39 29.426 29.464 29.569 31.823 32.912 33.664 34.527 35.308 35.957 36.092 35.234 34.598 34.448 35.388 37.38 38.297 39.158 40.053 39.402 38.396 37.367 36.835 37.552 38.673 39.49 39.74 38.788 37.822 36.812 36.947 38.137 38.913 40.002 39.574 38.42 37.534 36.782 37.239 38.04 38.806 39.392 38.802 37.895 37.191 39.685 42.84 42.999 43.221 43.324 43.557 43.758 43.758 43.607 43.446 43.236 43.072 42.944 35.932 29.4 29.376 29.374 29.377 29.407 29.398 29.443 29.495 29.722 33.097 31.935 29.106 29.134 29.088 29.156 29.182 29.159 29.203 31.375 29.423 31.996 31.409 36.011 36.675 36.446 36.237 36.067 35.834 40.041 41.995 42.028 42.041 42.138 42.139 42.147 42.197 42.211 42.247 42.235 42.218 42.191 42.177 42.148 42.106 42.09 42.017 42.042 42.023 42 39.362 30.689 32.555 35.077 35.673 36.346 37.067 37.771 38.301 37.825 37.229 36.682 35.659 35.395 35.385 35.399 35.414 35.417 35.388 35.352 35.394 35.359 35.38 35.444 35.33 35.38 35.338 35.323 35.363 35.364 35.419 35.365 35.404 35.164 29.432 28.542 28.541 28.524 28.536 28.524 28.538 28.554 28.519 28.507 28.471 28.45 28.474 28.466 29.684 28.419 28.349 28.385 28.42 28.422 28.407 28.463 28.469 28.479 28.433 28.346 28.342 28.23 28.347 28.436 28.528 29.936 31.76 32.278 30.861 29.721 29.726 29.865 30.063 30.236 30.387 30.502 30.578 30.676 30.616 30.576 30.556 30.616 30.528 30.495 30.401 30.181 30.029 29.767 29.597 29.288 29.106 29.029 29.091 29.1 29.108 29.147 29.178 29.214 29.264 29.315 29.366 29.405 29.406 29.411 29.423 29.448 29.461 29.434 29.422 29.425 29.452 29.416 29.469 29.482 29.484 29.493 29.498 29.495 29.474 29.456 29.5 29.542 29.557 29.563 29.618 29.613 29.64 29.628 29.648 29.647 29.644 29.624 29.635 29.635 29.635 29.614 29.616 29.639 29.687 29.664 29.597 29.614 29.621 29.606 29.601 29.569 29.616 29.59 29.631 29.646 29.637 29.629 29.625 29.606 29.59 29.591 29.587 29.593 29.606 29.585 29.596 29.584 29.589 29.573 29.486 29.797 31.59 34.073 35.907 31.868 33.029 31.345 34.38 30.768 34.619 30.341 34.583 33.503 35.965 36.316 32.558 34.257 35.084 35.359 34.728 35.8 35.524 36.365 35.179 36.358 35.974 34.447 34.445 34.013 30.506 28.964 28.986 28.585 28.249 27.816 27.594 27.607 27.604 27.65 27.695 28.833 30.295 35.011 30.695 29.336 28.414 28.119 29.011 27.507 26.562 26.568 26.526 26.484 26.421 29.002 29.415 29.477 29.517 29.531 31.618 33.661 33.899 34.093 34.259 34.45 34.651 34.623 34.474 34.299 34.049 33.86 33.68 28.248 28.178 31.038 31.341 31.265 29.303 28.689 28.694 28.653 28.637 28.617 28.636
29.209 29.072 29.126 29.03 29.289 29.284 29.32 29.265 29.252 29.251 29.312 29.199 29.149 29.146 29.061 29.114 29.138 29.103 29.062 29.119 29.101 29.147 29.108 29.139 29.148 29.163 29.152 29.105 29.123 29.155 29.178 29.12 29.14 29.142 29.1 29.062 29.462 29.36 29.064 29.042 29.019 29.027 29.243 28.954 28.913 28.907 29.08 28.941 29.292 29.106 29.323 28.899 28.896 31.58 32.14 29.183 28.803 28.797 28.823 31.742 32.036 29.247 28.786 28.898 28.921 28.818 29.829 30.099 30.043 30.448 30.403 31.111 30.761 30.584 30.51 30.596 29.419 29.412 29.407 29.434 29.5 29.604 30.711 32.364 33.677 34.412 35.217 35.99 36.138 35.471 34.643 34.172 35.911 37.236 38.201 39.36 40.005 39.246 38.314 37.189 36.768 37.604 38.656 39.557 39.805 38.96 37.794 36.83 37.038 38.064 38.818 40.076 39.614 38.375 37.435 36.707 37.377 38.082 38.972 39.352 38.636 37.914 37.065 37.538 42.743 43 43.17 43.355 43.512 43.737 43.783 43.646 43.463 43.228 43.121 42.94 35.908 29.375 29.442 29.404 29.357 29.409 29.396 29.463 29.519 29.69 33.121 32.222 29.108 29.099 29.119 29.173 29.184 29.204 32.119 33.195 33.264 33.146 33.199 36.239 36.628 36.485 36.25 36.015 35.748 40.037 42.031 42.07 42.067 42.137 42.105 42.15 42.193 42.178 42.26 42.214 42.234 42.205 42.199 42.138 42.132 42.082 42.049 42.04 41.991 41.981 36.313 30.712 33.298 35.023 35.762 36.345 37 37.762 38.321 37.877 37.274 36.594 35.219 34.789 34.784 34.84 34.839 34.793 34.882 34.825 34.779 34.828 34.846 34.861 34.796 34.885 34.822 34.861 34.819 34.876 34.855 34.786 34.825 34.744 30.444 31.195 28.885 29.358 28.596 28.52 28.626 28.591 28.644 28.611 28.506 28.617 28.482 28.506 28.5 28.433 28.393 28.398 28.446 28.458 28.462 28.486 28.48 28.455 28.424 28.318 28.266 28.296 28.457 28.541 28.512 29.13 32.013 31.706 30.071 29.714 29.916 30.123 30.327 30.439 30.524 30.546 30.434 30.419 30.345 30.353 30.349 30.403 30.336 30.243 30.143 30.013 29.849 29.666 29.428 29.21 29.113 29.148 29.173 29.15 29.174 29.185 29.226 29.286 29.354 29.393 29.463 29.504 29.455 29.452 29.437 29.48 29.532 29.505 29.485 29.486 29.479 29.458 29.473 29.507 29.488 29.496 29.484 29.479 29.496 29.459 29.526 29.563 29.623 29.63 29.642 29.67 29.66 29.636 29.62 29.668 29.651 29.645 29.657 29.634 29.63 29.617 29.628 29.666 29.699 29.653 29.657 29.673 29.64 29.647 29.642 29.634 29.595 29.636 29.672 29.696 29.68 29.675 29.631 29.621 29.642 29.624 29.647 29.609 29.619 29.64 29.607 29.64 29.646 29.6 29.541 30.562 32.868 35.055 34.377 36.533 35.655 35.902 36.131 36.35 36.533 36.701 36.882 36.684 36.504 36.276 36.029 35.911 35.832 36.036 36.229 36.445 36.638 36.85 36.728 36.478 36.344 36.111 35.879 31.519 29.688 29.155 28.934 28.759 28.426 27.938 27.663 27.65 27.714 27.71 27.714 28.016 28.522 32.444 30.529 34.419 28.784 27.993 28.141 27.878 26.745 26.588 26.513 26.437 26.378 26.302 26.861 28.974 29.487 29.629 33.166 33.822 34.004 34.192 34.436 34.572 34.773 34.491 34.397 34.18 33.961 33.737 31.835 26.319 30.809 32.672 32.132 32.979 29.833 28.721 28.722 28.701 28.653 28.676 28.664
29.003 29.1 29.014 29.079 29.117 29.18 29.202 29.195 29.286 29.236 29.217 29.189 29.144 29.193 29.134 29.085 29.036 29.097 29.074 29.09 29.083 29.061 29.061 29.109 29.131 29.136 29.103 29.154 29.136 29.12 29.194 29.143 29.135 29.126 29.16 29.13 29.088 29.064 29.004 29.051 29.023 29.013 28.994 28.993 29.016 28.928 28.939 28.95 28.914 28.905 28.878 28.888 28.95 32.131 29.207 28.881 30.177 29.009 28.762 29.399 30.786 30.152 28.849 28.767 28.927 28.858 28.899 29.1 29.166 30.342 30.513 31.054 31.065 30.505 30.261 30.507 29.421 29.398 29.394 29.429 30.489 30.34 30.736 32.757 33.548 34.347 34.998 35.943 36.238 35.472 34.689 34.241 35.628 36.99 38.179 39.169 40.189 39.347 38.363 37.333 36.617 37.498 38.391 39.509 39.777 39.075 37.989 36.811 37.049 37.834 38.957 40.103 39.692 38.589 37.605 36.737 37.28 38.069 38.994 39.411 38.676 37.889 37.123 36.351 42.695 43.008 43.176 43.33 43.551 43.734 43.783 43.66 43.462 43.288 43.111 42.919 35.858 29.387 29.418 29.428 29.361 29.431 29.403 29.485 29.515 29.746 33.067 31.873 29.099 29.102 29.127 29.171 29.173 29.191 29.195 29.195 29.632 29.908 29.168 34.798 36.65 36.424 36.248 36.008 35.786 36.942 41.951 42.065 42.059 42.112 42.141 42.142 42.159 42.173 42.253 42.251 42.273 42.235 42.2 42.148 42.124 42.1 42.032 41.999 42.02 41.974 38.553 30.75 32.335 35.041 35.745 36.42 37.05 37.754 38.321 38.054 37.304 36.658 35.034 33.953 34.125 34.014 34.423 34.032 34.143 34.277 34.064 34.197 33.884 34.207 33.952 34.029 34.268 33.999 34.361 33.923 34.172 33.937 34.11 34.15 33.902 33.877 33.794 32.908 33.998 33.492 33.742 33.405 33.131 33.807 33.449 31.432 28.492 28.478 28.821 28.688 28.398 28.472 28.473 28.522 28.513 28.497 28.504 28.496 28.449 28.329 28.342 28.439 28.596 28.604 30.938 31.819 30.864 30.028 29.751 29.968 30.172 30.386 30.566 30.538 30.464 30.228 30.213 30.059 30.047 30.115 30.134 30.197 30.148 30.091 29.899 29.833 29.639 29.495 29.336 29.283 29.259 29.251 29.25 29.234 29.263 29.29 29.33 29.361 29.417 29.485 29.526 29.53 29.495 29.499 29.513 29.524 29.581 29.569 29.564 29.564 29.548 29.525 29.549 29.522 29.511 29.514 29.509 29.477 29.509 29.482 29.556 29.587 29.605 29.613 29.641 29.685 29.646 29.657 29.661 29.683 29.64 29.643 29.636 29.654 29.661 29.661 29.676 29.649 29.673 29.644 29.676 29.674 29.659 29.642 29.621 29.643 29.647 29.653 29.7 29.726 29.68 29.693 29.679 29.666 29.651 29.676 29.685 29.686 29.708 29.698 29.644 29.672 29.677 29.621 29.658 33.57 34.847 35.208 35.866 34.306 35.154 35.874 36.089 36.284 36.499 36.654 36.807 36.624 36.433 36.263 36.087 35.912 35.802 36.042 36.303 36.46 36.638 36.821 36.748 36.492 36.299 36.136 35.891 32.605 29.751 29.071 29.004 28.849 28.373 28.138 27.839 27.691 27.782 27.818 27.813 29.053 28.987 28.739 29.861 30.958 28.548 28.385 28.028 27.633 27.143 26.679 26.521 26.439 26.449 26.339 26.241 26.97 29.494 29.492 29.547 33.108 34.039 34.311 34.526 34.751 34.61 34.37 34.212 33.931 33.766 30.593 28.985 30.482 31.79 30.926 30.669 30.182 29.22 28.756 28.715 28.768 28.726 28.739 28.698
29.063 28.94 28.972 29.092 29.083 29.088 29.116 29.143 29.185 29.16 29.203 29.24 29.207 29.142 29.197 29.134 29.053 29.116 29.129 29.062 29.108 29.142 29.072 29.061 29.084 29.097 29.06 29.094 29.133 29.115 29.168 29.157 29.184 29.165 29.171 29.158 29.151 29.072 29.044 29.023 29.035 29.014 29.001 29.005 30.187 29.356 28.99 28.986 28.978 28.935 28.885 29.011 32.094 30.287 28.881 28.875 29.06 28.854 28.874 28.794 28.731 28.83 28.805 28.799 28.816 28.874 28.938 30.018 29.66 29.331 29.684 30.597 29.688 29.647 29.832 29.837 29.385 29.38 29.416 29.412 29.44 30.022 30.317 32.865 33.666 34.488 35.054 35.805 36.157 35.395 34.645 34.22 35.715 37.21 38.143 39.125 40.115 39.436 38.363 37.277 36.687 37.454 38.516 39.45 39.872 38.946 37.883 36.888 36.871 37.868 38.841 39.886 39.633 38.51 37.697 36.737 37.254 38.022 38.782 39.491 38.599 37.961 37.087 39.648 42.82 42.988 43.142 43.353 43.497 43.663 43.753 43.604 43.42 43.296 43.093 42.976 33.678 29.411 29.432 29.399 29.336 29.401 29.47 29.48 29.481 30.374 32.935 30.199 29.091 29.088 29.094 29.142 29.173 29.229 29.188 29.212 29.262 29.209 29.128 34.464 36.68 36.456 36.243 36.048 35.868 40.67 41.995 42.007 42.09 42.105 42.074 42.134 42.186 42.24 42.23 42.215 42.281 42.231 42.162 42.159 42.127 42.099 42.024 42.061 42.006 42.013 39.783 30.709 33.43 35.036 35.682 36.375 37.023 37.719 38.324 37.885 37.408 36.616 35.328 35.158 35.189 35.111 35.095 35.197 35.256 35.289 35.201 35.109 34.961 35.208 35.012 35.173 35.15 35.053 35.118 34.989 35.071 34.963 35.128 35.152 35.041 35.097 34.969 34.96 34.933 35.019 35.161 34.919 35.172 34.928 35.139 32.308 28.496 28.456 28.547 28.991 28.543 28.464 28.484 28.569 28.527 28.532 28.492 28.493 28.449 28.388 28.414 28.579 28.619 28.616 30.809 33.189 32.04 29.605 29.908 30.147 30.386 30.589 30.601 30.389 30.022 29.858 29.8 29.748 29.827 29.832 29.958 30.007 29.978 29.907 29.742 29.644 29.515 29.388 29.301 29.307 29.315 29.302 29.285 29.279 29.271 29.32 29.359 29.399 29.45 29.493 29.543 29.535 29.501 29.536 29.558 29.543 29.569 29.576 29.558 29.578 29.6 29.603 29.602 29.563 29.496 29.513 29.504 29.52 29.541 29.572 29.598 29.614 29.643 29.643 29.648 29.641 29.646 29.647 29.69 29.713 29.679 29.689 29.649 29.658 29.64 29.682 29.642 29.673 29.675 29.641 29.689 29.721 29.703 29.676 29.668 29.663 29.66 29.685 29.697 29.725 29.745 29.767 29.737 29.754 29.738 29.728 29.684 29.698 29.706 29.716 29.696 29.7 29.714 29.684 29.651 32.254 34.171 35.71 35.231 33.975 33.245 35.863 36.147 36.309 36.501 36.701 36.869 36.688 36.486 36.289 36.058 35.905 35.778 36.046 36.259 36.424 36.611 36.867 36.777 36.57 36.275 36.146 35.966 34.484 30.089 29.163 29.043 30.48 29.392 30.015 28.125 27.864 27.839 27.838 27.896 28.235 29.048 29.066 28.901 28.825 28.728 28.642 28.345 27.948 27.634 27.429 26.871 26.532 26.423 26.405 26.268 26.168 26.243 26.697 29.378 26.294 27.522 34.29 34.727 34.729 34.508 34.267 34.059 33.858 33.545 27.18 30.672 33.051 32.918 31.388 30.974 32.748 29.52 28.818 28.783 28.777 28.734 28.752 28.751
30.82 31.026 29.139 28.964 29.072 29.094 29.131 29.076 29.055 29.128 29.109 29.155 29.176 29.192 29.159 29.128 29.133 29.132 29.127 29.108 29.108 29.103 29.033 29.099 29.033 29.063 29.063 29.086 29.108 29.079 29.086 29.147 29.136 29.158 29.161 29.12 29.111 29.115 29.096 29.067 29.029 29.052 29.014 29.032 29.55 29.379 29.025 29.071 29.024 28.982 30.544 32.305 30.402 28.898 28.896 28.929 28.861 28.895 28.921 28.885 28.779 28.78 28.74 28.75 28.876 28.842 28.888 28.882 29.305 29.641 29.83 30.021 29.401 29.381 29.381 29.417 29.412 29.412 29.407 29.451 29.425 29.628 30.462 32.938 33.608 34.412 35.154 35.959 36.253 35.453 34.834 34.285 35.727 37.132 38.226 39.284 40.126 39.327 38.327 37.42 36.711 37.522 38.424 39.471 39.808 38.927 38.022 36.889 36.979 37.866 38.889 40.062 39.714 38.714 37.535 36.803 37.269 38.085 38.895 39.33 38.65 37.886 37.169 36.356 42.749 43.008 43.128 43.298 43.545 43.701 43.801 43.591 43.416 43.291 43.076 42.918 33.86 29.451 29.421 29.332 29.362 29.363 29.39 29.479 29.488 29.523 31.855 30.133 29.04 29.068 29.136 29.127 29.142 29.22 29.193 29.21 29.212 29.202 29.208 34.657 36.629 36.434 36.252 36.03 35.912 40.109 42 42.104 42.068 42.107 42.145 42.177 42.126 42.219 42.227 42.255 42.281 42.214 42.204 42.091 42.105 42.085 42.092 42.044 42.009 42.002 34.15 30.581 30.256 34.948 35.701 36.279 37.09 37.718 38.251 38.018 37.334 36.64 36.177 36.357 36.323 36.225 36.312 36.232 36.38 36.16 36.316 36.38 36.14 36.203 36.174 36.351 36.305 36.215 36.325 36.206 36.253 36.106 36.368 36.234 36.357 36.289 36.237 36.132 36.064 36.275 36.326 36.195 36.213 36.113 36.211 30.889 28.436 28.474 28.53 28.636 28.521 28.53 28.547 28.574 28.601 28.545 28.559 28.478 28.46 28.413 28.526 28.679 28.652 28.925 30.112 31.558 29.574 29.803 30.041 30.225 30.315 30.492 29.896 29.747 29.571 29.559 29.518 29.527 29.627 29.675 29.794 29.824 29.759 29.72 29.626 29.509 29.386 29.314 29.374 29.37 29.367 29.343 29.382 29.347 29.352 29.358 29.366 29.392 29.436 29.494 29.556 29.524 29.514 29.541 29.56 29.532 29.565 29.558 29.61 29.606 29.636 29.639 29.608 29.562 29.533 29.576 29.552 29.555 29.609 29.622 29.625 29.627 29.637 29.656 29.657 29.691 29.651 29.635 29.672 29.696 29.684 29.7 29.702 29.7 29.716 29.712 29.702 29.714 29.657 29.668 29.708 29.733 29.717 29.689 29.669 29.725 29.725 29.743 29.736 29.76 29.813 29.792 29.816 29.82 29.775 29.811 29.779 29.764 29.737 29.724 29.717 29.731 29.713 29.712 29.668 30.957 34.997 36.186 35.507 35.276 30.745 35.814 36.07 36.29 36.493 36.668 36.812 36.677 36.484 36.231 36.128 35.871 35.822 36.018 36.224 36.376 36.604 36.828 36.71 36.544 36.354 36.135 35.866 34.073 29.572 29.203 29.037 31.069 32.477 32 29.206 27.92 27.869 27.939 27.949 27.937 28.134 28.847 29.005 28.995 28.975 28.804 28.652 28.385 28.116 27.725 27.426 27.084 26.682 26.463 26.359 26.261 26.151 25.952 25.811 25.834 25.885 26.037 34.5 34.527 34.325 34.095 33.936 33.748 29.126 28.042 32.03 32.7 32.792 32.927 32.991 30.383 28.887 28.836 28.842 28.822 28.788 28.805 28.816
29.974 32.229 30.508 29.704 28.915 29.036 29.101 29.152 29.116 29.122 29.102 29.126 29.099 29.141 29.141 29.205 29.162 29.166 29.172 29.199 29.186 29.111 29.129 29.097 29.119 29.094 29.122 29.09 29.092 29.081 29.089 29.127 29.145 29.123 29.099 29.114 29.151 29.127 29.117 29.097 29.075 29.104 29.019 29.007 29.029 29.178 29.842 29.132 29.062 29.12 32.137 29.918 28.923 28.92 28.916 28.901 28.932 28.933 28.936 28.884 28.772 28.814 28.761 28.725 28.754 28.809 28.89 28.849 28.928 30.183 29.84 29.823 30.639 29.463 29.401 29.413 29.427 29.421 29.398 29.442 29.464 29.81 29.696 32.825 33.544 34.337 34.988 35.717 36.18 35.441 34.689 34.192 35.191 37.157 38.076 39.089 39.857 39.19 38.241 37.499 36.73 37.342 38.464 39.54 39.749 38.848 37.914 36.998 36.814 37.885 39.089 39.927 39.521 38.562 37.592 36.751 37.31 37.921 38.875 39.47 38.626 37.839 37.109 36.417 42.714 42.974 43.116 43.315 43.49 43.654 43.814 43.618 43.437 43.277 43.123 42.912 33.896 29.368 29.374 29.391 29.373 29.358 29.391 29.478 29.474 30.254 29.062 28.999 29.09 29.06 29.12 29.098 29.161 29.24 29.21 29.202 29.266 29.161 29.094 31.158 36.565 36.466 36.245 36.069 35.71 40.1 42.009 42.008 42.082 42.048 42.137 42.137 42.163 42.191 42.227 42.278 42.251 42.181 42.169 42.096 42.139 42.083 42.066 42.025 41.997 41.999 35.733 30.561 30.281 35.006 35.649 36.326 37.064 37.702 38.325 37.928 37.211 36.605 36.076 35.799 35.818 35.89 35.891 36.001 35.739 36.089 35.815 35.927 35.709 35.804 35.84 35.694 35.958 35.781 35.884 35.706 35.772 35.865 35.861 35.806 35.728 35.691 35.7 35.826 35.96 35.816 35.825 35.684 35.743 35.876 35.839 32.068 28.444 28.506 28.611 28.91 28.583 28.588 28.585 28.619 28.605 28.59 28.566 28.512 28.428 28.455 28.678 28.701 29.148 29.407 30.098 29.632 29.812 29.897 29.947 29.812 29.768 29.496 29.418 29.44 29.474 29.435 29.449 29.528 29.501 29.565 29.624 29.706 29.702 29.655 29.555 29.425 29.362 29.414 29.469 29.465 29.437 29.402 29.399 29.413 29.398 29.386 29.366 29.418 29.435 29.473 29.576 29.553 29.564 29.548 29.531 29.552 29.556 29.584 29.589 29.64 29.636 29.627 29.601 29.588 29.579 29.585 29.558 29.593 29.655 29.656 29.667 29.639 29.672 29.675 29.666 29.666 29.701 29.651 29.683 29.688 29.685 29.7 29.73 29.72 29.729 29.715 29.719 29.751 29.713 29.734 29.758 29.816 29.801 29.778 29.758 29.787 29.778 29.802 29.796 29.81 29.843 29.811 29.874 29.817 29.827 29.837 29.775 29.808 29.752 29.754 29.758 29.768 29.745 29.754 29.708 33.835 36.916 39.427 37.957 36.687 34.241 35.887 36.076 36.256 36.471 36.734 36.851 36.682 36.511 36.324 36.123 35.921 35.839 36.013 36.194 36.433 36.61 36.86 36.761 36.589 36.322 36.126 35.932 34.382 29.07 28.925 28.873 30.589 31.573 32.111 29.985 28.051 28.002 28.007 28.073 27.963 28.1 29.002 29.15 29.176 29.116 29.054 28.906 28.734 28.455 28.194 27.741 27.424 27.057 26.6 26.4 26.334 26.205 26.089 25.918 25.821 25.853 25.869 26.075 28.507 33.951 34.032 33.738 33.465 28.539 32.184 32.656 30.032 33.286 33.272 32.816 30.891 28.932 28.934 28.899 28.839 28.842 28.838 28.826
29.161 30.516 32.071 30.318 29.412 29.039 28.908 28.965 29.159 29.119 29.18 29.104 29.131 29.135 29.161 29.166 29.178 29.199 29.204 29.232 29.25 29.164 29.146 29.164 29.113 29.155 29.16 29.108 29.05 29.034 29.059 29.12 29.113 29.149 29.154 29.184 29.172 29.17 29.129 29.107 29.172 29.101 29.083 29.06 29.086 29.136 29.153 29.06 30.544 32.026 32.024 29.305 28.96 28.968 28.934 28.908 28.951 28.906 28.916 28.883 28.865 28.927 28.855 28.788 28.794 28.756 28.823 28.857 28.9 28.939 29.367 29.47 30.593 29.843 29.418 29.411 29.437 29.409 29.46 29.456 29.456 29.529 29.661 32.734 33.659 34.285 35.031 35.825 36.202 35.542 34.621 34.408 35.341 37.126 38.207 39.103 40.071 39.368 38.26 37.312 36.564 37.516 38.44 39.376 39.937 38.829 37.944 36.948 36.874 37.814 38.849 39.885 39.62 38.824 37.507 36.908 37.214 38.033 38.865 39.457 38.836 38.022 37.254 36.488 41.524 42.965 43.144 43.289 43.447 43.658 43.726 43.601 43.441 43.263 43.068 42.948 38.218 29.484 29.411 29.357 29.402 29.332 29.393 29.452 29.474 29.656 29.617 30.068 29.455 29.094 29.131 29.144 29.14 29.206 30.866 29.988 31.423 30.995 31.235 34.691 36.767 36.493 36.297 36.093 35.867 40.075 42.005 42.007 42.06 42.073 42.159 42.156 42.141 42.194 42.268 42.298 42.227 42.213 42.157 42.124 42.138 42.086 42.049 42.044 42.032 41.987 36.073 30.628 30.462 34.859 35.733 36.384 37.092 37.728 38.308 37.915 37.318 36.642 35.152 34.691 34.809 34.71 34.642 34.809 34.754 34.708 34.605 34.835 34.624 34.629 34.52 34.659 34.694 34.687 34.552 34.625 34.77 34.611 34.69 34.743 34.662 34.666 34.649 34.874 34.711 34.639 34.503 34.813 34.526 34.715 34.827 31.916 28.454 28.501 28.572 28.813 28.708 28.702 28.756 28.695 28.644 28.654 28.605 28.526 28.466 28.562 28.697 28.762 30.495 31.287 30.146 29.774 29.698 29.667 29.557 29.452 29.381 29.389 29.37 29.441 29.476 29.487 29.493 29.459 29.471 29.504 29.581 29.602 29.575 29.551 29.514 29.445 29.479 29.536 29.566 29.537 29.546 29.505 29.456 29.457 29.427 29.425 29.455 29.442 29.42 29.469 29.526 29.521 29.553 29.545 29.553 29.525 29.602 29.593 29.63 29.648 29.634 29.684 29.643 29.608 29.605 29.573 29.614 29.619 29.704 29.668 29.681 29.688 29.674 29.666 29.699 29.695 29.71 29.695 29.69 29.676 29.678 29.658 29.741 29.77 29.742 29.738 29.779 29.762 29.71 29.75 29.8 29.85 29.872 29.872 29.817 29.82 29.837 29.81 29.795 29.817 29.85 29.856 29.875 29.869 29.885 29.859 29.855 29.835 29.846 29.779 29.718 29.742 29.783 29.735 29.875 35.143 36.58 38.527 37.668 36.324 31.484 35.847 36.071 36.269 36.508 36.69 36.857 36.717 36.538 36.264 36.102 35.909 35.876 35.998 36.2 36.427 36.663 36.839 36.782 36.532 36.397 36.19 36.008 34.844 29.033 28.921 28.871 29.78 31.685 29.98 28.515 28.184 28.025 28.098 28.153 28.097 28.176 30.419 30.038 29.33 29.286 29.188 29.052 29.05 28.824 28.54 28.074 27.717 27.369 27.411 26.482 26.376 26.245 26.154 26.069 25.984 25.856 25.832 25.89 25.884 27.428 33.697 33.59 26.855 29.8 32.343 32.525 32.641 33.827 32.444 32.063 29.254 28.966 28.941 28.919 28.954 28.906 28.906 28.871
29.289 29.154 29.092 29.492 29.772 30.616 29.68 29.015 28.985 29.058 29.1 29.118 29.106 29.101 29.187 29.127 29.153 29.181 29.186 29.205 29.241 29.211 29.182 29.175 29.16 29.13 29.085 29.126 29.1 29.021 29.022 29.013 29.089 29.194 29.147 29.152 29.179 29.168 29.061 29.118 29.085 29.119 29.125 29.081 29.041 29.01 29.036 29.033 31.35 31.302 28.971 28.972 28.96 28.914 28.899 28.926 28.93 28.928 28.909 28.888 28.94 28.963 28.965 28.974 28.9 28.797 28.783 28.823 28.871 28.844 28.934 29.466 29.584 29.435 29.42 29.409 29.446 29.448 29.425 29.453 29.5 29.804 30.52 32.74 33.613 34.292 35.212 35.819 36.151 35.496 34.682 34.327 35.305 36.955 38.105 39.044 39.91 39.407 38.365 37.487 36.646 37.538 38.497 39.577 39.934 38.399 38.04 37.168 36.807 37.912 39.027 39.914 39.562 38.73 37.758 36.847 37.375 37.896 38.792 39.315 38.726 37.943 37.146 38.401 42.736 42.982 43.113 43.3 43.463 43.661 43.75 43.591 43.44 43.241 43.103 42.923 37.402 29.504 29.411 29.352 29.348 29.332 29.401 29.489 29.481 29.463 29.667 29.985 29.158 29.062 29.123 29.113 29.211 30.832 32.402 32.554 32.514 32.483 32.565 35.989 36.73 36.514 36.297 36.09 35.874 40.094 41.953 42.05 42.054 42.143 42.138 42.108 42.186 42.222 42.244 42.268 42.229 42.217 42.221 42.162 42.15 42.116 42.057 42.061 42.032 41.971 36.065 30.618 33.759 34.931 35.578 36.327 36.978 37.567 38.322 38.069 37.312 36.632 34.421 33.696 33.584 33.556 33.584 33.621 33.552 33.544 33.596 33.645 33.619 33.446 33.502 33.707 33.469 33.652 33.583 33.555 33.474 33.676 33.639 33.543 33.616 33.512 33.494 33.559 33.517 33.729 33.676 33.586 33.724 33.522 33.671 31.439 28.425 28.46 28.614 29.209 28.754 28.773 28.822 28.706 28.696 28.678 28.642 28.558 28.523 28.722 28.773 29.311 31.577 31.886 30.314 29.831 29.464 29.397 29.393 29.328 29.352 29.37 29.363 29.41 29.519 29.509 29.511 29.516 29.506 29.54 29.497 29.498 29.509 29.489 29.508 29.637 29.584 29.602 29.62 29.621 29.593 29.566 29.489 29.481 29.496 29.488 29.446 29.427 29.461 29.504 29.515 29.511 29.5 29.532 29.534 29.55 29.611 29.614 29.623 29.636 29.655 29.677 29.708 29.65 29.629 29.638 29.612 29.663 29.668 29.676 29.673 29.687 29.651 29.681 29.679 29.729 29.749 29.726 29.734 29.693 29.694 29.669 29.714 29.743 29.762 29.762 29.758 29.803 29.76 29.786 29.814 29.849 29.856 29.859 29.845 29.87 29.876 29.847 29.806 29.863 29.877 29.908 29.886 29.894 29.88 29.864 29.888 29.881 29.913 29.85 29.825 29.807 29.83 29.737 32.118 34.549 36.743 35.624 33.892 33.296 33.818 35.847 36.084 36.268 36.435 36.644 36.844 36.687 36.52 36.295 36.102 35.907 35.788 36.071 36.234 36.41 36.624 36.83 36.767 36.575 36.312 36.089 35.965 35.638 29.066 28.87 28.849 29.326 29.805 29.026 28.672 28.368 28.172 28.191 28.177 28.183 28.233 29.459 30.003 29.461 29.365 29.362 30.694 32.008 29.409 28.624 28.4 27.975 27.48 27.681 26.628 26.438 26.357 26.304 26.204 26.085 26.017 25.876 25.896 25.873 25.917 26.087 27.965 27.085 30.847 32.213 32.885 34.563 34.479 32.92 30.676 29.046 29.024 28.95 28.958 28.935 28.956 28.933 28.924
29.262 29.4 29.19 29.205 29.373 29.893 32.053 30.248 29.02 28.924 29.024 29.089 29.127 29.165 29.163 29.166 29.197 29.15 29.17 29.195 29.183 29.199 29.244 29.24 29.226 29.171 29.234 29.1 29.127 29.093 29.032 29.061 29.059 29.068 29.19 29.206 29.188 29.093 29.027 29.035 29.069 29.106 29.103 29.148 29.098 29.072 29.027 29.011 29.002 29.111 28.947 28.953 28.924 28.915 28.935 28.916 28.931 28.949 28.913 28.969 28.991 29.066 29.035 29.048 29.06 29.009 28.859 28.826 28.863 28.917 28.889 29.205 30.044 29.506 29.684 29.423 29.43 29.439 29.448 29.413 29.441 29.826 29.605 31.905 33.568 34.339 34.98 35.834 36.142 35.57 34.709 34.219 35.59 37.051 38.128 38.99 40.056 39.258 38.34 37.291 36.599 37.422 38.345 39.478 39.893 39.126 37.932 36.991 36.918 37.758 38.697 39.792 39.789 38.783 37.665 36.849 37.197 37.948 38.822 39.513 38.816 38.14 37.184 36.408 42.702 42.936 43.142 43.299 43.462 43.671 43.819 43.624 43.423 43.245 43.122 42.94 38.743 29.542 29.389 29.324 29.387 29.355 29.426 30.324 29.553 29.626 30.752 29.973 29.079 29.065 29.155 29.108 29.189 29.238 32.549 32.599 32.545 32.601 32.575 35.524 36.718 36.49 36.3 36.05 35.88 36.793 40.799 42.054 42.042 42.119 42.157 42.101 42.205 42.185 42.325 42.222 42.241 42.255 42.181 42.163 42.135 42.101 42.081 42.047 42.009 41.963 35.998 30.604 33.741 34.991 35.582 36.343 36.915 37.561 38.316 38.044 37.305 36.663 34.99 34.228 34.284 34.019 34.175 34.167 34.283 34.276 34.175 34.22 34.248 34.013 34.198 34.08 34.206 34.019 34.139 34.269 33.991 34.111 34.206 34.056 34.192 34.044 34.252 34.02 34.155 34.144 34.19 34.236 34.113 34.311 34.316 31.717 28.481 28.501 28.604 29.184 28.841 28.795 28.85 28.742 28.723 28.669 28.625 28.578 28.63 28.791 28.784 29.601 31.42 31.078 29.941 29.83 29.488 29.363 29.428 29.388 29.35 29.351 29.388 29.444 29.458 29.498 29.494 29.491 29.519 29.445 29.446 29.495 29.494 29.488 29.591 29.698 29.714 29.704 29.689 29.66 29.643 29.57 29.55 29.535 29.52 29.514 29.498 29.493 29.488 29.531 29.52 29.548 29.531 29.53 29.547 29.558 29.569 29.593 29.623 29.645 29.683 29.683 29.711 29.666 29.67 29.655 29.664 29.677 29.669 29.647 29.63 29.684 29.701 29.694 29.698 29.727 29.72 29.724 29.686 29.716 29.718 29.678 29.692 29.755 29.754 29.771 29.735 29.784 29.782 29.786 29.835 29.817 29.832 29.856 29.868 29.88 29.889 29.846 29.867 29.871 29.925 29.93 29.928 29.917 29.905 29.911 29.898 29.904 29.902 29.885 29.862 29.852 29.865 29.769 30.789 35.5 33.674 35.626 32.946 32.748 32.127 35.8 36.085 36.279 36.453 36.641 36.9 36.707 36.565 36.28 36.113 35.898 35.735 36.005 36.186 36.471 36.62 36.825 36.765 36.557 36.343 36.152 36.015 31.606 28.978 28.92 28.849 28.813 28.767 28.707 28.774 28.538 28.284 28.211 28.25 28.278 28.285 28.537 30.7 30.001 29.558 29.499 29.932 31.209 29.126 29.207 28.977 28.159 27.652 28.049 26.705 26.542 26.494 26.422 26.304 26.192 26.136 26.058 25.973 25.906 25.928 25.915 26.529 27.695 31.016 32.587 34.088 33.698 32.406 32.103 29.826 29.059 29.049 29.003 29.019 28.971 28.989 29.018 29.002
29.505 29.092 30.586 29.421 29.2 29.864 30.976 30.952 30.457 29.295 29.011 28.954 29.023 29.109 29.139 29.158 29.14 29.207 29.212 29.174 29.165 29.183 29.198 29.187 29.217 29.198 29.145 29.152 29.124 29.131 29.1 29.068 29.089 29.127 29.247 29.183 29.192 29.074 28.988 29.039 29.034 29.014 29.067 29.037 29.049 29.088 29.067 29.023 29.018 28.962 28.966 28.942 28.933 28.938 28.969 28.914 28.922 28.925 28.89 28.945 29.012 29.074 29.074 29.073 29.113 29.082 29.081 28.925 28.915 28.866 28.904 28.937 30.39 29.639 30.211 29.465 29.424 29.457 29.451 29.444 29.466 29.574 29.599 32.175 33.548 34.228 35.057 35.777 36.262 35.54 34.65 34.164 35.192 37.087 38.153 39.112 40.119 39.278 38.343 37.373 36.683 37.494 38.457 39.507 39.835 39.129 37.914 36.935 36.946 37.915 38.963 39.916 39.559 38.709 37.857 36.854 37.203 37.947 38.656 39.488 38.818 38.144 37.197 36.629 42.752 42.972 43.138 43.33 43.5 43.695 43.752 43.584 43.431 43.269 43.104 42.96 39.638 29.527 29.367 29.402 29.407 29.357 29.387 29.826 29.936 29.499 29.435 29.284 29.085 29.094 29.098 29.116 29.183 29.207 32.466 32.582 32.575 32.616 32.571 35.603 36.725 36.473 36.339 36.057 35.865 35.774 41.877 42.024 41.978 42.093 42.098 42.072 42.165 42.159 42.173 42.242 42.276 42.218 42.172 42.133 42.128 42.116 42.088 42.01 42.031 41.974 36.025 30.624 33.707 34.941 35.558 36.391 36.86 37.582 38.334 37.992 37.441 36.705 35.847 35.435 35.394 35.255 35.347 35.388 35.248 35.424 35.323 35.27 35.431 35.351 35.279 35.231 35.287 35.272 35.382 35.185 35.285 35.354 35.378 35.383 35.232 35.257 35.253 35.169 35.42 35.204 35.333 35.161 35.164 35.399 35.159 32.013 28.5 28.563 28.575 29.98 28.916 28.842 28.894 28.805 28.765 28.706 28.661 28.635 28.823 28.821 30.223 32.28 30.939 29.835 30.014 29.872 29.575 29.402 29.421 29.391 29.372 29.343 29.404 29.43 29.425 29.452 29.51 29.497 29.489 29.497 29.489 29.498 29.513 29.537 29.674 29.806 29.836 29.781 29.747 29.718 29.661 29.637 29.561 29.561 29.562 29.58 29.55 29.522 29.533 29.552 29.547 29.577 29.573 29.554 29.568 29.551 29.555 29.558 29.608 29.649 29.674 29.697 29.713 29.674 29.652 29.688 29.684 29.67 29.672 29.656 29.657 29.667 29.721 29.687 29.687 29.705 29.719 29.68 29.693 29.7 29.705 29.676 29.696 29.732 29.745 29.74 29.748 29.819 29.779 29.828 29.867 29.87 29.872 29.908 29.906 29.905 29.904 29.942 29.938 29.956 29.988 29.983 29.988 29.959 29.955 29.914 29.916 29.951 29.903 29.906 29.9 29.904 29.849 29.836 32.466 35.262 36.536 35.682 36.056 32.881 32.737 35.883 36.071 36.281 36.499 36.675 36.824 36.724 36.522 36.327 36.112 35.906 35.793 35.976 36.212 36.447 36.585 36.835 36.766 36.578 36.411 36.15 36.007 35.51 29.05 28.893 28.853 28.837 28.764 28.735 28.877 28.683 28.397 28.298 28.317 28.318 28.331 30.296 31.33 30.213 29.581 29.596 29.645 31.18 30.199 32.259 31.075 28.36 28.333 28.375 26.978 26.729 26.618 26.531 26.43 26.379 26.279 26.213 26.107 26.07 25.991 26.352 28.96 31.419 32.282 33.215 34.517 33.001 31.634 31.11 29.292 29.116 29.09 29.14 29.077 29.045 29.105 29.095 29.11
32.083 30.41 31.414 29.545 29.492 29.52 29.488 29.272 29.47 31.739 29.79 29.103 29.007 28.981 29.017 29.088 29.138 29.165 29.155 29.158 29.203 29.188 29.215 29.26 29.196 29.22 29.144 29.156 29.095 29.119 29.099 29.063 29.204 29.273 29.232 29.244 29.256 29.186 29.181 29.095 29.048 29.069 28.983 29.033 28.995 29.07 29.038 29.04 29.059 29.003 28.962 28.971 28.934 28.968 28.971 28.939 28.923 28.909 28.896 28.976 29.06 29.636 29.685 29.06 29.088 29.126 29.1 29.099 28.918 28.916 28.886 28.896 28.919 28.981 29.442 30.545 29.479 29.421 29.479 29.458 29.416 29.533 29.559 32.287 33.586 34.065 35.09 35.734 36.194 35.482 34.813 34.268 34.926 37.089 38.062 39.089 40.07 39.392 38.455 37.506 36.655 37.417 38.407 39.498 40.013 38.988 37.964 37.087 36.852 37.688 38.927 39.774 39.643 38.616 37.686 36.813 37.148 37.89 38.798 39.496 38.929 37.979 37.279 36.388 42.694 42.96 43.086 43.279 43.463 43.647 43.766 43.622 43.394 43.26 43.047 42.904 40.216 29.537 29.385 29.4 29.36 29.4 29.414 29.475 30.557 29.672 31.001 29.139 29.384 29.35 29.089 29.119 29.177 30.86 32.521 32.364 32.387 32.495 32.431 35.542 36.731 36.486 36.303 36.096 35.864 35.753 41.738 41.993 42.016 42.085 42.104 42.071 42.131 42.148 42.196 42.223 42.256 42.181 42.183 42.149 42.095 42.091 42.076 42.024 41.983 41.962 34.171 30.678 32.704 34.909 35.579 36.226 36.911 37.653 38.249 38.001 37.364 36.679 36.402 36.469 36.346 36.322 36.434 36.365 36.426 36.287 36.339 36.333 36.411 36.465 36.211 36.363 36.351 36.344 36.358 36.325 36.329 36.194 36.386 36.353 36.334 36.376 36.271 36.462 36.458 36.309 36.46 36.393 36.343 36.252 36.484 32.546 28.546 28.609 28.628 28.905 28.937 28.917 28.856 28.82 28.837 28.723 28.684 28.744 28.896 29.477 33.613 34.311 31.373 29.975 30.096 29.993 29.774 29.645 29.589 29.569 29.514 29.449 29.43 29.418 29.453 29.464 29.521 29.46 29.528 29.465 29.468 29.47 29.472 29.522 29.694 29.954 29.969 29.88 29.824 29.753 29.69 29.646 29.584 29.616 29.588 29.572 29.537 29.541 29.582 29.575 29.592 29.576 29.579 29.622 29.626 29.583 29.55 29.582 29.625 29.652 29.652 29.686 29.715 29.705 29.689 29.702 29.694 29.684 29.701 29.663 29.675 29.69 29.662 29.653 29.665 29.674 29.656 29.696 29.662 29.658 29.684 29.662 29.689 29.709 29.743 29.759 29.808 29.824 29.811 29.826 29.865 29.872 29.878 29.9 29.885 29.933 29.935 29.985 29.967 30.034 29.997 29.996 29.988 29.97 29.951 29.919 29.998 29.954 29.966 29.928 29.854 29.954 29.886 29.829 29.794 32.362 36.431 36.834 36.62 33.528 34.466 35.909 36.058 36.274 36.514 36.708 36.862 36.705 36.507 36.313 36.099 35.928 35.784 36.012 36.231 36.371 36.569 36.776 36.8 36.574 36.366 36.199 35.988 35.563 29.061 28.911 28.845 28.873 28.73 28.74 28.94 28.848 28.559 28.415 28.367 28.397 28.426 28.443 29.921 31.208 30.284 29.748 33.013 32.166 29.622 29.217 28.718 28.138 28.298 27.165 27.027 26.862 26.787 26.648 26.604 26.49 26.429 26.339 26.241 26.148 26.191 26.991 28.079 31.418 32.06 32.821 33.116 33.001 32.551 32.119 29.198 29.145 29.113 29.11 29.155 29.125 29.105 29.096 29.178
31.62 32.108 31.931 30.175 29.126 29.347 29.504 29.601 29.44 29.527 31.157 30.351 31.365 29.604 28.975 28.99 29.056 29.136 29.076 29.117 29.179 29.169 29.283 32.05 29.314 29.204 29.157 29.148 29.187 29.128 29.155 29.106 29.153 29.719 29.487 29.286 29.254 29.241 29.236 29.202 29.205 29.063 29.078 29.008 29.028 29.024 28.997 29.005 29.039 29.025 29.029 29.019 28.946 28.938 28.953 28.952 28.942 28.91 28.94 28.979 29.382 30.478 29.871 29.138 29.154 29.15 29.088 29.034 29.073 29.024 28.904 28.841 28.907 28.868 29.027 29.429 29.47 29.436 29.465 29.453 29.451 29.529 29.649 32.109 33.572 34.351 35.053 35.658 36.259 35.487 34.735 34.273 34.894 37.026 38.012 39.084 40.1 39.451 38.504 37.366 36.641 37.47 38.364 39.352 40.012 39.123 37.901 37.125 36.896 37.752 38.942 39.955 39.636 38.82 37.784 36.92 37.22 37.791 38.651 39.431 38.747 38.03 37.181 36.467 42.741 42.982 43.104 43.313 43.467 43.645 43.777 43.635 43.48 43.281 43.09 42.931 40.448 29.59 29.383 29.404 29.425 29.419 29.447 29.445 29.54 29.949 29.171 29.669 30.684 30.658 29.164 29.089 29.173 29.365 29.543 34.705 30.419 32.691 29.581 36.531 37.363 36.796 37.277 36.136 35.917 35.855 41.077 41.965 42.026 42.086 42.082 42.119 42.153 42.179 42.199 42.223 42.218 42.216 42.171 42.154 42.112 42.09 42.062 42.048 42.012 41.994 39.716 30.707 30.347 34.726 35.599 36.283 36.87 37.578 38.224 38.07 37.344 36.692 35.91 35.721 35.577 35.701 35.434 35.468 35.592 35.462 35.678 35.396 35.439 35.463 35.542 35.587 35.635 35.578 35.516 35.642 35.644 35.5 35.724 35.483 35.825 35.611 35.783 35.577 35.666 35.795 35.689 35.78 35.587 35.704 35.535 35.803 28.74 28.625 28.633 28.881 28.969 28.983 28.905 28.857 28.799 28.749 28.696 28.848 28.945 28.988 32.282 33.335 31.031 30.103 30.207 30.107 30.043 29.961 29.973 29.907 29.847 29.754 29.578 29.47 29.499 29.472 29.573 29.691 29.919 29.716 29.55 29.489 29.495 29.535 29.79 30.036 30.116 29.975 29.856 29.785 29.721 29.665 29.594 29.597 29.621 29.983 29.568 29.592 29.62 29.606 29.62 29.601 29.611 29.603 29.56 29.557 29.589 29.609 29.654 29.668 29.644 29.687 29.735 29.741 29.747 29.742 29.756 29.738 29.696 29.651 29.668 29.689 29.685 29.67 29.634 29.648 29.662 29.638 29.665 29.666 29.675 29.695 29.688 29.718 29.721 29.763 29.819 29.824 29.83 29.842 29.86 29.865 29.878 29.851 29.832 29.925 29.965 29.984 30.008 30.054 29.999 30.028 30.037 30.011 29.993 30.001 30.024 29.993 29.972 29.955 29.911 29.911 29.921 29.885 29.877 32.82 35.835 36.357 37.188 33.963 32.687 35.831 36.084 36.229 36.419 36.676 36.864 36.764 36.548 36.364 36.118 35.98 35.825 35.928 36.18 36.406 36.584 36.808 36.75 36.587 36.389 36.16 35.985 35.604 30.206 28.949 28.842 28.844 28.812 28.778 28.968 28.952 28.751 28.492 28.473 28.478 28.485 28.536 30.042 31.973 30.388 30.147 30.225 30.657 28.949 28.624 28.061 27.715 27.49 27.367 27.195 27.041 26.889 26.845 26.717 26.61 26.531 26.497 26.423 26.366 26.829 27.932 30.905 32.613 33.23 31.923 31.701 31.982 32.37 30.55 29.253 29.194 29.177 29.228 29.191 29.167 29.158 29.177 29.639
32.272 31.964 31.546 29.375 30.315 30.77 29.544 29.498 29.538 29.578 29.773 30.061 29.943 31.136 29.388 29.599 28.967 28.992 29.052 29.116 29.176 29.155 29.138 31.888 31.362 31.441 29.47 29.116 29.151 29.177 29.144 29.149 29.094 29.133 29.282 29.279 29.263 29.26 29.239 29.282 29.238 29.203 29.118 29.067 29.038 29.11 29.1 28.997 29.025 29.048 29.005 29.058 29.019 28.998 28.954 28.916 28.949 28.934 28.946 28.979 28.998 29.676 29.123 29.101 29.08 29.1 29.14 29.089 29.046 29.026 28.936 28.905 28.955 28.918 28.891 30.19 29.468 29.45 29.434 29.432 29.425 29.602 29.603 31.856 33.514 34.163 35.015 35.748 36.286 35.557 34.778 34.202 34.979 37.149 38.104 38.912 40.115 39.566 38.496 37.466 36.794 37.221 38.35 39.231 39.97 39.12 38.037 36.937 36.807 37.811 38.697 39.852 39.731 38.917 37.785 37.013 37.216 37.984 38.637 39.475 38.97 38.109 37.395 36.678 41.557 42.928 43.132 43.276 43.464 43.656 43.753 43.668 43.421 43.28 43.106 42.902 40.374 29.571 29.382 29.362 29.371 29.411 29.398 29.447 29.504 29.796 29.29 29.491 30.722 30.703 29.107 29.164 29.16 29.179 29.261 37.498 39.538 38.729 37.447 37.462 37.473 37.545 37.653 36.351 35.88 35.648 40.139 42.029 42.014 42.073 42.061 42.115 42.128 42.199 42.191 42.244 42.255 42.244 42.198 42.123 42.105 42.087 42.057 42.041 42.036 41.956 40.107 30.731 32.315 34.835 35.61 36.126 36.058 36.039 35.904 32.27 31.061 34.355 34.335 34.483 34.494 34.529 34.397 34.524 34.308 34.285 34.417 34.459 34.54 34.239 34.529 34.331 34.426 34.401 34.523 34.571 34.308 34.526 34.421 34.562 34.507 34.453 34.545 34.367 34.469 34.622 34.523 34.583 34.474 34.66 34.387 34.003 28.628 28.59 28.667 29.696 29.004 29.022 28.931 28.878 28.848 28.819 28.797 28.972 29.034 29.106 31.758 31.866 30.173 30.152 30.136 30.027 29.945 29.938 30.044 30.114 30.137 30.132 29.916 29.755 29.568 29.645 29.802 30.018 30.11 29.812 29.525 29.518 29.468 29.588 29.936 30.127 30.167 30.018 29.886 29.789 29.736 29.651 29.627 29.605 29.619 30.035 29.569 29.601 29.63 29.592 29.609 29.621 29.597 29.583 29.563 29.588 29.592 29.584 29.602 29.613 29.641 29.655 29.699 29.691 29.744 29.759 29.742 29.705 29.684 29.658 29.647 29.672 29.618 29.625 29.624 29.62 29.644 29.671 29.616 29.642 29.672 29.694 29.689 29.718 29.726 29.775 29.789 29.804 29.805 29.843 29.87 29.873 29.905 29.883 29.903 29.938 29.979 30.011 30.032 30.039 30.021 30.07 30.078 30.06 30.014 30.046 30.031 30.03 30.033 29.985 29.966 29.916 29.965 29.905 29.945 33.667 36.242 36.199 35.812 34.026 30.204 35.696 36.072 36.274 36.444 36.654 36.832 36.732 36.565 36.386 36.158 35.983 35.757 36.021 36.201 36.384 36.573 36.782 36.767 36.566 36.367 36.178 35.983 35.31 29.148 28.915 28.875 28.849 28.827 28.758 28.993 29.064 28.88 28.596 28.529 28.568 28.546 28.528 28.924 29.223 29.801 29.905 29.839 29.365 28.609 28.149 27.92 27.832 27.685 27.529 27.343 27.251 27.1 26.927 26.88 26.755 26.681 26.588 26.573 26.902 27.668 30.794 31.781 32.469 32.702 32.553 32.395 32.953 31.724 29.901 29.265 29.246 29.228 29.253 29.222 29.248 29.239 29.192 29.587
29.509 31.682 31.724 32.197 30.206 32.115 31.668 30.913 29.284 29.686 29.575 29.889 29.805 29.393 30.871 31.632 29.115 28.977 28.977 29.008 29.168 29.185 29.146 29.145 29.196 29.885 29.503 29.115 29.134 29.161 29.151 29.138 29.105 29.133 29.079 29.278 29.293 29.271 29.279 29.282 29.272 29.241 32.329 32.932 29.69 29.127 29.016 28.993 29.027 29.065 29.045 29.025 29.057 29.031 29.005 28.983 28.94 28.975 29.675 28.996 28.935 29.217 30.898 29.462 29.171 29.116 29.122 29.075 29.028 29.034 29.021 29.015 28.933 28.977 28.98 29.047 29.302 29.474 29.439 29.435 29.452 29.421 29.614 32.356 33.557 34.389 35.014 35.845 36.249 35.592 34.85 34.12 35.068 37.015 37.948 38.207 39.918 39.325 38.336 37.395 36.667 37.437 38.441 39.342 40.007 39.226 37.993 37.05 36.747 37.668 38.845 39.759 39.737 38.856 37.822 36.887 37.297 37.949 38.858 39.538 38.853 38.128 37.406 36.494 42.701 42.979 43.143 43.311 43.467 43.627 43.737 43.645 43.446 43.259 43.148 42.914 42.046 29.521 29.399 29.359 29.335 29.387 29.398 29.421 29.69 29.813 30.435 29.668 30.651 30.673 29.092 29.151 29.112 29.184 29.185 36.297 37.586 37.633 37.651 37.509 37.474 37.495 37.453 36.32 35.905 35.707 39.926 42.003 42.062 42.059 42.061 42.134 42.114 42.18 42.206 42.223 42.249 42.16 42.189 42.128 42.111 42.051 42.079 42.055 41.984 41.961 39.75 30.711 32.202 34.827 35.611 36.093 35.454 34.912 31.322 29.142 28.562 32.257 32.702 32.837 32.193 33.347 33.357 33.346 33.272 33.349 33.29 32.967 33.342 30.538 33.172 32.541 33.317 33.252 30.039 32.262 30.449 33.09 32.25 33.149 33.374 32.934 30.526 33.122 33.291 32.445 31.646 30.975 33.401 31.082 34.299 29.767 28.57 28.629 28.727 29.335 28.986 29.027 29.01 28.953 28.916 28.846 28.87 29.097 29.146 30.946 31.474 29.892 30.096 30.062 29.845 29.736 29.692 29.684 29.861 30.036 30.164 30.253 30.208 30.053 29.928 29.959 30.081 30.222 30.116 29.763 29.531 29.516 29.5 29.627 29.901 30.155 30.231 30.08 29.883 29.81 29.701 29.624 29.622 29.589 29.637 30.799 29.56 29.609 29.628 29.588 29.597 29.612 29.587 29.598 29.58 29.579 29.623 29.622 29.629 29.612 29.611 29.63 29.688 29.696 29.722 29.719 29.728 29.669 29.654 29.635 29.636 29.611 29.627 29.603 29.628 29.668 29.653 29.635 29.635 29.646 29.683 29.714 29.688 29.696 29.72 29.722 29.785 29.803 29.831 29.872 29.866 29.921 29.933 29.907 29.941 29.969 29.985 29.974 29.997 30.019 30.031 30.069 30.091 30.062 30.04 30.046 30.048 30.049 30.007 30.005 30.007 29.965 29.969 29.902 30.289 36.448 38.981 37.248 35.555 30.683 30.007 35.753 36.101 36.243 36.481 36.661 36.84 36.731 36.594 36.419 36.155 35.945 35.839 36 36.206 36.425 36.58 36.814 36.742 36.574 36.408 36.203 36.016 35.548 29.281 28.962 28.848 28.877 28.844 28.765 29.033 29.105 29.041 28.722 28.613 28.637 28.752 28.621 28.662 28.811 28.941 29.403 28.993 28.619 29.465 28.26 28.094 27.973 27.816 27.688 27.548 27.384 27.208 27.116 26.951 26.923 26.847 26.752 26.866 30.257 31.576 32.377 32.442 33.078 33.242 33.683 32.031 32.238 31.74 29.445 29.308 29.282 29.285 29.293 29.314 29.268 29.269 29.269 29.481
28.872 28.868 29.805 32.236 32.314 31.287 29.523 32.071 31.81 29.022 29.413 29.589 29.575 29.522 29.333 30.549 29.368 31.221 29.084 28.943 28.983 29.034 29.209 29.158 29.128 29.14 29.197 29.143 29.168 29.105 29.151 29.105 29.1 29.144 29.12 29.164 29.219 29.327 29.77 29.778 29.383 29.336 32.996 34.341 34.011 32.263 29.907 29.022 29.079 29.023 29.056 29.073 29.034 29.03 29.048 29.042 28.978 28.983 29.112 29.069 29.017 29.009 29.062 29.13 29.125 29.152 29.072 29.006 29.025 29.018 29.042 29.071 29.027 28.933 28.948 28.949 29.282 30.181 29.497 29.447 29.453 29.451 29.569 32.141 33.495 34.275 34.86 35.711 36.206 35.58 34.719 34.158 35.069 36.761 37.906 39.062 40.098 39.418 38.599 37.489 36.617 37.264 38.442 39.253 39.899 39.095 38.078 37.164 36.843 37.581 38.753 39.691 39.857 38.802 37.752 36.859 37.125 37.975 38.822 39.586 38.901 38.229 37.274 36.741 42.588 42.974 43.083 43.267 43.445 43.642 43.776 43.62 43.453 43.271 43.107 42.944 42.256 29.787 29.377 29.369 29.3 29.381 29.399 29.481 30.014 30.292 30.187 29.617 31.103 30.708 29.073 29.166 29.154 29.205 29.201 34.958 37.501 37.501 37.511 37.561 37.54 37.506 37.463 36.293 35.899 35.655 40.102 41.975 42.036 42.076 42.131 42.123 42.131 42.187 42.14 42.227 42.221 42.186 42.149 42.096 42.128 42.089 42.09 42.034 42.034 41.98 39.767 30.724 30.243 34.8 35.463 36.022 35.556 34.878 31.312 29.208 28.927 29.022 29.191 33.916 35.426 34.911 30.572 28.581 28.575 28.6 28.537 28.508 28.514 28.534 28.501 28.524 28.519 28.528 28.566 28.566 28.565 28.559 28.53 28.51 28.553 28.525 28.515 28.478 28.52 28.516 28.496 28.568 28.609 28.579 28.58 28.626 28.641 28.708 28.861 29.297 28.98 28.995 29.012 29.029 28.99 28.919 29.007 29.176 29.206 32.707 32.324 30.059 30.135 30.025 29.711 29.553 29.494 29.499 29.733 29.835 30.074 30.239 30.269 30.267 30.202 30.196 30.22 30.117 29.815 29.581 29.491 29.485 29.489 29.641 29.887 30.177 30.27 30.125 29.933 29.807 29.718 29.704 29.599 29.613 29.617 30.856 29.64 29.627 29.592 29.614 29.591 29.573 29.615 29.653 29.641 29.641 29.63 29.622 29.631 29.654 29.622 29.657 29.718 29.688 29.701 29.719 29.676 29.639 29.642 29.651 29.616 29.619 29.618 29.645 29.648 29.659 29.645 29.635 29.653 29.685 29.671 29.653 29.653 29.694 29.701 29.741 29.795 29.795 29.839 29.85 30.318 29.907 29.955 29.95 29.954 29.957 29.934 29.961 30.008 30.02 30.052 30.089 30.08 30.074 30.072 30.054 30.09 30.083 30.081 30.074 30.063 30.023 29.988 29.972 29.958 34.248 37.457 38.401 36.014 32.531 29.997 35.77 35.956 36.272 36.46 36.668 36.876 36.685 36.569 36.361 36.177 35.927 35.804 35.978 36.155 36.379 36.609 36.801 36.777 36.619 36.413 36.174 36.024 35.67 29.102 28.927 28.876 28.831 28.804 28.797 29.038 29.145 29.071 28.778 28.72 28.731 28.758 28.725 28.702 28.804 28.842 28.887 28.788 28.65 28.572 28.506 28.243 28.144 28.176 28.292 28.187 27.881 27.5 27.248 27.126 27.003 26.954 26.954 29.64 30.611 34.016 33.328 33.494 34.001 34.689 35.559 32.751 32.968 30.427 29.378 29.373 29.36 29.311 29.312 29.322 29.34 29.348 29.406 29.388
28.915 28.908 28.889 29.583 29.846 29.009 31.83 32.257 32.354 31.967 31.414 29.184 29.235 29.425 29.379 29.477 30.085 31.656 31.248 30.68 28.975 28.967 28.983 29.148 29.094 29.148 29.097 29.138 29.134 29.16 29.104 29.134 29.124 29.101 29.107 29.244 29.276 29.292 29.286 29.601 29.299 32.86 35.258 34.847 34.636 34.196 32.665 31.825 29.117 28.999 29.064 29.063 29.066 29.092 29.028 29.025 29.028 29.019 28.972 28.971 28.989 28.997 29.02 29.119 31.89 31.577 29.417 29.029 28.988 29.009 29.021 29.039 29.049 29.011 28.975 28.935 28.93 29.307 29.508 29.513 29.47 29.455 29.424 29.929 32.025 34.22 34.942 35.808 36.251 35.556 34.827 34.181 35.591 36.802 37.994 38.983 39.851 39.485 38.521 37.347 36.627 37.168 38.175 39.275 39.766 39.113 38.095 37.1 36.793 37.683 38.609 39.767 39.8 38.837 37.779 36.88 37.045 37.977 38.682 39.581 39.098 38.087 37.315 36.815 42.065 42.935 43.153 43.265 43.444 43.645 43.766 43.631 43.509 43.273 43.1 42.96 42.263 31.538 29.344 29.368 29.314 29.343 29.38 29.451 30.238 31.301 29.234 29.119 30.456 30.625 29.161 29.118 29.131 29.218 29.183 35.029 37.541 37.53 37.533 37.729 37.529 37.524 37.612 36.562 35.884 35.804 40.73 42.028 42.061 42.089 42.146 42.127 42.149 42.207 42.186 42.224 42.222 42.229 42.19 42.142 42.145 42.093 42.062 42.046 42.031 41.993 35.278 30.597 31.794 29.428 31.924 30.839 31.983 31.493 30.151 29.143 28.806 28.674 28.624 28.598 28.585 28.57 28.63 28.679 29.202 29.227 29.774 29.167 30.136 28.717 28.54 28.564 28.51 28.557 28.581 28.599 28.654 28.6 28.579 28.547 28.536 28.537 28.533 28.528 28.544 28.53 28.528 28.611 28.608 28.612 28.629 28.67 28.662 32.617 32.778 29.41 29.062 29.021 29.044 29.009 28.988 28.946 29.1 29.205 31.04 33.903 32.741 30.148 30.148 29.908 29.582 29.446 29.472 29.476 29.527 29.72 29.869 30.101 30.153 30.178 30.17 30.114 30.063 29.854 29.564 29.516 29.48 29.499 29.539 29.601 29.84 30.121 30.312 30.197 30.02 29.893 29.757 29.685 29.631 29.605 29.617 29.646 29.629 29.614 29.641 29.592 29.605 29.605 29.657 29.671 29.676 29.631 29.658 29.603 29.628 29.658 29.658 29.685 29.694 29.696 29.703 29.694 29.652 29.64 29.615 29.627 29.632 29.635 29.645 29.642 29.656 29.643 29.637 29.623 29.668 29.699 29.683 29.659 29.652 29.718 29.75 29.749 29.812 29.821 29.862 29.87 31.08 29.937 29.954 30.005 30 30.003 29.94 29.989 29.991 30.053 30.09 30.102 30.128 30.122 30.108 30.12 30.097 30.113 30.066 30.066 30.076 30.053 30.022 30.006 29.944 32.645 34.265 36.181 33.806 33.305 30.483 35.677 36.036 36.267 36.434 36.696 36.847 36.772 36.575 36.356 36.122 35.996 35.732 35.977 36.212 36.398 36.561 36.792 36.83 36.627 36.415 36.193 36.02 35.801 30.263 28.95 28.926 28.905 28.873 28.805 29.029 29.135 29.044 28.884 28.762 28.767 28.81 28.807 28.841 28.819 28.866 28.959 28.908 28.764 28.696 28.829 28.758 28.699 28.834 28.86 28.565 28.243 27.708 27.442 27.293 27.249 27.114 29.208 31.628 32.113 32.7 33.059 33.317 34.682 34.415 33.91 32.625 31.961 31.284 29.485 29.37 29.371 29.361 29.353 29.361 29.405 29.358 29.751 29.396
28.676 28.755 28.84 28.786 28.908 28.849 31.406 32.158 32.471 32.194 32.28 32.049 29.564 29.307 29.469 29.45 29.357 30.467 31.396 31.769 29.357 29.791 28.983 28.973 29.098 29.083 29.12 29.223 29.166 29.147 29.15 29.185 29.117 29.188 29.151 29.305 29.32 29.312 29.294 29.299 29.448 35.194 35.571 35.314 35.02 34.73 34.489 34.218 32.581 29.309 29.049 29.057 29.085 29.057 29.05 28.999 29.029 29.047 29.059 29.014 28.963 28.974 29.017 31.854 32.304 32.277 32.192 31.266 29.06 29.051 29.01 29.08 29.03 29.058 29.071 28.989 29.009 28.966 29.267 29.7 29.438 29.494 29.45 29.4 29.734 33.734 34.935 35.792 36.174 35.582 34.909 34.142 34.903 36.972 38.037 38.888 39.858 39.696 38.593 37.366 36.555 37.393 38.365 39.279 39.891 39.159 38.199 37.175 36.833 37.763 38.759 39.658 39.855 38.99 37.921 36.808 37.152 37.951 38.817 39.557 38.96 38.187 37.447 36.582 42.721 42.959 43.142 43.296 43.443 43.654 43.838 43.657 43.496 43.299 43.123 42.913 41.776 32.328 29.353 29.324 29.337 29.29 29.36 29.455 30.287 31.156 29.23 29.068 30.592 30.619 29.296 29.15 29.133 29.218 29.18 35.034 37.523 37.495 37.553 37.508 37.505 37.485 37.517 36.381 35.833 35.665 40.124 42.029 42.051 42.041 42.1 42.102 42.161 42.197 42.203 42.201 42.29 42.244 42.202 42.129 42.116 42.055 42.066 41.995 41.994 41.995 37.398 30.81 29.891 30.42 29.28 30.493 29.121 29.437 29.167 29.391 30.09 29.267 30.261 29.237 29.427 29.412 29.374 28.995 29.26 29.279 29.548 29.645 29.585 29.358 29.903 29.509 30.151 29.043 29.339 30.18 30.217 30.089 29.951 29.188 30.213 29.077 30.367 29.994 29.377 29.972 29.947 29.133 29.335 29.304 29.48 29.094 29.158 35.087 36.578 31.503 29.133 29.07 29.143 29.063 29.036 29.094 29.164 29.268 29.64 30.963 30.46 30.152 30.122 29.866 29.579 29.465 29.473 29.481 29.493 29.555 29.685 29.805 29.876 29.927 29.887 29.808 29.698 29.557 29.503 29.478 29.478 29.486 29.48 29.514 29.822 30.179 30.433 30.329 30.053 29.859 29.75 29.641 29.597 29.61 29.615 29.642 29.637 29.658 29.632 29.616 29.613 29.647 29.641 29.669 29.624 29.62 29.624 29.633 29.622 29.671 29.722 29.687 29.712 29.698 29.691 29.696 29.684 29.635 29.628 29.655 29.655 29.674 29.658 29.668 29.657 29.661 29.646 29.683 29.675 29.689 29.722 29.717 29.713 29.723 29.746 29.793 29.818 29.832 29.874 29.897 29.923 29.936 29.973 30.015 30.057 30.002 30.008 30.005 30.062 30.105 30.133 30.171 30.14 30.113 30.147 30.152 30.158 30.1 30.099 30.083 30.071 30.025 30.017 30.038 30.1 33.268 37.027 31.735 35.893 38.6 32.784 34.756 36.097 36.281 36.483 36.648 36.859 36.829 36.592 36.392 36.221 36.054 35.818 36.022 36.191 36.434 36.585 36.874 36.758 36.66 36.455 36.225 36.062 35.699 29.239 28.949 28.884 28.884 28.893 28.841 29.016 29.158 29.056 28.908 28.912 28.867 28.874 28.814 28.896 28.885 29.05 29.017 28.972 28.93 29.023 29.255 29.442 29.436 29.579 29.415 29.304 28.829 28.401 28.131 27.592 27.379 27.335 28.259 31.78 31.567 32.789 33.604 34.865 34.801 33.606 32.934 32.311 31.858 29.736 29.481 29.47 29.455 29.438 29.435 29.538 29.427 29.45 29.845 29.372
28.533 28.56 28.667 28.722 28.776 28.793 28.825 29.395 31.409 32.256 31.458 30.384 29.483 30.882 29.07 29.279 29.345 29.645 29.534 29.8 30.35 30.606 29.178 29.062 28.968 28.946 29.014 29.154 29.208 29.171 29.097 29.18 29.112 29.133 29.326 29.334 29.28 29.316 29.331 29.318 34.344 36.389 36.005 35.903 35.503 35.173 34.857 34.755 34.472 34.034 30.835 29.23 29.035 29.065 29.111 29.077 29.055 29.1 29.076 29.033 29.014 29.013 28.954 28.969 29.975 32.183 32.218 32.163 29.939 29.163 29.119 29.138 29.124 29.05 29.085 29.051 29.037 29.037 28.972 29.266 29.478 29.467 29.458 29.477 29.449 30.71 30.554 31.238 31.334 30.848 31.206 33.99 34.8 36.86 38.017 38.763 39.853 39.521 38.449 37.674 36.522 37.388 38.385 39.201 40.114 39.137 38.087 37.198 36.685 37.418 38.768 39.658 39.696 38.838 37.828 36.958 37.049 37.889 38.578 39.42 38.994 38.174 37.363 36.388 41.559 42.929 43.119 43.257 43.467 43.617 43.787 43.658 43.469 43.233 43.131 42.995 39.141 31.986 29.378 29.359 29.285 29.292 29.383 29.434 29.679 29.818 30.351 29.08 29.02 29.011 29.238 29.091 29.166 29.211 29.196 34.987 37.449 37.522 37.5 37.508 37.497 37.532 37.531 36.528 35.906 35.749 41.687 42.021 42.055 42.006 42.105 42.085 42.118 42.21 42.207 42.223 42.267 42.19 42.131 42.136 42.094 42.062 42.053 42.05 42.036 42.005 36.251 30.624 32.321 33.168 33.652 30.953 29.137 29.16 29.16 29.18 29.167 29.15 29.154 29.11 29.143 29.123 29.141 29.092 29.129 29.115 29.121 29.13 29.13 29.107 29.141 29.18 29.155 29.096 29.152 29.113 29.126 29.199 29.154 29.202 29.192 29.156 29.148 29.158 29.131 29.117 29.056 29.107 29.087 29.088 29.09 29.172 31.574 37.987 33.718 31.222 29.842 29.145 29.146 29.11 29.101 29.138 29.24 29.269 29.65 30.438 30.159 30.157 30.071 29.91 29.613 29.422 29.451 29.486 29.47 29.527 29.566 29.635 29.697 29.705 29.603 29.566 29.531 29.524 29.508 29.494 29.496 29.493 29.448 29.493 29.805 30.255 30.545 30.425 30.076 29.874 29.726 29.658 29.579 29.56 29.626 29.631 29.608 29.641 29.655 29.676 29.661 29.66 29.679 29.677 29.638 29.638 29.669 29.632 29.631 29.661 29.712 29.7 29.704 29.695 29.703 29.701 29.661 29.617 29.632 29.694 29.682 29.69 29.661 29.648 29.668 29.67 29.649 29.68 29.699 29.708 29.738 29.711 29.743 29.74 29.749 29.786 29.832 29.866 29.906 29.924 29.967 29.935 29.986 30.017 30.047 30.03 30.064 30.086 30.084 30.127 30.152 30.161 30.176 30.163 30.163 30.188 30.108 30.162 30.126 30.107 30.098 30.066 30.013 30.02 30.45 35.382 36.221 33.179 32.77 34.11 34.442 35.784 36.03 36.262 36.375 36.692 36.845 36.768 36.599 36.378 36.207 35.99 35.734 35.983 36.212 36.434 36.586 36.777 36.828 36.656 36.414 36.267 36.04 35.497 29.879 28.919 28.913 28.967 28.885 28.878 29.063 29.132 28.989 28.942 28.891 28.993 29.015 28.973 28.925 28.94 29.033 29.086 29.036 29.296 29.486 29.765 29.936 30.183 30.421 30.098 29.881 29.534 29.215 28.664 28.296 27.895 28.11 28.637 29.56 31.361 32.847 34.474 34.433 34.841 33.677 32.921 31.897 31.835 29.597 29.54 29.585 29.485 29.479 29.507 29.477 29.895 29.929 29.988 29.535
28.564 28.552 28.523 28.566 28.645 28.821 28.816 28.813 28.87 31.484 30.506 31.97 29.291 31.376 31.544 30.113 29.052 29.28 29.275 29.682 30.159 31.027 29.846 31.839 29.496 28.96 28.977 29.008 29.142 29.2 29.155 29.135 29.158 29.2 29.278 29.362 29.306 29.339 29.316 29.876 36.223 36.744 36.518 36.244 36.019 35.751 35.434 35.133 34.849 34.566 34.324 31.738 30.12 29.092 29.062 29.071 29.146 29.109 29.072 29.064 28.974 29.026 29.021 28.999 29.07 29.021 31.471 29.43 30.121 29.426 29.701 29.158 29.137 29.136 29.147 29.134 29.101 29.008 28.996 28.992 29.428 29.518 29.499 29.48 29.461 29.431 29.507 29.464 29.507 29.92 29.663 33.113 34.746 36.835 37.793 38.857 39.931 39.446 38.498 37.468 36.582 37.174 38.11 39.253 39.964 39.194 38.226 37.059 36.745 37.122 38.64 39.726 39.743 38.91 37.722 36.829 37.182 38.004 38.694 39.56 38.982 38.174 37.416 36.456 41.447 42.936 43.102 43.254 43.444 43.636 43.809 43.617 43.455 43.295 43.092 42.927 37.134 29.602 29.384 29.343 29.275 29.341 29.368 29.447 29.521 29.556 30.529 29.245 28.986 29.047 29.1 29.12 29.16 29.207 29.161 35.048 37.445 37.476 37.495 37.501 37.458 37.49 37.567 36.232 35.861 35.668 39.937 42.017 42.023 42.078 42.101 42.089 42.102 42.156 42.211 42.237 42.229 42.21 42.109 42.12 42.072 42.084 42.047 42.013 42.023 41.973 38.016 30.586 32.567 32.201 31.441 31.067 29.222 29.126 29.174 29.158 29.163 29.148 29.127 29.117 29.136 29.119 29.114 29.104 29.139 29.103 29.089 29.107 29.099 29.092 29.13 29.126 29.119 29.153 29.097 29.122 29.14 29.178 29.165 29.179 29.197 29.133 29.167 29.111 29.106 29.083 29.066 29.089 29.082 29.08 29.033 29.06 29.257 29.087 29.117 29.19 29.106 29.185 29.174 29.137 29.122 29.119 29.302 29.407 32.837 31.262 30.153 30.103 29.993 29.837 29.683 29.437 29.417 29.444 29.47 29.47 29.512 29.533 29.523 29.525 29.514 29.54 30.395 29.525 29.492 29.469 29.483 29.442 29.467 29.424 29.783 30.252 30.64 30.468 30.087 29.924 29.716 29.659 29.622 29.579 29.631 29.63 29.651 29.629 29.662 29.676 29.684 29.664 29.682 29.652 29.646 29.684 29.689 29.668 29.66 29.684 29.662 29.634 29.663 29.695 29.69 29.693 29.676 29.632 29.641 29.694 29.722 29.709 29.68 29.714 29.68 29.672 29.679 29.698 29.776 29.798 29.744 29.758 29.772 29.741 29.786 29.791 29.825 29.853 29.935 29.966 29.971 29.946 29.976 30.029 30.007 30.031 30.065 30.061 30.104 30.117 30.173 30.193 30.168 30.134 30.138 30.175 30.149 30.151 30.122 30.103 30.095 30.044 30.013 30.044 30.064 33.923 36.733 34.034 35.918 34.276 36.058 35.838 36.04 36.184 36.441 36.616 36.867 36.809 36.571 36.385 36.197 36.004 35.779 35.975 36.168 36.355 36.553 36.833 36.816 36.613 36.384 36.225 36.029 35.519 29.752 31.084 33.371 31.3 32.709 29.931 29.118 29.091 28.972 28.953 29.006 29.028 29.077 29.054 29.074 29.068 29.073 29.134 30.569 31.918 30.494 30.442 30.634 30.794 30.851 30.784 30.459 29.963 29.739 29.147 28.816 28.609 28.924 29.251 29.799 30.396 32.066 33.456 33.878 33.632 33.123 31.447 31.433 30.236 29.824 29.637 29.657 30.145 29.504 29.542 29.543 29.516 29.52 29.595 29.618
28.629 28.608 28.648 28.602 28.579 28.621 28.776 28.889 28.893 28.886 29.535 29.841 30.448 31.311 31.575 31.596 29.87 29.533 29.165 29.214 29.28 29.167 29.511 30.266 30.242 30.383 29.448 29.036 28.948 28.971 29.072 29.08 29.124 29.247 29.293 29.333 29.305 29.317 29.31 34.575 37.282 37.144 36.933 36.706 36.399 36.12 35.851 35.622 35.314 35.03 34.802 34.471 33.884 30.582 29.226 29.166 29.07 29.14 29.103 29.05 29.041 29.035 29.031 29.089 29.071 29.049 29.032 29.18 29.324 29.47 30.572 29.492 29.185 29.166 29.13 29.124 29.128 28.991 29.036 28.948 29.037 29.435 29.478 29.476 29.437 29.436 29.417 29.512 30.354 30.641 30.065 33.075 34.831 36.858 37.983 38.828 39.925 39.693 38.529 37.705 36.561 37.261 38.328 39.141 40.007 39.094 38.305 37.138 36.77 37.577 38.6 39.702 39.776 38.839 37.947 36.864 37.11 37.923 38.638 39.413 39.069 38.351 37.473 36.416 41.252 42.945 43.09 43.279 43.409 43.606 43.807 43.659 43.46 43.294 43.081 43.006 42.495 30.551 29.339 29.309 29.319 29.388 29.396 29.447 29.564 30.379 31.076 29.26 29.027 29.073 29.107 29.11 29.171 29.121 29.139 33.62 37.397 37.681 37.308 37.471 37.325 37.189 37.332 36.61 36.225 35.985 41.195 42.017 42.017 42.061 42.082 42.109 42.152 42.147 42.194 42.186 42.261 42.227 42.124 42.121 42.074 42.059 42.077 42.068 42.03 42.009 35.775 30.437 31.718 29.84 29.849 29.615 29.235 29.096 29.262 29.148 29.246 29.107 29.192 29.101 29.108 29.235 29.118 29.206 29.12 29.15 29.126 29.059 29.159 29.105 29.202 29.238 29.152 29.147 29.093 29.145 29.174 29.161 29.247 29.19 29.206 29.233 29.122 29.2 29.1 29.061 29.165 29.052 29.034 29.059 29.046 29.056 29.109 29.107 29.169 29.298 29.144 29.204 29.193 29.179 29.156 29.188 29.37 29.516 33.691 31.631 30.034 29.863 29.711 29.703 29.548 29.375 29.432 29.444 29.436 29.472 29.471 29.489 29.491 29.501 29.467 29.502 30.913 30.731 29.823 29.469 29.475 29.441 29.449 29.665 29.882 30.462 30.715 30.422 30.113 29.908 29.753 29.673 29.612 29.604 29.596 29.622 29.655 29.634 29.65 29.636 29.665 29.653 29.653 29.635 29.686 29.671 29.694 29.7 29.649 29.703 29.694 29.681 29.671 29.7 29.675 29.696 29.662 29.66 29.651 29.724 29.739 29.743 29.729 29.712 29.723 29.696 29.674 29.695 29.8 29.805 29.789 29.765 29.75 29.811 29.78 29.784 29.833 29.868 29.922 29.957 29.961 30.017 30.003 30.013 30.037 30.058 30.076 30.07 30.093 30.159 30.178 30.183 30.14 30.095 30.156 30.167 30.139 30.141 30.14 30.14 30.101 30.09 30.027 30.052 30.873 36.931 36.663 36.693 37.265 40.527 37.461 36.098 36.016 36.209 36.382 36.615 36.869 36.778 36.56 36.338 36.191 35.945 35.747 35.931 36.11 36.331 36.533 36.787 36.81 36.684 36.395 36.237 36.014 35.561 29.29 32.606 35.836 36.843 35.841 30.345 29.228 29.036 29.015 29.072 29.137 29.15 29.168 29.142 29.123 29.126 29.182 29.155 29.835 32.605 32.256 31.873 31.906 31.247 31.315 31.242 30.914 30.514 30.267 29.711 29.345 28.982 29.482 29.756 30.626 30.531 32.336 33.647 33.993 33.533 30.161 30.156 30.222 30.104 30.395 30.114 32.674 30.896 29.746 29.77 29.615 29.613 29.571 29.514 29.538
28.67 28.672 28.65 28.64 28.692 28.673 28.692 28.68 28.877 28.835 28.842 28.919 29.469 30.911 29.44 29.452 31.525 32.002 31.719 29.713 29.138 29.233 29.181 29.923 30.397 31.24 31.102 30.144 29.797 29.03 28.955 29.07 29.138 29.058 29.192 29.236 29.282 29.326 32.978 35.915 36.788 37.076 37.299 37.155 36.875 36.616 36.262 36.063 35.779 35.511 35.266 34.925 34.716 34.467 33.28 29.905 29.183 29.047 29.126 29.104 29.068 29.06 29.055 29.055 29.112 29.114 29.088 29.168 29.193 29.49 29.313 30.852 31.227 30.336 29.296 29.125 29.116 29.104 29.009 29.002 29.089 30.223 30.215 29.533 29.502 29.454 29.445 29.408 29.699 29.81 29.354 30.797 34.63 36.964 37.745 38.878 39.586 39.547 38.587 37.586 36.634 37.195 38.21 39.226 39.879 39.188 38.115 37.199 36.521 37.44 38.68 39.634 39.79 38.755 37.805 36.822 37.057 37.713 38.702 39.46 39.049 38.166 37.447 36.731 42.577 42.946 43.055 43.273 43.426 43.623 43.74 43.653 43.459 43.304 43.114 42.941 42.513 31.625 29.334 29.296 29.336 29.365 29.427 29.483 29.649 30.52 31.721 29.837 29.038 29.114 29.139 29.14 29.147 29.168 29.113 33.057 35.116 37.197 36.778 36.452 35.251 35.452 35.584 36.095 36.224 35.819 41.132 42.005 42.017 42.065 42.039 42.11 42.157 42.134 42.215 42.216 42.267 42.15 42.167 42.107 42.121 42.096 42.077 42.019 42.05 42.017 39.757 30.251 31.271 29.281 29.179 29.135 29.133 29.125 32.46 32.782 33.895 32.625 33.253 33.47 32.803 34.005 33.396 33.047 33.373 33.113 33.782 33.469 33.319 33.433 33.124 33.788 32.764 33.205 33.375 33.098 33.649 32.511 33.171 33.456 32.866 33.73 33.336 32.963 33.274 32.628 33.626 33.364 29.064 29.021 29.006 29.044 29.073 29.153 29.284 32.097 29.324 29.251 29.218 29.195 29.164 29.211 29.391 29.605 30.371 30.246 29.96 29.707 29.505 29.387 29.363 29.405 29.413 29.422 29.433 29.44 29.413 29.509 29.462 29.478 29.485 29.501 30.815 30.101 29.661 29.482 29.469 29.455 29.446 29.563 29.987 30.684 30.838 30.507 30.172 29.919 29.766 29.667 29.631 29.611 29.621 29.649 29.639 29.643 29.64 29.638 29.696 29.631 29.598 29.623 29.676 29.674 29.655 29.65 29.663 29.702 29.713 29.661 29.668 29.689 29.692 29.695 29.658 29.681 29.671 29.749 29.782 29.782 29.752 29.746 29.739 29.742 29.726 29.737 29.824 29.829 29.785 29.788 29.804 29.807 29.789 29.811 29.849 29.937 29.949 29.946 29.989 30.017 30.027 30.004 30.045 30.068 30.084 30.1 30.104 30.181 30.153 30.144 30.133 30.146 30.164 30.155 30.163 30.138 30.189 30.181 30.147 30.107 30.074 30.082 30.142 30.974 35.938 35.022 37.044 37.359 33.613 35.751 35.995 36.248 36.439 36.691 36.831 36.809 36.595 36.484 36.226 35.982 35.746 35.924 36.153 36.345 36.561 36.77 36.815 36.646 36.446 36.233 36.015 35.799 30.403 29.126 35.148 36.128 35.58 31.115 29.311 29.11 29.139 29.175 29.19 29.22 29.217 29.255 29.242 29.235 29.237 29.199 31.553 33.283 33.84 34.143 33.059 31.912 31.511 31.474 31.221 30.927 30.459 29.946 29.928 29.426 29.877 29.906 30.074 31.058 30.304 30.944 33.679 31.61 30.052 30.066 30.088 30.021 30.032 29.982 31.59 32.05 30.414 30.603 30.631 30.09 29.631 29.612 29.634
28.715 28.723 28.672 28.688 28.7 28.667 28.601 28.716 28.777 28.723 28.937 28.879 28.892 29.013 29.375 28.945 30.155 31.318 32.419 31.604 29.956 28.973 29.206 29.244 29.28 30.606 29.949 30.354 30.07 29.433 28.975 29.023 28.995 28.981 29.125 29.173 29.244 29.286 33.901 36.12 36.265 36.74 36.894 37.15 37.24 37.072 36.765 36.481 36.276 36.136 35.713 35.47 35.202 34.829 34.61 34.309 33.216 29.639 29.121 29.196 30.546 29.167 29.127 29.039 29.008 29.107 29.177 29.193 29.242 29.231 29.282 31.397 31.524 31.501 30.878 29.558 29.117 29.085 29.074 28.969 28.994 29.004 29.485 31.969 29.863 29.444 29.417 29.423 29.407 29.361 29.364 29.33 29.327 35.471 37.949 38.805 39.817 39.71 38.699 37.542 36.644 37.248 38.298 39.012 39.824 39.203 38.101 37.273 36.75 37.539 38.538 39.671 39.841 38.807 37.976 36.907 36.995 37.932 38.661 39.385 39.109 38.306 37.462 36.742 42.072 42.936 43.066 43.287 43.454 43.608 43.785 43.623 43.45 43.3 43.132 42.949 42.537 29.495 29.31 29.315 29.317 29.357 29.39 29.443 29.529 30.984 30.001 29.246 29.038 29.058 29.043 29.113 29.146 29.091 29.158 34.515 37.272 37.382 35.155 34.718 34.689 34.689 34.651 36.178 36.226 35.639 40.044 42.007 42.005 42.078 42.084 42.137 42.096 42.184 42.177 42.205 42.255 42.197 42.187 42.148 42.149 42.091 42.032 42.024 41.999 42.03 38.551 30.092 30.647 29.447 29.194 29.14 29.161 29.214 34.346 34.902 34.891 34.929 34.83 34.827 34.973 34.949 34.863 34.853 34.77 34.826 34.742 34.777 34.84 34.738 34.787 34.709 34.796 34.722 34.792 34.773 34.763 34.828 34.735 34.735 34.882 34.677 34.798 34.807 34.622 34.659 34.137 30.679 29.046 29.013 29.019 29.046 31.454 34.698 33.689 34.852 29.564 29.253 29.288 29.234 29.169 29.272 29.44 29.573 30.443 30.066 29.828 29.55 29.396 29.334 29.433 29.941 29.399 29.434 29.44 29.447 29.46 29.452 29.462 29.452 29.439 29.451 29.457 29.547 29.462 29.45 29.456 29.462 29.562 29.715 30.326 30.914 30.951 30.512 30.142 29.914 29.752 29.689 29.676 29.657 29.68 29.664 29.663 29.615 29.642 29.663 29.618 29.599 29.586 29.627 29.674 29.685 29.7 29.679 29.692 29.727 29.676 29.671 29.705 29.697 29.714 29.711 29.685 29.656 29.723 29.785 29.771 29.789 29.777 29.762 29.742 29.735 29.732 29.761 29.808 29.84 29.807 29.812 29.814 29.814 29.812 29.819 29.875 29.924 29.939 29.975 30.018 30.027 30.055 30.04 30.032 30.06 30.093 30.106 30.109 30.142 30.138 30.187 30.163 30.148 30.198 30.18 30.195 30.215 30.24 30.227 30.215 30.142 30.091 30.08 30.104 31.031 33.259 34.717 33.554 34.045 31.385 34.7 36.024 36.251 36.459 36.582 36.782 36.773 36.589 36.391 36.167 35.933 35.713 35.944 36.169 36.33 36.562 36.742 36.813 36.672 36.423 36.243 36.086 35.799 30.008 30.082 34.827 35.934 36.209 34.595 29.679 29.136 29.184 29.277 29.236 29.336 29.306 29.352 29.354 29.326 29.32 29.288 29.961 33.493 33.633 33.654 33.606 32.271 31.465 31.486 31.34 31.115 30.635 30.202 30.713 29.943 30.049 30.006 30.539 30.936 30.144 30.135 30.071 30.069 29.994 30.007 30.007 29.997 29.941 29.906 29.897 29.904 29.874 29.867 29.992 30.17 30.23 30.353 30.18
28.774 28.715 28.667 28.65 28.651 28.68 28.67 28.733 28.668 28.71 28.747 28.756 28.943 28.937 28.967 28.901 29.553 31.023 29.861 31.42 29.298 30.175 29.794 29.642 29.697 29.75 29.694 29.461 30.46 29.966 29.632 29.477 28.964 28.945 29.009 29.124 29.128 29.266 32.119 35.549 35.89 36.166 36.384 36.761 37.05 37.242 37.271 36.926 36.969 36.548 36.124 35.831 35.609 35.323 35.056 34.82 34.483 34.173 32.715 31.865 32.933 32.114 29.581 29.183 29.1 29.05 29.099 29.167 29.2 29.275 29.297 29.328 31.119 31.427 31.577 31.098 30.854 29.243 28.995 28.992 28.977 29.052 29.009 30.652 29.789 29.411 29.409 29.394 29.357 29.37 29.361 29.33 29.465 36.883 37.997 38.713 39.806 39.806 38.774 37.685 36.823 37.163 38.192 39.165 40.033 39.331 38.18 37.379 36.775 37.555 38.6 39.589 39.899 38.934 37.895 36.816 37.02 37.986 38.659 39.436 38.983 38.362 37.452 36.759 40.853 42.887 43.074 43.249 43.435 43.649 43.8 43.683 43.51 43.319 43.105 42.955 42.518 29.685 29.325 29.344 29.307 29.361 29.386 29.438 29.893 31.014 29.378 29.754 29.03 29.013 29.03 29.092 29.055 29.108 30.668 34.558 37.223 36.049 36.392 34.909 34.683 34.68 34.667 35.99 36.086 35.739 40.021 41.976 42.055 42.056 42.004 42.095 42.107 42.211 42.173 42.241 42.242 42.204 42.17 42.138 42.111 42.057 42.076 42.058 42 42.008 40.004 29.943 30.46 29.174 29.169 29.182 29.166 29.186 34.276 35.822 35.753 35.804 35.825 35.727 35.907 35.843 35.806 35.88 35.852 35.884 35.797 35.844 35.742 35.756 35.83 35.807 35.833 35.752 35.814 35.782 35.732 35.875 35.862 35.769 35.765 35.645 35.798 35.682 35.623 35.298 34.244 30.014 29.007 28.989 29.029 29.129 33.012 37.321 37.387 37.313 30.482 29.316 29.305 29.25 29.195 29.321 29.443 30.239 30.478 30.275 29.78 29.452 29.377 29.38 29.388 29.448 29.309 29.4 29.398 29.394 29.424 29.401 29.406 29.365 29.395 29.411 29.44 29.431 29.424 29.458 29.472 29.43 29.487 29.869 31.144 31.203 30.955 30.507 30.171 29.899 29.759 29.686 29.698 29.678 29.673 29.679 29.714 29.647 29.643 29.664 29.588 29.583 29.551 29.6 29.649 29.688 29.695 29.69 29.652 29.724 29.723 29.681 29.693 29.714 29.695 29.684 29.709 29.676 29.765 29.76 29.801 29.779 29.767 29.785 29.766 29.794 29.767 29.777 29.821 29.843 29.817 29.804 29.821 29.807 29.807 29.814 29.85 29.909 29.945 29.982 30.052 30.024 30.039 30.076 30.014 30.027 30.067 30.078 30.142 30.164 30.197 30.209 30.196 30.225 30.214 30.219 30.232 30.276 30.241 30.226 30.243 30.189 30.113 30.122 30.123 30.201 33.408 34.002 36.47 38.709 31.79 36.885 36 36.162 36.348 36.617 36.783 36.754 36.622 36.38 36.173 36.009 35.776 36.005 36.14 36.392 36.564 36.725 36.866 36.612 36.388 36.222 36.056 35.74 30.066 29.063 34.55 34.755 34.791 31.516 29.213 29.274 29.32 29.362 29.41 29.418 29.389 29.422 29.399 29.373 29.352 29.402 29.37 29.931 30.446 33.496 34.021 32.13 31.381 31.368 31.245 31.11 30.721 32.403 33.509 31.449 30.35 33.596 31.145 30.451 30.11 30.013 30.05 30.031 29.998 29.943 29.924 29.94 29.928 29.866 29.809 29.883 29.859 29.825 29.824 29.76 29.789 29.87 30.119
28.665 28.731 28.673 28.632 28.612 28.586 28.645 28.707 28.69 28.656 28.768 28.736 28.743 28.822 28.913 28.889 28.935 29.96 31.264 31.203 30.097 30.911 32.26 31.649 29.126 29.725 30.825 29.843 29.755 29.594 29.403 31.003 29.704 29.043 28.977 28.984 29.116 29.095 29.091 30.994 35.369 35.825 35.96 36.33 36.541 36.872 37.03 37.299 37.146 36.836 36.632 36.288 36.035 35.837 35.499 35.293 34.965 34.662 34.461 34.139 32.915 32.539 32.62 29.963 29.165 29.14 29.149 29.161 29.145 29.248 29.218 29.287 29.377 29.621 30.304 31.46 31.48 30.006 29.974 29.029 28.998 28.957 28.988 29.087 30.911 29.397 29.401 29.377 29.361 29.361 29.311 29.334 29.526 36.579 37.839 38.859 39.985 39.673 38.675 37.79 36.661 37.275 38.203 39.278 40.002 39.273 38.288 37.32 36.77 37.462 38.692 39.571 39.808 38.828 37.93 36.968 37.034 37.778 38.586 39.483 39.164 38.35 37.485 36.839 42.673 42.923 43.115 43.269 43.464 43.606 43.816 43.674 43.515 43.336 43.126 43.004 42.785 32.344 29.335 29.32 29.311 29.365 29.366 29.462 29.618 31.006 31.836 31.254 29.667 29.015 29 29.011 29.064 29.103 29.138 34.037 37.316 37.866 36.191 36.557 34.787 34.988 34.731 34.74 36.266 35.723 40.017 41.983 42.052 41.98 42.05 42.078 42.144 42.147 42.152 42.247 42.272 42.189 42.191 42.138 42.085 42.072 42.072 42.045 42.015 41.979 39.77 29.862 30.475 29.175 29.191 29.235 29.149 29.3 36.037 36.721 36.706 36.872 36.933 36.861 36.859 36.779 36.81 36.879 36.859 36.873 36.73 36.852 36.72 36.879 36.867 36.732 36.815 36.687 36.772 36.777 36.705 36.802 36.706 36.741 36.726 36.734 36.746 36.718 36.726 36.388 34.317 30.797 33.39 32.832 33.694 32.391 31.536 35.339 38.271 36.95 30.423 29.314 29.355 29.295 29.305 29.344 29.554 30.454 30.589 30.133 29.748 29.44 29.358 29.313 29.327 30.347 29.783 29.354 29.353 29.37 29.424 29.37 29.383 29.443 29.513 29.481 29.454 29.395 29.432 29.433 29.448 29.557 29.861 30.592 31.182 31.201 30.916 30.48 30.136 29.946 29.711 29.654 29.672 29.678 29.668 29.659 29.683 29.651 29.643 29.609 29.573 29.574 29.556 29.576 29.633 29.68 29.67 29.649 29.651 29.729 29.723 29.728 29.717 29.723 29.689 29.665 29.666 29.676 29.732 29.723 29.793 29.772 29.772 29.749 29.786 29.803 29.752 29.798 29.814 29.813 29.845 29.817 29.843 29.829 29.789 29.811 29.877 29.929 29.931 30.012 30.054 30.054 30.041 30.078 30.047 30.053 30.059 30.087 30.112 30.19 30.202 30.209 30.267 30.249 30.253 30.253 30.216 30.278 30.252 30.272 30.209 30.181 30.137 30.16 30.141 30.232 31.681 33.209 35.786 36.284 37.677 35.987 35.979 36.179 36.352 36.595 36.747 36.782 36.62 36.422 36.176 35.959 35.69 35.942 36.156 36.307 36.525 36.674 36.81 36.651 36.441 36.232 36.024 35.682 29.884 29.043 29.637 31.422 31.339 29.278 29.283 29.347 29.394 29.443 29.482 29.482 29.519 29.479 29.45 29.429 29.431 29.42 29.451 29.443 29.44 32.285 32.404 30.846 31.47 31.132 31.093 30.865 31.931 33.42 34.001 31.246 30.825 31.331 31.191 30.189 30.013 29.989 29.935 29.934 29.894 29.929 29.901 29.843 29.862 29.846 29.851 29.786 29.787 29.795 29.79 29.721 29.696 29.761 30.063
28.707 28.71 28.692 28.668 28.644 28.604 28.604 28.671 28.709 28.716 28.692 28.736 28.759 28.74 28.755 28.954 28.854 28.931 29.02 29.318 31.895 29.262 29.908 32.089 31.6 29.681 29.646 29.226 29.566 29.744 29.803 30.487 31.316 29.435 31.015 29.009 28.935 28.94 29.076 29.131 29.106 31.052 35.208 35.943 36.145 36.415 36.576 36.893 37.241 37.3 37.133 36.779 36.488 36.261 36 35.73 35.476 35.148 34.894 34.614 34.297 34.078 33.516 32.974 32.188 31.061 29.217 29.175 29.22 29.198 29.234 32.591 34.271 30.474 29.345 30.925 31.421 31.585 32.629 30.271 30.101 28.988 29.036 29.072 29.068 29.376 29.418 29.398 29.343 29.341 29.334 29.361 29.489 35.873 37.911 38.844 39.792 39.537 38.613 37.823 36.693 37.122 38.063 39.099 40.145 39.369 38.286 37.354 36.855 37.683 38.591 39.48 39.896 39.013 37.856 36.9 37.058 37.694 38.693 39.35 39.147 38.448 37.605 36.776 41.489 42.906 43.066 43.264 43.432 43.61 43.767 43.7 43.492 43.358 43.163 42.972 42.844 32.183 29.347 29.296 29.278 29.328 29.401 29.449 29.877 30.473 31.576 32.347 29.594 29.05 28.978 28.992 29.064 29.083 29.125 34.498 35.096 35.782 34.737 34.757 34.981 34.837 34.741 34.842 36.494 35.75 39.764 42.005 42.087 42.014 42.108 42.077 42.145 42.188 42.193 42.261 42.328 42.224 42.219 42.143 42.093 42.105 42.052 42.069 42.055 41.99 40.004 31.79 30.584 31.347 29.88 29.15 29.176 29.105 35.406 36.841 36.978 36.855 37.037 36.874 36.896 37.044 36.883 36.89 36.786 36.905 37.017 36.733 36.969 36.934 37.064 37.094 36.925 37.088 36.915 36.849 36.957 36.891 36.991 36.897 36.837 37.055 36.982 36.933 36.972 35.435 34.256 36.492 36.244 36.291 36.278 36.287 30.549 31.932 30.102 29.736 30.215 29.324 29.365 29.372 29.272 29.379 30.05 30.806 30.519 30.204 29.844 29.556 29.325 29.332 29.289 29.325 29.374 29.325 29.297 29.345 29.461 29.511 29.635 29.617 29.775 29.639 29.456 29.397 29.439 29.424 29.579 29.82 30.21 30.756 31.051 31.063 30.738 30.385 30.076 29.863 29.702 29.642 29.642 29.639 29.619 29.614 29.614 29.604 29.582 29.573 29.577 29.53 29.56 29.523 29.617 29.647 29.669 29.625 29.67 29.712 29.721 29.714 29.684 29.729 29.711 29.655 29.656 29.659 29.686 29.692 29.689 29.725 29.753 29.751 29.769 29.789 29.778 29.772 29.769 29.837 29.859 29.838 29.848 29.817 29.836 29.832 29.864 29.913 29.938 30 30.035 30.046 30.059 30.095 30.058 30.081 30.093 30.091 30.106 30.198 30.171 30.214 30.22 30.239 30.268 30.251 30.242 30.274 30.249 30.244 30.161 30.164 30.185 30.189 30.12 30.26 30.484 32.852 34.323 33.663 31.294 34.924 35.914 36.142 36.439 36.594 36.773 36.733 36.592 36.417 36.261 36.013 35.844 35.946 36.128 36.307 36.52 36.686 36.8 36.621 36.378 36.216 36.037 35.756 29.922 28.992 29.169 29.427 29.374 29.268 29.395 29.42 29.481 29.59 29.616 29.581 29.662 29.657 29.586 29.563 29.538 29.515 29.497 29.503 29.518 29.511 29.533 30.099 31.558 30.945 30.896 30.662 32.848 33.983 33.259 30.149 31.491 31.32 31.219 30.14 30.607 29.969 29.873 29.885 29.892 29.947 29.922 29.833 29.819 29.759 29.745 29.718 29.718 29.746 29.714 29.69 29.635 29.726 29.704
28.833 28.726 28.691 28.725 28.707 28.6 28.673 28.695 28.846 28.669 28.686 28.702 28.685 28.689 28.704 28.687 28.825 28.84 28.921 28.962 29.017 29.558 31.237 29.227 31.622 32.025 32.209 29.362 29.324 30.039 29.393 29.387 30.343 30.552 32.234 30.594 31.021 29.12 28.969 28.957 29.119 29.124 29.204 32.798 35.37 35.995 36.252 36.637 36.618 37.012 37.276 37.215 37.007 36.675 36.456 36.192 35.819 35.651 35.35 35.16 34.813 34.569 33.797 33.101 33.081 33.128 31.819 29.307 29.283 29.278 29.323 35.057 35.607 35.399 32.294 30.423 29.224 32.544 33.401 32.656 31.904 29.525 29.073 29.038 28.988 29.08 29.215 29.366 29.319 29.337 29.344 29.317 29.469 36.052 37.712 38.779 39.695 39.87 38.702 37.796 36.715 37.316 38.297 39.028 40.13 39.493 38.346 37.265 36.655 37.588 38.636 39.756 39.897 38.963 37.9 37.001 37.064 37.868 38.728 39.519 39.043 38.309 37.61 36.666 41.339 42.879 43.089 43.241 43.452 43.596 43.821 43.647 43.532 43.335 43.156 42.956 42.829 32.089 29.341 29.308 29.295 29.26 29.355 29.438 29.5 29.803 29.698 31.612 29.012 29.348 28.968 28.991 29.016 29.066 29.048 33.774 37.448 35.125 35.563 34.707 34.702 34.675 34.665 34.723 36.045 35.785 40.044 42.02 42.017 42.048 42.077 42.108 42.112 42.148 42.158 42.216 42.287 42.264 42.156 42.159 42.081 42.116 42.052 42.022 41.993 41.985 37.827 29.599 30.357 29.83 29.162 29.178 29.116 29.142 34.025 35.786 35.915 35.824 35.88 35.776 35.928 35.943 35.938 35.952 35.886 35.98 35.93 35.797 35.989 35.949 35.905 35.998 35.916 36.04 35.98 36.111 35.989 35.947 35.812 35.971 35.908 36.009 35.874 36.108 35.967 35.201 34.197 36.296 36.253 36.278 36.296 36.179 29.744 29.268 30.083 29.432 29.429 29.39 29.412 29.378 29.324 29.397 29.805 30.894 30.516 30.167 29.974 29.625 29.447 29.318 29.354 29.296 29.381 29.393 29.375 29.5 29.649 29.775 29.95 30.018 30.063 29.892 29.526 29.384 29.416 29.5 29.656 30.062 30.39 30.791 30.988 30.981 30.597 30.261 30.048 29.793 29.688 29.623 29.637 29.661 29.609 29.633 29.619 29.598 29.523 29.531 29.528 29.515 29.523 29.553 29.61 29.632 29.637 29.642 29.598 29.637 29.672 29.639 29.661 29.691 29.7 29.669 29.655 29.678 29.686 29.712 29.663 29.719 29.753 29.772 29.766 29.778 29.788 29.752 29.788 29.812 29.852 29.852 29.852 29.824 29.783 29.86 29.878 29.88 29.89 29.923 30.011 30.015 30.067 30.071 30.082 30.096 30.089 30.136 30.133 30.169 30.222 30.214 30.226 30.222 30.216 30.225 30.235 30.227 30.24 30.202 30.243 30.191 30.176 30.198 30.182 30.269 31.146 32.782 33.336 33.029 30.395 34.393 36.012 36.176 36.358 36.577 36.771 36.797 36.602 36.394 36.236 36.053 35.825 35.945 36.163 36.343 36.522 36.729 36.839 36.691 36.479 36.292 36.097 35.777 30.523 29.044 29.254 29.4 29.366 29.376 29.392 29.451 29.585 29.642 29.778 30.205 29.958 29.759 29.722 29.684 29.62 29.611 29.642 29.57 29.524 29.586 29.562 29.595 29.782 30.224 30.614 30.366 31.91 32.354 33.996 30.389 30.559 31.264 31.079 30.087 30.033 29.958 29.91 29.88 29.861 29.958 30.055 30.385 29.969 29.993 29.708 29.705 29.654 29.678 29.623 29.601 29.575 29.582 29.58
28.722 28.732 28.711 28.709 28.689 28.76 28.731 28.66 28.734 28.715 28.732 28.735 28.726 28.714 28.73 28.733 28.811 28.806 28.914 28.904 28.936 29.043 29.056 29.226 29.434 29.903 31.566 32.262 30.165 29.147 29.315 30.698 29.305 29.155 30.516 30.01 29.708 30.169 29.735 28.928 28.945 29.095 29.119 29.089 30.259 34.124 35.682 35.869 36.292 36.588 36.813 37.181 37.252 37.127 36.96 36.578 36.297 36.164 35.783 35.525 35.224 34.965 34.731 34.459 33.658 33.698 32.855 33.001 31.337 29.429 33.365 35.414 35.782 35.881 35.584 34.323 30.505 29.379 29.858 32.393 32.405 32.466 31.537 29.953 29.067 29.016 29.093 29.624 29.339 29.295 29.296 29.337 29.476 36.693 37.696 38.832 39.943 39.701 38.759 37.714 36.761 37.074 38.133 39.064 40.149 39.297 38.235 37.391 36.685 37.449 38.426 39.518 39.83 38.776 37.944 37.015 36.988 37.846 38.531 39.458 39.143 38.255 37.584 36.932 41.932 42.901 43.073 43.265 43.418 43.608 43.785 43.7 43.52 43.34 43.168 43.013 42.356 32.028 29.324 29.32 29.302 29.309 29.382 29.445 29.524 30.462 30.519 31.564 28.991 28.974 28.981 28.988 29.034 29.038 29.041 32.947 35.595 36.699 34.635 34.631 34.609 34.68 34.713 34.701 35.775 35.716 39.839 41.993 41.975 42.038 42.064 42.096 42.144 42.117 42.204 42.245 42.205 42.182 42.165 42.166 42.091 42.103 42.037 41.995 41.995 42.025 36.214 29.294 29.936 30.356 30.089 29.257 29.171 29.153 33.777 34.813 34.894 34.875 34.895 34.836 35.029 34.961 34.776 34.897 34.798 35.066 35.036 34.896 34.96 34.854 35.012 34.874 34.939 35.016 34.953 34.985 34.989 34.999 34.973 34.849 34.914 35.016 34.996 35.064 34.944 34.975 34.112 36.382 36.233 36.296 36.276 36.146 29.821 29.197 29.339 29.489 29.535 29.463 29.49 29.446 29.396 29.437 30.496 31.074 30.527 30.159 30.056 29.737 29.48 29.379 29.295 29.289 29.367 29.5 29.554 29.676 29.832 30.046 30.185 30.304 30.243 30 29.617 29.44 29.432 29.605 29.855 30.221 30.514 30.76 30.912 30.738 30.46 30.128 29.883 29.761 29.642 29.578 29.597 29.607 29.594 29.599 29.604 29.616 29.521 29.493 29.515 29.538 29.472 29.538 29.552 29.594 29.626 29.661 29.655 29.617 29.635 29.632 29.61 29.667 29.655 29.663 29.671 29.653 29.677 29.675 29.672 29.737 29.734 29.727 29.747 29.795 29.798 29.804 29.811 29.819 29.805 29.825 29.796 29.794 29.804 29.847 29.868 29.918 29.892 29.948 29.981 30.008 30.08 30.088 30.096 30.129 30.13 30.161 30.153 30.184 30.158 30.206 30.191 30.21 30.198 30.252 30.272 30.228 30.216 30.22 30.236 30.226 30.227 30.202 30.201 30.253 30.414 32.057 33.22 32.438 31.899 35.609 35.934 36.163 36.388 36.535 36.807 36.831 36.618 36.39 36.203 36.068 35.684 35.922 36.124 36.299 36.519 36.752 36.803 36.644 36.465 36.194 36.042 35.856 31.331 29.138 29.282 29.428 29.424 29.43 29.495 29.564 29.722 29.665 30.373 30.583 30.457 30.952 33.388 32.29 29.895 29.697 29.696 29.635 29.637 29.652 29.639 29.65 29.753 29.762 30.023 30.297 30.482 30.497 30.671 29.792 29.979 31.298 30.366 30.123 30.036 30.022 29.956 29.924 29.834 29.863 29.959 30.57 29.874 30.344 29.814 29.624 29.63 29.589 29.582 29.557 29.548 29.548 29.479
