ncols 426
nrows 32
xllcorner    431072
yllcorner    435304
cellsize     2
NODATA_value -9999
58.186 57.896 57.616 57.619 57.494 57.631 57.896 57.611 57.599 57.686 57.936 58.394 64.254 65.381 65.336 64.221 58.529 58.106 58.029 57.931 57.769 57.594 57.784 57.541 57.761 57.639 57.636 58.089 57.489 57.419 57.474 57.514 57.486 57.494 57.534 57.511 57.451 57.491 59.276 58.944 57.819 57.816 57.989 57.881 57.941 57.779 57.816 57.936 58.139 58.756 57.156 57.169 59.874 60.304 59.796 57.396 57.454 57.296 57.156 57.116 63.746 63.556 63.374 63.196 63.029 57.594 56.809 57.184 61.104 58.941 57.454 56.629 56.906 57.236 56.139 56.001 55.869 55.929 55.899 55.886 55.699 56.196 55.439 55.346 55.264 55.171 55.076 55.861 54.959 54.801 55.004 55.459 54.889 54.376 54.214 54.099 54.016 53.911 53.801 53.681 53.556 53.454 53.341 53.231 53.111 52.999 52.864 52.746 52.639 52.516 52.431 52.334 52.234 52.126 52.031 51.901 51.806 51.686 51.561 51.471 51.391 51.314 51.226 51.111 51.014 50.904 50.971 51.154 51.499 51.924 51.556 51.399 51.306 51.101 54.586 52.331 50.376 50.246 50.001 49.866 49.759 49.614 49.509 49.436 49.356 49.329 53.751 53.784 49.011 49.569 54.304 48.081 52.206 47.836 47.831 47.806 47.739 47.766 47.641 48.134 48.734 48.949 48.184 48.016 47.654 47.641 47.616 47.914 47.524 46.539 51.366 56.041 57.276 57.336 56.066 47.056 43.874 43.814 43.729 43.626 43.566 43.794 43.536 44.439 43.351 43.321 43.244 43.116 45.094 44.876 44.764 50.184 51.639 52.799 52.501 51.911 45.946 42.349 41.954 41.919 41.974 41.926 41.869 42.214 42.119 42.109 47.439 48.144 48.696 48.076 42.376 42.124 42.151 42.041 41.964 42.449 49.464 48.964 48.284 47.644 44.924 41.876 41.786 41.814 41.881 43.189 47.792 48.939 49.476 48.644 47.731 43.509 41.889 41.866 41.979 42.521 42.079 42.134 42.139 42.176 42.149 42.171 42.141 41.986 42.011 42.124 44.097 42.649 42.641 43.089 43.439 43.774 43.917 43.729 43.871 44.229 44.769 45.561 47.536 49.486 57.586 57.214 58.416 57.881 56.484 51.464 48.717 48.492 48.224 48.297 48.389 48.422 48.742 48.864 48.829 48.752 48.987 49.262 49.612 49.852 50.207 57.709 61.027 61.854 62.004 61.844 61.884 52.592 52.279 52.257 52.272 52.352 52.372 52.122 52.107 52.529 52.092 51.999 52.104 52.294 52.607 52.507 52.802 52.254 53.619 52.374 52.682 52.469 52.539 52.667 52.909 58.132 58.142 58.172 58.781 58.121 57.414 56.704 55.996 53.751 53.676 53.871 53.999 54.001 53.989 54.074 54.056 54.156 54.671 61.364 63.749 64.881 66.026 65.979 64.836 63.696 59.201 54.716 55.361 55.511 55.521 55.634 55.661 55.636 55.754 55.934 56.966 56.369 56.536 56.936 56.979 57.544 57.449 57.734 57.609 57.314 57.181 57.189 57.181 57.741 59.961 62.411 63.851 66.721 67.349 67.521 68.999 69.486 69.224 67.921 69.136 69.889 70.041 70.241 70.429 71.331 71.481 71.666 71.879 71.971 72.169 71.784 71.594 71.459 72.041 72.034 71.456 71.079 72.909 72.966 71.786 71.626 72.281 73.489 68.074 66.399 65.214 68.554 68.064 67.589 64.806 64.039 64.121 64.174 64.199 64.189 64.146 64.086 64.106 64.616 70.004 72.734 73.819 73.924 72.774 71.079 67.511 66.639 66.529 66.811 66.891 66.854 67.044 67.249 67.376 67.566
57.991 57.809 57.629 57.406 57.271 57.319 57.191 57.209 57.899 57.624 57.631 59.719 63.841 64.986 64.599 63.699 58.209 57.891 57.896 57.831 57.644 57.414 57.306 57.524 57.394 57.424 57.421 58.544 57.429 57.609 57.514 57.451 57.321 57.361 57.384 57.354 57.301 57.349 58.234 58.419 57.689 57.709 57.749 57.741 57.701 57.659 57.604 57.626 57.721 58.424 57.124 57.111 63.071 63.374 63.216 63.044 62.866 57.776 57.104 57.066 64.451 64.524 64.441 64.319 63.931 57.586 56.744 60.114 63.099 62.921 62.726 62.536 59.841 56.179 56.046 55.876 55.801 55.856 55.819 55.739 55.629 56.396 55.389 55.324 55.274 55.141 56.446 56.741 55.391 54.881 54.744 54.649 54.531 54.406 54.284 54.151 54.019 53.879 53.726 53.596 53.469 53.376 53.254 53.131 53.004 53.161 52.761 52.646 52.556 52.449 52.369 52.254 52.171 52.064 51.964 51.846 51.739 51.666 51.546 51.454 51.336 51.221 51.114 51.006 50.884 50.781 50.696 50.606 50.521 50.414 50.306 50.204 50.271 51.631 52.376 50.776 49.794 50.671 50.261 49.809 49.706 49.534 53.306 53.214 49.224 49.144 49.059 49.021 48.989 48.996 48.561 48.031 48.014 47.811 47.804 47.754 47.706 47.731 47.586 47.704 47.636 47.666 47.649 47.906 48.334 48.681 49.076 48.744 48.299 47.659 52.084 56.249 57.534 57.039 55.709 43.959 43.856 43.799 43.761 43.664 43.574 43.496 43.429 43.639 43.339 43.319 43.484 43.124 45.326 47.314 49.509 50.686 51.819 52.956 52.259 51.104 45.856 42.284 41.901 41.901 41.939 41.894 41.866 42.196 42.786 47.721 48.376 49.049 49.594 46.121 42.146 42.109 42.161 42.011 41.949 41.906 46.086 48.042 47.386 42.847 41.906 42.164 41.754 41.804 41.876 42.169 46.222 48.059 48.959 49.331 48.384 44.064 43.042 42.081 41.986 42.034 42.156 42.159 42.199 42.271 42.306 42.324 42.401 42.404 42.429 42.561 42.656 42.777 42.934 43.289 43.924 44.271 44.329 44.576 44.969 44.804 44.779 44.914 45.222 54.741 57.361 57.859 58.234 57.091 55.874 48.169 48.139 48.582 49.532 48.274 48.322 48.614 48.909 49.457 49.044 49.042 49.242 49.442 49.709 49.924 50.512 56.284 59.084 62.239 61.842 61.814 54.192 52.322 52.287 52.252 52.214 52.167 52.137 52.114 52.729 52.064 51.982 52.034 52.119 52.569 52.219 52.507 52.234 52.209 52.344 52.669 52.499 52.482 52.574 52.679 54.272 58.824 59.904 60.089 57.524 59.886 59.334 57.886 55.399 53.171 53.716 53.894 53.994 53.989 53.964 57.139 56.931 55.926 54.526 62.821 63.939 65.086 66.224 65.781 64.644 63.499 58.389 54.834 55.434 55.491 55.534 55.631 55.649 55.646 55.861 56.036 56.234 56.399 56.571 56.729 56.856 57.016 57.201 57.536 57.624 57.759 57.599 57.659 57.194 58.039 58.311 58.669 58.949 58.789 59.106 59.084 61.711 63.661 66.239 67.289 68.216 68.751 68.956 68.964 69.201 70.191 70.106 71.156 71.144 71.349 71.569 71.841 71.934 72.314 73.006 72.676 72.636 72.359 73.129 73.036 72.861 73.151 73.361 73.524 73.059 73.836 73.834 68.504 68.039 67.566 64.609 64.074 64.159 64.209 64.241 64.224 64.184 64.114 64.149 64.471 70.129 72.821 73.919 74.096 73.024 71.726 66.386 66.726 66.561 67.676 66.944 66.961 67.131 67.371 67.501 67.734
57.864 57.776 57.604 57.336 57.216 57.196 57.071 57.119 57.439 57.466 57.474 61.666 64.056 65.121 64.321 62.901 57.666 57.644 57.641 57.646 57.614 57.969 61.291 62.164 60.699 59.536 57.664 58.399 57.261 57.221 57.266 57.239 57.176 57.219 57.244 57.224 57.164 57.264 57.666 57.529 57.599 57.519 57.591 57.651 57.529 57.464 57.386 57.419 57.544 58.009 57.254 57.169 64.599 64.476 64.379 64.146 63.974 57.131 57.074 58.031 63.321 63.511 63.689 63.851 64.051 56.719 56.669 62.224 64.179 64.051 63.856 63.671 57.576 56.121 55.939 55.834 55.841 55.784 55.754 55.746 55.619 55.496 55.356 55.316 55.271 55.101 55.581 54.821 54.834 54.909 55.546 55.039 54.384 54.271 54.221 54.146 54.034 53.899 53.794 53.664 53.534 53.376 53.216 53.091 52.934 54.221 53.296 52.539 52.461 52.359 52.249 52.159 52.069 51.954 51.859 51.766 51.669 51.589 51.489 51.386 51.281 51.176 51.069 50.969 50.869 50.751 50.646 50.531 50.421 50.536 50.199 50.089 49.999 49.916 52.614 49.724 49.636 49.534 49.486 49.884 49.986 50.186 59.404 50.189 49.186 49.539 49.216 49.489 53.004 54.059 52.724 48.001 47.931 47.779 47.769 47.709 47.681 47.889 47.564 47.774 47.586 47.629 47.649 47.616 47.601 47.541 47.529 47.556 47.541 47.579 54.501 56.891 57.756 56.979 55.669 44.169 43.856 43.804 43.769 43.684 43.561 43.476 43.399 43.341 43.316 43.291 44.291 43.141 46.769 47.124 49.721 50.851 52.049 53.091 52.084 50.886 42.611 41.991 41.851 41.891 41.916 41.869 41.879 42.211 42.104 48.654 49.301 49.474 48.794 45.776 42.086 42.026 42.056 41.949 41.914 41.889 41.851 46.899 41.901 41.861 41.836 41.674 41.681 41.726 41.786 42.589 42.006 47.401 48.306 49.094 42.417 41.769 45.119 41.854 41.989 42.071 42.151 42.246 42.286 42.361 42.454 42.499 42.554 42.684 42.811 42.921 43.044 43.154 43.222 43.371 43.831 44.391 44.441 44.481 44.526 45.084 45.091 47.524 50.902 57.231 56.886 58.391 57.589 56.714 51.522 48.197 48.137 48.144 48.534 48.259 48.569 49.174 49.142 49.219 48.907 49.127 49.432 49.854 49.769 50.252 53.697 56.644 57.469 63.087 62.619 61.599 52.809 52.299 52.269 52.239 52.194 52.154 52.127 52.094 52.059 52.002 51.939 52.049 52.132 52.174 52.197 52.192 52.179 52.172 52.312 52.534 52.462 52.529 52.622 52.707 55.722 59.282 58.614 60.727 60.719 60.229 59.491 58.414 53.124 53.426 54.279 53.964 53.966 53.979 54.439 57.134 57.121 55.701 54.139 63.009 64.139 65.264 66.349 65.606 64.466 63.336 55.186 54.961 55.461 55.471 55.551 55.626 55.644 55.701 56.961 56.426 58.451 56.691 56.991 57.151 56.999 57.166 57.246 57.389 57.556 57.709 57.859 57.994 58.159 58.486 59.256 63.731 58.979 59.109 59.219 59.249 59.531 59.531 59.624 59.654 60.251 60.489 61.601 63.494 66.589 68.084 69.266 71.091 71.139 70.339 69.969 70.686 70.501 71.506 71.884 72.006 72.149 72.531 73.824 73.866 74.019 73.639 73.949 73.821 73.824 73.861 73.854 68.506 68.031 67.576 64.521 64.116 64.194 64.249 64.274 64.269 64.219 64.139 64.181 64.546 70.051 72.776 74.011 74.269 72.641 71.691 66.744 66.446 66.594 67.519 66.844 67.084 67.241 67.411 67.541 67.701
57.771 57.694 57.561 57.264 57.176 58.039 57.821 57.081 57.179 57.121 57.101 62.514 63.846 65.046 64.134 62.009 57.461 57.521 57.526 57.491 57.456 58.846 63.936 63.726 63.541 63.354 63.164 62.956 62.751 61.699 57.191 57.116 57.036 57.094 57.109 57.069 57.034 57.139 57.379 57.379 57.341 57.411 57.366 57.359 57.336 57.316 57.316 57.299 57.486 57.266 57.099 57.159 63.694 63.849 64.044 64.204 64.406 57.146 57.026 57.256 59.459 61.974 62.561 62.731 60.376 56.664 56.639 63.149 63.319 63.499 63.671 63.866 56.179 56.064 55.891 55.874 57.701 59.919 58.884 57.259 55.649 55.479 55.391 55.299 55.296 55.096 54.884 59.984 60.426 59.721 59.499 58.786 57.511 57.241 54.251 54.101 53.819 53.664 53.574 53.881 53.529 53.409 53.321 53.224 53.104 53.839 52.711 52.994 52.341 52.209 52.096 52.009 51.929 51.834 51.744 51.649 51.559 51.489 51.384 51.286 51.199 51.094 51.001 50.894 50.801 50.699 50.594 50.499 50.404 50.306 50.201 50.094 49.974 49.854 49.734 49.609 49.489 49.394 49.304 49.239 49.134 52.254 60.529 48.821 49.121 49.164 49.481 49.366 49.316 51.901 48.044 47.934 47.911 47.829 48.449 47.676 47.709 47.689 47.551 47.954 47.999 47.609 47.606 47.594 47.581 47.544 47.539 47.579 47.571 47.821 55.129 56.141 57.816 56.714 55.434 43.994 43.874 43.761 43.834 43.961 43.884 43.551 43.421 43.334 43.309 43.254 43.796 43.119 43.306 44.241 47.036 52.036 52.221 53.004 51.851 50.686 42.449 41.946 41.869 41.879 41.889 41.836 41.876 42.266 42.134 42.519 49.251 48.536 47.869 46.826 42.061 42.061 41.951 41.881 41.851 41.844 41.824 41.809 41.806 41.777 41.694 41.652 41.669 41.716 41.764 41.844 42.454 43.141 46.876 41.866 41.826 41.972 41.757 41.884 42.031 42.149 42.309 42.341 42.344 42.431 42.621 42.699 42.779 42.884 43.039 43.211 43.376 43.504 43.582 43.804 44.496 44.404 44.524 44.564 44.571 44.589 44.749 44.761 54.864 56.714 57.889 58.167 55.809 55.759 48.309 48.184 48.082 48.927 48.147 48.177 49.552 49.934 49.412 49.492 50.029 49.322 49.519 49.804 49.899 50.327 56.304 60.119 62.454 63.197 61.912 57.929 52.514 52.269 52.244 52.219 52.179 52.147 52.117 52.082 51.994 51.892 51.974 52.057 52.114 52.152 52.172 52.144 52.127 52.177 52.507 52.439 52.437 53.014 52.572 52.712 57.459 59.417 60.137 60.834 60.826 58.606 59.374 56.834 53.119 54.086 53.854 54.274 53.944 53.949 53.976 54.859 55.374 54.426 56.076 63.174 64.301 65.444 66.429 65.429 64.276 63.114 54.439 55.069 55.456 55.456 55.556 55.631 55.644 55.764 60.301 58.991 59.881 56.864 57.226 57.176 57.179 57.566 57.256 57.731 57.641 57.759 57.944 58.089 58.221 58.366 58.511 58.894 58.756 58.914 59.081 59.249 59.469 59.694 59.719 59.786 60.594 60.519 60.954 61.256 60.639 60.744 60.764 61.076 61.806 64.104 67.656 69.354 69.781 71.201 71.769 70.991 69.996 72.099 72.886 73.011 73.164 73.344 74.016 74.206 74.336 74.364 74.346 68.521 68.034 67.561 64.564 64.614 64.239 64.284 64.306 64.299 64.254 64.271 64.214 64.731 69.831 72.901 74.004 74.251 73.199 71.964 69.299 67.514 66.624 66.636 66.669 66.876 66.876 66.821 66.716 66.464
57.581 57.491 57.409 57.191 57.091 57.121 57.824 57.044 57.211 57.146 57.041 62.724 63.836 64.441 63.346 59.926 57.179 57.269 57.349 57.401 57.281 57.694 64.626 64.681 64.616 64.471 64.276 64.079 63.871 60.661 57.189 56.981 56.909 56.959 56.951 56.924 56.916 57.414 57.091 57.104 57.121 57.146 57.179 57.224 57.206 57.156 57.176 57.189 57.746 57.044 58.261 57.151 62.301 62.766 62.936 63.106 62.879 57.821 57.001 57.006 57.006 57.006 56.896 56.846 56.691 56.686 56.669 61.114 62.104 62.391 62.561 62.749 56.159 56.461 55.886 55.746 58.454 61.251 62.409 62.611 61.444 55.626 55.486 55.244 55.231 55.046 54.834 61.799 61.586 61.404 61.221 61.021 60.246 60.064 59.859 59.681 57.729 55.644 54.659 56.519 56.354 53.341 53.286 53.254 53.206 54.944 54.581 52.531 52.279 52.114 52.019 51.924 51.939 51.859 51.736 51.591 51.469 51.339 51.259 51.176 51.101 51.016 50.901 50.806 50.719 50.616 50.529 50.434 50.341 50.251 50.151 50.059 49.954 49.836 49.716 49.606 49.479 49.374 49.244 49.129 49.014 49.269 48.774 48.681 50.331 48.524 48.426 48.326 51.104 50.051 47.994 47.886 47.796 47.771 48.781 47.664 47.746 47.641 47.646 48.331 48.644 48.694 48.979 49.456 49.204 48.574 47.921 47.694 47.671 47.681 55.669 56.784 57.761 56.501 53.124 44.001 43.871 43.801 43.726 43.644 43.516 43.464 43.409 43.326 43.291 43.229 43.964 43.146 43.514 43.379 44.891 51.671 52.361 52.806 51.309 50.464 42.601 41.886 43.059 41.884 41.874 41.799 41.864 42.089 42.126 42.109 45.329 47.641 43.019 42.064 42.041 42.024 41.956 41.874 41.851 41.826 41.784 41.781 41.784 41.729 41.669 41.626 41.664 41.714 41.769 41.824 41.914 42.619 41.894 41.856 42.161 42.722 41.876 42.024 42.109 42.216 42.326 43.449 43.457 42.514 42.711 42.854 43.009 43.121 43.241 43.382 43.614 43.796 44.691 44.066 44.381 44.434 44.511 44.584 44.571 44.751 44.629 48.886 56.569 57.786 58.361 57.542 57.641 54.667 54.422 50.549 48.324 48.447 48.104 48.154 51.954 50.017 49.499 49.574 49.737 49.949 50.389 49.904 50.244 55.469 57.714 61.824 63.152 62.552 61.264 52.082 51.437 51.982 52.367 52.197 52.187 52.164 52.139 51.999 51.944 51.899 51.984 52.049 52.107 52.119 52.117 52.102 52.069 52.072 52.197 52.289 52.434 52.784 52.742 52.824 56.032 59.554 60.054 60.152 60.279 59.999 59.269 55.614 53.141 53.721 53.779 53.874 53.919 53.934 53.956 53.971 54.019 54.341 57.286 63.356 64.509 65.641 66.171 65.626 64.199 62.941 54.466 55.134 55.456 55.454 55.564 55.631 55.624 55.769 64.991 65.526 64.544 64.344 64.144 65.971 60.674 59.171 57.351 57.164 57.754 57.749 58.039 58.051 61.039 59.029 58.576 58.711 59.851 58.914 59.064 59.229 59.341 59.489 59.644 59.806 59.974 60.151 60.816 60.544 61.676 60.899 61.114 60.989 61.006 61.299 61.201 62.009 61.776 62.014 63.189 64.269 67.571 71.231 72.811 72.194 72.986 72.491 73.524 73.426 73.939 73.934 73.844 68.531 68.044 67.561 64.904 65.396 64.256 64.319 64.349 64.336 64.294 65.266 64.256 64.706 70.606 72.921 73.991 74.264 73.216 72.214 68.856 67.281 66.659 66.659 66.701 66.754 66.666 66.536 66.406 66.269
57.526 57.456 57.376 57.156 57.034 56.946 56.856 57.199 57.066 57.016 56.854 62.894 64.036 64.289 63.159 57.651 57.066 57.106 57.139 57.191 57.209 57.911 63.509 63.694 63.899 64.084 64.274 64.474 64.639 58.869 57.076 56.816 56.769 56.814 56.811 56.779 56.816 57.181 56.984 56.921 56.974 56.944 56.981 57.009 56.991 57.029 57.036 57.009 58.756 56.851 56.981 57.011 56.979 57.239 57.261 57.221 59.204 58.276 57.004 56.999 56.999 56.964 56.619 56.594 56.576 56.639 56.594 56.589 56.544 56.564 56.546 56.461 56.249 55.806 55.784 55.674 56.759 61.436 62.596 62.409 61.151 55.616 55.491 55.226 55.106 55.009 54.841 61.491 61.676 61.844 62.029 61.946 61.389 61.211 61.026 60.831 59.946 59.689 59.509 59.306 59.134 53.301 53.224 53.119 53.039 52.924 53.646 52.426 52.259 51.996 51.926 51.884 54.261 53.926 53.454 52.761 51.564 51.404 51.236 51.146 51.074 50.951 50.814 50.686 50.601 50.511 50.419 50.334 50.254 50.161 50.071 49.966 49.866 49.766 49.651 49.539 49.436 49.324 49.194 49.094 48.981 48.846 48.756 48.656 48.544 48.434 48.859 48.229 49.829 48.256 47.951 47.846 47.786 47.749 47.826 47.631 47.574 47.529 47.856 47.831 47.889 47.859 47.806 47.756 47.739 47.806 47.809 46.019 45.899 47.481 56.671 57.589 57.606 55.941 52.289 44.069 43.936 43.789 43.729 43.616 43.519 43.476 43.386 43.311 43.271 43.201 44.246 43.121 43.276 48.521 49.806 50.971 52.206 52.391 52.499 49.054 42.271 41.856 43.111 41.921 41.909 41.774 41.874 42.104 42.146 42.514 42.499 42.056 42.031 42.039 41.991 41.949 42.194 41.906 41.881 41.926 43.269 41.774 41.771 41.699 41.641 41.606 41.649 41.691 41.759 41.814 41.879 41.911 41.884 41.871 41.839 41.914 42.001 42.066 42.189 42.257 43.551 44.521 42.667 42.661 42.806 42.974 43.167 43.324 43.441 43.569 43.761 43.971 44.179 44.384 46.056 44.476 44.474 44.527 44.676 44.899 44.929 51.636 56.856 57.924 58.154 56.917 55.722 47.959 49.874 49.337 47.912 47.997 48.037 48.157 50.682 51.684 51.944 50.112 49.849 50.112 50.347 51.829 51.497 56.292 57.407 62.507 63.157 61.827 55.502 51.029 51.857 51.887 51.854 52.107 52.199 52.167 52.397 51.937 51.877 51.917 52.012 52.099 52.079 52.092 52.077 52.057 52.047 52.072 52.152 52.629 53.627 52.687 52.774 52.574 52.682 52.799 52.887 53.524 55.751 57.291 57.346 53.669 53.311 53.669 53.784 53.859 53.911 53.956 53.989 53.994 53.999 54.389 59.531 63.531 64.696 65.806 64.899 65.074 65.254 65.456 58.254 55.191 55.451 55.461 55.579 55.616 56.596 57.401 66.006 65.831 65.644 65.431 67.011 66.279 65.864 65.224 64.859 65.251 65.194 63.816 61.944 60.231 62.001 59.131 58.686 58.739 58.781 60.831 62.269 59.419 59.536 59.921 59.684 59.781 59.974 60.141 60.284 60.426 60.564 60.701 60.859 61.031 61.316 61.361 61.841 61.844 61.829 62.221 62.114 62.536 62.576 63.076 63.786 67.309 70.124 71.744 73.489 72.314 73.916 73.899 73.939 68.534 68.036 67.564 65.044 64.396 64.289 64.354 64.381 64.371 64.329 64.981 64.296 64.584 69.686 72.914 73.946 74.331 73.234 72.151 66.561 66.524 66.929 66.689 66.724 66.874 67.379 66.869 66.834 66.944
57.486 57.406 57.314 57.109 56.986 56.884 56.819 57.246 57.004 56.881 57.714 62.529 63.626 63.489 62.456 56.799 56.966 57.011 57.061 57.119 57.164 57.174 60.129 61.396 62.776 62.964 63.159 63.351 63.544 57.081 57.139 56.646 56.639 56.676 56.666 56.644 56.716 57.349 56.691 56.736 56.879 56.949 56.924 56.896 56.876 56.891 56.906 56.924 57.134 56.634 56.786 56.761 56.709 56.761 57.226 57.491 57.199 57.491 58.819 56.866 56.861 56.816 56.646 56.616 56.501 56.536 56.494 56.494 56.709 56.261 56.189 56.101 55.989 55.656 55.644 55.566 55.711 61.616 62.789 62.411 60.024 55.941 55.559 55.101 54.971 55.041 54.954 59.769 60.501 60.679 60.871 60.779 60.636 60.826 61.026 61.196 60.596 60.681 60.626 60.479 58.016 53.044 52.886 52.841 52.774 52.641 52.506 52.274 52.129 51.896 51.824 51.831 54.361 54.806 54.716 54.616 54.504 54.409 54.189 53.956 53.349 52.334 51.349 50.801 50.691 50.566 50.451 50.329 50.354 50.526 49.971 50.211 50.611 49.686 49.594 49.499 49.379 49.264 49.161 49.034 48.931 48.821 48.709 48.611 48.514 48.406 48.306 48.211 48.159 48.044 47.944 47.844 47.769 47.729 47.671 47.611 47.574 47.489 47.584 47.571 47.636 47.686 47.704 47.679 47.671 47.739 48.091 46.079 45.386 52.674 57.374 57.391 57.384 56.116 47.476 44.066 44.209 44.164 43.899 43.641 43.596 43.509 43.474 43.289 43.256 43.166 43.054 43.334 43.169 43.179 48.959 51.169 52.386 52.091 51.469 46.049 41.986 41.821 41.789 41.821 41.816 41.744 41.901 42.106 42.141 42.026 42.031 42.024 42.001 41.971 43.319 44.311 42.126 41.796 45.076 48.261 47.351 41.834 41.829 41.689 41.629 41.597 41.641 41.691 41.751 41.794 41.879 41.904 41.881 45.896 43.921 41.951 42.069 42.114 42.211 43.369 42.871 42.579 42.696 42.804 42.902 43.091 43.254 43.476 43.654 43.814 43.964 44.104 44.301 44.431 46.016 45.289 44.669 44.681 44.844 45.044 45.294 47.121 56.316 58.394 57.559 57.261 53.529 51.634 48.497 47.854 47.874 47.964 48.009 48.784 48.222 50.387 51.477 52.249 52.264 50.252 51.947 51.549 57.352 59.934 59.094 63.177 62.499 61.247 50.394 51.779 51.839 51.839 51.872 51.857 51.917 52.232 51.907 51.899 51.837 51.927 51.999 52.029 52.047 52.047 52.022 52.002 52.029 52.114 52.199 52.279 52.382 52.499 53.437 53.572 52.947 54.212 52.899 52.964 53.394 53.444 53.259 53.351 53.466 54.176 54.806 54.139 53.901 53.964 54.014 54.009 54.246 54.384 59.974 63.726 64.864 65.309 63.756 63.926 64.129 64.299 55.554 55.271 55.456 55.476 55.574 55.856 56.159 61.206 65.706 65.749 65.944 66.121 66.541 66.626 66.466 66.294 66.059 66.511 66.291 66.694 65.906 66.044 66.354 66.166 65.194 64.984 62.946 64.449 62.799 59.331 59.371 59.774 59.799 59.821 60.471 61.801 60.704 60.631 60.764 60.744 60.879 61.041 61.176 61.306 61.431 61.581 61.734 61.931 62.126 62.504 62.461 62.774 62.814 63.274 63.151 65.106 67.764 67.939 69.166 71.174 72.506 68.536 68.046 67.556 64.649 64.341 64.321 64.389 64.419 64.406 64.366 64.301 64.334 64.391 66.739 74.124 75.166 75.854 74.554 73.036 68.804 68.284 67.656 66.714 66.759 67.064 67.139 67.294 67.431 67.564
57.441 57.366 57.236 57.056 56.944 56.816 56.761 57.046 56.869 56.779 60.029 62.721 63.834 63.281 62.174 56.561 56.659 56.831 56.891 57.046 56.946 56.984 57.091 57.116 57.294 57.171 57.749 59.474 60.379 57.381 56.774 56.486 56.514 56.536 56.519 56.501 56.594 56.939 56.761 56.754 56.811 56.871 56.869 56.859 56.849 56.829 56.856 56.926 57.466 56.499 56.616 56.686 56.631 56.669 57.384 57.141 57.304 56.879 56.644 56.701 56.631 56.646 56.569 56.524 56.496 56.316 56.254 56.261 56.171 56.121 56.009 55.946 56.129 55.509 55.489 55.349 56.016 61.816 62.949 62.044 59.081 55.781 55.369 54.919 54.849 54.966 55.009 54.934 54.894 55.069 55.414 56.426 57.714 59.199 59.851 60.039 59.456 60.149 59.821 60.006 56.769 52.801 56.586 56.404 53.344 52.639 52.331 52.199 51.966 51.791 51.724 51.791 54.471 56.839 57.519 56.979 56.399 55.304 54.916 54.824 54.711 54.614 54.791 57.904 58.671 56.019 51.516 50.679 50.381 50.144 50.029 49.916 49.729 49.584 49.484 49.396 49.286 49.186 49.089 48.984 48.881 48.766 48.669 48.566 48.444 48.351 48.226 48.084 48.094 47.994 47.909 47.834 47.756 47.694 47.641 47.581 47.531 47.456 47.389 47.269 47.131 47.431 47.426 47.881 47.669 47.666 47.894 47.644 46.949 52.411 56.599 57.574 57.159 55.879 45.964 44.056 43.989 43.829 43.716 43.674 43.599 43.694 44.026 43.281 43.231 43.144 43.039 43.314 43.211 43.264 50.139 52.744 52.611 52.131 50.866 46.634 41.969 41.766 41.774 41.804 41.771 41.739 42.124 42.109 42.111 41.966 41.976 41.986 41.924 42.761 45.509 42.854 41.824 47.169 49.031 48.919 47.996 46.584 41.821 41.756 41.609 41.586 41.626 41.681 41.736 41.779 41.889 42.222 49.314 48.396 47.489 42.336 42.056 42.486 43.439 42.314 42.414 42.636 42.826 42.944 43.019 43.179 43.371 43.544 43.801 44.016 44.179 44.334 44.474 44.561 44.729 44.854 44.961 48.459 45.126 45.239 45.484 46.511 53.766 54.279 56.696 56.011 47.741 50.794 48.277 47.854 47.867 47.887 48.027 48.254 48.879 48.592 48.534 52.152 50.629 49.882 55.524 52.082 59.424 60.507 61.504 61.787 61.659 56.164 50.737 51.774 51.819 52.204 51.797 51.814 51.902 52.034 51.867 51.797 51.872 51.939 51.979 52.007 52.007 51.997 51.979 51.984 52.127 52.192 52.194 52.277 52.384 52.489 52.599 52.699 52.784 52.872 52.944 53.129 53.114 53.561 53.736 54.016 54.121 53.896 53.934 53.736 53.844 53.951 54.289 54.984 54.841 54.436 60.891 63.921 65.029 64.114 61.456 62.789 62.959 63.159 54.621 55.374 55.429 55.471 55.551 55.586 55.671 63.721 65.634 64.599 64.801 65.594 65.941 66.284 66.094 66.214 66.409 67.206 67.256 67.206 67.021 67.256 67.334 67.256 67.079 66.889 68.046 68.021 67.554 66.774 66.596 64.891 63.516 61.401 60.014 60.089 60.649 61.109 60.724 60.769 61.009 61.259 61.349 61.381 61.546 61.636 61.776 61.936 62.096 62.241 62.391 62.534 62.679 62.886 63.136 65.676 67.299 67.376 67.934 68.061 68.179 68.329 68.046 67.561 65.136 65.059 64.354 64.409 64.439 64.446 64.404 64.336 64.366 64.416 67.061 75.886 75.854 75.846 74.561 73.471 65.681 67.046 67.011 66.731 67.144 66.984 67.179 67.366 67.531 67.704
57.391 57.306 57.141 57.004 56.884 56.766 56.659 56.751 56.854 56.589 61.269 62.919 63.946 63.104 61.644 56.534 56.614 56.746 56.776 56.766 56.776 56.761 56.666 56.896 56.744 56.771 56.904 57.009 57.101 57.061 56.429 56.324 56.389 56.416 56.406 56.361 56.451 56.771 56.686 56.774 56.796 56.806 56.786 56.779 56.789 56.774 56.786 56.896 57.721 56.894 56.451 56.501 58.191 56.471 56.191 56.201 56.256 56.469 56.464 56.464 56.456 56.394 56.389 56.401 56.371 56.166 56.139 56.109 56.074 55.966 55.839 55.744 55.971 55.374 55.299 55.386 58.276 61.259 62.254 61.426 57.269 56.264 55.096 54.774 54.704 54.919 54.956 54.926 54.854 54.731 54.641 54.404 54.359 54.239 54.296 54.406 53.656 55.989 57.369 57.914 53.259 52.931 58.466 59.649 59.124 56.661 52.329 53.349 51.829 51.686 51.619 51.816 54.574 57.456 58.176 58.191 58.074 57.966 57.866 57.741 57.519 57.526 56.459 58.031 58.676 57.959 51.379 50.674 51.556 50.979 50.586 51.246 50.116 49.714 49.579 49.474 49.369 49.246 49.114 48.961 48.809 48.684 48.586 48.484 48.389 48.381 48.289 48.174 48.091 47.951 47.851 47.756 47.711 47.659 47.596 47.539 47.479 47.414 47.344 47.244 47.076 46.901 46.716 46.554 46.416 46.294 46.116 46.519 47.311 52.054 56.561 57.769 56.974 55.691 50.404 49.634 44.021 43.749 43.669 43.589 43.511 43.414 43.294 43.256 43.206 43.114 43.049 43.166 43.291 43.186 50.339 51.486 52.689 51.834 50.396 42.461 41.841 41.714 41.756 41.764 41.729 41.689 41.829 42.119 42.066 41.886 41.934 41.934 44.359 44.494 42.156 41.849 42.444 47.469 48.371 49.244 49.031 47.766 44.656 41.757 41.664 41.591 41.639 41.679 41.741 41.789 43.866 48.289 49.184 49.059 48.131 47.174 43.436 43.531 42.154 42.236 42.399 42.724 42.974 43.079 43.189 43.316 43.486 43.676 43.906 44.159 44.351 44.524 44.661 44.771 44.834 44.976 45.164 45.259 45.564 47.457 46.417 45.886 46.171 48.174 49.542 47.396 47.496 47.382 47.737 47.824 47.899 47.872 48.117 48.337 48.557 49.427 50.367 49.647 49.657 50.562 57.139 58.897 60.012 61.089 61.187 60.102 58.874 51.712 51.987 51.804 51.824 51.859 51.797 51.782 51.772 51.817 51.819 51.799 51.892 51.942 51.982 51.977 51.962 52.054 52.039 52.037 52.122 52.362 52.517 52.687 53.654 53.349 52.809 53.332 52.757 52.857 52.967 53.047 53.154 53.244 53.331 53.419 53.526 53.619 54.226 53.806 53.864 53.936 54.451 54.896 54.341 54.359 54.484 54.594 54.701 54.774 54.821 54.809 54.679 54.579 54.934 55.399 55.404 55.466 55.549 56.031 55.681 56.706 58.629 60.254 61.236 64.081 63.286 64.019 64.924 65.441 65.939 65.844 66.514 66.419 66.721 67.266 67.734 67.946 68.009 67.939 68.446 68.241 68.624 67.904 68.019 67.431 67.976 67.794 67.611 67.754 67.556 66.439 64.274 61.071 61.326 61.369 61.426 61.421 61.459 61.806 61.916 62.024 62.399 62.264 62.484 62.629 62.789 62.936 63.071 63.204 63.336 63.496 64.231 64.769 66.471 67.569 67.694 67.566 64.886 65.136 64.379 64.419 64.459 64.471 64.426 64.379 64.411 64.474 65.644 74.501 75.154 75.861 74.584 73.374 65.594 66.739 66.731 66.744 66.799 66.929 67.219 67.409 67.586 67.696
57.316 57.244 57.061 56.936 56.836 56.736 56.631 56.581 56.626 56.634 56.606 57.104 61.094 62.396 60.599 56.481 56.519 56.574 56.649 56.716 56.496 56.319 56.049 56.469 56.274 56.436 56.536 56.616 56.676 56.599 56.286 56.189 56.264 56.279 56.274 56.226 56.269 56.454 56.546 56.649 56.706 56.711 56.716 56.719 56.719 56.711 56.734 56.899 58.376 57.209 56.511 56.471 56.414 56.276 56.144 56.036 56.089 56.306 56.981 56.119 56.169 56.176 56.184 56.189 56.171 56.156 56.109 55.999 55.949 55.669 55.644 55.571 55.584 55.236 55.149 55.029 59.381 61.444 62.071 60.919 55.194 55.041 54.816 54.576 54.531 54.646 54.671 54.661 54.611 54.536 54.476 54.344 54.256 54.116 54.059 54.039 53.549 53.484 53.431 53.091 52.624 53.581 58.666 59.776 58.934 55.166 52.389 52.454 51.684 51.589 51.536 53.024 54.691 57.609 58.296 58.864 58.761 58.646 58.526 58.414 58.301 57.959 57.754 59.179 59.361 57.901 51.099 50.586 50.471 50.339 50.206 50.079 49.931 49.799 49.704 50.819 50.244 50.341 49.831 49.601 48.901 48.791 48.656 48.546 48.424 48.319 48.201 48.094 47.994 47.876 47.774 47.699 47.651 47.606 47.539 47.501 47.456 47.384 47.239 47.129 47.014 46.894 46.704 46.529 46.346 46.174 45.979 45.794 45.639 45.486 45.344 45.189 46.961 47.716 47.964 49.954 44.149 43.811 43.691 43.586 43.501 43.386 43.231 43.224 43.186 43.079 43.064 43.314 44.059 44.499 50.574 51.821 52.634 51.661 50.164 43.441 41.819 41.684 41.724 41.726 41.691 41.689 41.809 41.844 41.854 41.901 42.854 43.311 44.564 41.959 41.919 41.889 41.839 44.404 47.704 48.619 49.276 48.411 47.494 43.001 41.646 41.576 41.629 41.679 41.751 41.856 42.769 47.621 48.516 49.402 48.814 47.911 45.459 42.019 42.084 42.164 42.347 42.756 43.084 43.211 43.289 43.459 43.614 43.774 43.976 44.219 44.449 44.667 44.871 45.009 45.071 45.116 45.292 45.461 45.654 45.792 46.154 46.304 46.311 46.649 46.869 47.046 47.321 47.559 47.637 47.734 47.807 49.769 51.524 48.792 48.872 48.947 49.177 49.419 51.174 51.017 51.427 59.489 60.587 61.497 60.634 59.539 54.592 51.584 52.002 52.444 51.832 51.807 51.874 51.844 51.747 51.707 51.709 51.819 51.889 51.949 51.957 51.944 51.927 52.007 52.054 52.094 52.372 52.387 52.324 52.397 52.444 52.527 52.594 52.647 52.829 52.794 54.309 53.982 53.091 53.251 53.301 53.424 53.534 53.634 53.734 53.829 53.931 54.016 54.099 54.174 54.311 54.329 55.479 55.684 54.586 54.684 54.816 54.961 55.086 55.181 55.306 55.401 55.364 55.449 55.536 55.586 55.726 56.594 56.681 56.706 56.659 56.734 56.976 57.496 57.531 60.591 62.354 64.386 65.651 65.311 66.714 66.459 67.049 67.491 66.991 67.214 67.646 68.249 68.484 68.584 68.809 69.271 69.084 68.899 68.696 69.654 69.154 69.326 68.296 68.474 68.986 68.786 69.636 69.896 67.596 63.531 62.091 62.051 62.089 62.419 62.596 62.699 62.779 62.819 63.226 63.894 63.644 63.564 63.699 63.846 63.956 64.059 64.156 64.249 64.326 64.321 64.396 64.451 64.484 64.484 64.459 64.409 64.454 64.509 64.609 74.456 75.174 75.906 74.634 73.421 67.741 66.831 66.736 66.756 67.149 66.954 67.259 67.459 67.599 67.674
57.219 57.084 56.991 56.876 56.799 56.704 56.611 56.511 56.441 56.396 56.366 56.334 56.394 56.439 56.494 56.341 56.386 56.441 56.441 56.341 56.201 55.974 55.854 55.969 55.809 56.009 56.184 56.099 56.624 56.554 56.139 56.071 56.129 56.144 56.144 56.094 56.221 56.391 56.471 56.529 56.561 56.591 56.601 56.679 56.656 56.656 56.666 56.859 56.986 56.059 56.046 56.079 57.004 55.799 55.681 55.846 56.011 56.019 56.264 56.091 55.924 55.969 55.941 55.879 55.931 55.514 55.389 55.254 55.229 55.566 55.556 55.776 55.081 55.094 55.079 57.649 60.434 61.639 61.904 60.731 54.911 54.946 54.596 54.339 54.334 54.159 54.159 54.159 54.134 54.104 54.061 53.994 53.914 53.844 53.749 53.654 53.529 53.346 53.239 52.849 52.511 54.794 58.829 59.819 58.736 56.786 52.479 52.231 51.551 51.491 51.416 53.816 54.811 57.716 58.384 59.086 58.506 59.339 59.221 59.099 58.546 57.866 58.956 60.471 60.844 59.634 50.699 50.581 50.466 50.346 50.249 50.136 50.014 49.884 49.779 50.399 50.344 50.066 49.439 49.591 49.561 49.354 49.521 49.769 49.079 48.561 53.991 53.716 52.229 47.781 48.824 47.626 47.589 47.544 47.481 47.446 47.369 47.294 47.156 47.056 46.934 46.811 46.669 46.516 46.361 46.186 46.024 45.834 45.664 45.531 45.351 45.099 44.924 44.744 44.584 44.429 44.269 44.104 43.954 43.766 43.831 43.361 43.241 43.219 43.159 43.139 43.439 43.396 43.226 45.669 50.779 52.039 52.481 51.451 49.971 42.231 41.759 41.669 41.706 41.696 41.654 41.671 41.796 41.814 41.844 41.901 42.346 44.564 44.131 41.964 41.939 41.946 41.871 42.194 46.896 47.931 48.836 49.091 46.766 41.681 41.586 41.581 41.636 41.691 41.849 41.839 41.819 45.184 47.854 49.016 49.424 48.551 47.656 42.504 41.944 42.067 42.314 42.701 43.084 43.301 43.371 43.496 43.676 43.896 44.031 44.266 44.491 44.729 44.976 45.164 45.284 45.316 45.459 45.591 45.794 45.996 46.171 46.331 47.399 47.674 47.536 47.269 47.304 47.491 47.572 47.654 47.767 51.372 51.454 51.554 51.382 48.959 49.164 49.429 50.724 50.777 57.417 59.857 61.139 61.122 60.039 58.527 51.679 51.587 51.564 51.579 51.832 51.907 51.952 52.009 51.687 51.652 51.724 51.822 51.899 51.932 51.927 51.904 52.054 52.022 52.034 52.154 52.329 52.492 52.552 52.602 52.849 52.944 53.349 52.764 52.824 52.872 52.914 53.054 53.141 53.394 53.694 53.314 54.651 55.096 53.669 54.099 53.896 54.004 54.099 54.191 54.296 54.381 54.464 54.549 54.644 55.324 55.929 55.241 56.376 55.951 55.169 55.299 55.369 55.464 55.549 55.606 55.791 56.711 56.629 56.536 56.679 56.804 56.871 56.954 57.429 57.589 57.831 57.796 57.826 58.429 60.464 61.266 65.446 65.681 66.246 66.159 66.939 67.956 67.349 67.984 68.686 68.484 68.704 68.864 69.054 69.984 70.049 70.029 69.844 69.944 70.121 69.939 70.244 70.234 70.626 69.741 69.536 69.371 69.184 69.554 66.951 63.404 62.776 62.804 63.409 63.484 63.614 63.871 64.924 64.879 63.976 64.139 64.224 64.319 64.351 64.349 64.426 64.479 64.506 64.504 64.481 64.476 64.479 64.539 66.824 75.114 75.209 75.889 74.654 73.256 68.284 66.836 66.761 66.781 66.916 66.871 67.309 67.514 67.601 67.701
57.016 56.964 56.901 56.821 56.734 56.636 56.554 56.481 56.399 57.006 56.376 56.226 56.249 56.266 56.404 56.304 56.301 56.301 56.836 56.134 56.004 55.791 55.796 55.661 55.631 55.674 55.886 56.599 58.491 55.981 55.956 55.946 55.996 56.014 56.011 56.044 56.336 56.411 56.424 56.509 56.516 56.519 56.599 56.609 56.596 56.596 56.619 56.841 56.269 55.996 55.994 57.079 56.036 55.691 56.289 61.774 62.889 62.519 60.699 55.634 55.584 55.596 55.559 55.609 55.834 55.499 55.099 55.049 54.976 54.949 55.134 55.006 54.929 54.991 54.924 57.854 60.631 61.809 61.711 60.556 54.784 54.586 54.309 54.189 54.041 53.834 53.739 53.644 53.619 53.576 53.786 53.576 53.626 53.586 53.559 53.441 53.361 53.241 53.109 52.594 52.331 56.764 59.014 59.729 58.546 55.751 52.501 51.606 51.429 51.391 51.349 54.179 55.076 57.819 58.489 59.189 56.146 52.931 53.521 59.134 58.444 57.781 59.511 60.386 60.631 56.516 50.676 50.571 50.466 50.364 50.281 50.211 50.096 49.964 49.851 49.741 49.631 49.564 49.456 49.354 49.269 49.206 49.181 49.136 49.144 51.271 57.879 58.419 58.404 51.604 47.594 47.551 47.511 47.476 47.414 47.391 47.279 47.179 47.041 46.921 46.794 46.654 46.506 46.384 46.239 46.096 45.921 45.784 45.631 45.529 45.346 45.109 44.924 44.756 44.591 44.404 44.214 44.029 43.841 43.646 43.436 43.284 43.214 43.191 43.124 43.041 43.354 43.431 43.891 47.099 50.976 52.236 52.239 49.971 48.096 42.979 41.971 41.649 41.684 41.666 41.614 41.706 42.334 41.904 41.799 41.876 41.931 43.856 42.794 41.929 41.921 41.904 44.016 41.911 42.091 47.281 48.184 44.579 41.681 41.676 41.544 41.581 41.626 41.684 41.989 41.849 41.844 41.876 46.716 48.106 49.021 49.239 48.316 43.274 41.789 41.909 42.211 42.634 43.021 43.304 43.349 43.481 43.686 43.921 44.146 44.311 44.531 44.751 45.014 45.229 45.449 45.579 45.716 45.841 45.974 46.151 46.354 46.526 46.714 46.969 47.264 47.414 47.349 47.484 47.584 47.589 47.789 51.254 51.339 51.417 51.512 51.592 50.649 49.487 55.729 51.364 59.337 61.157 61.524 60.554 59.472 52.327 51.412 52.429 51.777 51.602 51.589 51.664 52.172 51.729 51.669 51.627 51.754 51.824 51.877 51.894 51.887 51.942 52.044 52.007 52.029 52.169 52.499 52.717 52.837 52.939 52.997 53.057 53.019 52.979 52.989 52.947 52.939 53.052 53.169 53.239 53.361 53.436 53.514 53.611 53.661 53.966 54.091 54.246 55.366 54.866 54.476 54.749 54.479 54.549 54.656 54.751 54.859 54.961 55.049 55.141 55.239 55.349 55.426 55.524 55.616 55.786 55.876 55.949 56.116 56.286 56.426 56.611 56.789 56.951 57.409 57.626 57.709 57.756 59.989 58.219 58.751 58.476 58.611 59.766 58.711 59.341 60.561 64.321 63.641 68.031 67.069 67.991 67.801 67.746 68.241 68.859 69.404 69.281 69.434 69.676 70.471 70.631 70.726 70.669 70.944 70.869 71.126 70.529 70.331 71.174 71.544 70.514 70.316 70.361 70.751 69.971 66.406 65.386 66.861 65.389 64.689 64.284 64.366 64.614 64.449 64.359 64.454 64.504 64.539 64.531 64.496 65.364 64.514 64.556 65.431 73.979 75.139 75.929 75.844 73.416 69.231 67.956 66.751 66.779 66.789 66.886 67.329 67.541 67.631 67.691
56.894 56.844 56.794 56.704 56.629 56.544 56.474 56.404 56.339 56.744 57.624 56.761 56.204 56.221 56.349 56.309 56.254 56.971 57.536 55.964 55.851 55.664 55.696 55.629 55.509 55.554 55.614 55.691 55.784 55.866 55.779 55.804 55.851 55.891 55.866 55.951 56.571 56.549 56.396 56.441 56.454 56.504 56.541 56.541 56.544 56.609 56.789 57.094 55.974 55.961 55.966 55.971 56.026 55.806 58.906 61.956 63.084 62.346 61.226 55.621 55.496 55.434 55.864 55.831 55.521 55.446 55.076 55.049 54.931 56.479 60.489 60.311 58.621 55.764 54.834 55.081 57.569 60.151 61.311 59.946 54.446 54.219 54.096 54.076 53.944 53.764 53.579 53.489 53.346 53.194 53.101 53.209 53.274 53.314 53.331 53.296 53.194 53.091 52.884 52.386 51.921 56.786 58.306 58.659 57.636 55.231 51.594 51.506 51.324 51.271 51.281 54.304 55.706 57.931 58.601 59.006 51.451 53.711 52.254 59.014 58.324 57.669 59.666 60.804 59.636 56.666 50.676 50.569 50.481 50.404 50.351 50.279 50.161 50.021 49.914 49.781 49.664 49.559 49.529 49.479 49.314 49.239 49.194 49.096 49.029 50.476 56.046 57.069 54.714 50.166 48.686 47.459 47.459 47.409 47.351 47.314 47.216 47.216 47.201 47.194 46.866 46.651 46.494 46.309 46.116 45.931 45.761 45.621 45.486 45.389 45.234 45.024 44.851 44.701 44.551 44.369 44.186 43.996 43.801 43.614 43.409 43.224 43.201 43.161 43.071 42.954 42.924 42.856 42.716 42.604 44.449 48.099 49.664 50.679 46.401 43.049 42.001 41.631 41.664 41.649 41.586 41.714 41.834 41.874 41.819 41.814 45.931 44.946 41.901 42.504 43.591 43.354 41.901 41.894 41.851 43.076 42.341 41.759 41.681 42.969 41.699 41.579 41.616 41.679 41.989 41.869 42.501 44.151 42.081 47.461 48.366 48.819 42.101 41.866 41.794 41.949 42.151 42.506 42.929 43.204 43.276 43.429 43.641 43.896 44.131 44.332 44.539 44.759 45.001 45.236 45.474 45.691 45.891 46.036 46.161 46.309 46.466 46.674 46.904 47.099 47.346 47.354 47.326 47.469 47.572 47.627 47.817 47.999 48.964 51.332 51.394 51.459 51.552 53.257 57.757 58.737 59.929 61.019 60.917 60.782 58.539 51.537 51.452 51.444 51.419 52.734 51.579 51.757 53.492 51.634 51.594 51.659 51.749 51.822 51.862 51.852 51.824 51.867 51.947 51.989 52.147 52.107 52.517 52.859 53.037 53.192 53.312 53.414 53.424 53.362 53.262 53.087 52.952 52.989 53.184 53.369 53.569 53.631 53.649 53.714 53.756 53.836 53.911 54.009 54.096 54.186 54.351 54.589 54.729 54.456 54.571 55.454 55.204 55.179 55.034 55.144 55.259 55.364 55.474 55.581 55.699 55.916 55.934 56.011 56.126 56.249 56.379 56.529 56.686 56.866 57.051 57.221 57.374 57.534 62.204 58.151 59.889 58.571 58.504 59.146 58.761 59.011 59.029 59.154 59.381 59.401 59.816 60.779 60.489 64.071 65.921 67.101 69.214 68.099 69.379 69.469 69.486 70.156 69.681 70.116 70.646 70.866 71.071 71.214 71.306 71.999 71.849 71.666 71.461 71.636 71.794 71.926 71.539 71.346 71.836 71.621 71.451 65.974 64.444 64.404 64.501 65.031 64.471 64.534 64.566 64.559 64.524 64.716 64.531 64.589 66.261 75.206 75.274 75.911 74.666 73.411 67.526 66.374 66.749 66.776 66.774 67.146 67.329 67.546 67.616 67.699
58.224 57.051 56.656 56.576 56.504 56.444 56.514 56.351 56.269 56.199 56.149 56.134 56.149 56.176 56.294 57.776 57.386 58.109 57.574 56.044 55.899 55.614 55.589 55.386 55.359 55.401 55.446 55.516 55.666 55.739 55.626 55.674 55.714 55.749 55.739 55.806 56.621 56.531 56.399 56.416 56.444 56.469 56.479 56.484 56.729 56.596 56.789 57.321 55.779 55.779 55.876 55.811 55.754 55.691 60.271 62.149 63.134 62.529 60.909 55.396 55.336 55.326 55.621 56.034 55.211 55.054 55.019 54.989 54.924 58.591 61.204 62.266 61.381 60.271 54.774 54.814 54.774 54.764 54.736 54.299 54.079 53.966 53.974 53.821 54.861 53.981 56.554 56.036 54.784 52.949 52.889 52.884 52.899 52.921 52.919 52.931 52.924 52.791 52.326 52.066 51.741 57.316 58.484 58.466 57.271 54.494 51.614 51.401 51.229 51.174 51.254 54.394 56.139 58.039 58.726 58.246 53.381 53.431 57.206 58.896 58.224 57.554 59.559 61.014 60.264 54.491 50.651 50.579 50.524 50.451 50.399 50.351 50.389 50.561 49.976 49.841 50.396 49.584 49.561 49.491 49.396 49.294 49.201 49.094 48.994 48.956 52.594 55.046 53.791 47.536 47.569 47.309 47.336 47.304 47.271 49.669 47.179 47.469 47.106 47.009 46.904 46.846 46.834 46.794 46.419 46.954 45.786 45.606 45.431 45.229 45.021 44.856 44.699 44.556 44.394 44.229 44.059 43.894 43.714 43.534 43.326 43.176 43.156 43.111 43.019 42.924 42.894 43.346 43.431 42.511 42.361 42.209 42.099 41.999 41.909 42.854 41.606 41.621 41.654 41.621 41.549 41.701 41.796 41.796 41.766 41.784 41.841 41.864 41.891 41.871 41.856 41.824 41.904 41.841 41.794 41.814 41.756 41.746 41.711 41.556 41.534 41.574 41.619 41.691 42.444 43.584 43.531 41.881 41.891 44.319 46.109 41.894 41.849 41.942 42.064 41.931 42.066 42.369 42.826 43.299 43.174 43.344 43.561 43.764 44.049 44.351 44.614 44.851 45.069 45.259 45.454 45.674 45.909 46.114 46.266 46.434 46.611 46.771 47.054 47.299 47.379 47.269 47.331 47.436 47.534 47.687 47.844 48.229 49.552 48.487 49.917 51.397 51.484 54.524 57.199 59.384 60.519 61.322 60.364 59.289 53.769 52.632 51.719 51.614 51.542 51.497 51.599 52.812 51.709 51.594 51.572 51.672 51.737 51.782 51.809 51.809 51.789 51.849 51.897 51.952 52.479 52.314 52.687 53.024 53.234 53.362 53.629 53.777 53.817 53.692 53.459 53.212 53.019 52.999 53.311 53.571 53.826 54.009 54.094 54.134 54.164 54.194 54.211 54.214 54.221 54.259 54.334 54.409 54.494 54.581 54.671 54.756 54.836 55.244 55.789 55.281 56.716 56.699 55.474 55.671 55.796 55.944 55.964 56.064 56.184 56.311 56.444 56.589 56.751 56.899 57.046 57.964 58.771 57.484 57.641 57.816 57.999 58.171 58.334 58.511 58.859 58.919 59.001 59.311 59.846 60.391 59.764 59.814 59.964 60.009 61.499 60.704 61.336 61.131 63.369 64.284 67.806 67.529 68.579 69.384 69.494 70.699 70.084 70.466 71.151 71.599 71.631 71.604 71.804 72.714 72.906 72.864 72.721 72.539 72.994 72.779 72.606 66.474 64.469 64.414 64.521 65.349 64.476 64.559 64.634 64.579 64.551 64.491 64.529 64.601 65.069 73.924 75.161 75.904 74.686 73.391 68.351 67.054 66.746 66.786 66.794 66.879 67.259 67.514 67.631 67.684
57.851 57.451 57.256 56.514 56.489 56.731 56.446 56.396 56.346 60.244 59.169 57.754 56.166 56.346 56.096 56.074 55.996 55.946 57.281 55.789 55.634 56.016 55.601 61.134 60.896 57.244 55.929 55.319 55.549 55.611 55.496 55.556 55.599 55.626 55.614 55.679 57.044 56.564 56.499 56.436 56.434 56.411 56.454 56.711 58.956 58.959 59.001 56.966 55.536 55.556 55.761 55.709 55.704 55.704 61.214 62.324 63.069 61.984 59.276 55.294 55.244 54.871 54.934 55.046 54.814 55.079 54.804 54.826 54.799 59.986 61.394 62.251 61.211 60.094 54.964 54.761 54.571 54.519 54.694 54.004 53.844 53.881 53.771 53.706 59.776 59.576 59.396 59.211 56.081 55.261 53.591 52.736 52.704 52.684 52.651 52.676 52.646 52.461 52.126 51.864 51.784 57.596 58.691 58.264 57.081 54.004 51.729 51.264 51.129 51.071 51.529 54.501 57.139 58.146 58.649 58.771 58.881 58.866 59.116 58.804 58.126 57.466 59.516 61.059 60.064 51.241 50.621 50.599 50.551 50.506 50.481 50.719 52.749 54.546 50.544 63.004 65.699 51.266 49.296 49.414 49.376 49.296 49.176 49.076 48.974 48.926 53.251 55.601 54.206 47.496 47.489 47.261 47.284 47.224 47.191 47.254 47.134 47.296 48.464 46.996 46.914 46.854 46.799 46.671 46.581 46.524 46.426 46.209 54.514 55.769 53.629 50.154 45.674 44.534 44.346 44.146 43.934 43.754 43.579 43.426 43.234 43.114 43.101 43.054 42.944 42.886 42.854 42.746 42.641 42.524 42.394 42.261 42.116 41.984 41.834 41.674 41.554 41.614 41.641 41.596 41.571 41.736 41.756 41.764 41.719 41.746 41.794 41.829 41.851 41.844 41.816 41.799 41.891 42.184 42.016 41.754 42.011 41.671 41.566 41.526 41.519 41.561 41.626 41.681 41.744 42.406 41.849 41.861 41.894 41.929 41.921 42.101 43.684 42.079 42.809 41.904 42.004 42.334 42.799 43.184 43.064 43.206 43.424 43.756 44.159 44.536 44.776 44.996 45.167 45.356 45.542 45.726 45.956 46.084 46.251 46.496 46.699 46.939 47.194 47.369 47.289 47.209 47.349 47.401 47.484 47.679 47.939 48.142 48.317 48.549 48.729 48.909 51.292 51.437 58.869 59.992 61.084 60.869 59.797 57.444 51.262 51.427 51.574 52.892 51.524 51.577 51.594 51.554 51.562 51.504 51.584 51.657 51.712 51.749 51.752 51.757 51.839 51.849 51.884 52.414 51.874 52.374 52.867 53.187 53.432 53.729 54.032 54.182 54.079 53.972 53.692 53.349 53.037 53.014 53.369 53.759 54.014 54.161 54.179 54.234 54.306 54.401 54.569 54.684 54.656 54.634 54.391 54.421 54.479 54.571 54.809 54.934 55.016 55.086 55.144 55.204 55.296 55.426 55.531 55.646 55.776 55.901 55.941 56.071 56.201 56.339 56.471 56.626 56.786 56.939 57.106 57.246 57.394 57.556 57.716 57.871 58.016 58.169 58.301 58.511 58.591 58.766 58.954 59.124 59.281 59.441 59.686 60.789 59.944 60.009 61.704 60.669 62.064 60.761 60.836 61.231 61.246 61.424 61.586 61.959 62.184 67.164 66.729 69.814 69.486 71.571 71.376 70.479 71.244 71.691 72.244 72.294 72.279 72.474 73.341 73.471 73.574 66.729 64.476 64.444 64.566 64.426 64.509 64.571 64.631 64.591 64.556 64.509 64.546 64.619 66.039 75.066 75.239 75.911 74.646 72.964 66.641 66.806 66.741 66.784 66.774 66.886 67.244 67.494 67.619 67.664
57.314 56.579 56.576 56.486 56.466 56.611 56.479 56.436 56.356 61.829 62.954 63.734 62.639 59.556 56.191 56.096 55.971 55.904 56.751 55.834 55.586 55.504 56.404 61.311 62.389 62.246 61.179 55.329 55.336 55.524 55.381 55.441 55.474 55.506 55.476 55.564 62.976 58.486 56.534 56.561 56.591 56.504 56.554 57.159 58.929 58.886 58.416 56.219 55.311 55.349 55.646 55.544 55.614 55.611 61.046 62.521 62.949 61.814 57.906 56.094 54.969 55.164 54.786 54.566 54.646 54.789 54.729 54.726 54.741 60.451 61.576 62.139 61.029 57.864 54.776 54.659 54.226 54.004 54.296 53.776 53.741 53.746 53.716 57.101 60.839 60.724 60.559 60.374 58.371 58.196 56.281 55.696 53.971 52.606 52.476 52.469 52.431 52.204 51.919 51.776 52.121 57.706 58.859 58.071 54.484 51.396 51.274 51.126 51.039 50.951 51.594 54.454 57.466 57.869 57.974 58.089 58.189 58.311 58.421 58.529 58.011 57.429 58.366 59.766 59.019 51.241 50.589 50.584 50.561 50.959 53.854 53.994 57.199 57.181 57.636 58.451 56.911 48.276 48.391 49.224 49.276 49.239 49.121 49.019 48.939 49.271 54.759 56.226 48.036 47.454 47.331 47.746 47.214 47.164 47.176 47.171 47.111 56.371 59.746 56.291 52.634 52.249 47.066 46.689 46.544 46.481 46.404 47.854 55.709 56.351 56.486 55.454 54.411 44.711 43.929 43.911 43.829 43.809 43.616 43.424 43.216 43.054 43.041 42.996 42.876 42.821 42.759 42.636 42.546 42.446 42.321 42.199 42.081 41.939 41.801 41.614 41.529 41.621 41.634 41.569 41.574 41.676 41.711 41.709 41.666 41.676 41.704 41.814 42.029 41.801 41.801 41.786 41.829 41.804 41.946 41.746 41.694 41.621 41.534 41.516 41.516 41.561 41.609 41.674 41.739 41.861 41.869 41.874 41.902 41.921 42.179 41.921 44.244 45.779 46.542 45.436 42.811 42.276 42.664 42.996 42.931 43.064 43.434 43.911 44.364 44.784 44.994 45.116 45.311 45.466 45.606 45.777 45.924 46.206 46.347 46.509 46.671 46.966 47.201 47.309 47.219 47.159 47.261 47.336 47.534 47.832 47.999 48.207 48.424 48.577 48.757 48.979 49.737 49.394 58.567 60.584 61.294 60.274 59.227 52.162 51.719 51.277 51.367 51.374 52.887 52.229 51.814 51.534 51.514 51.479 51.572 51.642 51.679 51.714 51.947 51.817 51.777 51.824 51.852 52.012 52.177 52.554 53.112 53.449 53.727 54.142 54.449 54.564 54.457 54.242 53.892 53.474 53.174 53.122 53.316 53.754 54.069 54.171 54.149 54.236 54.291 54.299 54.584 54.849 54.984 54.991 55.021 54.846 54.789 55.079 55.264 55.384 55.424 55.411 55.416 55.524 55.599 55.694 55.706 55.789 55.841 55.931 56.041 56.156 56.259 56.361 56.469 57.086 58.166 57.741 57.544 57.424 57.401 57.576 57.746 57.901 58.079 58.236 58.376 58.516 58.689 58.794 58.941 59.084 59.219 59.381 59.546 59.711 59.901 60.059 60.219 61.844 62.449 60.746 60.856 61.544 61.484 61.426 61.469 61.856 61.999 62.501 62.091 62.186 62.509 63.701 64.796 65.719 69.004 70.374 72.299 70.884 72.009 71.574 72.169 72.326 72.514 64.546 64.484 64.449 64.576 64.446 64.524 64.596 64.701 64.621 64.579 64.521 64.556 64.631 65.014 74.099 75.124 75.926 75.176 73.416 69.169 68.221 66.731 66.771 67.019 67.896 67.239 67.469 67.624 67.659
57.066 56.961 57.111 56.461 56.584 57.216 56.554 56.551 57.379 62.009 63.154 63.571 62.436 58.554 56.189 56.031 55.946 56.464 57.541 55.639 55.541 55.446 57.844 61.509 62.589 62.056 60.984 55.306 55.311 55.356 55.279 55.324 55.364 55.399 55.371 55.389 55.354 55.341 55.344 55.346 55.331 55.384 55.796 56.444 61.344 60.541 57.089 55.669 55.134 55.169 56.516 55.579 55.564 55.606 55.496 55.441 55.401 55.906 55.314 55.056 54.719 55.426 54.479 54.449 54.546 54.646 54.619 54.609 54.749 60.639 61.749 61.981 60.839 56.671 54.521 54.151 53.866 53.709 53.754 53.649 53.759 53.769 53.721 59.186 59.919 60.106 60.264 60.456 59.539 59.366 59.161 58.986 56.954 52.549 52.396 52.306 52.206 52.046 51.806 51.676 52.244 55.331 58.446 57.881 52.304 51.316 51.146 51.001 50.914 50.846 51.686 52.336 51.956 52.376 53.454 53.926 56.586 57.386 57.741 57.846 57.861 57.524 58.219 58.361 57.689 52.956 50.576 55.399 53.141 53.956 53.951 55.529 57.226 57.164 57.159 57.684 54.136 49.226 47.854 48.604 49.121 49.169 49.091 48.964 48.914 50.606 55.614 54.294 48.529 47.409 48.236 48.194 47.429 47.091 47.124 47.064 47.466 59.191 60.304 59.194 60.826 58.551 49.541 46.674 46.801 46.764 47.594 46.671 54.474 56.164 56.316 55.301 54.234 53.196 51.946 45.534 43.619 43.564 43.456 43.286 43.159 43.011 43.006 42.931 42.829 42.784 42.704 42.571 42.431 42.299 42.174 42.051 41.941 41.839 41.701 41.556 41.514 41.609 41.586 41.526 41.569 41.599 42.169 41.666 41.631 41.636 41.659 41.754 41.699 41.804 42.799 42.834 43.141 41.941 41.859 42.131 41.706 41.946 43.036 41.496 41.524 41.556 41.609 41.654 41.731 41.776 41.764 41.794 41.814 41.856 41.874 41.886 44.829 45.969 46.391 45.277 42.251 42.199 42.504 43.164 42.769 43.049 43.584 44.861 45.431 45.951 45.726 45.921 45.597 45.521 45.601 45.746 45.864 46.161 46.417 46.601 46.754 46.874 47.059 47.121 48.159 47.126 47.189 47.371 51.592 47.872 50.162 48.312 48.442 48.647 48.844 49.032 49.214 50.152 49.604 52.304 60.784 59.722 57.862 51.337 51.337 52.392 51.324 51.402 51.492 51.749 52.554 51.477 51.409 51.499 51.569 51.619 51.659 51.659 51.677 51.749 51.767 51.792 51.869 52.374 52.572 52.979 53.372 53.774 54.164 54.527 54.764 54.829 54.734 54.434 54.012 53.574 53.229 53.172 53.251 53.676 54.159 54.191 54.221 54.271 54.301 54.306 54.451 54.729 54.989 55.036 54.916 54.951 54.986 55.341 55.444 55.496 55.526 55.414 55.269 55.369 55.541 55.754 55.836 55.894 55.909 55.899 56.814 56.656 56.841 56.646 56.596 56.724 56.864 56.999 57.406 57.694 57.429 57.559 57.731 57.906 58.076 58.241 58.384 58.529 58.686 58.826 58.959 59.119 59.269 59.446 59.599 59.746 60.214 60.761 60.166 60.316 60.629 60.994 60.834 60.989 61.299 61.309 61.549 62.244 62.196 62.964 62.159 62.234 62.476 62.621 63.699 63.081 63.916 63.404 63.914 63.631 66.134 66.964 68.316 71.124 71.379 64.576 64.476 64.474 64.579 64.459 64.549 64.601 64.644 64.649 64.599 64.526 64.574 64.634 67.244 74.801 75.119 75.921 74.664 74.059 68.531 67.689 66.714 66.774 66.866 67.014 67.204 67.419 67.594 67.661
56.571 56.474 57.381 56.446 56.716 56.601 56.564 56.504 56.834 62.226 63.346 63.371 62.241 58.016 56.271 56.111 55.961 55.956 55.871 55.649 55.491 55.396 59.724 61.696 62.709 61.871 60.796 55.294 55.316 55.244 55.191 55.239 55.284 55.279 55.269 55.291 55.281 55.271 55.259 55.224 55.186 55.144 55.104 55.046 59.169 55.029 55.026 54.939 54.926 54.944 55.441 55.939 55.509 56.166 55.494 55.344 55.336 55.251 55.216 55.136 54.561 54.411 54.379 54.359 54.466 54.539 54.524 54.499 54.494 54.429 56.056 57.781 59.749 54.129 54.036 53.826 53.659 53.591 53.626 53.564 55.921 58.874 60.221 60.604 59.434 56.934 58.754 59.281 59.484 59.676 59.886 59.959 55.459 52.476 52.309 52.171 52.041 51.876 51.676 51.606 51.546 51.584 51.536 51.504 51.249 51.126 51.014 50.876 50.846 50.776 51.519 53.271 53.411 57.039 57.829 57.054 55.304 54.546 54.254 54.471 55.196 56.336 56.111 56.884 57.444 52.186 50.979 59.626 58.721 57.676 54.934 57.336 57.289 57.221 57.201 55.451 53.946 53.321 47.606 48.076 48.586 49.051 48.996 48.924 48.859 53.786 56.361 51.819 47.316 47.379 47.096 49.581 47.564 47.049 47.069 47.016 47.349 53.094 56.136 59.321 62.594 59.496 51.626 47.194 50.834 49.506 46.724 48.064 55.199 56.331 56.159 55.089 54.664 52.989 51.496 46.549 43.606 43.559 43.434 43.294 43.096 42.971 42.944 42.879 42.839 42.826 42.871 43.084 46.709 46.666 42.234 42.084 41.944 41.786 41.629 41.516 41.491 41.579 41.559 41.474 41.554 41.596 41.611 41.624 41.596 41.601 41.599 41.664 41.634 41.654 41.689 42.176 42.139 41.756 41.744 41.689 41.676 41.629 42.451 42.614 41.521 41.559 41.597 41.659 41.934 41.784 41.771 41.786 41.839 41.856 41.829 41.911 45.019 46.139 46.209 45.071 42.531 42.181 42.419 42.744 42.654 43.126 43.719 45.751 46.046 47.542 46.004 45.859 45.741 46.484 47.106 46.549 46.556 46.134 46.376 46.601 46.781 46.961 47.084 46.989 47.391 47.064 47.141 52.316 53.249 52.859 51.332 48.329 48.542 49.127 48.892 49.089 49.269 49.409 50.654 52.772 50.172 52.882 52.044 51.342 51.937 53.184 51.414 52.627 51.339 52.864 51.447 51.417 51.397 51.484 51.557 51.597 51.612 51.607 51.679 51.694 51.752 51.799 51.952 52.797 52.767 53.232 53.692 54.092 54.464 54.772 54.934 54.972 54.819 54.497 54.107 53.684 53.334 53.244 53.266 53.659 54.214 54.231 54.244 54.306 54.321 54.334 54.354 54.384 54.814 54.889 54.934 54.961 54.989 55.131 55.404 55.469 55.416 55.111 55.114 55.154 55.214 55.726 55.969 55.994 55.936 55.879 56.064 56.311 56.804 56.824 56.674 56.794 56.944 57.059 57.204 57.356 57.499 57.596 57.726 57.891 58.064 58.206 58.346 58.481 58.654 58.796 58.946 59.111 59.274 59.444 59.619 59.779 59.919 60.071 60.231 60.384 60.534 61.116 61.396 60.966 62.144 62.674 61.626 61.589 61.751 61.919 62.079 62.241 62.559 62.856 63.204 63.156 64.084 63.361 63.889 63.581 63.614 63.959 64.046 64.079 64.419 65.044 64.479 64.481 64.589 64.496 64.566 64.624 64.674 64.666 64.611 64.816 64.576 64.636 65.816 74.284 75.086 75.931 74.681 73.514 66.959 66.956 66.686 66.754 66.789 67.024 67.176 67.391 67.591 67.664
56.474 56.554 56.371 56.406 56.446 56.436 56.396 56.359 59.354 62.416 63.554 63.161 62.039 56.246 56.091 55.999 55.811 56.604 57.281 56.986 56.436 56.069 55.251 55.149 55.159 56.249 57.336 55.589 55.396 55.101 55.096 55.161 55.199 55.174 55.239 55.289 55.259 55.214 55.176 55.154 55.119 55.086 55.044 55.021 54.994 54.944 54.884 54.841 54.801 54.749 54.739 54.751 54.746 54.734 54.824 54.786 55.901 55.304 54.741 54.524 54.359 54.331 54.276 54.236 54.311 54.409 54.466 54.439 54.396 55.126 56.531 56.411 54.314 53.966 53.836 53.709 53.386 53.416 53.561 53.519 56.414 59.221 60.401 60.399 59.241 53.534 53.239 54.931 58.301 58.499 59.186 58.874 52.914 52.359 52.149 52.019 51.931 51.736 51.574 51.489 51.459 51.444 51.544 51.584 51.116 50.991 50.906 50.789 50.744 50.749 50.556 53.344 53.364 59.059 58.986 58.761 58.581 58.414 58.229 58.016 57.434 56.911 53.654 53.541 52.649 50.546 50.534 52.391 57.854 57.331 57.439 57.394 57.346 57.294 57.264 57.251 55.199 53.979 47.479 47.714 47.939 48.551 48.891 48.859 48.811 50.849 56.834 53.381 47.254 47.326 47.596 47.059 47.044 46.966 47.121 46.974 47.031 47.489 47.011 49.971 56.589 55.926 48.501 48.584 52.506 52.796 47.156 52.484 56.349 56.524 55.956 54.939 53.874 52.791 50.611 44.549 43.399 43.476 43.501 43.516 43.044 42.911 42.876 42.804 42.731 43.186 42.859 42.954 50.449 51.594 52.689 51.826 50.666 43.001 41.856 41.566 41.601 41.579 41.619 41.524 41.531 42.089 41.544 41.549 41.546 41.524 41.529 41.649 41.626 41.619 41.651 41.614 41.654 41.624 41.741 41.606 41.597 41.619 44.214 41.461 41.494 41.536 41.634 41.746 41.964 41.794 44.106 43.569 42.966 42.391 42.464 41.906 44.222 44.876 45.499 44.899 42.051 42.181 42.364 42.527 42.619 43.189 43.844 45.324 45.861 47.554 45.534 45.529 45.564 45.444 45.489 45.624 46.296 46.659 46.281 47.306 46.779 46.989 46.944 46.847 46.951 47.009 47.826 52.849 54.409 53.977 53.349 52.757 49.872 49.012 50.204 49.157 49.309 49.477 49.649 49.792 50.764 50.194 50.397 51.354 51.437 51.349 51.339 51.339 51.479 51.594 51.357 51.334 51.422 51.492 51.552 51.567 51.569 51.559 51.644 51.697 52.544 51.852 52.764 52.667 53.042 53.534 53.942 56.029 54.622 54.847 54.909 54.844 54.602 54.382 54.062 53.702 53.414 53.312 53.326 53.619 54.064 54.296 54.319 54.311 54.324 54.344 54.384 54.414 54.494 54.881 54.924 54.951 54.989 55.009 55.094 55.134 55.159 55.099 55.126 55.151 55.174 55.564 56.054 56.081 55.954 55.924 56.146 56.424 56.654 56.824 56.959 57.159 57.134 57.214 57.304 57.446 57.581 58.331 57.774 57.906 58.084 58.229 58.404 58.584 58.724 58.836 58.961 59.124 60.421 60.009 59.574 59.741 59.901 60.071 60.226 60.389 60.559 60.721 60.866 61.031 61.181 61.324 61.476 61.614 62.411 63.091 62.049 62.174 62.329 62.506 62.686 62.851 62.996 63.359 63.571 63.781 63.621 63.854 64.061 64.121 64.171 64.524 64.431 64.474 64.601 64.501 64.586 64.654 64.686 64.679 64.639 65.061 64.596 64.664 65.919 74.506 75.074 75.901 74.684 73.891 66.339 66.531 66.666 66.746 66.769 66.906 67.171 67.394 67.554 67.684
56.386 57.016 56.309 56.324 56.324 56.456 56.556 56.406 60.336 62.631 63.751 62.964 61.851 56.211 56.079 55.934 55.776 56.746 55.454 55.234 55.011 55.086 55.719 56.209 54.931 54.851 54.899 54.994 55.069 54.941 54.996 55.074 55.119 55.079 55.191 55.246 57.734 57.299 56.681 56.206 55.314 55.076 55.001 54.949 54.931 54.889 54.851 54.809 54.789 54.721 54.684 54.651 54.606 54.561 54.516 54.479 54.451 54.424 54.346 54.281 54.251 54.219 54.159 54.106 54.111 54.091 54.129 54.241 55.089 54.459 55.334 55.379 54.034 54.394 53.769 53.699 53.626 53.216 53.519 53.551 53.519 59.399 60.569 60.206 58.471 53.626 53.339 52.866 52.749 52.731 53.406 54.481 52.611 52.241 51.954 51.881 51.794 51.676 53.434 52.111 51.509 51.346 51.506 51.309 51.079 50.909 50.779 50.684 50.649 50.701 50.554 53.344 53.376 60.206 60.009 59.821 59.621 59.446 59.246 59.076 56.939 56.926 54.009 53.481 50.911 50.544 50.549 53.224 53.954 54.799 57.496 57.444 57.406 57.364 57.341 57.316 57.314 57.476 51.576 56.094 52.331 47.999 48.746 48.759 48.741 53.611 54.679 54.454 47.204 47.244 47.459 48.266 46.974 46.916 47.094 46.929 47.204 47.394 47.006 47.021 46.976 46.974 46.799 46.766 46.721 46.786 47.021 52.456 56.264 56.571 55.846 54.741 51.221 47.111 48.254 43.436 43.329 43.304 43.304 43.181 42.931 42.879 42.826 42.744 42.691 43.414 42.906 42.989 50.646 51.811 52.726 51.469 50.551 43.349 41.786 41.496 41.454 41.506 41.489 41.419 41.626 41.684 41.499 44.494 42.141 41.524 41.529 41.656 41.629 41.616 41.596 41.619 41.651 42.519 42.121 41.584 41.561 41.591 42.286 41.484 41.474 41.524 41.674 44.889 47.631 47.464 47.296 47.121 45.401 45.152 44.986 44.821 43.329 41.934 41.979 42.021 42.084 42.234 42.421 42.636 42.664 43.261 44.024 44.836 45.004 45.124 45.294 45.386 45.456 45.446 45.479 46.034 46.446 45.851 46.129 46.516 46.721 46.964 46.811 46.819 46.902 46.969 50.456 52.771 53.439 54.112 54.437 53.862 55.584 55.382 50.539 49.159 49.819 50.522 49.707 49.862 50.007 50.152 53.877 52.562 50.687 51.537 51.349 51.277 51.297 51.324 51.269 51.332 51.424 51.494 51.532 51.529 51.524 51.557 51.637 51.659 51.722 52.177 52.384 52.782 53.289 53.739 54.144 54.479 54.652 54.732 54.712 54.562 54.339 54.139 53.877 53.597 53.392 53.337 53.384 53.534 53.986 54.291 54.379 54.499 54.631 54.359 54.411 54.419 54.429 54.824 54.891 54.899 54.956 55.024 55.026 55.056 55.059 55.081 55.116 55.144 55.159 55.634 56.094 56.154 56.004 55.969 56.294 56.559 56.949 57.179 57.286 57.486 57.556 57.654 57.806 57.836 57.891 58.961 57.896 57.984 58.116 58.354 58.951 58.631 58.799 58.929 59.059 59.196 59.339 59.479 59.624 59.776 59.909 60.039 60.186 60.346 61.626 61.559 60.851 61.024 61.181 61.344 61.499 61.654 61.796 61.939 62.091 62.231 62.386 62.524 62.909 64.036 63.516 64.476 63.436 63.419 63.581 63.739 63.886 64.101 64.486 64.584 64.416 64.484 64.611 64.531 64.616 64.666 64.711 64.691 64.661 64.571 64.579 64.664 65.214 74.649 75.044 75.901 74.696 73.976 68.711 68.456 66.784 66.741 66.786 67.211 67.181 67.376 67.534 67.686
56.529 56.181 56.214 56.239 56.231 56.221 56.221 56.199 56.606 56.199 56.219 57.749 58.601 56.144 56.019 55.856 55.686 56.339 55.321 55.116 54.924 54.766 58.844 56.029 54.724 54.714 54.756 54.889 54.969 54.841 54.904 54.976 55.001 54.961 55.066 55.146 60.384 59.259 58.139 57.991 57.816 55.039 54.961 54.979 55.034 54.944 54.864 54.799 54.731 54.674 54.634 54.604 54.569 54.529 54.479 54.434 54.376 54.304 54.271 54.236 54.184 54.126 54.044 53.984 53.916 53.906 53.869 53.764 53.686 53.621 53.544 53.474 53.536 53.559 53.616 53.619 53.044 53.291 53.496 53.536 53.526 59.576 60.719 60.066 57.161 53.696 53.299 52.801 52.661 52.649 52.769 52.794 52.471 52.101 51.874 51.954 51.806 54.254 57.526 57.336 57.744 56.964 51.569 51.346 51.016 50.824 50.699 50.579 50.534 50.641 51.151 53.354 53.384 60.501 60.656 60.716 60.666 60.479 60.296 60.136 56.979 56.939 56.944 56.964 50.939 50.524 50.516 52.929 53.989 57.621 57.554 57.516 57.476 57.441 57.404 57.376 57.359 57.346 57.804 59.391 56.384 47.894 48.601 48.676 48.701 55.264 58.526 51.741 47.126 47.101 46.944 46.969 46.914 47.226 46.926 46.844 47.179 47.166 46.984 46.959 46.896 46.844 46.756 46.684 46.651 46.554 46.524 55.756 56.136 56.584 55.651 54.601 45.104 43.689 43.584 43.584 43.319 43.246 43.764 44.394 42.854 42.831 42.771 42.686 42.691 43.241 42.974 42.544 50.846 51.989 52.676 53.064 50.324 41.789 41.734 41.436 41.454 41.484 41.431 41.396 41.771 41.586 41.509 47.686 47.504 47.334 47.169 46.984 46.266 42.754 41.896 41.604 42.229 44.386 44.004 41.556 41.496 42.136 41.626 41.466 41.481 41.516 41.686 45.321 48.779 48.606 48.426 48.231 46.436 46.316 46.156 45.771 42.186 41.929 41.991 42.039 42.124 42.261 44.181 42.379 42.694 43.351 44.076 45.979 44.896 45.144 45.314 45.424 49.874 51.264 49.139 45.821 46.441 45.911 46.094 46.306 46.904 46.766 46.671 46.796 46.856 46.979 47.174 47.871 50.974 52.972 53.624 54.397 55.697 56.219 57.669 58.637 50.379 49.719 51.507 50.222 50.074 50.227 50.367 50.572 50.789 50.847 51.069 51.357 51.262 51.277 51.257 51.347 51.424 51.469 51.504 51.489 51.467 51.554 51.604 51.619 51.782 52.479 52.609 52.997 53.517 53.919 54.274 54.472 54.534 54.507 54.404 54.242 54.059 53.837 53.622 53.454 53.322 53.329 53.441 53.496 53.796 54.076 54.306 54.454 54.586 54.559 54.399 54.439 54.451 55.206 55.261 55.236 55.136 54.976 55.019 55.051 55.056 55.064 55.084 55.134 55.426 55.899 56.056 56.109 56.004 56.026 56.301 56.749 57.194 57.466 57.661 57.816 57.976 58.059 58.209 58.294 58.341 58.656 58.729 58.284 58.359 58.669 58.761 58.841 58.956 59.061 59.156 59.271 59.384 59.544 59.719 59.861 60.166 60.206 60.309 60.441 60.584 60.706 60.824 60.961 61.131 61.294 61.461 61.621 61.786 61.936 62.096 62.249 62.406 62.556 62.706 62.864 63.019 63.164 63.301 63.519 64.411 64.749 63.826 63.964 64.109 64.256 64.406 64.526 64.561 64.534 64.624 64.699 64.731 64.706 64.654 65.256 64.571 64.656 65.956 73.919 75.056 75.946 75.066 73.224 68.811 68.689 66.579 66.701 67.126 67.086 67.191 67.391 67.556 67.691
56.146 56.066 56.064 56.141 56.136 56.086 56.089 56.109 56.124 56.324 56.076 56.131 56.569 57.769 56.029 55.759 55.566 56.439 55.399 55.031 54.849 56.101 60.811 61.934 61.674 60.579 54.724 54.984 54.831 54.749 54.816 54.881 54.891 54.821 54.964 58.064 62.361 62.594 62.499 62.346 62.199 54.951 54.949 54.966 55.409 55.199 54.944 55.174 54.894 54.771 54.719 54.654 54.619 54.586 54.506 54.406 54.329 54.259 54.231 54.199 54.146 54.089 54.036 53.951 53.859 53.784 53.691 53.609 53.551 53.486 53.426 53.344 53.269 53.184 53.111 53.039 52.906 52.796 52.756 52.736 53.934 56.319 59.986 59.841 55.231 53.681 53.161 52.719 52.586 52.481 52.414 52.391 52.181 52.011 51.791 51.884 51.774 56.091 58.564 58.484 58.314 58.116 51.446 51.304 51.029 50.734 50.576 50.471 50.401 51.286 51.939 53.356 56.406 59.454 59.609 59.801 59.999 60.179 60.359 60.539 56.936 56.944 56.951 56.966 50.624 50.509 50.476 51.154 54.661 57.564 57.554 57.561 57.546 57.509 57.469 57.444 57.416 57.376 57.884 58.559 47.516 48.104 48.514 48.626 48.686 48.749 50.009 47.131 47.109 47.034 46.881 49.504 47.076 47.189 46.809 46.791 47.754 46.896 46.879 46.854 47.049 47.426 47.234 47.071 46.559 46.501 46.419 53.851 55.884 56.456 55.456 54.416 50.826 48.296 44.661 43.584 43.324 43.304 43.384 43.394 42.796 42.781 42.724 42.639 42.679 43.969 42.901 43.754 51.034 52.191 52.519 50.834 49.559 41.041 41.736 41.376 41.404 41.431 41.389 41.404 41.599 41.549 44.766 48.819 48.629 48.441 48.284 48.089 47.931 44.134 43.391 41.579 47.239 47.051 46.899 45.724 43.656 41.829 41.491 41.449 41.456 41.514 41.716 48.131 48.304 48.469 48.639 48.784 45.561 45.741 45.911 44.491 41.879 41.926 41.961 42.041 42.151 42.244 42.556 42.354 42.744 43.444 44.274 45.266 44.889 45.139 45.309 45.479 50.729 51.871 51.144 45.569 45.792 46.567 46.161 46.391 46.784 46.609 46.659 46.739 46.806 47.026 47.231 47.426 47.632 48.492 52.094 52.977 53.534 55.244 60.434 61.752 62.994 58.452 50.404 50.147 50.147 50.249 50.602 51.089 50.682 50.867 51.034 51.107 51.192 51.202 51.267 51.344 51.409 51.449 51.452 51.442 51.429 51.534 51.562 51.604 52.342 52.707 52.762 53.279 53.729 54.057 54.279 54.337 54.262 54.162 54.042 53.892 53.709 53.537 53.424 53.362 53.312 53.387 53.501 53.564 53.646 53.834 53.999 54.114 54.246 54.381 54.324 54.411 55.014 55.219 55.234 55.221 55.221 54.964 55.036 55.071 55.176 55.516 55.459 55.466 55.766 55.971 56.091 56.109 56.024 56.034 56.306 56.831 57.326 57.659 57.886 58.051 58.206 58.339 58.464 58.594 58.654 58.731 59.034 58.889 59.166 59.376 59.149 59.231 59.409 59.539 59.601 59.744 59.771 59.859 59.976 60.061 60.166 60.311 60.446 60.589 60.736 60.839 60.954 61.071 61.221 61.376 61.536 61.671 61.771 61.901 62.039 62.206 62.356 62.999 63.251 62.861 63.004 63.161 63.306 63.446 63.601 63.736 63.876 64.014 64.154 64.279 64.394 64.476 64.516 64.554 64.649 64.709 64.751 64.739 64.684 65.556 64.604 64.674 64.871 75.726 75.694 75.896 74.744 73.511 68.804 68.689 66.546 66.679 68.221 67.176 67.296 67.326 67.514 68.056
55.894 55.914 55.964 56.011 56.014 55.971 55.936 55.951 55.986 56.039 57.084 58.436 57.839 55.946 55.839 55.716 55.956 56.054 56.706 55.664 55.469 58.044 61.019 62.109 61.491 60.384 54.721 54.769 54.751 54.636 54.716 54.776 54.764 54.749 54.851 59.299 62.536 63.479 63.494 63.006 61.691 54.966 54.964 55.226 55.386 55.671 54.966 56.179 54.934 54.799 54.769 54.729 54.694 54.601 54.359 54.426 54.434 54.364 54.229 54.211 54.109 54.016 53.946 53.879 53.796 53.734 53.656 53.556 53.486 53.389 53.301 53.209 53.124 53.026 52.974 52.874 52.764 52.701 52.656 52.574 52.514 52.444 52.416 52.396 53.221 53.196 52.826 52.594 52.431 52.294 52.239 52.196 52.076 52.054 51.876 51.849 51.686 57.274 57.564 57.739 57.919 58.121 51.199 51.074 50.864 50.566 50.456 50.374 50.301 50.714 52.506 53.371 56.519 58.404 58.576 58.774 58.949 59.141 59.309 59.526 56.924 56.941 56.949 55.941 50.601 50.476 50.436 50.521 57.534 57.571 57.569 57.516 57.569 57.559 57.544 57.524 57.479 57.441 57.414 57.406 51.421 48.311 48.391 48.569 49.541 54.479 54.331 47.219 47.096 49.096 50.279 50.284 46.766 46.786 46.761 46.761 47.531 46.921 46.864 46.834 46.756 46.686 46.601 46.501 46.409 46.379 46.369 55.016 56.114 56.311 55.336 54.274 53.189 51.979 48.424 43.331 43.259 43.171 43.121 42.891 42.744 42.734 42.681 42.591 42.654 44.694 42.876 46.814 51.679 52.384 52.389 51.149 48.086 41.779 41.536 41.344 41.376 41.396 41.349 41.396 41.591 41.536 45.541 48.391 48.564 48.739 48.886 48.976 48.971 44.089 42.701 43.896 48.351 48.176 47.999 47.814 47.639 42.039 41.486 41.424 41.459 41.527 41.779 46.431 47.171 47.334 47.499 47.589 43.989 44.579 44.744 43.451 41.979 41.956 41.951 42.019 42.141 42.229 42.551 42.351 42.844 43.586 44.701 44.699 44.861 45.119 45.371 45.509 49.786 51.911 50.917 45.576 45.751 46.021 46.216 46.431 46.524 46.489 46.614 46.684 46.811 47.167 47.316 47.519 47.722 47.934 48.139 49.442 52.039 54.099 61.139 62.347 63.437 62.389 61.194 51.874 51.422 50.332 50.477 50.584 50.732 50.847 50.937 51.009 51.092 51.197 51.272 51.347 51.397 51.417 51.414 51.379 51.459 51.509 51.529 51.707 52.352 52.424 52.944 53.477 53.859 54.079 54.132 54.072 53.937 53.782 53.644 53.492 53.374 53.324 53.299 53.299 53.362 53.464 53.539 53.616 53.699 53.796 53.894 53.984 54.079 54.179 54.276 54.369 54.466 54.554 54.656 54.769 54.864 54.974 55.069 55.201 55.366 55.501 55.614 55.734 55.861 55.979 56.041 56.089 56.069 56.124 56.269 56.731 57.234 57.629 57.846 58.001 58.169 58.329 58.471 58.619 58.749 58.914 59.039 59.154 59.266 59.371 59.459 59.589 59.781 59.951 60.094 60.194 60.251 60.389 60.499 60.599 60.671 60.779 60.829 60.929 61.039 61.079 61.144 61.404 61.511 61.474 61.606 61.679 61.926 62.044 62.154 62.304 62.444 62.576 62.689 62.814 62.939 63.101 63.249 63.404 63.561 63.719 63.854 64.009 64.159 64.306 64.386 64.521 64.539 64.549 64.656 64.721 64.771 64.751 64.699 64.621 64.609 64.681 65.959 74.794 75.076 75.946 74.776 73.266 68.819 68.691 66.479 66.641 67.001 66.944 67.386 67.479 67.639 67.856
55.741 55.766 55.844 55.876 55.881 55.856 55.839 55.851 55.841 55.764 55.824 56.099 56.411 55.741 55.564 55.459 55.874 55.516 55.041 54.926 56.041 60.116 61.216 62.284 61.306 59.904 54.676 54.726 54.644 54.546 54.624 54.664 54.649 54.676 54.734 60.054 62.719 63.661 62.879 62.899 61.304 54.944 54.961 55.439 55.131 55.601 54.986 55.756 54.941 54.801 54.781 54.729 54.731 54.456 54.559 54.196 54.421 54.259 54.249 54.379 54.254 54.111 54.234 53.961 53.866 53.721 53.599 53.491 53.394 53.336 53.261 53.169 53.086 53.009 52.914 52.824 52.734 52.641 52.541 52.454 52.386 52.334 52.274 52.194 52.124 52.276 52.474 53.006 52.164 52.079 52.046 51.966 51.954 52.014 51.964 51.599 51.409 54.526 55.546 55.624 56.759 56.586 51.121 50.954 50.766 50.486 50.336 50.276 50.214 50.761 52.911 53.364 53.699 53.659 54.261 57.614 57.926 58.104 58.289 57.819 56.931 56.789 56.836 57.009 50.519 50.466 50.424 50.466 54.336 56.699 57.564 57.574 57.581 57.636 61.439 62.099 60.629 57.514 57.486 57.449 57.436 53.826 48.341 48.479 49.886 54.501 52.586 46.971 47.129 46.771 46.776 46.771 46.689 46.766 46.701 46.716 48.411 47.611 47.479 46.861 46.811 46.726 46.576 46.484 46.434 46.341 49.154 55.489 56.266 56.119 55.101 54.086 52.996 51.351 46.934 43.289 43.169 43.066 43.026 42.801 42.709 42.684 42.621 42.529 42.641 42.709 42.989 50.081 51.029 52.461 52.069 50.679 45.154 42.196 41.431 41.329 41.356 41.366 41.301 41.361 41.514 41.511 46.841 47.269 47.411 47.599 47.769 47.934 48.014 44.044 41.961 45.869 48.756 48.916 48.976 48.921 48.769 41.461 41.434 41.419 41.464 41.544 41.766 41.866 41.874 41.844 41.814 42.029 41.764 41.754 41.946 42.071 42.119 42.016 41.924 41.991 42.131 42.556 44.091 42.384 42.961 43.831 44.484 44.624 44.819 45.054 45.374 45.494 51.106 51.801 50.681 45.596 45.841 46.059 46.259 46.771 46.411 46.464 46.559 46.621 46.734 46.886 48.171 47.584 47.837 48.064 48.312 48.622 48.802 60.592 62.424 62.987 62.977 61.712 60.567 53.699 51.919 50.484 50.772 51.947 50.752 50.852 50.952 51.007 51.087 51.179 51.717 51.329 51.359 51.359 51.334 51.332 51.439 51.459 51.519 51.794 52.174 52.727 53.172 53.619 53.859 53.937 53.904 53.769 53.599 53.427 53.257 53.212 53.194 53.242 53.294 53.314 53.362 53.447 53.564 53.659 53.771 53.884 53.961 54.046 54.131 54.229 54.326 54.414 54.516 54.591 54.679 54.781 54.881 54.974 55.201 55.184 55.276 55.381 55.479 55.586 55.721 55.851 55.944 56.009 56.106 56.186 56.269 56.554 56.986 57.396 57.626 57.791 57.929 58.106 58.286 58.456 58.601 58.781 58.956 59.094 59.249 59.399 59.566 59.741 59.946 60.134 60.311 60.459 60.639 60.774 60.879 61.026 61.166 61.249 61.369 61.524 61.639 62.041 61.759 61.819 61.809 61.849 61.601 61.634 62.019 62.319 62.994 63.011 62.711 62.779 62.879 62.971 63.066 63.181 63.319 63.439 63.549 63.676 63.794 63.956 64.164 64.374 64.484 64.554 64.566 64.574 64.659 64.734 64.769 64.759 64.721 64.634 64.611 64.741 64.821 69.359 68.529 69.066 67.764 66.769 66.126 66.311 66.431 66.619 66.781 66.966 67.179 67.464 67.639 67.799
55.606 55.619 55.719 55.671 55.909 56.004 55.734 55.779 56.474 55.296 55.404 55.311 56.149 55.466 55.389 55.329 56.749 55.064 54.956 54.874 54.726 60.276 61.391 62.199 61.116 57.584 54.946 55.236 54.496 54.439 54.509 54.556 54.511 54.601 54.641 61.494 62.876 63.759 63.706 62.724 60.694 55.211 54.891 54.911 54.659 54.801 54.851 54.874 54.914 54.884 54.844 54.771 54.759 54.261 54.274 54.291 54.251 54.064 54.084 54.619 54.081 54.106 54.569 56.654 56.429 55.881 54.586 53.646 53.399 53.316 53.544 53.196 53.034 52.939 52.856 52.766 52.714 52.629 52.529 52.451 52.366 52.269 52.176 52.086 51.976 51.889 51.826 51.766 51.706 51.621 51.546 51.729 51.734 51.754 52.041 51.596 51.391 52.114 51.706 51.494 51.464 51.021 50.996 50.824 50.584 50.339 50.239 50.169 50.161 50.549 50.766 50.624 50.999 50.661 50.599 50.586 50.566 50.551 50.909 57.186 56.924 50.514 50.499 50.471 50.461 50.439 50.294 50.486 52.324 55.269 57.529 57.564 57.576 59.661 62.579 63.096 62.536 59.279 57.541 57.504 57.479 48.316 48.376 48.491 49.309 56.021 51.571 46.921 47.051 46.694 46.724 46.704 46.621 47.831 46.626 46.786 47.179 46.636 46.626 46.839 47.414 47.899 47.599 47.539 47.159 47.191 49.069 55.414 56.461 55.929 54.911 53.891 52.854 50.636 45.021 43.299 43.469 44.051 43.741 42.741 42.654 42.634 42.569 42.476 42.941 42.809 42.784 50.256 51.474 52.631 51.886 50.689 45.424 41.864 41.374 41.301 41.336 41.339 41.254 41.276 41.704 41.461 41.644 41.801 42.961 44.311 45.994 46.721 45.986 44.009 41.441 47.266 47.634 47.821 48.341 48.171 48.369 41.461 41.404 41.379 41.424 41.539 41.632 41.679 41.739 41.774 41.816 41.816 41.814 42.259 45.169 46.336 45.679 44.264 41.881 41.959 42.126 42.456 42.239 42.519 43.144 43.969 44.506 44.619 44.792 45.121 45.349 45.501 51.354 51.591 48.999 45.654 45.889 46.097 46.231 46.409 46.324 46.426 46.499 46.599 46.731 46.902 47.479 47.632 48.432 48.244 48.577 48.684 51.357 61.279 62.459 63.489 62.397 61.364 55.804 50.777 51.269 51.217 51.394 50.727 50.857 50.927 50.934 51.004 51.092 51.184 51.917 51.309 51.827 51.289 51.277 51.374 51.412 51.469 51.667 52.044 52.407 52.884 53.377 53.647 53.727 53.702 53.622 53.459 53.287 53.122 53.044 53.064 53.129 53.194 53.202 53.269 53.414 53.557 53.694 53.796 53.901 53.989 54.079 54.164 54.266 54.369 54.476 54.546 54.634 54.731 54.819 54.861 54.951 55.014 55.121 55.294 55.434 55.521 55.584 55.661 55.766 55.829 55.911 56.009 56.109 56.196 56.324 56.466 56.709 56.961 57.211 57.419 57.626 57.761 57.959 58.179 58.339 58.534 58.689 58.871 59.054 59.251 59.451 59.691 59.894 60.089 60.284 60.474 60.674 60.836 60.981 61.136 61.269 61.399 61.516 61.696 61.871 62.019 62.116 62.264 62.344 62.081 61.539 61.606 62.136 62.636 62.911 63.109 63.266 63.379 63.444 63.451 63.461 63.471 63.496 63.579 63.676 63.799 63.914 64.046 64.196 64.339 64.904 66.351 64.609 64.579 64.681 64.746 64.779 64.769 64.719 64.646 64.596 64.731 64.884 65.089 65.276 65.486 65.691 65.886 66.086 66.281 66.471 66.659 66.834 67.019 67.199 67.391 67.579 67.766
55.589 55.634 58.876 58.294 56.204 56.016 55.659 55.609 55.574 55.214 55.256 55.269 55.586 55.194 55.156 55.189 56.496 54.989 54.826 54.749 54.671 60.474 61.586 62.049 60.924 56.619 54.746 54.934 54.344 54.324 54.391 54.431 54.381 54.489 54.566 62.114 63.059 64.051 62.589 62.756 62.466 59.931 54.824 54.706 54.596 56.246 57.289 54.474 54.466 54.399 54.504 54.626 54.701 54.111 53.996 53.911 53.911 53.924 53.986 53.989 53.951 54.139 55.389 57.254 57.414 57.216 57.019 54.769 53.374 53.381 53.826 53.516 53.099 52.986 53.096 62.069 52.689 52.586 52.479 52.409 52.321 52.249 52.154 52.074 51.984 51.891 51.806 51.701 51.601 51.501 51.414 51.334 51.274 51.221 51.184 51.114 51.029 51.191 50.981 51.031 51.026 50.801 50.596 50.426 50.334 50.181 50.109 50.069 50.116 50.414 50.214 50.191 50.159 50.124 50.096 50.081 50.159 50.361 50.464 50.556 50.494 50.484 50.469 50.459 50.431 50.444 50.059 50.281 50.604 57.449 57.454 57.496 57.544 59.624 62.569 63.099 62.551 59.376 57.579 57.576 52.019 48.341 48.401 48.486 48.539 48.634 49.186 46.839 46.799 46.636 46.669 46.644 46.554 46.711 46.564 46.999 46.804 46.596 46.534 46.509 46.479 46.411 46.339 46.276 46.214 46.049 52.964 55.421 56.499 56.244 55.546 48.234 43.466 43.439 43.226 43.171 43.074 43.001 42.991 42.711 42.621 42.584 42.521 42.464 43.266 43.164 43.466 50.614 52.049 52.694 51.966 50.509 42.844 41.606 41.316 41.276 41.321 41.291 41.189 41.131 41.304 41.341 41.246 41.311 41.359 41.396 41.399 41.419 41.626 41.346 41.371 44.044 44.646 46.316 46.899 47.079 47.279 41.444 41.296 41.324 41.331 41.389 41.459 41.576 41.656 41.704 41.749 41.801 41.806 44.121 45.364 46.417 45.496 43.904 41.869 41.959 42.169 42.454 42.271 42.701 43.326 44.044 44.456 44.729 44.856 45.241 45.441 45.454 51.674 51.374 46.734 45.706 45.936 46.184 46.471 46.254 46.289 46.381 46.451 47.226 46.751 46.914 48.064 47.711 47.809 48.149 49.504 50.914 61.229 61.862 63.107 62.957 62.627 60.549 52.397 50.887 51.274 51.227 51.167 51.132 51.217 50.962 50.914 50.999 51.099 51.187 51.252 51.707 53.154 51.247 51.257 51.377 51.417 51.522 51.752 52.087 52.562 53.102 53.399 53.532 53.514 53.444 53.334 53.174 53.024 52.939 52.959 53.027 53.072 53.119 53.192 53.317 53.469 53.614 53.736 53.836 53.946 54.056 54.134 54.216 54.314 54.409 54.506 54.594 54.689 54.776 54.866 54.961 55.039 55.149 55.226 55.304 55.519 55.689 55.776 55.886 56.046 56.136 56.171 56.206 56.239 56.256 56.339 56.484 56.606 56.726 56.871 57.026 57.194 57.389 57.614 57.819 58.034 58.224 58.431 58.631 58.806 58.996 59.194 59.444 59.659 59.861 60.059 60.234 60.396 60.519 60.651 60.801 60.916 61.096 61.161 61.316 61.524 61.704 61.926 62.131 62.256 61.976 61.481 61.601 62.211 62.771 63.101 63.309 63.521 63.701 63.824 63.886 63.886 63.891 63.886 63.881 63.936 64.016 64.076 64.174 64.301 64.504 64.564 64.629 64.669 64.604 64.681 64.739 64.776 64.761 64.714 64.656 64.629 64.786 64.966 65.151 65.374 65.576 65.764 65.956 66.156 66.344 66.521 66.716 66.899 67.081 67.274 67.459 67.654 67.831
55.629 56.254 62.171 61.959 61.784 61.519 61.326 55.581 57.831 59.254 59.471 58.324 56.959 55.054 55.061 55.061 55.781 55.056 55.099 55.074 54.711 54.829 54.439 55.721 56.119 54.426 54.439 54.466 54.206 54.231 54.296 54.314 54.259 54.411 54.491 62.259 63.234 64.104 64.091 63.614 62.661 59.751 54.809 54.621 55.316 60.386 64.479 63.144 62.919 62.686 61.691 57.661 54.329 53.959 53.784 53.646 53.739 53.829 54.151 54.234 53.869 54.591 56.481 56.831 57.194 57.199 57.004 53.764 53.304 53.314 53.339 53.489 53.146 53.034 52.971 54.394 62.584 52.684 52.641 52.754 52.394 52.334 52.231 52.101 51.969 51.849 51.751 51.666 51.579 51.499 51.414 51.326 51.234 51.139 51.041 50.951 50.851 50.769 51.571 51.846 50.594 50.636 50.429 50.276 50.161 50.086 49.996 49.954 50.081 50.274 50.169 50.154 50.121 50.071 50.029 49.984 49.936 49.876 49.841 49.789 49.771 49.764 50.054 50.251 50.516 50.424 50.104 49.869 53.984 57.376 57.376 57.439 57.486 57.531 61.439 62.079 60.834 57.606 57.604 57.636 48.989 48.339 48.406 48.464 48.951 50.709 47.551 46.769 46.579 46.571 46.619 46.561 46.506 46.619 46.526 47.166 47.884 47.571 46.626 46.466 46.346 46.294 46.196 46.159 46.106 46.196 54.729 55.974 56.419 55.456 54.394 45.919 43.401 43.294 43.176 43.096 43.056 42.949 43.021 42.644 42.576 42.541 42.591 42.406 42.674 42.609 42.964 51.261 51.966 52.671 51.621 50.329 41.639 42.541 41.251 41.259 41.289 41.244 41.134 41.099 41.109 41.199 41.181 41.186 41.184 41.466 41.294 41.584 41.476 41.294 41.316 41.416 41.446 41.554 42.069 41.479 42.106 41.406 41.279 41.336 41.332 41.364 41.402 41.439 41.661 41.686 41.729 42.086 41.754 43.614 45.529 46.409 45.316 42.954 41.851 41.979 42.496 42.266 42.326 42.839 43.454 44.069 44.476 44.766 45.109 45.326 45.444 46.811 51.856 51.144 45.569 45.749 45.924 46.119 46.289 46.139 46.251 46.321 46.469 46.824 47.159 47.196 47.739 47.847 47.954 48.147 48.932 52.539 61.344 62.554 63.459 62.284 61.547 54.602 52.147 54.037 51.757 51.169 51.162 51.117 51.092 50.999 50.919 51.027 51.109 51.174 51.219 52.237 51.202 51.184 51.299 51.344 51.402 51.559 51.904 52.262 52.787 53.232 53.344 53.309 53.279 53.179 53.042 52.934 52.867 52.844 52.934 52.979 53.022 53.139 53.264 53.389 53.527 53.659 53.751 53.859 53.976 54.091 54.189 54.281 54.376 54.486 54.566 54.636 54.724 54.816 54.899 54.984 55.076 55.184 55.324 55.379 55.601 55.781 55.936 56.054 56.146 56.264 56.354 56.481 56.576 56.594 56.641 56.636 56.649 56.754 56.839 56.949 57.084 57.211 57.386 57.579 57.751 57.994 58.174 58.349 58.529 58.706 58.879 59.094 59.276 59.441 59.624 59.804 59.936 60.036 60.154 60.286 60.416 60.516 60.651 60.796 60.936 61.061 61.314 61.606 61.874 61.789 61.426 61.591 62.174 62.609 62.896 63.136 63.331 63.566 63.744 63.879 63.969 64.046 64.109 64.184 64.261 64.291 64.321 64.349 64.446 64.504 64.571 64.639 64.684 65.281 64.689 64.749 64.781 64.769 64.734 64.664 64.641 64.814 65.004 65.201 65.416 65.611 65.924 66.201 66.181 66.364 66.519 66.719 67.189 68.404 68.039 67.484 67.661 67.854
55.846 58.441 63.336 63.181 62.979 62.766 62.551 55.444 58.374 61.401 61.556 61.364 61.186 60.964 57.569 55.021 57.046 55.406 56.349 54.419 54.794 55.484 55.574 54.224 54.231 54.239 54.244 54.214 54.111 54.154 54.186 54.191 54.149 54.309 54.564 62.409 63.021 63.221 63.356 63.416 62.511 54.799 54.806 54.476 56.879 63.071 64.824 64.561 64.294 64.066 64.459 55.759 54.284 53.849 59.839 56.616 60.891 60.666 60.229 59.169 53.531 54.309 53.384 56.669 57.064 55.164 56.261 53.204 53.229 53.231 53.249 53.469 53.381 53.144 53.096 52.921 52.854 53.826 52.614 52.504 52.431 52.261 51.841 52.041 52.441 51.984 52.181 51.744 51.649 51.516 51.381 51.264 51.154 51.069 50.986 50.904 50.814 50.731 50.631 50.524 50.446 50.349 50.266 50.179 50.079 49.969 49.924 49.854 50.496 50.191 50.111 50.096 50.064 50.029 49.976 49.926 49.879 49.826 49.781 49.729 49.689 49.639 49.594 50.074 50.286 49.476 49.479 49.539 59.354 57.369 57.366 57.376 57.421 57.459 57.496 57.531 57.564 57.581 57.599 56.481 55.254 48.301 48.369 51.006 55.891 55.981 46.791 46.729 47.116 46.529 46.554 46.936 46.544 46.484 46.459 46.524 46.559 46.476 46.406 46.316 46.949 46.879 48.121 47.446 46.856 46.106 54.656 55.709 56.346 55.294 54.251 52.446 47.659 44.699 43.184 43.054 44.541 46.081 43.976 42.546 42.531 42.491 42.574 42.416 42.826 43.076 45.466 50.771 51.989 52.541 51.904 50.216 41.614 42.376 41.196 41.219 41.234 41.196 41.104 41.096 41.081 41.069 41.056 42.496 41.859 41.089 41.139 41.189 41.176 41.174 41.229 41.519 41.344 41.484 42.101 42.006 42.154 41.341 41.292 41.319 41.319 41.329 41.366 41.399 41.486 41.624 41.686 41.776 41.651 44.591 45.729 46.214 45.139 42.126 41.844 42.019 43.472 42.209 42.429 42.989 43.569 44.121 44.536 44.819 45.216 45.331 45.461 50.374 51.914 50.931 45.589 45.771 45.956 46.269 46.094 46.124 46.201 46.292 46.669 46.884 46.821 47.777 49.116 48.094 48.119 48.479 48.974 60.654 61.932 63.192 62.982 61.689 60.389 51.909 51.127 53.989 53.652 53.652 51.382 51.554 50.964 50.932 50.919 51.032 51.102 51.157 51.182 51.172 51.144 51.212 51.284 51.364 51.514 51.734 52.167 52.614 53.022 53.234 53.212 53.097 53.059 52.917 52.784 52.757 52.764 52.784 52.867 52.919 53.012 53.177 53.332 53.447 53.572 53.677 53.784 53.909 54.034 54.129 54.239 54.324 54.426 54.549 54.636 54.694 54.784 54.876 54.944 55.036 55.141 55.266 55.401 55.446 55.584 55.794 55.969 56.151 56.299 56.439 56.531 56.651 56.756 56.836 56.849 56.884 56.876 56.806 56.909 57.006 57.106 57.224 57.371 57.501 57.654 57.819 57.956 58.096 58.241 58.396 58.551 58.714 58.869 59.019 59.196 59.389 59.541 59.619 59.699 59.879 60.016 60.171 60.304 60.436 60.571 60.686 60.901 61.089 61.364 61.459 61.361 61.571 61.924 62.196 62.409 62.616 62.841 63.094 63.294 63.459 63.614 63.769 63.926 64.074 64.204 64.264 64.301 64.299 64.344 64.429 64.526 64.744 64.716 65.409 64.679 64.744 64.791 64.774 64.736 64.674 64.679 64.894 65.044 65.321 65.521 65.666 66.049 66.269 66.291 66.474 66.674 66.876 67.069 67.249 67.431 67.629 67.826 68.024
55.729 58.441 62.431 62.656 62.864 63.101 62.314 55.311 58.611 62.491 62.541 62.469 62.289 62.091 57.089 55.034 55.841 55.304 55.081 54.401 57.549 56.789 56.046 54.259 54.116 54.096 54.154 54.084 54.011 54.054 54.101 54.074 54.074 54.234 55.306 61.051 61.799 62.271 62.381 62.536 62.351 54.766 54.821 54.334 55.349 65.579 65.089 65.306 65.411 65.381 65.231 54.324 54.794 53.636 61.809 62.501 62.144 62.039 61.761 61.514 53.544 54.169 53.354 56.694 56.831 58.541 56.381 53.066 53.076 53.086 53.116 54.131 52.984 52.996 53.001 53.344 53.019 52.776 52.619 52.584 52.454 51.724 51.524 51.466 51.466 51.384 51.271 51.201 51.174 51.149 51.429 51.421 51.244 51.049 50.939 50.841 50.741 50.656 50.566 50.456 50.366 50.269 50.171 50.069 49.976 49.866 49.849 49.781 51.074 50.006 50.046 50.044 50.026 49.984 49.921 49.866 49.816 49.766 49.716 49.654 49.604 49.569 49.719 49.619 50.434 49.359 49.329 52.526 67.584 54.286 57.416 57.394 57.369 57.381 57.406 57.464 57.496 57.524 56.759 49.026 48.281 48.304 48.291 50.034 56.959 56.444 46.719 52.104 46.554 46.481 47.041 48.334 48.004 46.426 46.429 46.644 46.469 46.429 46.381 46.331 46.251 46.199 46.099 46.051 46.024 46.656 54.306 56.631 56.599 55.259 54.069 53.016 51.756 48.486 43.164 43.181 47.339 47.601 44.376 42.484 42.494 42.436 42.349 42.421 43.616 43.516 43.724 50.756 51.824 52.184 51.141 49.169 41.759 41.299 41.139 41.169 41.186 41.146 41.061 41.049 41.046 41.051 41.061 41.071 41.089 41.086 41.091 41.091 41.269 41.874 41.426 41.714 41.656 41.249 41.296 41.729 43.354 41.806 41.274 41.306 41.296 41.292 41.326 41.991 42.599 41.591 41.614 41.616 41.769 44.756 45.917 45.646 44.481 41.667 41.831 42.046 42.891 42.191 42.561 43.144 43.714 44.196 46.314 44.969 45.209 45.361 45.964 51.224 51.811 49.749 45.606 45.784 45.996 46.054 46.894 46.091 46.152 46.316 46.731 46.729 47.124 49.794 51.024 50.359 48.627 48.782 54.467 61.324 62.552 63.487 62.294 61.112 52.119 51.027 50.887 50.912 51.322 54.017 53.854 51.854 50.897 50.814 50.934 51.034 51.089 51.124 51.127 51.107 51.082 51.227 51.284 51.402 51.972 51.959 52.364 52.754 53.059 53.107 52.987 52.924 52.852 52.699 52.612 52.654 52.707 52.719 52.819 52.952 53.059 53.229 53.364 53.467 53.599 53.709 53.771 53.864 54.049 54.144 54.251 54.341 54.444 54.561 54.659 54.756 54.854 54.919 54.969 55.054 55.166 55.296 55.421 55.504 55.594 55.826 55.981 56.189 56.384 56.519 56.659 56.749 56.876 56.996 57.036 57.051 57.069 56.999 56.939 57.039 57.221 57.351 57.464 57.554 57.659 57.774 57.896 58.039 58.159 58.289 58.434 58.561 58.699 58.846 59.004 59.166 59.314 59.451 59.594 59.741 59.894 60.044 60.186 60.314 60.454 60.599 60.754 60.871 61.049 61.196 61.339 61.469 61.631 61.786 61.954 62.129 62.334 62.521 62.721 62.886 63.051 63.194 63.414 63.594 63.804 63.976 64.046 64.116 64.214 64.336 64.569 65.561 64.711 65.324 64.804 64.754 64.796 64.784 64.731 64.659 64.709 64.849 65.089 65.326 65.544 65.756 66.019 66.196 66.646 66.936 66.771 67.909 67.479 67.666 68.376 69.734 68.001 68.696
55.706 58.651 61.236 61.416 61.651 61.856 57.546 55.241 58.824 61.396 61.564 61.786 61.951 62.181 55.181 55.731 55.984 55.361 54.696 54.356 59.541 60.651 61.639 60.606 58.044 54.196 54.796 53.961 53.896 53.949 53.981 53.936 53.984 54.161 54.241 54.889 55.119 54.871 55.054 59.136 59.226 54.866 54.841 54.174 54.216 63.791 64.016 64.429 64.599 64.309 64.569 54.239 54.724 53.511 62.049 63.451 63.686 63.441 62.999 61.636 53.474 53.446 53.286 60.924 61.239 62.479 62.654 55.709 54.261 52.841 52.939 53.864 52.981 52.946 52.904 52.851 52.764 52.664 52.594 52.526 52.401 51.469 51.661 51.751 51.491 51.289 51.216 51.151 51.129 51.124 51.099 51.086 51.044 51.029 51.074 50.934 50.836 50.751 51.216 50.526 50.376 50.244 50.061 49.939 49.861 49.774 49.741 49.686 49.814 49.914 49.969 49.986 49.981 49.936 49.889 49.821 49.754 49.711 49.651 49.584 49.539 49.486 49.431 49.366 49.299 49.226 49.164 49.134 49.914 47.729 49.536 56.894 57.416 57.504 57.694 57.406 57.449 57.471 49.861 48.134 48.254 48.214 48.176 48.541 53.541 54.669 47.871 46.681 46.434 46.419 47.581 46.326 46.374 46.336 46.401 47.254 46.576 46.336 46.259 46.204 46.154 46.111 46.061 46.024 45.931 47.506 56.281 56.464 56.829 55.409 52.334 43.656 43.199 44.206 43.401 43.416 46.524 46.786 42.849 42.459 42.439 42.391 42.314 42.401 42.464 42.501 47.879 51.476 51.859 51.699 50.981 47.524 40.469 41.234 41.576 41.146 41.141 41.076 41.006 40.979 40.999 41.031 41.054 41.019 41.036 41.049 41.064 41.084 41.106 41.144 41.149 41.171 41.271 41.191 41.194 41.686 41.496 41.236 41.261 41.266 41.279 41.271 41.296 41.386 41.527 41.539 41.616 41.601 42.516 44.951 46.081 45.454 44.294 41.654 41.809 42.096 42.176 42.281 42.699 43.222 43.731 44.226 49.299 48.161 46.024 45.306 46.341 50.321 51.606 48.324 45.599 45.806 46.381 46.191 46.749 46.039 46.126 46.364 46.764 47.636 47.186 48.074 50.896 48.186 48.244 48.754 60.782 62.009 63.167 62.874 61.597 59.347 51.472 51.404 50.922 50.954 51.004 51.054 51.072 50.822 50.782 52.849 51.557 51.014 51.059 51.064 51.059 51.047 51.142 51.212 51.307 51.569 52.102 52.144 52.554 52.859 52.979 52.917 52.769 52.697 52.617 52.514 52.584 52.627 52.654 52.704 52.867 53.032 53.164 53.294 53.414 53.499 53.629 53.724 53.796 53.934 54.044 54.141 54.251 54.331 54.441 54.499 54.679 54.794 54.871 54.946 55.016 55.096 55.184 55.316 55.461 55.549 55.614 55.819 56.021 56.199 56.406 56.609 56.776 56.889 56.994 57.079 57.161 57.186 57.194 57.389 57.074 57.071 57.289 57.439 57.569 57.664 57.771 57.886 58.001 58.126 58.239 58.339 58.471 58.586 58.726 58.864 59.011 59.164 59.304 59.454 59.606 59.739 59.874 60.011 60.174 60.341 60.504 60.676 60.851 60.991 61.146 61.309 61.464 61.589 61.694 61.826 61.964 62.091 62.229 62.371 62.521 62.669 62.816 62.979 63.146 63.326 63.489 63.661 63.816 64.009 64.149 64.454 64.729 64.766 64.729 64.616 64.784 64.756 64.806 64.776 64.736 64.669 64.674 64.784 65.004 65.231 65.486 65.194 65.949 66.151 66.756 67.204 67.191 67.341 68.091 67.854 67.866 68.981 68.186 68.416
55.691 55.629 55.629 56.131 55.609 57.034 55.931 55.149 55.556 59.384 59.891 60.676 60.876 61.051 54.956 55.894 56.291 56.064 55.849 55.799 59.724 60.864 61.556 60.416 56.849 54.441 55.714 53.866 53.804 53.841 53.861 53.814 53.839 53.984 54.079 54.171 54.374 54.729 54.694 54.731 54.734 54.756 55.211 53.986 54.209 59.329 61.326 64.019 64.121 63.731 63.249 54.239 54.196 54.266 62.256 63.281 63.576 63.844 62.836 59.734 53.461 53.459 53.199 60.489 62.481 62.966 62.424 61.899 61.316 52.659 52.966 53.294 60.461 59.371 58.171 57.476 56.171 52.726 52.596 52.504 51.789 51.394 51.449 51.319 51.271 51.304 51.239 51.176 51.121 51.109 51.084 51.054 51.039 51.149 51.229 50.949 50.834 50.769 51.091 50.499 50.431 50.381 50.231 50.046 49.856 49.689 49.646 49.606 49.746 49.889 49.939 49.944 49.929 49.896 49.826 49.761 49.696 49.639 49.579 49.506 49.431 49.376 49.324 49.256 49.194 49.131 49.036 48.954 48.851 48.649 48.044 47.574 49.221 58.851 58.731 51.314 56.099 57.234 47.941 47.919 48.274 47.931 47.884 48.416 48.114 50.311 46.559 46.611 46.336 46.366 46.346 46.276 48.384 46.319 46.396 46.509 46.406 46.346 47.241 47.316 47.636 47.021 46.321 46.016 45.911 48.076 54.711 56.094 56.649 55.181 51.991 49.179 46.024 43.146 43.501 42.884 42.764 42.646 42.461 42.426 42.414 42.351 42.289 42.389 42.686 42.766 49.721 50.874 52.051 51.589 51.239 43.999 40.544 41.169 42.284 41.119 41.096 41.034 40.979 41.089 41.269 41.306 41.196 41.166 41.151 41.159 41.149 41.134 41.106 41.094 41.104 41.119 41.136 41.169 41.186 41.196 41.209 41.214 41.246 41.244 41.254 41.269 41.399 42.549 41.771 41.486 41.531 41.516 42.676 45.134 46.176 45.279 43.509 41.661 41.854 42.434 42.097 42.381 42.829 43.339 43.794 44.314 46.004 45.694 45.296 48.501 45.361 45.321 45.394 45.454 45.621 45.799 45.884 45.839 45.929 45.996 46.164 48.116 49.206 46.864 47.101 47.574 48.066 48.184 48.432 52.009 61.419 62.737 63.499 62.242 61.507 54.359 49.777 50.759 50.797 51.059 50.849 50.922 50.979 50.767 53.042 53.114 50.912 50.974 51.007 51.004 51.007 51.009 51.142 51.189 51.304 51.769 52.274 52.327 52.714 52.859 52.859 52.757 52.584 52.509 52.457 52.434 52.519 52.549 52.647 52.779 52.959 53.097 53.224 53.364 53.472 53.552 53.657 53.759 53.811 53.949 54.094 54.141 54.261 54.351 54.489 54.609 54.781 54.821 54.846 54.929 54.981 55.001 55.189 55.344 55.494 55.589 55.666 55.814 56.026 56.171 56.394 56.626 56.826 56.969 57.081 57.189 57.264 57.311 57.331 57.321 57.226 57.116 57.281 57.474 57.579 57.721 57.861 57.974 58.074 58.196 58.336 58.484 58.614 58.711 58.836 58.954 59.034 59.164 59.309 59.446 59.571 59.714 59.881 60.111 60.309 60.571 60.804 61.034 61.236 61.399 61.561 61.699 61.846 62.024 62.104 62.154 62.214 62.256 62.296 62.371 62.409 62.496 62.696 62.919 63.144 63.339 63.524 63.676 63.811 63.946 64.284 64.656 64.844 64.816 64.724 65.071 64.836 64.756 64.799 64.801 64.741 64.676 64.654 64.734 64.914 65.056 62.776 63.231 65.974 66.141 66.459 70.074 68.166 66.826 67.471 67.979 69.226 70.891 70.046 71.176
55.599 55.541 55.534 56.091 55.454 55.376 55.174 55.041 55.029 55.881 55.281 55.664 54.969 55.239 54.929 55.646 54.704 54.526 54.359 54.506 59.951 61.071 61.369 60.231 55.511 54.839 54.476 53.731 53.714 53.734 53.749 53.686 53.759 53.874 53.964 54.041 55.131 53.889 54.364 54.386 54.464 59.599 54.541 53.816 55.474 54.641 54.219 54.359 54.236 55.676 54.376 54.219 53.606 57.336 61.676 61.919 62.124 62.309 62.409 56.556 53.481 53.221 53.091 61.099 62.909 63.644 63.589 62.611 60.911 52.544 53.166 52.806 60.919 61.676 61.514 61.584 62.174 60.971 60.784 52.454 51.186 51.086 51.121 50.969 50.884 50.749 50.791 51.051 51.154 51.164 51.289 51.076 51.066 51.109 51.046 50.931 52.309 52.506 51.234 51.119 50.476 50.456 50.321 50.201 49.749 49.594 49.554 49.591 51.074 49.881 49.899 49.906 49.876 49.841 49.761 49.701 49.629 49.566 49.499 49.439 49.369 49.294 49.219 49.129 49.076 49.029 48.949 48.854 48.751 48.574 48.416 48.256 47.606 59.686 54.496 47.516 47.604 47.931 47.711 47.601 47.564 48.441 47.916 48.204 47.941 46.684 46.514 46.516 46.279 46.309 46.279 47.754 49.754 46.241 46.384 47.179 46.479 46.746 46.281 46.364 46.276 46.211 46.136 46.206 46.909 51.204 54.964 56.344 56.419 54.956 53.526 52.239 47.086 43.029 42.919 42.484 42.474 42.521 42.384 42.369 42.344 42.319 42.241 42.481 42.546 42.761 49.889 51.209 52.226 52.181 50.141 42.004 41.364 41.114 41.366 41.094 41.059 41.001 41.071 41.264 41.286 41.301 41.304 41.331 41.269 41.304 41.279 41.274 41.326 41.259 41.249 41.246 41.249 41.209 41.159 41.154 41.161 41.184 41.189 41.261 41.546 41.241 41.264 41.284 41.319 41.441 41.421 41.366 41.459 41.896 44.464 42.199 41.981 41.731 41.924 42.169 42.114 42.434 42.939 43.381 43.777 44.339 44.902 45.184 45.199 45.539 45.231 45.271 45.369 45.469 45.664 46.059 45.724 45.774 45.879 45.969 46.641 49.656 49.544 49.439 48.864 47.489 47.959 48.824 48.394 60.622 62.037 63.232 62.824 63.149 59.904 49.664 49.514 50.677 50.692 50.689 50.897 50.864 50.694 50.709 52.667 50.802 50.892 50.937 50.954 50.952 50.952 51.062 51.092 51.119 51.409 51.847 52.037 52.524 52.799 52.792 52.649 52.532 52.439 52.389 52.437 52.419 52.487 52.607 52.734 52.882 53.029 53.127 53.257 53.409 53.497 53.572 53.712 53.807 53.901 54.019 54.121 54.179 54.279 54.504 54.736 54.791 54.889 54.944 54.961 54.921 54.981 55.011 55.194 55.351 55.496 55.626 55.716 55.826 55.994 56.176 56.396 56.639 56.866 57.014 57.171 57.269 57.349 57.414 57.434 57.421 57.349 57.194 57.261 57.471 57.631 57.744 57.861 57.971 58.084 58.231 58.366 58.509 58.629 58.734 58.836 58.956 59.034 59.154 59.291 59.426 59.636 59.856 60.054 60.281 60.566 60.881 61.184 61.454 61.664 61.789 61.894 61.961 62.096 62.154 62.176 62.189 62.256 62.289 62.321 62.359 62.354 62.334 62.341 62.414 62.474 62.634 62.984 63.626 63.761 64.059 64.511 64.891 64.929 64.831 64.736 65.481 64.819 64.756 64.801 64.794 64.756 65.556 64.751 64.756 64.866 70.741 72.999 73.029 73.086 73.129 73.576 76.544 75.406 76.539 75.799 76.219 76.264 76.369 76.304 76.444
