ncols 420
nrows 32
xllcorner    431050
yllcorner    436406
cellsize     2
NODATA_value -9999
76.491 76.394 76.379 76.359 76.251 76.169 76.384 76.846 77.199 77.344 77.339 77.314 77.094 77.064 77.014 76.941 76.899 76.964 77.269 77.811 78.354 78.339 78.599 86.119 86.986 87.869 88.531 87.719 86.806 84.594 78.241 78.681 78.679 78.871 79.081 79.164 79.371 79.996 80.576 79.686 79.524 79.406 79.499 79.559 79.636 79.794 79.901 80.006 80.104 80.269 80.409 80.566 80.859 81.476 81.221 81.304 81.859 82.326 82.694 85.981 83.656 83.471 83.791 83.896 84.271 84.679 84.274 84.276 84.429 84.479 84.521 84.764 84.746 86.836 85.176 84.274 84.436 84.574 84.879 85.196 85.384 85.614 85.716 85.941 86.044 86.264 86.016 86.016 86.029 86.096 86.261 87.049 96.434 97.494 97.109 95.974 87.551 87.759 87.974 88.196 88.341 88.406 88.514 88.644 88.814 89.286 89.446 89.646 89.349 89.456 89.714 89.986 91.704 91.781 90.241 90.266 90.276 90.261 90.456 91.101 91.976 91.399 91.301 91.361 91.454 91.476 91.521 91.816 92.664 93.041 93.531 93.501 93.609 94.259 94.501 94.854 94.936 94.841 94.171 94.534 94.239 94.176 94.171 94.174 94.211 94.614 94.311 94.141 94.154 96.756 95.076 94.434 94.211 94.196 94.319 94.399 99.489 101.759 102.294 102.201 101.411 96.129 94.589 94.151 94.119 95.199 94.161 94.236 94.251 94.244 94.309 94.181 94.046 94.209 94.404 94.424 97.144 99.959 100.391 99.451 94.679 94.824 94.884 95.019 95.804 93.354 91.909 91.781 91.874 91.904 92.031 92.249 92.856 92.871 98.054 99.366 99.041 97.359 94.234 93.136 93.481 93.559 93.664 93.784 93.801 97.311 97.581 97.874 93.976 96.721 96.624 95.751 97.639 96.549 95.261 94.786 94.401 93.839 93.646 93.506 93.609 93.634 93.634 93.974 94.511 94.706 100.901 102.086 102.473 102.621 101.021 95.158 95.278 95.238 95.318 95.353 95.531 95.833 95.821 94.626 94.318 94.283 94.238 94.218 94.203 94.121 94.018 94.123 97.286 98.213 97.931 96.998 96.731 95.451 93.566 93.521 93.461 93.428 93.426 93.426 93.436 93.438 93.448 93.473 93.476 93.496 93.518 93.541 93.533 93.541 93.556 93.576 93.573 93.576 93.563 93.563 93.543 93.498 93.458 93.448 93.431 93.401 93.398 93.401 93.396 93.411 93.408 93.376 93.308 93.258 93.218 93.233 93.338 93.333 93.313 93.308 93.286 93.276 93.236 93.208 93.198 93.166 93.146 93.381 93.021 92.973 92.961 93.288 93.028 92.123 90.843 89.801 88.718 87.711 86.511 85.146 84.098 85.011 81.981 81.073 80.126 79.226 78.273 77.351 76.253 75.293 74.358 73.548 72.736 71.961 71.253 71.203 69.766 69.093 68.421 67.686 67.091 66.546 66.006 65.466 64.993 64.483 64.023 63.526 63.138 62.663 62.151 61.651 61.266 61.346 61.298 62.691 59.623 58.043 56.201 55.728 55.761 55.786 55.991 56.403 56.708 56.938 57.161 57.276 57.398 57.313 57.371 57.401 57.413 57.298 57.353 57.298 56.996 56.998 57.036 56.991 56.916 57.158 57.228 57.223 57.776 59.423 59.843 60.851 61.841 62.818 63.411 63.986 64.721 67.766 65.486 65.751 67.626 70.411 67.043 67.413 67.848 68.228 68.576 68.941 69.291 69.653 69.873 70.181 70.503 70.976 71.461 73.496 72.503 72.896 73.328 73.641 77.003 74.056 74.283 74.563 74.853 75.163 75.566 80.036
76.501 76.369 76.286 76.261 76.246 76.176 76.054 76.186 76.604 77.051 77.239 77.234 77.254 77.011 76.971 76.929 76.854 76.784 76.869 77.551 77.316 78.336 78.554 78.806 84.151 86.936 87.726 88.534 87.859 86.956 86.061 78.304 78.366 78.874 78.711 78.984 79.199 79.801 79.969 79.351 79.241 79.221 79.306 79.361 79.506 79.689 79.844 79.944 80.054 80.246 80.341 80.449 80.834 81.024 81.839 80.919 81.739 81.361 82.334 83.971 83.604 82.911 84.319 83.281 83.851 84.839 84.059 84.526 84.734 84.489 84.496 84.554 84.444 84.364 84.794 84.259 84.451 84.591 84.939 85.166 85.449 85.634 85.709 85.991 86.096 86.081 86.079 86.104 86.106 86.119 86.131 86.154 86.209 86.684 93.414 92.031 87.489 87.646 87.844 88.024 88.134 88.211 88.374 88.511 88.654 89.084 89.801 90.219 89.264 89.341 89.446 89.654 89.916 90.074 90.286 96.506 96.334 95.491 91.641 90.746 91.194 91.206 91.224 91.201 91.284 91.286 91.401 91.846 92.671 92.984 93.169 93.331 93.441 93.536 93.601 93.661 94.179 94.346 94.429 94.924 95.046 95.101 95.069 94.944 96.079 94.659 94.111 94.094 95.181 98.299 97.156 95.441 94.339 95.396 94.896 94.466 97.296 102.261 102.314 101.824 100.311 94.366 94.114 94.101 94.219 94.414 94.071 94.124 94.121 94.236 94.226 94.126 94.019 93.841 96.136 93.706 93.809 94.154 94.366 94.439 94.661 97.121 96.909 95.279 95.099 93.874 91.629 91.604 91.696 91.709 91.866 92.216 92.779 92.801 99.109 100.366 100.256 99.194 96.636 93.471 93.411 93.464 93.541 93.639 94.999 93.801 93.844 94.654 94.676 96.691 95.034 94.229 94.066 94.211 94.484 94.781 96.949 95.981 93.506 93.409 93.521 93.499 93.561 93.869 94.094 94.366 94.618 96.443 100.291 101.346 99.716 95.121 95.146 95.141 95.121 95.088 97.273 96.031 94.911 94.306 94.221 94.263 94.221 94.206 94.153 94.101 93.983 94.323 97.268 98.206 97.931 97.016 96.718 94.616 93.593 93.546 93.473 93.443 93.428 93.433 93.433 93.443 93.456 93.471 93.476 93.506 93.536 93.553 93.556 93.563 93.553 93.548 93.548 93.548 93.543 93.531 93.523 93.506 93.463 93.453 93.446 93.418 93.393 93.368 93.358 93.391 93.401 93.378 93.303 93.238 93.206 93.238 93.341 93.333 93.333 93.306 93.298 93.291 93.251 93.213 93.186 93.171 93.153 93.816 95.323 92.998 92.938 93.196 93.346 92.686 91.806 90.863 89.681 88.506 87.221 85.818 84.643 83.091 82.211 82.201 83.653 79.621 78.758 77.796 76.683 75.658 74.781 73.948 73.066 72.341 71.578 72.343 70.033 69.356 68.733 67.966 67.411 66.861 66.256 65.651 65.218 64.721 64.286 63.768 63.381 62.901 62.363 61.826 61.296 61.211 61.261 60.883 59.293 57.228 55.903 55.661 55.866 55.908 56.208 56.098 56.441 56.773 57.008 57.191 57.276 57.331 57.313 57.363 57.406 57.431 57.263 57.346 57.211 56.933 56.988 56.998 56.933 56.926 57.178 57.196 57.306 58.091 59.036 63.446 60.986 62.068 63.136 63.518 64.036 65.916 64.856 65.278 65.703 66.198 66.661 67.001 67.368 67.763 68.106 68.458 68.861 69.143 69.431 69.713 70.048 70.396 70.813 71.306 71.911 72.208 72.593 72.856 75.508 77.371 73.763 74.178 74.508 74.661 74.888 75.128
76.389 76.281 76.254 76.174 76.129 76.124 76.064 75.954 76.004 76.389 76.879 77.156 77.184 77.186 76.976 76.881 76.839 76.769 76.699 76.769 76.904 77.209 78.324 78.314 80.679 84.964 86.656 87.566 88.436 88.011 87.119 86.869 79.131 78.376 78.511 78.731 78.989 79.161 79.654 79.566 78.984 79.021 79.109 79.184 79.386 79.654 79.866 81.279 80.549 80.216 80.314 80.416 80.504 80.644 80.706 81.706 81.006 82.034 81.639 81.486 81.486 82.474 83.509 83.586 84.309 84.766 83.404 83.894 84.021 83.656 85.339 84.336 84.359 84.516 84.126 84.284 84.514 84.669 84.896 85.149 88.229 85.669 85.711 86.089 86.294 86.256 86.221 86.196 86.184 86.191 86.201 86.214 86.531 87.026 86.399 86.401 86.541 86.986 87.419 87.639 87.861 88.074 88.804 88.354 88.519 89.061 90.666 89.066 89.209 89.701 89.444 89.601 89.941 90.564 91.159 96.896 97.799 96.996 94.829 90.544 90.754 90.984 92.081 91.044 91.111 91.111 91.221 91.909 92.624 92.881 93.061 93.194 93.301 93.356 93.409 93.414 93.534 93.669 93.789 93.939 94.009 94.111 94.154 94.281 94.216 94.244 94.161 94.921 98.501 99.051 98.341 96.261 96.229 93.976 95.981 96.744 94.551 94.111 94.144 97.279 98.711 94.099 94.016 94.019 94.054 94.066 93.986 94.019 94.004 94.249 94.526 94.141 94.079 95.314 99.824 99.896 99.521 98.196 96.229 93.781 94.761 95.479 96.901 94.929 94.176 92.161 91.444 91.444 91.526 91.566 91.759 92.296 92.566 92.706 99.691 100.724 100.114 98.184 93.506 93.251 93.359 93.376 93.424 99.061 100.774 96.159 93.344 93.326 93.421 93.636 96.004 98.154 95.726 93.676 93.654 93.554 93.596 93.914 93.331 93.326 93.409 93.376 93.529 94.649 94.889 94.493 94.651 96.873 98.056 97.868 97.746 95.278 95.158 95.116 95.091 95.028 97.748 96.441 94.611 94.216 94.191 94.251 94.228 94.176 94.151 94.041 93.946 94.103 97.253 98.176 97.951 97.028 96.698 94.691 93.613 93.573 93.503 93.463 93.438 93.433 93.436 93.441 93.448 93.473 93.476 93.503 93.526 93.536 93.548 93.546 93.536 93.541 93.523 93.521 93.523 93.516 93.498 93.483 93.473 93.461 93.456 93.418 93.386 93.348 93.348 93.376 93.391 93.366 93.293 93.256 93.188 93.228 93.333 93.331 93.328 93.306 93.288 93.291 93.238 93.216 93.191 93.151 93.148 93.508 93.401 93.348 92.928 93.116 93.393 93.266 92.726 91.618 90.903 89.118 87.921 86.738 85.378 83.821 82.646 81.801 80.946 80.121 79.166 78.133 77.046 76.058 75.191 74.336 73.421 72.558 71.978 71.046 70.266 69.568 68.868 68.201 67.673 67.101 66.483 65.886 65.448 64.938 64.418 63.966 63.573 63.046 62.568 62.138 61.513 61.126 61.113 61.016 60.028 57.351 55.818 55.653 55.893 55.976 55.798 55.838 56.263 56.621 56.898 57.088 57.203 57.228 57.266 57.248 57.353 57.468 57.446 57.286 57.313 57.091 56.931 57.023 56.968 56.886 57.011 57.196 57.196 57.463 58.316 59.391 60.243 61.246 62.538 63.228 63.558 64.036 64.428 64.808 65.261 65.723 66.156 66.596 66.928 67.301 67.641 67.951 68.286 68.663 68.976 69.271 69.623 69.943 70.251 70.583 71.043 71.416 71.721 72.191 72.596 72.831 73.081 73.333 73.596 73.866 74.326 74.421
76.261 76.161 76.166 76.166 76.071 76.014 76.004 75.961 75.869 75.821 76.181 76.706 77.086 77.149 77.174 76.929 76.794 76.754 76.704 76.611 76.664 76.701 76.979 78.054 78.366 79.406 80.909 86.659 87.391 88.296 88.109 86.756 79.821 78.386 78.511 78.674 78.861 78.921 78.909 78.876 78.766 78.834 78.949 79.026 79.959 79.984 79.976 80.161 80.376 80.264 80.294 80.376 80.461 80.554 80.664 80.764 80.869 81.054 81.724 82.141 81.586 82.231 81.436 81.984 82.714 83.136 83.214 87.519 83.484 83.586 84.391 84.301 84.321 84.331 84.089 84.376 84.616 84.744 84.874 88.246 85.526 85.664 85.711 86.201 92.534 86.876 86.424 86.369 86.326 86.324 86.279 86.291 86.301 86.314 86.351 86.374 86.409 86.561 87.959 87.166 87.636 87.941 88.079 88.174 88.294 90.041 90.376 92.844 90.139 89.194 89.161 89.279 89.974 90.794 95.111 97.306 98.156 96.661 90.869 90.656 91.376 90.814 91.186 90.894 90.941 90.976 91.111 91.974 92.569 94.041 93.724 93.029 93.374 93.214 93.276 93.304 93.401 93.454 93.534 93.649 93.759 93.854 93.984 94.056 93.999 93.944 98.789 97.876 96.721 99.151 97.404 94.149 93.569 93.574 93.621 93.664 94.679 94.006 93.434 94.069 93.894 94.036 94.006 93.986 93.959 93.849 93.896 93.924 93.896 94.896 94.389 94.654 94.979 95.351 100.256 101.236 100.704 99.346 99.234 93.916 95.821 96.441 95.219 95.926 93.596 95.131 91.216 91.271 91.319 91.446 91.644 92.341 92.389 97.771 99.781 100.899 99.784 94.906 93.896 93.341 93.316 93.321 93.909 97.176 99.109 93.966 93.384 93.296 93.304 93.609 99.421 100.544 100.216 99.884 98.119 93.711 93.394 93.274 93.161 93.251 93.296 93.261 93.471 94.316 94.486 95.038 94.771 98.291 98.068 97.803 97.646 98.078 97.791 96.881 95.273 95.008 96.973 95.641 94.431 94.253 94.186 94.208 94.203 94.143 94.091 94.018 93.913 93.826 97.228 98.166 97.976 97.038 96.701 95.226 93.623 93.616 93.556 93.508 93.481 93.456 93.448 93.446 93.458 93.483 93.486 93.511 93.533 93.556 93.551 93.561 93.551 93.523 93.518 93.523 93.518 93.503 93.498 93.493 93.491 93.471 93.466 93.443 93.398 93.353 93.353 93.363 93.358 93.341 93.278 93.243 93.201 93.203 93.326 93.336 93.331 93.283 93.258 93.278 93.238 93.218 93.196 93.141 93.133 93.563 94.313 92.993 92.916 93.133 93.636 93.961 93.448 92.166 90.931 89.761 88.381 87.213 85.683 84.561 83.308 82.368 81.418 80.436 79.601 79.953 80.786 76.543 75.603 74.666 73.708 72.801 71.991 71.281 70.518 69.753 69.101 68.518 67.908 67.341 66.706 66.123 65.603 65.113 64.626 64.158 63.721 63.293 62.741 62.366 61.898 61.206 61.031 61.021 60.351 57.938 56.226 55.771 55.873 55.996 55.873 55.673 56.003 56.446 56.706 56.873 57.058 57.153 57.191 57.221 57.313 57.436 57.756 57.308 57.291 57.236 56.953 57.851 57.258 56.913 56.828 57.071 57.191 57.198 57.601 58.503 59.528 60.533 61.668 64.736 63.201 63.531 63.998 64.321 64.728 65.201 65.636 66.088 66.521 66.901 67.276 67.553 69.383 68.166 68.583 68.888 69.208 69.511 69.711 70.033 70.478 70.798 71.153 71.738 73.128 72.203 72.356 72.546 72.758 73.046 75.881 73.661
76.134 76.041 76.064 76.099 76.099 76.004 75.896 75.886 75.854 75.784 75.691 75.971 76.449 76.994 77.116 77.074 76.896 76.699 76.661 76.621 76.529 76.526 76.619 76.899 78.074 78.911 80.764 81.831 87.124 88.444 87.056 79.471 78.351 78.509 78.606 78.686 78.781 79.926 79.066 78.621 78.549 78.644 79.559 78.876 79.179 79.924 80.849 80.644 82.459 80.421 81.604 80.444 80.501 80.549 80.626 80.729 80.831 80.929 81.019 81.101 81.224 81.371 82.261 82.041 81.974 81.929 81.816 83.046 83.576 83.639 83.819 83.814 83.911 84.169 84.141 84.424 84.694 84.839 84.921 85.164 85.511 85.631 85.759 86.331 95.971 95.591 95.229 92.316 86.619 86.631 86.469 86.381 86.366 86.371 86.416 86.436 86.469 87.769 89.229 88.531 87.471 87.751 87.824 87.986 88.244 88.539 89.281 88.876 88.921 89.021 89.159 89.231 89.831 89.896 95.599 97.659 97.849 96.314 90.269 91.096 90.659 90.671 91.386 90.734 91.061 90.834 91.071 91.784 92.224 92.731 92.786 92.886 92.994 93.109 93.181 93.281 93.326 93.419 93.444 93.471 93.521 93.649 93.761 93.816 93.809 94.061 94.304 95.709 96.391 95.231 94.204 94.266 93.666 93.606 93.614 93.654 96.461 98.834 99.551 99.141 97.754 94.764 93.566 93.714 93.804 93.714 93.786 93.806 93.784 93.776 93.779 93.789 93.721 99.099 100.621 101.726 100.349 95.434 93.909 94.186 94.189 94.464 95.681 95.826 92.449 91.099 90.986 91.104 91.114 91.236 91.516 92.306 92.351 98.851 100.064 100.579 99.436 93.101 92.996 93.156 93.361 94.504 94.194 99.169 100.311 95.574 93.861 93.881 93.626 93.699 99.796 101.099 101.466 100.291 95.401 93.726 94.126 93.154 93.029 93.151 93.169 93.161 93.301 93.539 93.904 94.318 94.613 94.598 94.851 96.748 96.878 95.571 96.831 97.663 98.028 97.976 97.198 95.076 94.341 94.228 94.176 94.183 94.173 94.118 94.056 93.981 93.906 94.108 97.196 98.143 97.988 97.036 96.713 95.271 93.653 93.641 93.586 93.546 93.523 93.491 93.481 93.478 93.488 93.483 93.488 93.513 93.526 93.543 93.538 93.553 93.546 93.533 93.523 93.516 93.506 93.498 93.501 93.503 93.496 93.496 93.473 93.446 93.391 93.338 93.338 93.366 93.361 93.313 93.253 93.241 93.213 93.196 93.368 93.328 93.316 93.271 93.233 93.251 93.251 93.218 93.203 93.156 93.133 93.601 93.033 92.993 92.911 93.148 93.936 94.618 93.738 92.636 91.306 90.086 88.931 87.426 86.103 85.058 84.301 84.833 81.881 80.871 79.873 81.128 81.473 76.988 76.013 74.981 74.056 73.173 72.331 71.523 70.783 70.056 69.378 68.806 68.248 67.626 67.586 66.341 66.173 65.316 64.821 64.316 63.826 63.396 62.886 62.586 62.163 61.421 61.006 60.983 60.741 59.358 57.121 56.126 55.853 55.901 55.851 55.678 55.796 56.221 56.451 56.716 56.841 57.043 57.093 57.218 57.321 57.351 57.433 57.451 57.226 57.271 57.188 56.846 58.478 56.938 56.873 56.811 57.071 57.118 57.181 57.723 58.773 59.721 60.688 67.243 62.778 63.071 63.538 63.948 64.336 64.728 65.143 65.608 66.046 66.433 66.903 67.206 67.418 67.741 68.078 68.428 68.713 68.928 69.161 69.406 69.768 70.136 70.596 71.126 71.398 71.438 71.611 71.776 72.018 72.293 72.688 73.043
76.031 75.939 75.956 76.081 76.106 76.036 75.959 75.829 75.796 75.771 75.689 75.614 75.824 76.726 77.956 77.004 76.974 76.821 76.609 76.574 76.531 76.439 76.401 76.461 76.799 77.624 78.261 78.524 78.699 86.639 83.641 78.881 78.566 78.514 78.624 83.166 78.761 78.754 79.164 78.639 78.624 78.826 78.904 79.261 79.124 79.869 80.081 80.749 80.571 81.131 80.936 80.476 80.531 80.589 80.686 80.756 80.816 80.886 80.976 81.061 81.144 81.224 81.304 81.864 82.246 81.841 82.609 82.011 82.164 82.411 84.426 84.481 84.556 84.449 84.079 84.464 84.729 84.874 84.939 85.171 85.469 85.579 85.876 90.881 96.779 96.691 96.326 95.959 95.666 94.246 93.144 86.469 86.424 86.444 86.444 86.469 86.516 86.546 86.596 87.124 87.414 87.579 87.614 87.849 88.176 88.916 89.089 89.424 88.851 88.986 89.981 89.701 89.801 89.889 96.499 97.801 97.366 95.451 90.016 90.309 90.466 90.579 90.614 90.566 90.569 90.671 91.009 91.389 91.709 92.031 92.334 92.581 92.771 92.899 92.944 93.059 93.159 93.246 93.321 93.351 93.339 93.404 93.534 93.629 93.714 93.761 94.821 96.606 93.846 95.971 93.384 93.361 93.324 93.379 93.454 93.549 94.441 99.209 100.726 100.674 99.666 93.959 93.519 93.654 93.676 93.629 93.686 93.674 93.696 93.694 93.604 93.556 93.559 99.424 100.004 100.391 100.179 98.826 99.144 93.914 95.881 94.731 96.719 93.514 92.226 90.866 90.844 90.921 90.926 91.066 91.256 91.626 92.106 96.774 99.071 99.411 99.091 93.211 92.946 93.034 93.156 93.306 95.326 101.299 99.971 93.956 93.461 93.541 93.906 94.534 100.154 101.461 101.274 99.959 96.341 93.714 93.864 93.226 93.059 93.044 93.041 93.134 93.671 93.861 93.909 94.086 94.196 94.293 94.366 94.461 94.728 94.833 94.963 95.241 96.621 96.781 98.833 94.881 94.268 94.188 94.196 94.198 94.156 94.078 94.011 93.963 93.901 93.846 97.188 98.128 97.978 97.046 96.706 95.548 93.656 93.633 93.601 93.551 93.531 93.501 93.488 93.478 93.471 93.473 93.481 93.501 93.513 93.531 93.521 93.523 93.528 93.518 93.518 93.506 93.503 93.496 93.508 93.511 93.503 93.501 93.468 93.426 93.373 93.326 93.313 93.341 93.341 93.296 93.241 93.231 93.218 93.198 93.333 93.341 93.326 93.281 93.263 93.258 93.251 93.216 93.201 93.153 93.153 94.188 93.068 93.408 92.928 93.308 94.046 94.401 93.643 92.783 91.498 90.368 89.551 87.568 86.146 85.383 84.726 83.848 83.491 87.846 80.246 79.378 80.923 77.418 76.288 75.326 74.483 73.576 72.641 72.381 71.096 70.421 72.028 71.421 72.091 68.331 67.253 66.601 66.043 65.536 65.018 64.486 63.986 63.501 63.043 62.721 62.308 61.751 61.111 60.958 60.933 60.208 58.146 56.763 56.011 55.768 55.731 55.853 55.908 55.826 56.218 56.471 56.716 56.923 57.136 57.151 57.318 57.338 57.381 57.403 57.328 57.206 57.236 57.058 56.851 56.908 56.893 56.828 56.831 57.053 57.071 57.173 57.851 58.898 59.873 60.906 61.988 62.721 63.183 63.621 64.033 64.721 64.728 65.121 65.543 65.938 66.328 66.676 67.026 67.321 67.621 67.921 68.201 68.418 68.646 68.911 69.183 69.491 69.848 70.238 70.528 70.718 70.963 71.081 71.291 71.723 72.031 72.468
75.879 75.859 75.881 76.024 76.016 75.969 76.394 75.916 75.789 75.691 75.686 75.634 75.556 75.654 76.481 76.824 76.854 76.784 76.716 76.506 76.476 76.429 76.346 76.261 76.341 76.661 76.851 78.324 79.021 79.766 78.289 78.459 79.156 78.674 78.611 88.206 87.854 86.906 83.466 79.596 78.779 79.479 78.846 78.771 79.089 79.419 79.741 82.311 81.069 82.554 80.566 80.504 80.529 80.884 80.936 80.954 81.446 80.986 81.019 81.044 81.109 81.184 81.279 81.351 81.401 82.266 81.569 82.111 82.111 82.351 82.394 85.179 84.689 83.219 83.864 84.391 84.634 84.766 84.866 85.446 85.406 85.506 86.001 95.481 95.714 96.091 96.474 96.776 96.739 96.109 95.956 95.586 95.231 92.216 87.941 86.484 86.549 86.611 86.756 87.054 87.276 87.401 87.524 87.726 88.166 88.774 88.524 88.899 88.731 88.911 89.939 90.021 89.811 91.171 96.031 96.381 96.706 94.181 90.229 90.061 90.284 91.524 90.324 90.389 90.384 90.469 90.789 90.784 90.984 91.289 91.556 91.881 92.159 92.384 92.601 92.756 92.856 92.971 93.014 93.094 93.146 93.656 96.091 93.454 93.549 93.636 95.726 96.476 95.906 96.564 95.304 95.309 93.339 93.254 93.249 93.364 96.201 99.606 101.154 101.219 99.306 93.519 94.394 93.554 93.699 93.536 93.576 93.554 93.646 94.211 93.786 93.386 93.626 94.986 93.929 96.666 99.259 99.644 96.459 93.724 93.721 93.726 94.506 93.051 91.646 90.669 90.676 90.736 90.751 90.929 91.126 91.434 91.701 92.096 92.561 93.004 95.139 93.579 92.896 92.986 93.104 93.206 94.741 101.299 98.921 93.409 93.419 93.664 93.879 97.406 100.489 101.779 100.944 99.456 93.779 93.924 93.461 93.581 92.844 92.926 92.924 93.071 93.749 94.004 94.009 100.523 99.803 97.198 94.593 94.478 94.681 96.858 96.833 96.791 94.753 96.833 97.558 95.588 94.258 94.206 94.181 94.181 94.111 94.048 93.996 93.943 93.901 94.041 97.181 98.116 97.983 97.061 96.681 96.236 93.638 93.633 93.608 93.576 93.548 93.523 93.513 93.493 93.481 93.466 93.468 93.493 93.506 93.521 93.518 93.506 93.511 93.498 93.498 93.501 93.498 93.496 93.496 93.491 93.488 93.471 93.443 93.426 93.396 93.343 93.313 93.321 93.316 93.278 93.243 93.233 93.216 93.173 93.331 93.341 93.331 93.268 93.258 93.251 93.236 93.196 93.193 93.158 93.143 93.643 93.013 92.973 92.936 93.408 94.093 94.371 93.761 92.763 91.528 90.541 90.271 87.333 86.311 85.796 84.911 84.558 84.806 82.588 80.776 79.718 78.751 77.701 76.678 75.728 74.851 73.931 72.978 81.496 78.736 70.911 70.086 69.476 68.881 68.268 67.583 66.911 66.246 65.683 65.193 64.663 64.196 63.698 63.258 62.813 62.418 61.986 64.773 60.956 60.918 60.686 59.636 64.106 63.528 55.878 55.621 55.636 55.666 55.516 55.823 56.253 56.538 56.743 56.938 56.996 57.098 57.251 57.371 57.323 57.343 57.216 57.218 57.188 56.916 56.831 56.886 56.846 56.766 56.891 57.026 56.991 57.206 58.066 59.141 60.118 61.111 62.316 62.753 63.233 64.946 63.978 64.333 64.676 65.161 65.473 65.961 66.213 66.566 66.868 67.161 67.446 67.716 67.941 68.153 68.356 68.663 68.958 69.241 69.601 69.876 70.113 70.303 70.516 70.703 73.063 71.361 71.796
75.756 75.786 75.831 75.919 76.034 76.351 79.879 76.011 76.086 75.746 75.606 75.601 75.571 75.484 75.506 76.116 76.644 76.634 76.566 76.586 76.426 76.364 76.336 76.254 76.164 76.256 76.531 76.931 78.196 78.211 78.276 78.449 78.816 78.774 84.484 89.224 88.944 88.579 88.224 87.976 84.546 82.831 78.971 78.986 79.176 79.384 79.711 82.516 81.766 84.404 84.134 83.696 82.206 80.646 80.564 80.744 81.751 80.886 81.109 82.114 81.314 81.959 81.249 81.301 81.351 81.396 81.789 81.826 82.334 86.791 85.209 82.301 82.364 82.794 83.494 84.139 84.399 84.611 84.816 85.114 85.331 85.476 86.046 86.391 90.746 93.259 95.361 95.736 95.896 96.559 96.794 96.669 96.304 95.951 94.754 86.506 86.574 86.644 86.766 87.079 87.386 88.749 87.366 87.556 88.064 88.431 88.246 88.331 88.356 88.461 88.781 88.761 89.516 89.866 89.894 89.889 90.081 90.369 89.951 90.226 90.089 91.424 90.161 90.214 90.201 90.349 90.431 90.269 90.209 90.641 90.811 90.976 91.236 91.501 91.949 92.309 92.449 92.614 92.644 92.706 92.776 92.881 92.981 93.066 93.216 93.391 94.261 95.281 95.289 96.261 94.136 94.436 93.281 93.559 93.436 93.359 96.011 99.761 100.151 100.371 98.884 93.674 93.544 94.024 94.646 93.431 93.469 93.461 93.581 93.521 93.696 96.974 97.186 95.951 93.409 93.281 93.626 93.589 93.684 93.759 93.776 94.781 94.126 92.224 90.749 90.456 90.516 90.541 90.629 90.864 92.549 93.006 91.841 94.194 94.624 94.434 92.901 92.826 92.901 92.969 93.064 93.144 93.709 97.724 95.261 93.376 93.404 93.386 93.424 99.551 100.769 101.281 100.556 99.246 93.479 93.659 92.871 92.739 92.754 92.814 92.839 93.006 93.851 93.954 96.591 101.068 101.388 100.993 98.196 94.446 94.443 94.668 95.843 96.571 94.733 94.723 94.888 94.351 94.953 96.628 94.971 94.138 94.071 94.026 93.986 93.951 93.876 93.828 97.146 98.078 97.998 97.068 96.671 95.591 93.668 93.621 93.601 93.568 93.563 93.548 93.518 93.493 93.476 93.458 93.468 93.481 93.491 93.491 93.493 93.496 93.481 93.483 93.493 93.488 93.483 93.481 93.478 93.478 93.473 93.431 93.408 93.421 93.398 93.358 93.331 93.308 93.286 93.258 93.228 93.198 93.181 93.156 93.331 93.338 93.326 93.286 93.261 93.246 93.231 93.198 93.181 93.171 93.148 93.143 93.113 93.038 92.951 93.553 94.246 94.561 94.001 92.961 91.556 90.181 88.763 87.553 86.513 85.986 85.643 85.353 89.926 87.083 81.223 80.136 79.098 78.086 77.103 76.186 75.233 74.286 73.373 72.683 71.738 71.038 70.418 69.756 69.193 68.578 67.916 67.261 66.598 65.931 65.913 64.858 64.413 63.953 63.476 63.023 62.568 62.133 61.591 61.008 60.903 60.768 60.288 60.856 59.373 56.791 55.926 55.433 55.391 55.383 55.383 55.908 56.248 56.458 56.663 56.806 56.933 57.073 57.191 57.233 57.288 57.328 57.178 57.201 57.106 56.813 56.828 56.866 56.813 56.728 56.806 56.983 56.956 57.331 58.288 59.281 60.408 61.396 62.446 62.848 63.241 63.561 63.923 64.296 64.648 65.036 65.438 65.786 66.153 66.441 66.753 67.021 67.231 67.511 67.723 67.941 68.161 68.468 68.783 69.088 69.398 69.598 69.818 69.991 70.188 70.498 70.751 71.118
75.679 75.696 75.789 76.376 75.974 75.924 76.371 76.489 75.901 76.194 75.709 75.529 75.524 75.504 75.404 75.364 75.711 76.506 76.429 76.414 76.476 76.354 76.281 76.244 76.169 76.079 76.159 76.309 77.449 77.471 78.151 78.326 78.491 78.651 87.679 88.406 88.804 89.149 89.276 88.936 88.441 88.249 87.899 87.529 83.114 79.279 79.311 81.001 83.511 84.459 84.841 84.974 84.584 84.146 83.701 82.116 80.661 80.869 81.614 81.166 81.256 81.714 81.559 81.249 81.286 81.341 81.544 82.649 82.464 90.559 91.939 92.229 91.026 83.129 83.111 83.809 84.276 84.496 84.824 85.064 85.219 85.451 85.891 86.126 86.219 86.336 86.401 89.516 91.141 95.406 95.731 96.096 96.476 96.804 89.519 86.521 86.589 86.684 88.099 86.964 87.059 87.119 87.269 87.454 87.964 88.196 88.081 88.169 88.266 88.349 88.549 91.496 89.751 88.664 88.651 88.664 89.264 90.096 91.059 90.071 89.859 89.899 89.999 90.019 90.084 90.226 90.344 90.131 91.644 90.596 89.959 90.314 90.169 90.836 91.201 91.689 91.924 91.994 92.129 93.016 92.849 92.369 92.479 92.611 92.804 95.406 94.579 95.154 93.396 92.769 92.954 92.751 92.736 94.926 94.361 93.594 93.796 95.286 97.859 99.106 96.006 93.496 93.306 94.216 93.591 93.329 93.349 93.409 93.614 93.424 93.321 98.714 99.904 99.579 99.156 93.934 93.554 93.509 93.536 93.656 94.189 95.014 93.921 91.546 90.314 90.256 90.354 90.364 90.536 90.821 94.026 94.171 94.351 94.116 91.416 92.789 93.056 92.989 93.061 93.079 93.116 93.146 93.409 94.481 93.351 93.509 95.271 94.381 93.354 96.599 99.494 99.976 100.149 94.044 93.431 93.386 92.699 92.834 92.661 92.686 92.779 93.294 94.496 94.726 100.186 101.431 102.206 100.931 96.448 94.693 94.368 94.373 94.388 94.473 94.611 94.916 94.866 94.336 94.211 94.823 94.138 94.106 94.063 94.016 93.966 93.918 93.846 93.826 93.751 93.766 93.773 93.778 93.773 93.758 93.638 93.613 93.578 93.571 93.571 93.568 93.553 93.513 93.481 93.468 93.471 93.478 93.481 93.478 93.471 93.471 93.473 93.481 93.486 93.476 93.481 93.471 93.466 93.451 93.448 93.416 93.401 93.411 93.403 93.366 93.321 93.286 93.248 93.218 93.181 93.156 93.121 93.158 93.341 93.343 93.343 93.293 93.273 93.253 93.256 93.211 93.191 93.171 93.163 93.403 93.396 92.986 93.001 93.683 94.351 94.621 94.156 93.201 91.743 90.356 89.003 92.108 86.816 86.348 86.058 85.776 91.723 86.731 85.421 80.556 79.723 80.206 77.618 76.728 75.656 74.641 73.703 72.871 72.073 71.358 71.246 72.378 69.481 68.936 68.291 67.586 66.841 66.163 65.588 65.101 64.621 64.178 64.158 63.313 62.778 62.351 61.846 61.203 60.921 60.761 60.416 59.968 59.526 58.276 56.756 55.956 55.356 55.301 55.276 55.406 55.903 56.173 56.416 56.551 56.706 56.823 56.961 57.061 57.161 57.251 59.788 57.148 57.163 56.981 56.768 56.821 56.843 56.773 56.708 56.908 56.988 56.956 57.443 58.431 59.448 60.501 61.496 62.423 62.858 63.141 63.501 63.966 64.306 64.653 65.021 65.358 67.061 66.021 66.316 66.581 66.816 67.096 67.363 67.608 67.796 68.001 68.328 68.678 68.958 69.211 69.436 69.571 69.666 69.886 70.168 70.513
75.604 75.609 75.859 75.801 75.799 75.794 75.781 75.744 75.696 75.736 76.186 75.656 75.469 75.459 75.429 75.346 75.164 75.469 76.234 76.241 76.221 76.309 76.311 76.179 76.151 76.079 75.991 76.044 76.161 76.614 77.274 78.029 78.381 78.499 78.946 85.059 87.674 88.054 88.431 88.564 89.211 89.281 88.994 88.631 88.269 85.929 80.216 80.919 80.381 81.866 83.551 83.996 84.444 84.854 84.301 81.054 80.361 81.071 81.669 81.176 81.251 81.211 81.166 81.189 81.216 81.301 81.531 81.769 83.074 91.186 92.301 91.861 89.901 82.429 82.919 83.666 84.139 84.401 84.716 84.989 85.111 85.394 85.829 85.976 86.051 86.124 86.244 86.336 86.409 86.414 87.989 94.429 95.364 95.744 86.461 86.526 86.591 86.696 86.786 86.906 87.061 87.101 87.211 87.379 88.946 88.144 88.066 88.084 88.141 88.209 88.656 94.781 95.339 94.984 94.516 92.051 89.086 88.974 89.469 89.761 89.649 89.729 89.816 90.664 89.971 90.109 90.159 90.059 95.129 96.424 96.011 95.584 90.869 91.906 90.819 91.174 91.114 91.334 91.591 91.784 91.904 91.944 92.189 92.246 93.771 94.599 93.714 92.781 92.724 92.669 92.649 92.601 92.649 92.699 92.729 92.804 93.721 92.819 93.171 93.411 93.484 94.191 93.984 93.191 93.179 93.236 93.431 94.654 93.409 93.349 93.284 99.111 100.644 100.661 99.146 93.259 93.414 93.454 93.499 93.904 94.046 93.939 93.074 91.081 90.124 90.091 90.169 90.189 90.406 90.844 94.351 94.479 95.609 96.994 94.784 91.301 91.886 92.029 92.176 93.236 93.186 93.309 93.204 92.379 93.236 94.216 95.499 95.739 93.326 93.329 93.284 93.416 93.741 93.224 93.254 93.269 92.896 92.499 92.556 92.561 92.696 93.594 93.444 93.741 100.541 101.803 101.913 100.633 95.036 94.428 94.358 94.361 94.378 94.418 94.493 95.108 94.621 94.241 94.468 94.533 94.141 94.096 94.048 94.008 94.436 95.251 94.743 93.786 95.946 93.753 93.766 93.773 93.778 93.741 93.628 93.598 93.563 93.558 93.551 93.536 93.548 93.543 93.508 93.498 93.493 93.486 93.478 93.481 93.463 93.468 93.476 93.483 93.481 93.481 93.483 93.471 93.461 93.448 93.446 93.416 93.416 93.421 93.388 93.333 93.291 93.253 93.236 93.173 93.138 93.128 93.091 93.163 93.338 93.343 93.333 93.316 93.298 93.281 93.258 93.218 93.201 93.181 93.173 95.911 93.711 93.241 93.111 93.761 94.486 94.636 94.068 93.151 91.788 90.438 88.966 88.161 87.498 86.586 86.041 87.021 85.498 85.223 84.388 80.921 79.946 79.088 78.201 77.231 76.176 75.106 74.198 73.433 72.441 71.781 71.081 70.421 69.816 69.271 68.656 67.981 67.243 66.506 65.851 65.326 64.836 64.378 63.928 63.493 63.023 62.576 62.058 61.476 60.981 60.941 60.576 60.076 59.593 58.816 57.741 56.763 56.136 55.566 55.323 55.293 55.326 55.748 56.031 56.213 56.461 56.601 56.743 56.843 56.968 57.086 61.088 57.218 57.138 57.068 56.863 56.748 56.806 56.808 56.741 56.678 56.896 56.981 56.993 57.571 58.563 59.591 60.653 61.621 67.238 62.906 63.131 63.508 63.901 64.273 64.641 64.943 65.271 65.576 65.893 66.188 66.438 66.673 68.538 68.568 67.473 67.716 67.953 68.323 70.808 73.121 68.881 69.071 69.183 69.368 69.618 69.906
75.514 75.531 75.644 75.649 75.664 75.691 75.649 75.611 75.626 75.626 75.609 76.039 75.596 75.431 75.366 75.364 75.301 75.214 75.349 75.479 75.676 75.916 76.156 76.246 76.104 76.049 76.004 75.916 75.954 76.024 76.414 77.046 77.869 78.371 78.511 78.606 78.674 80.936 86.124 87.299 88.089 88.411 88.771 89.139 89.269 81.054 80.316 80.531 80.334 80.631 81.079 80.399 81.894 83.559 83.804 80.779 82.066 80.774 81.614 81.519 81.201 81.166 81.121 81.131 81.151 81.261 81.511 81.754 87.844 91.571 92.476 91.501 86.199 82.406 82.876 83.581 83.994 84.301 84.626 84.884 84.989 85.381 85.706 85.849 85.981 86.069 86.111 86.149 86.184 86.229 86.279 86.331 86.709 89.061 86.466 86.536 86.601 86.691 86.779 86.861 88.929 86.951 87.159 87.354 87.809 87.584 87.824 87.911 88.106 88.211 88.384 91.399 95.714 96.524 96.079 95.136 92.416 88.954 90.386 89.514 89.466 89.564 89.626 90.684 89.796 90.476 90.301 90.059 95.906 97.466 97.471 96.131 92.836 91.239 90.516 90.711 90.881 90.889 92.444 92.029 91.221 93.036 92.351 94.724 95.504 94.161 94.616 91.786 91.966 92.556 92.654 92.566 92.971 92.709 92.851 93.089 99.039 98.851 98.471 97.226 92.934 93.311 93.351 93.054 93.091 93.141 93.361 93.276 93.376 93.306 95.079 99.431 100.644 100.291 98.771 95.049 93.364 93.444 93.474 93.489 93.739 93.669 92.091 90.641 89.914 89.929 89.984 90.081 90.306 91.149 92.349 96.799 97.516 98.234 97.171 93.226 91.556 91.581 91.599 91.739 91.989 91.994 92.746 93.439 94.271 92.326 92.396 92.651 93.916 93.466 94.934 94.586 93.139 92.869 92.634 92.401 92.301 92.349 92.449 92.884 92.766 93.349 93.441 93.864 100.876 102.103 101.548 100.286 94.461 94.363 94.353 94.343 94.368 94.398 95.106 95.683 94.416 94.306 95.816 95.448 94.121 94.061 94.023 93.988 93.943 93.891 93.853 93.801 96.073 94.783 94.651 94.813 93.836 93.756 93.603 93.588 93.556 93.538 93.536 93.518 93.521 93.526 93.516 93.531 93.521 93.503 93.481 93.491 93.468 93.468 93.463 93.476 93.471 93.476 93.478 93.461 93.451 93.446 93.428 93.408 93.416 93.423 93.401 93.348 93.298 93.258 93.231 93.158 93.126 93.113 93.096 93.156 93.341 93.361 93.343 93.323 93.316 93.291 93.261 93.226 93.206 93.178 93.176 93.998 93.163 92.983 93.148 93.926 94.563 94.698 94.011 93.053 91.746 90.543 89.133 88.328 87.683 86.926 86.551 85.948 85.668 85.396 88.656 87.391 85.471 79.506 78.813 77.681 76.718 75.661 74.716 73.883 72.991 72.278 71.551 70.798 70.161 69.771 68.993 68.368 67.623 66.881 66.196 65.643 65.073 64.583 64.121 63.753 63.251 64.153 62.256 61.768 61.088 60.951 60.943 60.211 59.638 59.066 58.201 57.313 56.616 56.061 55.453 55.226 55.158 55.203 55.478 55.798 56.066 56.246 56.476 56.618 56.758 56.928 57.058 57.236 57.071 57.101 57.006 56.793 56.738 56.791 56.781 56.698 59.671 59.103 62.411 56.998 57.661 58.761 59.778 60.701 61.723 62.691 63.043 63.153 63.503 63.933 64.263 67.276 64.831 65.148 65.473 65.821 66.076 66.306 66.516 66.798 67.103 67.371 67.641 68.993 69.948 69.396 68.531 68.671 70.681 68.981 69.113 69.348
75.424 75.501 75.534 75.526 75.559 75.511 82.551 80.099 75.539 75.561 75.531 75.486 75.601 75.556 75.389 75.299 75.299 75.236 75.171 75.249 75.354 75.471 75.691 75.954 76.151 76.009 75.934 75.909 75.836 75.851 75.929 76.249 76.896 77.651 78.271 78.569 78.696 78.749 78.721 78.744 79.649 84.869 87.654 88.041 88.414 79.766 79.891 79.949 80.219 80.239 80.211 80.411 80.319 80.534 80.504 81.784 83.134 82.434 81.761 81.136 82.196 80.979 80.979 81.034 81.071 81.246 81.469 81.916 90.834 91.939 92.251 91.131 83.344 82.481 83.029 83.549 83.896 84.194 84.531 84.784 84.889 85.229 86.066 86.636 85.889 85.981 86.006 86.021 86.039 86.069 86.114 86.184 86.331 86.534 86.714 86.551 86.611 86.691 86.761 89.596 90.641 90.116 89.296 87.426 87.516 87.159 87.279 87.394 87.674 87.984 88.316 94.259 96.201 97.634 96.171 94.539 88.761 88.909 90.649 89.329 89.321 89.399 89.439 89.451 89.624 90.279 89.909 91.269 96.314 97.749 97.234 95.731 92.644 90.479 90.474 90.736 90.636 90.731 90.776 90.814 90.824 91.749 92.329 92.964 93.794 91.496 91.561 91.594 91.624 91.641 91.686 91.876 93.716 93.036 92.846 95.926 99.456 100.391 99.741 98.276 92.891 92.934 93.251 92.911 92.991 93.026 92.981 93.141 93.864 94.136 95.841 98.796 99.164 99.526 99.531 99.139 95.254 93.074 93.674 93.329 93.894 93.104 91.329 90.041 89.684 89.754 89.786 89.954 90.189 90.916 90.889 97.124 98.509 99.301 99.311 97.481 91.519 91.479 91.716 91.676 91.711 92.339 92.439 92.091 93.689 92.206 92.176 92.316 95.406 95.241 94.954 93.264 93.139 93.399 93.279 92.354 92.156 92.264 92.309 93.469 92.444 93.294 93.409 96.926 100.786 101.081 101.183 98.106 94.163 94.131 94.128 95.021 96.478 94.706 95.508 94.853 94.268 94.166 94.536 94.131 94.081 94.016 93.988 93.976 94.271 94.711 94.093 93.778 96.728 96.931 96.928 96.891 95.041 94.696 93.583 93.566 93.536 93.521 93.521 93.508 93.501 93.503 93.511 93.533 93.551 93.526 93.508 93.483 93.468 93.463 93.458 93.473 93.468 93.486 93.478 93.468 93.466 93.463 93.433 93.428 93.416 93.426 93.408 93.358 93.306 93.243 93.211 93.176 93.128 93.111 93.108 93.168 93.356 93.386 93.368 93.341 93.326 93.303 93.268 93.226 93.213 93.186 93.166 93.376 93.101 93.163 93.331 94.021 94.633 94.573 93.761 92.616 91.436 90.713 89.521 88.373 87.718 89.088 86.671 86.116 85.746 85.468 85.218 86.386 87.551 80.406 79.396 78.396 77.261 76.251 75.303 74.353 73.493 72.746 72.008 71.256 70.558 69.911 69.321 68.683 68.011 67.321 66.558 65.903 65.348 64.818 64.386 64.003 63.498 62.973 62.496 61.988 61.403 61.016 61.011 60.791 59.758 59.226 58.723 57.988 57.093 56.296 55.803 55.228 55.096 55.163 55.113 55.293 55.443 55.606 55.953 56.363 56.478 56.651 56.838 56.966 57.096 56.991 57.076 56.966 56.716 56.728 56.773 56.741 56.638 56.743 56.923 56.901 57.041 57.836 58.971 60.761 64.158 71.021 62.443 62.753 63.071 63.428 63.778 64.083 64.438 64.773 65.066 65.373 65.646 65.848 66.121 66.406 66.688 66.963 67.236 67.581 67.791 67.883 68.053 68.211 68.968 68.521 71.018 68.886
75.331 75.449 75.424 75.436 75.441 76.664 83.719 81.304 75.469 76.019 75.469 75.404 75.396 75.401 76.456 77.401 75.214 75.221 75.184 75.126 75.116 75.249 75.274 75.504 75.736 76.029 75.886 75.841 75.824 75.761 75.749 75.829 76.134 76.761 77.504 78.121 78.561 78.701 78.736 78.736 78.776 78.796 78.801 80.064 84.009 79.926 79.909 79.906 79.979 80.016 80.051 83.201 80.211 80.484 80.446 80.651 81.789 82.121 81.134 80.804 80.744 80.751 80.814 80.859 80.974 81.131 81.979 82.636 91.336 92.329 91.876 90.581 82.446 82.624 83.151 83.561 83.821 88.211 84.486 84.671 84.809 85.019 85.754 86.249 87.411 87.636 86.964 86.356 85.909 85.881 85.974 86.141 86.339 87.391 86.641 86.894 86.834 86.719 86.786 87.554 88.776 87.319 88.184 89.661 87.049 87.011 87.121 87.231 87.564 87.919 88.216 94.936 96.631 97.506 96.714 91.516 88.999 89.081 89.654 89.164 89.241 89.229 89.249 89.276 89.429 89.561 89.744 94.099 96.046 96.466 96.724 92.901 90.521 90.491 91.384 90.956 90.886 90.661 90.669 90.689 90.761 92.759 91.464 91.684 91.834 91.441 91.504 91.524 91.534 91.574 91.624 91.674 92.054 92.701 92.746 97.101 99.876 100.906 100.021 94.181 92.911 92.959 93.834 92.816 92.886 92.896 93.479 92.996 92.901 92.746 92.881 93.056 94.401 94.749 97.016 98.669 93.454 93.056 93.109 93.464 93.349 93.141 90.806 89.519 89.506 89.579 89.606 89.786 90.189 90.761 90.796 96.684 98.004 99.221 99.244 99.209 94.224 91.464 91.641 91.554 91.569 93.924 92.694 91.789 92.326 92.221 92.461 92.174 92.296 94.104 95.059 92.481 92.834 93.674 92.719 92.164 92.051 92.164 92.174 92.751 92.374 92.704 93.186 93.454 93.679 95.098 99.868 95.048 94.078 94.108 94.096 94.076 94.076 94.411 95.793 95.168 94.201 94.151 94.376 95.331 94.036 93.981 93.968 93.946 93.923 94.711 94.188 93.821 97.026 97.488 97.646 97.221 96.906 96.613 93.561 93.556 93.521 93.511 93.508 93.493 93.496 93.511 93.533 93.533 93.541 93.536 93.523 93.501 93.466 93.456 93.466 93.478 93.471 93.473 93.476 93.461 93.468 93.468 93.438 93.421 93.398 93.396 93.378 93.323 93.283 93.226 93.146 93.128 93.121 93.098 93.111 93.168 93.341 93.381 93.376 93.343 93.333 93.303 93.271 93.233 93.223 93.183 93.173 93.111 93.096 93.098 93.656 94.088 94.608 94.231 93.091 93.461 91.581 90.438 90.548 89.646 88.006 87.373 86.928 86.623 85.941 85.558 85.268 87.401 94.951 80.683 79.758 78.776 77.836 76.796 75.821 74.851 73.993 73.206 72.453 71.726 70.983 70.321 69.666 68.996 68.368 67.728 66.978 66.296 65.658 65.103 64.693 64.258 63.758 63.251 62.793 62.278 61.726 61.123 61.038 60.986 60.268 59.363 58.858 58.446 57.493 56.701 56.136 55.521 55.046 55.051 55.028 55.028 55.113 55.251 55.348 55.878 56.193 56.391 56.596 56.826 57.186 57.096 56.996 57.021 56.876 56.666 56.721 56.748 60.571 56.608 56.751 56.848 56.868 57.196 58.006 58.806 63.163 63.306 63.318 62.276 62.628 62.923 63.263 63.616 64.051 64.431 64.706 64.911 65.153 65.461 65.706 65.986 66.308 66.556 66.831 67.058 67.336 67.488 67.596 67.778 67.938 68.108 68.283 68.481
75.249 75.354 75.359 75.356 75.336 75.251 75.451 75.489 75.389 75.421 75.411 75.336 75.309 75.296 75.219 76.219 75.324 77.176 75.161 75.136 75.064 75.001 75.144 75.121 75.259 75.544 75.894 75.809 75.756 75.736 75.684 75.659 75.741 76.066 76.701 77.334 77.989 78.456 78.644 78.696 78.729 78.779 78.804 78.881 79.091 79.671 79.941 79.841 80.294 79.839 79.889 82.229 80.091 80.214 80.309 80.374 80.421 81.754 80.654 80.726 81.116 80.554 80.624 80.691 80.836 81.029 81.286 85.364 91.421 92.329 91.521 88.089 82.474 82.766 83.214 84.004 83.819 84.144 84.439 84.566 84.679 84.841 85.109 85.311 85.519 85.661 86.749 86.761 87.844 87.721 87.764 86.086 86.906 87.069 93.081 88.741 86.856 86.699 87.166 89.746 87.499 86.496 86.436 86.919 86.971 87.014 87.044 87.126 87.591 88.044 94.581 95.249 96.859 97.041 95.369 91.036 88.756 89.921 88.966 89.414 89.226 89.056 89.064 89.094 89.561 89.556 89.669 89.824 91.724 91.369 94.406 91.401 90.296 90.266 90.539 90.389 90.551 90.529 90.676 91.639 90.746 91.389 91.839 91.451 91.346 91.161 91.774 91.181 91.406 91.516 91.564 91.616 92.624 92.699 92.741 98.709 99.366 99.764 99.031 93.361 94.041 94.189 93.629 92.701 92.771 93.089 92.871 93.081 92.889 92.744 97.806 95.674 93.326 92.501 93.151 93.729 93.069 92.909 93.006 93.051 93.444 92.674 90.219 89.339 89.329 89.396 89.429 89.641 90.019 90.396 90.606 91.241 97.341 98.549 99.634 98.374 96.204 91.129 91.469 91.459 91.514 93.951 92.949 91.616 91.739 92.201 92.191 92.126 93.534 92.234 92.474 92.591 92.531 92.516 92.676 92.156 91.961 92.059 92.051 92.131 94.124 92.969 93.209 93.536 96.049 95.531 94.651 94.141 94.096 94.093 94.098 94.073 94.083 94.273 95.711 94.596 94.058 94.066 94.183 94.011 93.988 93.958 93.958 93.938 93.916 93.881 94.398 94.736 97.046 97.493 97.671 97.236 96.913 96.331 93.543 93.541 93.516 93.513 93.506 93.506 93.523 93.538 93.548 93.541 93.538 93.541 93.516 93.508 93.483 93.473 93.471 93.478 93.473 93.461 93.463 93.458 93.453 93.431 93.383 93.368 93.356 93.353 93.318 93.271 93.228 93.186 93.118 93.086 93.066 93.081 93.106 93.186 93.343 93.391 93.386 93.356 93.318 93.301 93.288 93.246 93.228 93.191 93.173 93.306 92.986 93.191 93.751 94.256 94.448 93.696 92.468 92.006 90.403 89.643 89.888 88.893 88.453 87.708 87.151 86.756 86.251 85.653 85.376 90.311 85.981 81.218 80.281 79.256 78.228 77.328 76.396 75.421 74.518 73.686 72.928 72.188 71.428 70.716 70.056 69.391 68.833 68.108 67.378 66.716 65.998 65.421 64.976 64.516 63.966 63.558 63.068 62.553 61.941 61.351 61.078 61.023 65.073 64.746 58.926 58.301 57.731 57.051 56.501 56.028 55.293 55.083 54.961 54.831 55.203 57.843 55.371 55.338 55.831 56.086 56.313 56.591 56.771 56.956 56.958 56.936 56.926 56.748 56.633 56.686 56.721 56.656 56.576 56.743 56.846 56.876 57.223 58.001 58.981 62.701 60.953 61.931 62.228 62.503 62.826 63.238 63.628 63.986 64.281 64.488 64.721 64.988 65.288 65.546 65.811 66.081 66.333 66.596 66.876 67.046 67.211 67.341 67.493 67.698 67.871 68.056
75.169 75.204 75.261 75.261 75.251 75.196 75.154 75.236 75.291 75.344 75.311 75.221 75.191 75.159 75.181 78.956 75.551 75.286 75.114 75.081 75.066 75.004 74.931 75.054 75.049 75.071 75.394 75.754 75.716 75.686 75.681 75.626 75.579 75.659 75.989 76.519 77.166 77.834 78.364 78.534 78.631 78.696 78.784 78.866 79.124 82.696 84.046 79.641 79.819 79.659 79.719 81.019 80.161 80.264 80.104 80.161 80.426 80.004 80.321 80.644 80.326 80.359 80.426 80.524 81.171 81.304 81.189 90.829 91.931 92.344 91.076 82.466 82.529 82.894 83.339 83.626 83.854 84.089 84.351 84.434 84.549 84.709 84.946 85.109 85.309 85.441 85.544 85.541 85.394 85.564 86.244 85.919 86.431 87.959 87.996 87.436 86.709 86.706 89.759 89.774 86.501 86.156 86.399 87.211 87.839 87.234 87.356 87.216 87.576 88.311 94.714 95.096 95.441 95.869 94.974 89.696 88.551 89.396 88.794 89.214 88.834 88.871 88.861 88.951 89.104 89.036 88.969 89.509 90.154 89.791 89.854 90.114 90.214 90.384 90.319 90.416 90.504 90.519 90.564 94.059 92.046 91.584 92.474 91.471 91.191 91.176 91.156 91.481 91.011 91.021 91.446 92.479 93.359 92.476 92.739 92.999 94.836 97.091 97.886 93.989 92.699 92.691 92.801 92.561 92.629 92.609 92.896 92.874 92.814 94.109 98.846 99.186 98.811 98.241 93.044 92.784 92.826 93.686 93.456 93.056 93.454 91.106 89.736 89.114 89.149 89.204 89.326 89.546 90.994 90.304 90.544 90.676 95.939 98.266 99.436 99.054 97.609 94.136 91.194 91.299 93.219 93.464 93.011 91.601 91.676 92.179 92.191 93.864 97.954 95.016 92.526 92.414 92.436 93.004 92.841 92.826 91.886 91.956 91.926 92.069 92.216 93.051 92.881 94.001 95.031 96.103 96.348 95.073 94.301 94.163 94.276 94.066 94.068 95.261 96.108 94.568 94.013 93.981 94.163 94.203 93.931 93.918 93.931 93.903 93.968 94.056 95.066 96.486 97.056 97.511 97.701 97.263 96.896 97.011 93.533 93.533 93.503 93.498 93.501 93.536 93.551 93.553 93.551 93.536 93.548 93.541 93.521 93.513 93.491 93.483 93.478 93.473 93.468 93.458 93.461 93.448 93.418 93.388 93.343 93.308 93.291 93.298 93.276 93.226 93.198 93.163 93.126 93.088 93.043 93.071 93.096 93.188 93.356 93.381 93.363 93.336 93.288 93.281 93.268 93.253 93.243 93.223 93.206 93.271 93.131 94.063 94.543 94.281 93.736 92.721 92.201 90.846 90.593 89.846 89.781 89.198 88.673 88.008 87.458 86.851 86.528 85.966 85.396 86.176 85.943 88.041 87.343 87.788 78.711 77.696 76.838 75.893 75.033 77.068 73.471 72.683 71.886 71.136 70.438 69.743 69.171 68.506 67.776 67.071 66.383 65.763 65.258 64.801 64.348 63.898 63.391 62.861 62.191 61.598 61.201 61.133 60.876 65.261 62.948 62.998 57.728 57.246 56.781 56.348 55.891 55.588 55.458 55.343 55.403 55.478 55.523 55.376 55.256 55.816 56.046 56.296 56.548 56.946 56.888 56.933 56.883 56.868 56.703 56.623 56.663 56.666 56.623 56.543 56.726 56.941 56.913 57.256 58.276 59.156 60.113 61.081 61.881 62.163 62.431 62.776 63.236 63.506 63.833 64.081 64.328 64.533 64.826 65.083 65.348 65.653 65.868 66.091 66.571 66.633 66.838 67.038 67.183 67.266 68.696 67.686
75.049 75.079 75.171 75.249 75.149 75.111 75.146 75.224 75.184 75.214 75.169 75.126 76.619 75.099 75.094 75.069 75.059 75.991 75.246 75.089 75.009 75.006 74.951 74.871 74.976 74.964 75.011 77.541 83.219 75.736 75.619 75.626 75.574 75.511 75.599 75.859 76.361 77.006 77.766 78.236 78.451 78.561 78.636 78.726 79.551 87.309 88.434 87.924 87.151 83.039 79.919 79.629 79.656 79.776 79.809 79.949 80.016 79.879 79.946 80.259 81.721 80.171 80.239 80.354 80.529 80.721 81.289 91.209 92.304 91.864 90.774 82.401 82.611 83.029 83.441 83.659 83.804 84.086 84.244 84.311 84.446 84.621 84.776 84.966 85.141 85.246 85.304 85.326 85.219 85.291 85.884 85.981 85.891 87.606 86.831 87.386 87.999 88.159 88.026 89.561 86.271 85.956 86.299 86.986 88.899 88.921 88.316 86.986 87.384 88.424 88.099 88.791 90.099 94.021 94.764 90.629 88.271 88.594 88.609 89.139 88.644 88.686 88.679 88.826 89.179 88.974 88.976 91.406 91.584 91.699 91.234 90.829 91.339 91.546 90.536 90.486 90.521 90.569 90.624 90.661 90.734 91.099 91.974 92.206 93.766 94.859 94.989 91.179 91.016 90.969 90.989 91.194 91.231 91.231 94.084 93.016 91.696 92.811 93.079 92.624 92.536 92.451 92.344 92.426 92.476 92.434 92.541 92.556 92.601 96.149 99.679 100.589 99.436 96.381 92.814 92.751 92.731 92.681 92.686 93.141 92.719 90.451 89.409 88.891 88.974 89.014 89.169 89.384 90.601 90.121 90.266 90.436 91.734 97.116 98.544 99.179 98.206 96.986 91.409 92.006 93.281 93.066 92.346 91.629 91.739 91.686 93.844 98.356 99.649 98.404 92.161 92.359 92.476 93.896 91.896 93.829 91.801 91.839 92.789 92.306 92.551 92.596 93.086 95.099 95.041 94.696 94.396 94.336 94.061 94.046 94.131 94.131 94.223 95.083 94.961 94.186 93.961 94.971 95.088 93.921 93.883 93.888 93.896 93.871 94.171 93.976 93.838 93.853 97.061 97.506 97.703 97.253 96.918 96.888 93.541 93.551 93.518 93.513 93.521 93.553 93.571 93.556 93.571 93.558 93.556 93.553 93.521 93.511 93.488 93.478 93.481 93.478 93.468 93.463 93.453 93.453 93.441 93.381 93.316 93.281 93.271 93.276 93.236 93.203 93.171 93.138 93.126 93.066 93.048 93.061 93.068 93.206 93.538 93.378 93.428 93.323 93.508 93.321 93.273 93.558 93.268 93.156 93.041 92.976 93.218 93.231 93.763 93.456 92.791 92.168 90.921 90.826 90.756 90.473 89.756 89.746 88.891 88.676 87.786 87.308 87.016 87.628 85.503 87.078 90.548 89.906 97.068 84.921 79.248 78.221 77.236 76.381 75.506 74.703 73.958 73.136 72.331 71.593 70.848 70.098 69.531 68.801 68.156 67.463 66.761 66.131 65.613 65.126 67.911 64.251 63.678 63.161 62.576 61.906 61.361 61.183 70.351 78.526 66.321 66.716 57.936 57.248 56.913 56.576 56.268 56.036 55.786 55.631 55.766 55.766 55.681 55.523 54.908 55.421 55.778 56.073 56.291 56.743 56.811 56.896 56.783 56.883 56.861 56.651 56.591 56.651 56.633 57.433 56.898 57.543 60.061 56.793 57.371 58.338 59.211 60.251 61.133 61.801 62.031 62.298 62.736 64.433 63.831 63.653 63.908 64.143 64.413 64.656 64.906 65.178 65.461 65.661 65.991 66.256 66.421 66.671 66.851 66.951 67.066 67.211
74.966 74.981 74.991 75.079 75.136 75.074 75.089 75.084 75.096 75.089 75.074 75.059 78.419 75.039 75.024 75.036 75.019 74.941 74.854 76.231 75.066 74.941 74.944 74.906 74.819 74.889 75.756 74.986 77.459 75.559 75.634 75.564 75.561 75.506 75.441 75.534 75.739 76.199 76.954 77.596 78.059 78.311 78.471 78.556 79.634 88.474 89.689 89.254 88.796 88.379 87.919 87.796 83.991 79.614 79.644 79.849 82.524 81.556 79.804 79.941 80.849 80.056 80.086 80.189 80.356 80.499 85.989 91.569 92.486 91.499 86.521 82.396 82.679 83.134 83.456 83.644 83.756 84.016 84.136 84.206 84.306 84.486 84.654 84.856 84.999 85.051 85.081 85.091 85.056 85.356 85.489 87.229 85.594 85.654 86.079 86.036 85.936 86.066 86.571 86.649 85.901 85.791 86.064 87.196 88.876 88.929 86.854 86.634 86.736 86.851 86.911 87.761 88.051 88.424 88.159 88.236 88.296 88.509 88.471 88.999 88.466 88.486 88.526 88.844 89.369 88.939 93.136 95.281 94.899 94.456 92.116 91.014 91.236 91.201 89.801 89.951 90.479 91.239 90.656 90.721 90.784 91.279 92.614 91.494 94.004 94.234 92.134 91.009 90.866 90.821 90.996 91.376 91.069 93.799 96.679 96.191 91.191 93.704 93.834 92.181 91.959 92.311 92.179 92.271 92.291 92.279 92.361 92.444 92.496 98.089 99.584 100.279 99.054 93.966 93.871 93.186 92.696 92.656 92.666 92.959 91.369 89.864 88.734 88.729 88.796 88.829 89.029 89.176 89.929 89.914 91.459 91.196 90.321 94.019 97.666 97.684 96.044 92.056 90.831 92.994 92.711 90.831 91.286 91.634 93.516 97.086 98.789 99.776 100.619 99.374 97.991 92.384 92.341 94.141 91.706 92.784 91.696 91.714 92.716 92.419 92.551 92.729 92.761 92.864 93.449 93.496 93.496 94.101 93.956 94.331 94.333 94.156 94.448 95.878 94.768 94.041 93.921 94.096 93.883 93.888 93.858 93.861 93.866 93.846 95.258 94.591 93.881 93.863 97.061 97.508 97.706 97.268 96.913 96.468 93.571 93.563 93.528 93.548 93.581 93.603 93.576 93.566 93.588 93.581 93.578 93.538 93.511 93.498 93.488 93.468 93.473 93.473 93.463 93.458 93.456 93.456 93.446 93.403 93.331 93.281 93.271 93.241 93.196 93.153 93.136 93.131 93.116 93.078 93.058 93.046 93.063 93.208 93.358 93.383 93.638 93.788 93.651 93.898 93.596 93.493 93.791 93.501 93.338 93.233 93.103 93.178 93.066 92.661 91.578 91.018 90.953 91.236 90.841 90.836 89.873 89.793 89.771 88.806 87.973 87.333 86.808 85.946 85.486 84.336 83.968 83.983 85.103 80.716 79.668 82.231 77.763 76.908 76.028 75.191 74.421 73.641 72.841 72.111 71.251 70.528 69.841 69.196 68.471 67.798 67.163 66.603 65.978 65.448 65.016 69.648 64.961 63.448 62.908 62.326 61.661 61.261 61.221 60.901 69.316 59.218 60.336 57.403 56.933 56.803 56.318 56.076 56.048 56.056 55.958 55.856 56.356 58.311 56.103 55.006 55.531 55.833 56.093 56.331 56.543 56.603 56.748 56.736 56.928 56.831 56.603 56.568 56.611 64.608 65.676 56.533 56.761 56.781 56.793 57.498 58.366 59.228 60.253 61.221 61.618 61.813 62.236 71.373 65.018 63.231 63.498 63.793 64.101 64.356 64.536 64.808 65.076 65.313 65.588 65.811 66.021 66.211 66.408 66.531 66.678 66.873
74.844 74.851 74.876 74.896 74.894 74.881 74.989 74.976 74.989 74.981 75.009 75.016 76.894 74.984 74.971 74.974 74.949 74.906 74.891 74.819 75.991 75.036 74.889 74.891 74.864 74.796 83.616 75.476 74.934 75.089 75.439 75.579 75.504 75.494 75.436 75.381 75.471 75.619 76.059 76.761 77.404 77.914 78.231 78.376 81.646 89.019 89.229 89.556 89.861 89.684 89.249 88.809 88.356 87.949 88.321 84.299 83.059 82.869 81.764 79.851 79.884 79.956 80.009 80.496 81.416 80.589 89.649 91.914 92.219 91.119 82.309 82.399 82.751 83.176 83.414 83.539 83.654 83.874 83.966 84.024 84.141 84.296 84.441 84.661 84.831 84.864 84.889 84.886 84.984 85.786 85.229 85.229 85.301 85.221 85.161 85.061 85.199 85.589 85.606 86.064 85.681 85.706 86.049 86.339 86.341 86.406 86.456 86.529 86.629 86.774 89.856 89.271 86.959 87.176 87.469 88.344 89.326 88.199 88.494 88.186 88.269 88.271 88.394 88.671 89.404 90.859 94.234 96.031 96.439 95.426 90.971 88.846 89.036 89.671 89.761 89.829 89.891 89.969 90.131 90.591 91.344 91.479 92.034 91.009 91.626 91.409 92.039 92.366 91.824 91.456 90.974 91.201 91.081 95.234 97.656 96.819 95.331 93.094 91.346 91.584 91.819 92.006 92.029 92.119 92.109 92.154 92.301 92.359 92.459 97.686 98.409 98.759 98.669 95.384 92.939 92.341 92.629 93.194 93.989 92.429 91.679 89.264 88.574 88.551 88.614 88.686 88.879 88.939 90.674 91.751 89.846 90.314 90.246 90.649 96.809 91.454 90.649 90.696 90.706 90.421 90.726 90.696 91.221 94.444 98.209 99.696 100.189 100.866 100.004 99.004 98.046 92.374 92.979 94.354 91.536 91.489 91.591 91.619 91.731 92.526 92.574 92.681 92.746 92.794 92.871 92.943 93.198 93.291 93.346 93.381 95.526 95.201 94.228 95.316 94.526 93.968 93.893 94.448 95.483 93.876 93.843 93.828 93.841 93.823 93.951 93.813 94.156 96.306 97.076 97.513 97.721 97.283 96.933 96.513 93.571 93.601 93.603 93.591 93.603 93.593 93.551 93.556 93.568 93.561 93.546 93.518 93.496 93.481 93.468 93.463 93.473 93.471 93.473 93.476 93.468 93.461 93.448 93.411 93.366 93.336 93.308 93.231 93.161 93.091 93.073 93.088 93.071 93.083 93.091 93.051 93.066 93.206 93.353 93.441 94.068 94.588 94.863 94.976 94.951 94.778 94.596 94.218 93.843 93.498 93.083 92.771 92.531 91.351 91.128 91.376 91.341 90.858 90.836 90.873 91.003 89.886 89.753 89.651 88.443 87.916 87.391 85.588 84.976 84.631 84.151 84.016 83.123 81.333 80.141 79.216 78.328 77.408 81.836 75.701 74.913 74.208 73.296 72.488 73.861 71.966 73.273 69.483 68.813 68.183 67.603 66.943 66.323 65.756 65.273 64.803 64.273 63.713 63.193 62.646 62.063 61.416 61.206 61.053 60.366 59.476 64.926 57.716 56.991 56.638 56.396 56.281 56.261 56.166 56.006 55.903 55.881 58.373 55.833 55.311 55.208 55.586 55.906 56.176 56.358 56.511 56.603 56.811 56.761 56.811 56.716 56.536 56.558 63.591 61.471 67.778 56.521 56.721 56.741 56.791 57.548 58.401 59.326 60.356 61.178 61.446 61.781 62.196 62.543 62.843 63.113 63.478 63.833 64.058 64.206 64.783 64.733 65.003 65.191 65.391 65.573 65.748 65.933 66.123 66.278 66.506
74.789 74.769 74.756 74.766 74.776 74.761 74.779 74.799 74.849 74.909 74.924 74.929 74.966 74.944 79.966 79.436 74.904 74.836 75.249 74.816 74.809 75.616 75.021 74.836 74.826 74.834 74.766 75.991 74.899 74.866 74.976 75.374 75.531 75.431 75.419 75.379 75.316 75.406 75.539 75.931 76.584 77.206 77.851 78.121 78.714 86.514 88.389 88.231 88.661 89.086 89.539 89.851 89.704 89.259 88.799 88.369 88.246 87.646 82.646 80.594 79.896 79.884 79.929 80.036 80.166 82.079 91.176 92.306 91.864 90.764 82.289 82.399 82.756 83.091 83.279 83.364 83.516 83.674 83.744 83.844 84.024 84.181 84.304 84.496 84.639 84.706 84.726 84.751 85.271 86.484 85.029 85.031 85.174 85.061 85.016 84.921 84.966 85.061 85.126 85.304 85.469 85.641 88.841 86.269 86.214 86.351 86.311 86.406 86.476 86.879 92.541 93.566 93.184 92.814 89.794 87.731 87.884 87.936 87.936 88.019 88.079 88.064 88.169 88.641 88.641 89.269 94.911 96.454 96.586 95.034 88.849 89.061 89.454 89.504 89.729 89.796 89.859 89.944 89.981 90.559 93.901 96.436 92.831 91.074 90.934 91.004 91.044 91.101 91.361 91.011 91.924 92.554 91.986 96.354 97.729 97.551 97.636 97.211 91.459 93.071 91.999 91.839 91.886 91.931 92.281 92.216 91.971 91.859 92.021 92.409 92.391 92.891 95.554 93.084 92.301 92.289 92.306 92.291 92.359 91.406 89.901 88.669 88.344 88.404 88.459 88.566 88.724 88.806 90.136 89.611 89.739 89.851 90.061 90.211 90.324 90.459 90.516 90.581 90.579 91.054 90.639 90.639 91.146 92.094 98.106 99.519 100.526 99.594 98.529 97.699 92.059 92.014 91.811 91.494 91.399 91.396 91.471 92.876 91.656 92.419 92.569 92.649 92.671 95.231 97.414 93.656 93.166 93.201 93.291 93.768 94.626 94.006 94.353 94.408 94.278 93.926 94.058 95.176 94.466 93.876 93.836 93.813 93.803 93.801 94.273 94.513 93.871 93.888 97.086 97.526 97.738 97.303 96.938 96.381 93.618 93.648 93.618 93.606 93.611 93.581 93.548 93.551 93.558 93.536 93.518 93.516 93.498 93.481 93.483 93.478 93.478 93.488 93.473 93.481 93.476 93.473 93.456 93.436 93.413 93.381 93.331 93.268 93.158 93.093 93.051 93.071 93.063 93.076 93.093 93.038 93.041 93.188 93.366 93.473 94.171 94.776 95.116 95.348 95.391 95.241 94.933 94.438 93.893 93.131 92.676 92.496 91.236 91.208 91.183 92.943 90.986 90.883 90.878 90.868 90.883 90.811 89.758 89.746 89.206 88.286 87.601 86.003 85.776 84.798 84.353 84.401 83.966 81.801 80.671 79.761 78.776 77.788 76.846 76.076 77.863 74.603 73.753 72.848 72.438 75.951 74.968 69.823 69.266 68.598 67.993 67.328 66.681 66.071 65.586 65.073 64.526 64.013 63.496 62.933 62.413 61.781 61.266 61.156 60.668 59.793 58.796 57.966 57.263 56.751 56.536 56.431 56.363 56.246 56.116 55.911 55.873 55.761 55.721 55.143 54.898 55.341 55.688 59.606 64.668 56.321 56.491 56.633 56.711 56.646 56.743 56.611 56.483 56.538 56.563 62.881 59.923 56.528 56.671 56.648 56.758 57.531 58.373 59.333 60.221 61.043 61.361 61.783 62.193 62.493 62.761 63.038 63.401 63.673 63.868 68.198 64.406 64.603 64.796 64.981 65.223 65.423 65.578 65.721 65.896 66.136
75.354 74.786 74.736 74.724 74.721 74.681 74.716 74.739 74.766 74.781 74.769 74.794 74.854 74.891 80.739 79.746 75.206 74.836 74.746 74.721 74.676 74.676 75.029 74.989 74.791 74.776 74.789 74.729 74.671 74.831 74.869 75.046 75.316 75.506 75.376 75.364 75.319 75.251 75.334 75.481 75.864 76.496 77.354 77.934 78.096 80.411 82.689 83.236 88.091 87.769 88.256 88.634 89.079 89.526 89.849 89.689 89.264 87.876 79.691 82.624 79.971 79.914 79.939 79.971 80.091 86.331 89.731 91.599 91.561 86.866 82.274 82.409 82.699 82.911 83.064 83.201 83.341 83.359 83.454 83.656 83.911 84.129 84.256 84.389 84.504 84.566 84.586 84.599 84.971 85.924 84.836 84.924 85.056 84.986 87.236 88.349 88.331 86.596 84.991 85.181 85.329 85.501 89.566 86.576 85.981 86.889 86.206 86.384 86.474 87.546 93.004 94.466 94.569 93.136 87.189 87.219 87.626 87.719 87.751 87.839 87.874 87.876 87.996 88.186 88.434 90.806 95.054 95.511 95.881 94.626 89.601 89.031 89.651 89.571 89.664 89.729 89.801 90.396 89.994 90.894 92.441 91.791 91.299 91.351 90.949 90.944 91.066 91.051 91.854 90.996 90.939 91.209 91.836 97.086 97.469 96.921 97.636 95.976 91.421 91.539 92.804 92.089 91.721 91.754 92.044 91.859 92.336 91.974 91.616 91.464 91.401 91.389 91.616 92.336 92.269 93.076 94.721 94.574 92.389 91.089 89.519 88.234 88.159 88.254 88.309 88.354 88.559 88.624 88.726 88.824 88.974 89.451 89.524 90.014 90.149 90.301 90.429 90.474 90.204 90.624 91.224 90.709 91.051 91.419 91.664 98.536 99.151 98.181 92.836 91.884 91.746 91.784 92.304 91.461 91.231 91.304 91.351 91.814 91.819 92.291 92.526 92.991 98.329 99.479 99.276 93.261 93.023 94.013 93.586 93.326 93.251 93.833 93.996 94.031 94.061 93.826 94.473 93.893 93.888 93.861 93.828 93.793 93.763 93.753 93.728 94.961 94.691 93.878 97.103 97.543 97.758 97.318 96.963 96.433 93.626 93.653 93.608 93.573 93.568 93.576 93.561 93.533 93.538 93.521 93.531 93.541 93.518 93.503 93.493 93.488 93.483 93.496 93.491 93.501 93.478 93.473 93.461 93.466 93.463 93.436 93.366 93.311 93.246 93.123 93.028 93.016 93.048 93.081 93.076 93.021 93.013 93.171 93.318 93.521 94.238 94.853 95.193 95.411 95.431 95.401 94.688 93.843 92.983 92.611 91.798 91.308 91.278 91.686 91.116 91.443 91.418 90.883 90.828 90.843 90.818 90.871 90.471 90.181 90.151 88.291 88.278 87.111 85.521 84.933 85.336 84.213 85.273 87.841 81.326 80.283 79.321 78.303 77.331 76.428 75.706 74.916 74.126 73.236 72.526 72.596 71.121 70.203 69.566 68.983 68.338 67.668 66.988 66.408 65.926 65.378 64.803 64.281 63.761 63.236 62.728 62.206 61.401 61.178 60.986 60.111 59.106 58.208 57.496 57.001 57.011 58.481 56.383 56.323 56.236 55.958 55.858 55.788 55.738 55.476 54.711 55.018 55.508 60.306 65.518 56.128 56.353 56.433 56.498 56.606 56.571 56.571 56.518 56.466 56.516 56.551 56.503 56.406 56.478 56.568 56.586 56.766 57.563 58.363 59.266 60.231 61.031 61.301 61.721 62.111 62.346 62.676 63.008 63.261 63.496 64.253 64.033 64.201 64.421 64.578 64.806 65.013 65.191 65.363 65.473 65.706
78.301 78.279 78.001 76.829 74.771 74.911 74.894 74.756 74.729 74.726 74.724 74.759 74.764 74.766 76.671 79.644 74.836 75.229 78.129 74.696 74.694 74.611 74.486 74.676 75.049 74.771 74.729 74.744 74.704 74.646 74.789 74.884 74.976 75.266 75.444 75.324 75.289 75.241 75.181 75.259 75.376 75.746 76.561 77.406 77.776 78.634 79.646 79.804 82.481 80.391 81.364 87.176 87.769 88.369 88.631 89.171 89.246 85.989 79.776 79.901 79.986 79.976 80.806 80.156 80.099 88.994 90.101 90.464 89.361 81.866 81.551 82.341 82.556 82.724 82.836 83.016 83.146 83.116 83.109 83.374 83.771 84.051 84.196 84.281 84.364 84.404 84.386 84.446 85.024 85.076 84.624 84.809 84.909 84.879 87.856 88.544 88.616 87.941 84.996 85.124 85.276 85.501 89.866 85.656 85.611 85.629 85.709 85.916 86.431 89.704 93.394 94.844 94.359 92.791 87.269 87.129 87.571 87.576 87.576 87.661 87.674 87.689 87.819 88.156 88.321 88.511 88.656 90.869 93.834 93.021 89.869 89.086 89.061 89.014 89.004 89.044 89.674 90.576 90.956 90.456 90.641 90.489 91.129 90.344 90.894 90.869 91.201 91.201 92.666 91.111 91.314 91.119 93.124 97.486 97.426 97.751 97.704 93.874 91.981 92.564 92.774 92.251 91.581 91.584 91.569 91.719 91.664 91.626 96.769 96.336 97.059 96.319 93.566 91.696 91.581 93.636 93.664 94.324 93.134 90.994 89.284 88.024 88.011 88.116 88.176 88.236 88.316 88.396 88.494 88.709 88.816 88.936 89.086 89.231 89.386 89.851 92.081 94.041 90.366 89.799 89.996 90.789 90.941 91.056 91.314 94.366 96.441 91.599 91.774 92.424 91.706 91.731 93.236 91.206 91.096 91.201 91.221 91.354 91.944 92.221 92.404 98.989 100.101 101.119 100.406 98.651 93.538 93.511 93.216 93.246 93.261 93.398 93.988 94.071 93.811 93.778 93.808 94.636 93.851 93.858 93.823 93.758 93.706 93.696 93.691 93.863 94.143 93.886 97.103 97.541 97.763 97.343 96.958 96.681 93.646 93.653 93.603 93.551 93.548 93.566 93.553 93.533 93.548 93.531 93.551 93.553 93.533 93.516 93.503 93.501 93.498 93.503 93.503 93.508 93.493 93.491 93.468 93.466 93.456 93.448 93.376 93.336 93.273 93.161 93.076 93.058 93.048 93.058 93.053 92.988 92.993 93.156 93.333 93.568 94.236 94.823 95.171 95.286 95.158 94.693 94.338 93.073 92.288 91.401 91.358 91.568 92.263 91.261 91.123 91.043 90.978 90.926 90.861 90.838 90.853 90.748 91.336 90.156 90.146 89.458 88.276 88.006 86.286 85.323 85.048 84.463 84.793 84.161 81.806 80.836 84.801 78.888 82.918 76.991 76.171 75.328 74.461 73.883 72.771 72.031 71.311 70.578 69.891 69.283 68.683 68.008 67.351 66.771 66.276 65.848 65.196 64.561 64.056 63.586 63.033 62.528 61.841 61.263 61.161 60.523 59.448 58.536 57.866 58.698 59.213 56.471 56.386 56.371 56.298 56.156 55.881 55.816 55.748 55.688 55.613 54.796 55.278 55.616 55.843 55.961 56.113 56.286 56.403 56.523 56.523 56.478 56.588 56.583 56.431 56.478 56.516 56.448 56.366 56.486 56.576 56.588 56.808 57.531 58.381 59.283 60.288 60.998 61.226 61.611 61.946 62.236 62.531 62.831 63.068 63.331 63.596 63.816 64.001 64.278 64.413 64.568 64.856 64.976 65.056 65.356
78.054 78.261 78.221 78.289 78.129 78.331 76.574 75.079 74.886 74.854 74.831 74.809 74.766 74.711 74.714 74.744 74.746 74.721 74.689 74.726 74.681 74.606 74.461 74.399 74.296 75.151 74.756 74.671 74.706 74.676 74.621 74.721 74.811 74.951 75.181 75.316 75.274 75.209 75.179 75.126 75.199 75.299 75.724 76.614 77.379 77.606 77.716 78.904 79.674 79.636 79.984 82.361 79.784 84.569 86.179 89.501 88.564 81.294 79.871 80.049 80.039 80.109 80.199 80.296 80.559 89.359 90.466 90.079 88.824 80.646 81.076 82.124 82.391 82.521 82.834 82.854 82.961 82.894 82.879 83.156 83.529 83.874 84.041 84.109 84.169 84.171 84.081 84.176 86.119 84.369 84.439 84.566 84.764 84.864 88.014 88.729 88.474 87.539 84.949 85.054 85.144 86.509 89.786 86.491 85.651 85.671 85.674 85.816 86.451 91.179 93.706 95.074 93.911 89.814 87.081 87.556 87.379 87.361 87.391 87.481 87.471 87.509 87.679 88.256 87.389 87.951 88.601 88.724 88.751 88.779 89.244 89.276 90.689 90.294 89.316 88.981 89.004 89.116 89.404 89.864 90.119 90.244 90.336 90.189 89.966 90.626 89.834 90.549 94.071 93.001 91.971 92.584 94.384 96.479 95.756 94.489 95.874 91.349 91.266 91.296 91.519 91.341 91.404 91.409 91.804 93.189 91.894 91.851 97.954 97.851 97.479 97.956 97.399 97.371 91.614 94.181 94.419 94.459 93.929 90.831 89.781 87.826 87.874 87.956 88.009 88.106 88.221 88.334 88.429 88.546 88.639 88.746 88.879 89.036 89.146 89.299 89.874 91.484 89.714 89.646 89.749 90.909 90.824 90.936 91.086 91.366 91.421 91.454 91.574 92.819 91.626 91.626 92.826 91.056 91.011 91.089 91.239 91.426 91.896 92.109 92.276 95.611 99.864 101.531 101.324 99.656 95.213 92.631 93.201 93.238 93.261 93.293 93.896 95.448 94.743 93.601 93.778 93.751 93.811 93.861 93.843 93.893 93.653 93.638 93.646 93.856 94.091 93.886 97.101 97.546 97.781 97.351 96.948 96.518 93.658 93.646 93.591 93.556 93.553 93.543 93.543 93.521 93.528 93.543 93.556 93.558 93.553 93.533 93.521 93.508 93.513 93.506 93.486 93.498 93.488 93.481 93.463 93.458 93.448 93.441 93.413 93.353 93.286 93.183 93.091 93.078 93.068 93.038 93.011 92.983 92.991 93.093 93.221 93.576 94.181 94.753 95.028 95.018 94.846 93.836 93.136 92.478 91.416 91.618 94.193 91.488 91.953 91.253 91.166 91.088 91.008 90.898 90.938 90.821 90.631 90.551 90.318 90.168 90.156 90.128 88.346 88.271 86.461 89.043 89.528 84.963 84.176 83.758 82.326 85.438 87.856 85.041 78.373 77.478 76.603 75.748 74.881 74.048 73.266 72.486 76.233 72.881 70.308 69.656 69.026 68.353 67.748 67.166 66.651 66.136 65.486 64.878 64.331 63.821 63.346 62.833 62.253 61.471 61.241 60.868 59.846 58.991 58.181 57.556 57.798 56.651 56.426 56.356 56.356 56.188 55.881 55.768 55.763 55.681 55.563 54.881 54.968 55.316 55.616 55.893 55.961 56.318 56.323 56.453 56.638 56.571 56.648 56.728 56.548 56.408 56.458 56.471 56.408 56.318 56.458 56.593 56.558 56.773 57.528 58.393 59.601 60.313 60.948 61.113 61.746 61.816 62.111 62.413 62.628 62.893 63.203 63.383 63.601 63.793 63.963 64.161 64.338 64.503 64.696 64.896
78.281 78.234 78.254 78.281 78.306 78.304 78.286 77.746 78.244 77.914 78.304 77.921 75.844 74.819 74.734 74.701 74.706 74.686 74.666 74.606 74.551 74.504 74.481 74.396 74.314 74.261 75.204 74.759 74.636 74.664 74.659 74.614 74.671 74.764 74.906 75.084 75.276 75.254 75.136 75.116 75.049 75.081 75.194 75.694 76.401 76.951 77.356 77.611 77.751 77.869 78.809 79.679 79.676 80.526 79.671 80.851 83.139 79.716 79.979 80.091 80.209 80.319 80.426 80.371 85.529 89.744 90.706 89.714 85.426 80.604 81.256 81.971 82.156 82.336 82.536 82.736 82.834 82.736 82.686 82.906 83.304 83.631 83.831 83.921 83.956 83.909 83.906 84.044 85.619 84.179 84.304 84.451 84.539 85.796 88.179 88.834 88.304 86.976 84.934 85.004 85.066 88.879 89.389 87.321 85.734 86.214 86.961 87.811 89.381 92.619 94.169 94.511 93.541 90.716 86.856 89.714 88.194 88.544 87.189 87.264 88.216 87.351 87.549 87.454 87.351 87.206 87.186 87.219 87.311 87.801 89.099 89.126 92.171 93.416 91.444 91.301 89.056 89.651 89.539 89.804 90.894 90.136 90.006 90.039 89.881 90.214 89.754 89.806 91.794 90.479 92.596 92.599 91.359 91.251 91.151 91.179 91.174 91.174 91.269 92.021 91.234 91.194 91.229 91.221 92.951 91.471 91.446 92.419 97.234 97.214 97.454 97.776 95.954 95.556 91.601 91.649 91.716 92.784 93.536 89.456 87.769 87.619 87.696 87.776 87.814 87.909 88.039 88.181 88.349 88.486 88.591 88.676 88.764 88.886 89.011 89.111 89.251 89.336 89.436 89.516 89.616 89.836 91.676 91.416 91.151 92.239 91.259 91.331 91.464 91.541 92.794 91.931 92.059 90.826 90.916 90.979 91.101 91.201 91.889 92.069 92.221 92.309 98.851 101.099 102.069 101.143 101.113 95.208 92.828 93.211 93.241 95.011 94.263 95.456 93.498 93.323 93.396 93.488 93.976 93.858 93.863 94.778 94.598 93.581 93.601 94.581 94.966 93.938 97.088 97.536 97.791 97.351 96.943 96.836 93.661 93.626 93.553 93.518 93.523 93.531 93.538 93.521 93.543 93.543 93.551 93.538 93.548 93.546 93.533 93.523 93.516 93.508 93.498 93.498 93.491 93.468 93.463 93.441 93.423 93.403 93.373 93.343 93.288 93.176 93.101 93.041 93.043 93.006 92.993 92.971 92.973 93.073 93.243 93.548 94.163 94.633 94.826 94.621 93.941 93.246 92.041 91.423 92.708 94.106 94.203 94.488 91.583 91.548 91.261 91.128 91.018 91.733 91.018 90.583 90.491 90.636 90.578 89.986 90.146 90.131 90.141 90.111 93.541 94.898 90.858 84.993 84.656 84.163 85.736 86.536 86.741 79.943 78.956 77.878 77.073 76.211 75.301 74.433 73.686 72.978 72.488 71.456 70.756 70.063 69.391 68.751 68.153 67.558 67.068 66.553 65.871 65.206 64.653 64.106 63.668 63.168 62.621 61.921 61.346 61.216 60.383 60.061 58.633 57.963 57.336 56.911 56.626 56.511 56.393 56.343 56.043 55.786 55.743 55.701 55.656 55.301 54.721 55.063 55.361 55.746 55.851 56.046 56.321 56.348 56.488 56.698 56.658 56.683 56.646 56.463 56.363 56.423 56.446 56.376 56.303 56.456 56.536 56.523 56.763 57.521 58.493 59.368 60.328 60.796 60.968 61.266 61.636 61.958 62.158 62.398 62.693 62.958 63.136 63.326 63.538 63.773 63.958 64.106 64.293 64.526
78.276 78.239 77.044 78.014 78.316 78.296 78.269 78.274 78.251 78.379 78.264 78.224 78.264 75.786 74.676 75.136 74.694 74.669 74.649 74.594 74.524 74.454 74.376 74.304 74.254 74.194 74.164 75.101 74.756 74.611 74.641 74.644 74.619 74.601 74.736 74.901 75.099 75.209 75.186 75.059 75.041 74.994 74.991 75.129 75.611 76.184 76.749 77.244 77.676 77.874 78.079 78.299 78.431 79.034 79.611 79.701 80.254 81.461 88.284 81.949 80.211 80.381 80.744 81.029 89.006 90.094 90.476 89.356 81.081 80.716 81.399 81.776 81.949 82.176 82.426 82.639 82.704 82.599 82.521 82.624 83.046 83.391 83.554 83.659 83.661 83.604 83.699 84.426 84.211 83.924 84.111 84.311 84.441 84.504 84.619 85.134 86.506 87.194 86.709 84.986 85.474 89.101 86.159 85.336 85.606 86.354 86.559 89.046 89.354 89.056 92.616 93.039 93.206 86.914 86.626 87.619 86.906 87.781 86.991 87.039 87.759 87.196 87.354 87.356 88.229 93.546 93.211 92.221 89.336 87.639 89.699 89.626 93.721 97.086 96.159 94.479 93.681 92.899 90.281 89.976 90.021 89.789 89.746 89.791 89.651 89.569 89.646 89.729 89.754 89.831 89.891 89.874 94.584 92.624 90.369 90.706 91.156 91.114 91.056 90.989 90.941 91.019 91.051 91.026 91.556 91.829 91.439 96.244 97.941 97.839 97.661 97.429 93.151 92.906 91.594 91.639 91.674 92.039 91.096 88.536 87.486 87.444 87.546 87.584 87.711 87.886 88.064 88.201 88.296 88.356 88.469 88.579 88.731 88.841 88.954 89.081 89.174 89.244 89.299 89.384 89.514 89.684 89.794 89.926 90.064 90.089 90.866 91.676 91.334 93.634 93.774 92.366 90.866 90.731 90.816 90.859 90.916 91.481 91.859 92.096 92.181 92.116 92.691 99.491 101.146 101.646 101.131 99.143 93.138 92.768 95.376 95.376 94.653 95.318 93.298 93.321 93.426 93.388 93.288 93.373 96.091 94.488 93.973 93.533 93.528 93.573 93.638 93.843 94.651 95.338 94.763 94.598 96.568 93.808 93.678 93.608 93.541 93.501 93.506 93.503 93.496 93.516 93.553 93.531 93.508 93.496 93.506 93.516 93.506 93.498 93.516 93.523 93.513 93.508 93.483 93.463 93.466 93.431 93.403 93.376 93.356 93.303 93.258 93.171 93.076 93.018 93.021 92.968 92.953 92.936 92.941 93.048 93.201 93.598 94.118 94.473 94.436 93.851 93.281 91.506 91.448 93.258 93.988 94.036 95.816 97.473 93.903 91.551 91.326 91.171 92.116 91.146 91.201 90.776 90.886 90.633 90.191 90.018 90.056 90.133 89.128 91.976 93.951 94.228 91.976 85.431 84.796 84.378 85.113 82.256 81.518 80.416 79.498 78.448 77.546 76.708 75.796 74.936 74.113 73.543 72.613 71.918 71.186 70.488 69.816 69.211 68.631 67.983 67.468 66.958 66.286 65.588 64.951 64.486 64.001 63.526 62.956 64.861 61.566 61.316 60.966 60.348 59.153 58.461 57.823 57.318 56.946 56.753 56.561 56.451 56.211 55.798 55.701 55.688 55.528 55.273 54.803 54.778 55.156 55.498 55.728 55.913 56.081 56.193 56.316 56.483 56.646 56.651 56.653 56.593 56.408 56.341 56.391 56.406 56.336 56.271 56.438 56.511 56.493 56.866 57.543 58.501 59.376 61.293 60.561 60.781 61.126 61.413 61.673 61.908 62.208 62.458 62.711 62.916 63.121 63.388 63.601 63.783 63.956 64.143
76.944 78.254 78.279 78.294 78.316 78.144 77.294 78.249 78.301 78.266 78.391 78.219 78.274 74.859 74.659 76.071 74.669 74.636 74.611 74.564 74.519 74.454 74.299 74.224 74.144 74.069 74.174 78.816 74.629 74.736 74.576 74.601 74.619 74.594 74.559 74.751 74.949 75.289 75.134 75.096 75.009 74.989 74.931 74.964 75.071 75.549 76.124 76.669 77.459 77.834 78.014 78.251 78.431 78.616 78.929 79.396 79.654 86.819 89.864 89.509 89.151 88.101 82.241 80.641 90.471 91.956 90.794 88.879 80.644 80.936 81.289 82.646 81.676 81.961 82.281 82.529 82.616 82.514 82.371 82.404 82.756 83.096 83.291 83.349 83.366 83.341 83.481 84.546 83.504 83.626 83.826 84.121 84.306 84.389 84.449 84.541 84.604 84.596 85.636 84.941 85.079 85.869 85.264 85.131 85.581 85.379 85.336 85.491 86.016 86.506 89.289 89.684 89.829 86.579 86.671 86.804 86.679 86.694 86.779 86.794 86.841 87.036 87.171 87.221 91.196 94.104 94.734 94.146 90.626 87.881 88.556 89.061 88.926 91.634 93.129 94.109 94.019 96.736 99.476 94.689 89.666 89.206 90.131 89.194 89.546 91.719 90.681 89.634 89.706 89.776 89.774 90.956 96.026 95.696 92.566 90.086 89.876 90.474 90.566 90.841 90.764 90.849 90.864 90.869 91.074 91.201 91.329 94.514 95.639 96.991 97.881 97.069 91.461 91.531 91.484 91.651 91.874 92.256 90.039 88.021 87.249 87.266 87.366 87.389 87.594 88.481 88.874 88.376 88.459 88.506 88.591 88.664 88.699 88.739 88.844 88.984 89.099 89.229 89.294 89.401 89.486 89.561 89.624 89.751 89.901 89.996 90.111 90.239 90.301 90.441 90.734 90.714 90.711 90.656 90.734 90.746 90.924 91.391 91.804 91.881 92.124 92.434 92.534 97.329 100.114 101.238 101.171 99.353 94.103 92.663 95.291 94.248 93.121 94.623 93.258 93.301 93.603 93.286 93.251 93.296 96.666 96.083 93.673 93.471 93.468 93.533 93.593 93.688 93.793 93.906 93.983 94.008 96.076 93.781 93.691 93.603 93.541 93.503 93.508 93.493 93.508 93.513 93.541 93.511 93.478 93.463 93.461 93.481 93.518 93.501 93.516 93.538 93.523 93.506 93.488 93.486 93.491 93.441 93.386 93.368 93.328 93.293 93.246 93.168 93.091 93.023 92.998 92.978 92.931 92.941 92.923 93.023 93.168 93.613 94.028 94.248 94.176 93.556 92.178 91.543 91.483 92.136 94.486 97.073 97.796 98.558 98.661 92.401 91.813 92.378 91.271 91.198 91.121 91.123 90.543 90.313 90.231 90.101 89.751 89.628 92.571 91.058 92.846 91.611 88.733 85.411 84.908 84.541 84.636 82.908 81.976 80.968 79.998 79.033 78.086 77.221 76.413 75.486 74.608 73.801 73.066 72.336 71.608 70.896 70.276 69.626 69.036 68.428 67.926 67.371 66.771 66.063 65.353 64.811 64.351 64.166 63.881 62.741 62.023 61.438 61.306 60.596 59.741 59.043 58.418 57.918 57.408 57.041 56.816 56.506 56.408 55.968 55.701 55.553 55.351 55.326 54.781 54.738 55.021 55.323 55.581 55.773 55.878 56.006 56.121 56.263 56.473 56.648 56.621 56.628 56.558 56.356 56.318 56.366 56.356 56.298 56.256 56.406 56.473 56.453 56.763 57.798 58.516 59.523 60.356 62.093 60.613 60.923 61.243 61.476 61.748 62.031 62.261 62.438 62.728 62.973 63.203 63.386 63.578 63.778
78.251 78.256 78.274 76.624 77.779 78.286 78.271 78.244 78.666 78.279 78.246 78.246 78.291 74.826 74.681 75.054 74.651 75.111 74.649 74.746 74.566 74.519 74.379 74.206 74.061 73.979 73.921 73.924 73.919 74.321 74.726 74.591 74.579 74.609 74.566 74.531 74.731 74.891 75.024 74.979 75.009 74.936 74.929 74.874 74.914 75.034 75.399 75.926 76.734 77.436 77.911 78.164 78.369 78.604 78.909 79.199 79.421 90.344 90.664 90.599 90.264 89.891 89.469 90.674 91.511 92.154 91.346 86.984 80.564 80.829 81.024 81.169 84.834 81.721 82.066 82.359 82.466 82.379 82.211 82.196 82.484 82.856 83.069 83.139 83.121 83.156 83.391 85.309 83.201 83.286 83.701 83.919 84.079 84.251 84.364 84.494 84.516 85.861 86.719 86.644 85.266 85.556 85.116 85.016 85.064 85.139 85.291 85.299 85.431 85.479 85.499 86.216 86.231 86.534 87.341 86.426 86.371 86.456 86.561 86.561 86.611 86.899 86.941 87.064 92.954 94.551 95.344 93.824 88.434 88.146 88.844 88.869 88.891 88.901 88.909 88.991 89.144 92.614 95.701 94.816 90.766 89.084 89.036 88.949 88.896 89.439 90.299 91.156 91.156 93.104 90.539 94.389 96.336 96.311 96.226 95.889 89.994 90.396 90.669 92.006 90.604 90.666 91.811 90.744 91.474 91.916 92.284 91.629 91.819 94.961 96.996 96.719 93.711 91.426 91.441 91.464 91.644 91.566 89.461 87.459 87.061 87.111 87.176 87.181 87.384 88.789 88.231 89.499 89.716 90.174 89.186 88.781 88.859 88.899 88.969 89.026 89.024 89.119 89.211 89.356 89.454 89.521 89.619 89.699 89.786 89.871 89.956 90.096 90.226 90.351 90.451 90.534 90.529 90.611 90.666 90.669 90.886 91.031 92.076 92.221 92.289 92.231 92.529 93.239 98.974 100.273 100.708 99.796 98.283 93.168 95.228 93.218 93.111 99.418 99.006 98.043 94.158 93.286 93.233 95.053 96.786 94.073 93.646 93.436 93.423 93.491 93.573 93.671 94.981 95.153 93.986 93.946 93.926 93.783 93.656 93.581 93.531 93.501 93.491 93.508 93.516 93.503 93.526 93.491 93.458 93.446 93.456 93.476 93.501 93.518 93.526 93.546 93.526 93.516 93.513 93.493 93.493 93.448 93.396 93.371 93.313 93.281 93.256 93.171 93.106 93.053 93.031 92.988 92.941 92.928 92.903 92.996 93.128 93.521 93.888 93.711 93.938 95.613 92.013 91.876 92.896 91.593 93.898 98.158 98.838 98.328 97.593 96.866 92.426 91.266 91.201 91.156 91.146 90.953 90.611 90.458 90.461 91.468 91.793 91.258 90.631 87.908 88.541 86.783 86.438 85.923 85.136 88.413 89.128 84.443 82.848 81.366 80.521 79.596 78.746 77.926 77.013 76.068 75.088 74.268 73.508 72.791 72.111 71.431 70.731 70.073 69.461 68.891 69.236 67.828 67.233 66.618 65.816 65.201 64.678 64.238 63.701 63.091 62.486 61.673 61.443 61.223 60.458 59.706 59.101 58.578 58.028 57.536 57.156 56.678 56.443 56.181 55.798 55.536 58.801 55.533 56.038 54.906 54.821 55.166 55.381 55.588 55.698 55.808 55.903 56.076 56.291 56.493 56.656 56.573 56.628 56.526 56.321 56.298 56.338 56.326 56.266 56.243 56.393 56.438 56.431 56.836 57.798 58.873 59.781 62.051 60.363 60.526 60.843 61.038 61.223 64.411 61.783 62.068 62.226 62.503 62.781 62.963 63.141 63.373
78.244 78.311 78.284 78.299 78.289 78.279 78.264 78.254 78.439 78.276 78.464 78.264 78.294 77.711 75.414 74.864 74.956 78.314 78.264 74.906 75.104 74.701 74.399 74.279 74.106 73.954 73.841 73.781 73.766 73.809 74.016 74.736 74.601 74.554 74.594 74.554 74.519 74.674 74.776 74.904 75.049 75.029 74.866 74.876 74.834 74.874 74.981 75.294 75.899 76.599 77.311 77.959 78.294 78.556 78.856 79.064 79.354 89.216 89.569 89.924 90.301 90.646 90.429 91.621 92.601 92.274 91.819 80.336 80.479 80.661 80.774 80.879 81.091 81.464 81.851 82.156 82.304 82.276 82.051 82.021 82.199 82.551 82.816 82.856 82.871 82.924 83.061 85.116 82.916 82.969 83.206 83.581 83.831 83.991 84.151 84.276 84.376 84.431 84.686 85.431 85.359 85.271 85.129 84.981 85.471 85.031 85.139 85.546 85.406 87.931 90.884 89.304 85.826 87.051 86.421 86.166 86.136 86.239 86.319 86.311 86.419 86.669 86.871 87.036 93.334 94.004 94.391 93.439 87.226 88.274 88.814 88.841 88.954 88.886 88.884 89.034 89.166 89.244 89.324 89.481 90.786 91.144 92.496 88.886 88.949 88.879 89.071 89.451 89.419 89.641 89.814 95.349 96.646 95.586 95.941 95.679 89.916 90.256 91.941 90.954 90.424 90.476 91.796 90.744 90.786 90.594 90.511 90.526 90.584 91.046 91.539 91.419 91.479 91.504 91.471 91.509 91.671 90.584 89.401 86.986 86.891 86.959 88.141 87.079 87.271 88.129 88.254 89.509 88.709 88.779 89.089 89.561 89.714 89.394 89.106 89.164 89.216 89.246 89.261 89.294 89.366 89.929 89.674 89.646 89.741 89.831 89.924 89.999 90.079 90.146 90.251 90.336 90.451 90.541 90.594 90.611 90.819 90.961 91.359 92.199 92.216 92.401 92.124 92.234 92.661 99.248 99.143 95.893 92.638 94.808 95.168 93.091 96.766 100.513 100.086 99.686 99.671 100.453 96.833 93.568 95.181 93.748 93.591 93.391 93.401 93.461 93.543 93.643 93.761 93.833 93.906 93.913 93.911 93.768 93.641 93.586 93.543 93.521 93.496 93.476 93.473 93.471 93.491 93.466 93.458 93.438 93.448 93.463 93.491 93.516 93.518 93.533 93.518 93.513 93.511 93.493 93.468 93.461 93.418 93.388 93.308 93.256 93.243 93.143 93.091 93.073 93.021 92.981 92.941 92.928 92.921 92.988 93.116 93.491 93.538 96.931 95.801 96.981 92.603 91.666 91.598 91.501 91.423 95.643 98.001 97.268 92.601 91.151 92.918 91.021 91.131 91.133 91.126 91.061 91.253 91.163 90.826 93.006 90.888 89.748 88.676 88.198 87.726 87.846 89.848 88.636 87.848 92.258 84.818 84.923 82.748 81.836 81.408 80.206 79.406 81.513 77.661 76.661 75.731 74.853 74.043 73.288 72.601 72.111 73.558 70.558 69.913 69.316 68.828 68.313 67.718 67.098 66.358 65.753 65.181 64.686 64.171 63.566 62.863 62.238 61.593 61.531 61.018 60.378 59.738 59.246 58.618 58.071 57.441 56.956 56.528 56.343 55.936 57.601 55.488 55.361 55.301 55.733 54.673 54.951 55.136 55.293 55.448 55.623 55.786 55.923 56.093 56.271 56.471 56.671 56.538 56.578 56.516 56.283 61.486 56.456 56.293 56.241 56.226 56.358 56.403 56.388 56.921 57.866 58.941 59.866 60.293 63.081 60.453 60.626 60.841 61.063 61.836 64.296 61.818 62.001 62.281 62.528 62.736 63.026
78.259 78.286 78.319 78.301 78.291 78.274 78.091 78.281 78.476 78.266 78.221 78.341 78.471 78.294 78.289 78.266 78.274 78.294 75.941 71.784 74.999 75.211 75.519 75.761 75.381 73.916 73.859 73.696 73.639 73.616 73.744 73.876 74.779 74.626 74.536 74.569 74.549 74.501 74.581 74.786 75.011 75.029 74.956 74.814 74.829 74.811 74.846 74.949 75.241 75.821 76.534 77.299 77.971 78.404 78.726 79.039 79.006 79.111 81.869 87.636 89.184 89.659 89.829 92.044 93.136 92.809 91.699 80.199 80.371 80.499 80.564 80.681 80.951 81.254 81.606 81.939 82.134 82.139 81.899 81.856 81.966 82.294 82.554 82.626 82.629 83.011 83.101 83.431 82.641 82.931 83.116 82.836 83.141 83.656 84.034 83.959 84.101 84.186 84.274 84.376 85.081 87.219 87.006 87.099 86.024 85.496 85.581 85.289 85.739 89.834 92.411 92.029 87.944 85.599 86.021 85.899 85.906 86.021 86.069 86.051 86.254 86.631 86.864 87.024 87.576 90.061 92.634 92.066 87.221 88.291 88.961 88.736 88.776 88.984 88.826 88.994 89.139 89.214 89.526 89.411 89.359 89.069 89.661 89.826 89.014 88.939 89.136 89.479 89.444 89.641 90.734 95.701 96.161 96.309 96.191 95.694 90.001 90.194 92.209 90.214 90.256 90.301 90.409 90.761 90.759 90.694 91.579 92.706 91.029 95.181 92.934 90.519 90.819 91.306 91.519 92.221 94.439 90.554 87.889 86.856 86.706 86.769 88.091 86.909 87.124 88.026 88.784 93.084 88.994 88.679 96.319 89.036 88.716 88.821 89.369 89.826 89.221 89.939 89.716 89.521 89.529 89.649 90.066 89.889 89.676 89.756 89.856 89.956 90.046 90.116 90.221 90.306 90.396 90.461 90.526 90.559 90.676 90.884 90.961 91.066 91.721 92.184 91.399 92.301 92.644 96.706 92.843 92.603 92.558 93.863 94.503 93.053 99.406 99.888 100.346 100.931 100.776 100.753 100.408 93.108 93.341 93.651 93.516 93.333 93.353 93.421 93.488 93.601 93.711 93.786 93.811 93.791 93.771 93.741 93.663 93.603 93.561 93.543 93.491 93.433 93.413 93.403 93.406 93.396 93.406 93.396 93.386 93.413 93.433 93.453 93.506 93.531 93.538 93.526 93.511 93.436 93.411 93.411 93.363 93.296 93.253 93.228 93.206 93.121 93.073 93.046 92.998 92.941 92.946 92.926 92.903 92.976 93.143 93.403 97.266 93.988 98.423 91.678 91.588 91.651 91.681 91.576 91.446 91.326 96.258 91.191 91.973 96.583 96.606 92.336 91.003 91.036 91.398 91.321 91.478 91.233 90.318 90.036 89.841 89.581 89.191 88.618 89.976 88.568 90.153 92.261 93.161 87.178 84.688 84.556 83.861 82.278 83.508 84.981 81.326 79.241 78.216 77.223 76.296 75.406 74.586 73.813 73.133 72.491 71.826 71.131 70.463 70.571 69.276 68.758 68.206 67.701 67.573 66.366 66.033 65.603 65.061 64.241 63.456 62.751 61.936 61.633 61.488 60.948 60.268 59.693 59.156 58.523 57.853 57.388 56.856 56.463 56.173 56.476 55.541 55.363 55.266 55.161 55.058 54.718 54.921 55.078 55.238 55.408 55.596 55.738 55.928 56.068 56.183 56.416 56.601 56.476 56.546 56.478 61.836 60.926 56.478 56.271 56.198 56.191 56.326 56.386 56.383 57.161 58.023 58.888 60.996 60.583 60.321 60.373 60.536 60.743 60.973 61.188 61.376 61.581 61.818 62.018 62.278 62.568
78.289 78.284 78.301 78.299 78.284 78.126 78.239 78.374 78.326 78.271 78.251 78.541 79.984 79.976 79.676 78.681 78.309 78.556 72.839 71.774 71.989 72.886 74.031 74.919 75.156 73.596 73.671 73.684 73.526 73.486 73.501 73.706 74.941 74.946 74.644 74.529 74.554 74.551 74.506 74.524 74.814 75.029 75.004 74.914 74.786 74.796 74.781 74.809 74.934 75.236 75.786 76.549 77.271 77.916 78.434 78.704 78.806 78.929 79.069 79.324 79.541 79.636 87.099 91.864 92.254 92.416 85.704 80.151 80.279 80.369 80.436 80.526 80.809 81.084 81.419 81.701 81.931 81.989 81.804 81.711 81.726 81.974 82.284 82.386 82.436 82.536 84.686 84.171 82.331 82.981 82.954 83.056 85.864 85.499 83.304 83.061 83.519 83.669 83.961 84.086 84.111 84.094 84.166 84.376 85.076 85.114 88.314 88.161 86.856 91.126 92.786 91.646 86.471 85.594 85.809 85.811 85.686 85.804 85.819 85.806 86.054 87.471 86.716 86.464 86.971 87.744 88.321 87.181 87.864 88.234 88.671 88.706 88.704 88.716 88.746 88.774 88.994 88.949 89.344 89.256 89.189 88.789 89.439 91.086 91.059 90.136 89.219 89.284 89.499 89.719 91.224 95.064 95.574 94.886 94.581 92.494 89.894 89.914 90.311 89.984 90.079 90.451 90.214 90.971 90.689 90.604 96.641 96.791 96.416 96.906 96.101 90.464 90.514 90.551 90.611 90.701 91.149 90.839 88.309 87.626 86.541 86.616 87.096 86.789 87.364 87.971 91.111 95.389 95.049 94.711 94.406 88.516 88.779 88.629 88.901 89.009 89.086 90.679 90.491 89.911 92.281 90.751 89.746 89.804 89.836 89.886 89.911 89.916 89.966 90.076 90.171 90.239 90.316 90.366 90.461 90.544 90.621 90.704 90.824 90.954 91.091 91.206 91.341 91.566 92.134 92.488 92.541 92.543 92.183 94.211 92.933 92.948 95.608 98.118 99.223 99.653 100.008 100.423 100.338 93.078 93.573 93.566 93.423 93.253 93.298 93.368 93.456 93.611 93.958 93.746 93.746 93.778 93.748 93.696 93.651 93.591 93.571 93.536 93.481 93.428 93.381 93.358 93.346 93.351 93.353 93.353 93.368 93.386 93.408 93.428 93.458 93.456 93.461 93.443 93.448 93.428 93.406 93.383 93.311 93.223 93.196 93.168 93.141 93.096 93.058 93.016 92.958 92.931 92.926 92.921 92.931 92.963 93.186 93.413 101.426 93.423 91.673 91.663 91.766 91.633 91.663 91.553 91.468 91.453 91.216 94.578 96.981 97.838 97.151 97.468 92.218 93.963 92.761 91.308 91.153 90.998 90.653 90.136 89.943 89.541 90.886 88.626 89.186 87.953 92.493 94.978 93.151 93.746 86.283 84.606 85.198 82.723 85.053 83.038 82.371 79.766 78.893 77.808 76.838 75.951 75.068 74.321 73.658 73.043 72.368 71.701 71.048 70.403 69.793 69.266 68.698 68.123 67.648 67.446 67.401 71.031 67.251 67.466 65.686 63.411 62.551 61.818 61.666 61.366 60.728 60.113 59.566 58.958 58.286 57.648 57.108 56.668 56.418 59.738 56.091 66.281 55.348 55.238 54.606 54.693 54.648 54.818 55.033 55.201 55.456 55.578 55.853 56.148 56.041 56.201 56.491 56.541 56.491 56.556 61.841 60.806 61.058 56.286 56.253 56.158 56.158 56.298 56.333 56.381 57.136 58.073 58.916 59.663 60.231 60.258 60.346 60.508 60.648 60.801 60.966 61.178 61.366 61.563 61.831 62.061
78.281 78.289 78.306 78.306 78.281 78.266 78.276 78.371 78.306 78.289 78.281 79.076 79.989 79.946 79.946 79.961 78.964 78.264 72.144 71.751 71.766 71.794 72.564 72.729 73.311 73.171 73.426 73.551 73.474 73.356 73.361 73.436 73.684 73.821 75.734 74.619 74.506 74.544 74.549 74.504 74.504 74.894 75.119 75.004 74.889 74.756 74.769 74.776 74.781 74.896 75.179 75.834 76.501 77.169 77.779 78.256 78.506 78.656 78.846 79.141 79.459 79.614 79.699 79.819 84.481 89.214 84.391 80.104 80.176 80.224 80.246 80.361 80.581 80.869 81.209 81.461 81.664 81.746 81.669 81.569 81.484 81.729 82.011 82.161 82.194 82.371 82.651 82.391 82.026 83.559 82.849 83.141 86.311 87.329 86.866 86.441 83.889 83.299 83.821 84.034 84.009 84.034 84.101 84.171 84.254 84.296 84.364 85.971 87.469 91.659 92.819 91.299 85.454 85.449 85.491 86.026 85.491 85.564 85.916 85.629 86.101 86.211 86.654 86.206 86.179 86.171 86.206 86.881 87.771 88.586 88.636 88.711 88.701 88.694 88.704 88.721 88.736 89.001 89.066 89.336 89.279 88.654 88.631 88.639 88.664 88.704 88.684 89.059 88.801 89.536 90.656 89.666 89.644 89.629 90.371 89.636 89.849 89.914 89.901 89.814 89.909 90.486 90.531 90.424 90.401 90.396 95.689 96.264 96.514 97.051 95.571 90.424 90.501 90.576 90.681 90.689 92.036 89.019 86.971 86.331 86.369 86.974 86.514 86.676 87.981 88.109 91.981 95.516 95.919 95.934 94.046 88.579 88.531 88.556 88.711 88.909 88.971 91.429 90.151 90.249 90.439 90.381 91.516 92.481 91.976 90.234 90.031 90.051 90.081 90.144 90.126 90.151 90.236 90.316 90.411 90.506 90.606 90.729 90.829 90.899 90.959 91.056 91.176 91.296 91.426 91.591 91.768 92.411 92.028 93.196 92.458 92.753 92.921 93.133 94.638 95.741 98.781 99.251 95.111 93.033 93.511 93.463 93.178 93.178 93.206 93.298 93.463 93.666 94.536 94.168 93.733 93.803 93.816 93.661 93.633 93.558 93.533 93.511 93.468 93.416 93.376 93.336 93.326 93.323 93.346 93.353 93.353 93.368 93.376 93.401 93.426 93.428 93.411 93.396 93.398 93.391 93.378 93.328 93.263 93.206 93.166 93.121 93.083 93.046 92.958 92.913 92.908 92.886 92.868 92.891 92.931 92.966 97.478 100.956 100.706 100.851 91.651 91.596 91.598 92.841 91.568 91.688 92.516 92.553 92.451 94.741 96.796 97.606 97.951 98.466 96.998 93.983 93.693 92.596 94.016 92.236 90.786 90.688 91.553 89.783 89.108 88.898 90.763 88.443 93.413 91.246 89.388 94.503 84.983 84.721 84.808 83.991 82.238 83.961 82.431 80.151 79.288 78.353 77.426 76.473 75.593 74.791 74.136 73.658 79.281 77.861 73.293 70.971 70.366 69.976 69.501 68.801 68.228 68.286 68.536 70.336 67.816 66.763 64.843 63.863 63.041 62.163 61.818 61.736 61.181 60.548 59.956 59.406 58.786 58.143 57.493 56.956 56.571 56.381 56.148 56.461 55.606 55.368 55.023 54.543 54.541 54.653 54.863 55.608 55.251 55.418 55.486 55.868 55.938 56.058 56.223 56.438 56.531 61.796 57.098 56.381 59.126 56.218 56.256 56.203 56.113 56.146 56.263 56.313 56.388 57.181 58.001 60.418 59.653 59.956 60.051 60.323 60.401 60.508 60.643 60.843 61.046 61.233 61.423 61.691
78.269 78.286 78.309 78.296 78.286 78.284 78.276 78.309 78.291 78.241 78.276 80.126 80.114 79.966 80.046 79.946 78.294 77.774 71.946 71.719 71.704 71.731 71.786 71.806 72.026 72.064 72.791 73.319 73.329 73.186 73.231 73.254 73.411 73.619 75.354 74.649 74.616 74.509 74.529 74.546 74.509 74.469 75.266 75.216 75.061 74.884 74.741 74.746 74.746 74.744 74.876 75.224 75.729 76.414 77.026 77.644 78.166 78.401 78.609 78.846 79.124 79.429 79.601 79.761 79.861 79.899 79.936 79.969 80.011 80.056 80.106 80.206 80.374 84.356 83.309 81.246 81.391 81.476 81.419 81.251 81.254 81.506 81.766 81.919 81.956 82.231 83.829 81.691 81.769 82.596 82.729 82.971 86.769 88.446 88.129 86.544 83.309 83.366 83.729 84.194 83.909 83.951 84.049 84.101 84.169 84.206 84.281 84.764 88.999 92.059 92.409 89.961 85.154 85.896 85.179 85.739 85.204 85.296 86.519 85.464 86.549 86.131 86.931 91.919 91.716 89.599 86.264 87.199 87.451 87.891 89.616 90.159 89.596 89.251 90.451 88.761 88.781 89.006 89.059 89.511 89.109 88.589 88.626 88.616 88.589 88.574 88.616 88.669 89.789 91.299 91.989 90.094 88.871 89.356 89.609 90.159 89.576 89.526 89.574 89.641 89.706 89.699 90.749 90.199 90.276 92.626 96.976 96.759 96.524 97.129 92.269 90.874 90.459 90.596 90.654 91.269 88.541 94.341 89.509 86.111 86.179 87.599 86.304 86.579 87.284 87.556 90.444 93.879 94.666 95.029 92.006 89.579 88.469 88.496 88.671 91.061 89.849 93.704 94.944 95.304 96.209 91.816 90.211 90.154 90.169 90.296 92.086 92.459 90.964 90.079 90.106 90.066 90.174 90.239 90.304 90.406 90.531 90.679 90.879 90.909 90.989 91.066 91.159 91.229 91.299 91.391 91.538 91.638 91.753 91.853 92.066 93.011 92.823 92.898 94.583 92.963 92.958 94.348 92.958 93.173 93.463 93.311 92.861 92.926 92.983 93.201 93.458 93.603 93.741 94.196 93.776 93.803 93.791 93.653 93.608 93.563 93.556 93.523 93.491 93.448 93.411 93.368 93.331 93.321 93.338 93.331 93.318 93.316 93.338 93.361 93.383 93.378 93.366 93.353 93.353 93.328 93.303 93.256 93.198 93.151 93.093 93.048 93.021 92.971 92.938 92.918 92.913 92.911 92.883 92.876 93.613 99.208 102.203 103.168 101.596 94.421 91.631 91.493 91.511 91.861 91.371 91.501 91.798 92.178 91.196 91.143 97.066 98.296 98.196 97.456 96.743 92.081 92.548 94.063 92.431 91.106 90.798 90.621 90.533 89.843 89.636 89.936 96.476 90.466 87.163 87.011 87.723 85.821 85.298 84.911 84.793 84.521 82.586 81.861 81.218 80.516 79.796 78.998 78.121 77.108 76.188 75.381 74.663 74.036 73.416 72.733 72.093 71.521 71.033 70.806 70.448 69.786 69.016 68.761 68.821 68.546 67.641 66.318 65.098 64.238 63.386 62.733 62.051 61.903 61.633 61.086 60.388 59.821 59.228 58.551 57.876 57.283 56.883 56.521 56.408 56.178 55.921 57.096 55.318 54.736 54.653 54.676 54.581 54.926 55.068 55.203 55.308 55.511 55.568 55.733 55.971 56.168 56.383 56.508 56.483 56.458 56.341 56.143 56.193 56.231 56.161 56.076 56.131 56.268 56.268 56.386 57.058 59.001 58.816 59.433 59.563 59.798 60.093 60.311 60.496 60.626 60.771 60.928 61.076 61.261
76.761 77.666 78.329 78.299 78.271 78.246 78.296 78.416 78.439 78.256 78.306 80.086 80.099 79.964 79.966 79.904 78.279 74.021 71.741 71.681 71.674 71.709 71.764 72.159 75.244 75.374 72.316 73.139 73.136 73.041 73.104 73.129 73.154 73.299 73.424 74.416 73.784 74.649 74.504 74.514 74.561 74.514 74.469 75.291 75.306 75.106 74.884 74.724 74.724 74.751 74.754 74.874 75.161 75.631 76.196 76.859 77.514 78.031 78.321 78.529 78.764 79.009 79.281 79.494 79.654 79.724 79.751 79.719 79.754 79.841 79.939 80.056 80.216 80.464 80.739 80.971 81.131 81.201 81.191 81.104 81.116 81.289 81.561 81.669 81.741 81.844 82.806 81.401 81.521 82.086 82.541 84.391 87.306 88.881 87.734 86.114 82.804 83.366 83.611 83.954 83.874 83.859 83.919 84.719 84.409 86.121 84.259 84.864 89.144 92.279 92.014 87.754 85.094 85.206 84.869 84.831 84.954 85.011 85.251 85.254 85.861 86.756 88.476 92.326 93.189 92.774 90.514 85.889 87.424 87.824 88.714 88.774 88.774 89.486 89.841 90.211 90.579 89.481 90.329 89.989 90.556 88.704 88.866 88.784 88.649 88.821 88.621 88.564 90.751 91.599 94.139 94.269 91.609 88.179 88.324 88.879 89.109 89.436 89.361 89.464 89.504 89.474 89.699 89.909 90.099 92.101 95.019 96.146 96.711 96.504 91.036 93.431 90.556 90.599 90.744 89.896 88.606 93.009 87.464 85.954 86.009 86.029 86.126 86.336 87.089 87.649 88.111 88.096 88.086 88.704 88.499 89.211 88.451 88.466 88.886 91.036 89.334 94.161 94.566 98.924 99.929 94.984 90.401 91.139 90.076 90.106 90.139 90.181 90.221 91.649 89.969 89.906 90.029 90.089 90.226 90.414 90.564 90.656 90.934 91.256 90.946 91.046 91.154 91.251 91.321 91.393 91.476 91.568 91.631 91.711 91.803 92.203 92.586 94.488 93.308 92.968 92.933 92.853 92.746 93.243 93.243 92.833 92.621 92.696 92.833 93.526 94.161 94.083 93.668 93.661 93.683 93.666 93.726 93.646 93.606 93.593 93.568 93.553 93.543 93.536 93.513 93.478 93.458 93.431 93.418 93.406 93.388 93.383 93.371 93.356 93.346 93.313 93.281 93.258 93.221 93.221 93.211 93.186 93.181 93.156 93.136 93.106 93.088 93.078 93.061 93.046 93.023 92.998 92.978 93.586 100.111 103.141 102.783 101.398 96.038 91.663 91.618 91.478 91.416 91.403 91.333 91.291 91.403 91.381 91.276 91.228 91.213 97.883 97.146 95.261 91.643 91.071 91.028 91.993 91.333 90.816 90.696 90.631 90.528 90.203 89.771 89.368 97.433 88.566 87.386 87.188 86.958 86.356 85.671 85.778 85.476 85.936 84.926 82.311 81.681 80.958 80.371 79.643 78.798 77.788 76.866 76.053 75.311 74.611 73.956 73.271 72.663 72.101 71.713 71.728 71.578 70.911 69.781 69.043 68.836 68.656 67.521 66.356 66.911 64.673 63.833 63.211 62.363 62.053 62.001 61.513 60.846 60.243 59.698 59.021 58.296 57.698 57.216 56.811 56.506 56.368 56.093 55.801 55.471 55.196 54.763 54.633 54.561 54.643 54.858 55.166 55.103 55.228 55.281 55.328 55.663 55.891 56.166 56.376 56.401 56.381 56.396 56.233 56.116 56.178 56.193 56.136 56.051 56.123 56.251 56.241 56.368 57.041 58.083 58.851 59.301 59.383 59.678 59.843 60.071 60.296 60.551 60.871 60.813 61.018
