ncols 415
nrows 30
xllcorner    431036
yllcorner    437252
cellsize     2
NODATA_value -9999
104.254 105.239 103.072 102.719 102.447 102.219 101.956 101.944 101.527 101.449 101.354 101.477 101.462 102.254 102.524 99.271 99.267 98.854 98.019 97.469 97.127 97.029 96.652 96.254 95.607 94.689 93.782 92.849 91.969 91.224 90.507 89.877 89.379 93.216 94.051 92.176 89.219 88.616 87.524 86.379 85.981 86.069 85.256 84.896 84.464 84.201 83.841 83.499 83.231 82.979 82.761 82.459 82.199 81.986 81.826 81.714 81.674 81.591 81.511 81.414 81.359 81.591 81.409 81.274 80.439 79.724 78.801 79.666 82.264 79.734 80.341 81.324 81.489 81.469 81.406 81.204 81.204 81.276 81.301 81.221 81.341 81.451 86.786 81.416 81.386 80.949 81.189 81.131 81.144 81.236 81.369 81.519 81.704 81.811 82.106 82.229 82.519 82.604 82.804 82.974 83.226 83.336 83.521 83.651 83.886 84.016 84.196 84.336 84.596 84.709 84.916 85.051 85.346 85.479 85.694 85.919 86.161 86.309 86.569 86.784 86.971 87.251 87.464 87.716 88.051 88.091 88.139 88.374 88.566 88.956 89.031 89.101 89.381 89.459 90.254 90.769 93.266 90.816 90.846 90.879 91.396 91.094 91.109 91.391 92.564 91.649 91.616 91.821 92.114 92.529 92.351 92.324 92.666 92.581 92.664 92.966 92.939 93.739 93.231 93.359 93.499 93.571 95.906 93.844 94.136 94.459 94.576 94.469 94.584 94.964 94.974 98.379 102.979 103.811 94.661 94.159 96.016 100.609 95.461 96.051 108.201 105.696 107.786 103.121 98.706 99.031 99.526 100.084 100.644 101.211 101.746 102.144 102.719 104.604 111.279 114.004 108.771 106.909 106.784 107.224 107.964 108.959 109.614 111.414 110.081 110.179 110.269 110.324 110.391 110.461 110.519 117.566 119.401 119.816 118.909 116.086 113.331 114.899 115.059 115.476 116.049 116.661 116.889 117.639 117.666 117.776 117.886 118.171 118.319 124.651 125.004 124.846 124.646 118.534 118.251 118.286 118.319 118.346 118.234 118.239 118.244 118.246 118.411 119.226 118.424 118.484 118.466 118.471 118.474 118.726 118.679 118.874 118.536 118.509 118.464 118.476 120.251 119.214 119.661 118.506 120.436 121.166 120.896 120.829 118.739 118.679 118.754 118.821 118.829 118.824 118.781 118.921 118.994 119.191 119.241 119.209 119.299 119.256 119.296 119.299 119.306 119.301 119.346 119.393 119.471 119.543 119.583 119.621 119.658 119.683 119.733 119.776 119.811 119.831 119.801 119.816 119.936 119.993 120.058 120.108 120.146 120.118 120.201 121.683 121.718 121.663 121.646 121.616 122.846 128.008 128.124 128.113 127.541 121.418 121.511 121.351 121.273 121.873 120.856 125.036 127.371 127.333 127.306 127.251 127.223 121.821 121.591 122.221 123.548 123.548 123.293 121.693 121.671 121.666 121.674 121.709 121.649 123.471 124.624 128.279 130.421 130.479 129.849 128.691 121.954 121.186 122.379 121.141 121.256 121.264 121.236 121.299 121.924 121.656 122.231 122.204 123.449 125.349 122.839 121.271 121.789 122.536 121.634 121.619 121.611 121.539 121.521 121.521 123.539 126.846 123.329 123.449 124.049 124.621 123.474 121.366 121.371 121.524 121.486 121.666 123.336 122.799 120.899 122.599 122.981 121.78 -9999 -9999 -9999 -9999 -9999 -9999 -9999 -9999 -9999 -9999 -9999 -9999 -9999 -9999 -9999 -9999 -9999 -9999 -9999 -9999 -9999 -9999 -9999 -9999 -9999 -9999 -9999 -9999 -9999
107.877 110.587 105.189 102.869 102.619 102.357 102.362 102.494 101.809 101.634 101.599 101.629 101.584 101.909 101.754 99.762 99.674 99.539 99.024 98.632 98.184 97.747 97.394 96.951 96.184 95.297 94.414 93.409 92.441 91.712 90.997 90.282 89.704 89.136 91.851 90.759 88.164 90.001 88.656 86.614 86.291 86.104 85.481 85.106 84.711 84.401 84.106 83.764 83.444 83.151 82.904 82.631 82.336 82.164 81.949 81.736 81.626 81.544 81.476 81.389 81.321 81.291 81.656 81.166 81.346 80.564 79.649 84.074 79.391 80.169 79.724 80.694 81.461 81.511 81.439 81.351 81.156 81.191 81.269 81.249 81.169 81.341 83.844 81.364 81.379 81.251 80.789 81.264 80.989 81.146 81.254 81.349 81.499 81.689 81.816 82.159 82.231 82.449 82.569 82.846 83.026 83.201 83.344 83.509 83.659 83.869 84.004 84.209 84.344 84.544 84.689 84.966 85.096 85.369 85.471 85.776 85.961 86.181 86.326 87.849 88.319 87.149 87.354 87.556 87.716 87.679 88.039 88.184 88.431 88.821 88.801 88.904 88.891 89.051 90.776 95.469 92.056 91.409 90.834 90.754 91.656 90.789 90.809 90.929 91.111 91.236 91.371 91.366 91.756 91.954 91.869 92.106 92.299 92.154 92.386 92.509 93.526 93.031 92.916 93.081 93.199 93.329 93.681 93.584 93.776 94.134 94.189 94.149 94.334 94.706 97.331 101.426 105.961 97.801 93.984 99.591 98.336 103.571 95.446 96.296 104.224 106.411 108.044 100.604 98.734 99.236 99.779 100.284 100.824 101.361 101.894 103.301 102.764 109.489 108.181 108.371 107.834 105.844 106.891 107.701 108.204 109.779 110.256 111.476 110.119 110.186 110.284 110.324 110.386 110.461 110.509 117.801 119.334 119.909 118.984 116.291 113.044 114.411 114.879 115.196 115.491 116.539 116.784 116.924 117.591 117.724 117.844 117.974 118.011 118.924 119.566 118.269 118.321 118.206 118.219 118.201 118.239 118.299 118.414 119.249 118.256 118.241 118.254 118.364 118.421 118.756 118.604 118.564 118.634 118.629 118.486 118.439 118.376 118.389 118.386 118.394 118.466 118.514 118.456 118.449 120.326 118.519 118.516 118.564 118.561 118.661 118.731 118.791 118.806 118.821 118.836 118.859 118.869 118.899 118.941 118.969 119.009 119.026 119.069 119.094 119.139 119.184 119.216 119.263 119.316 119.361 119.421 119.466 119.498 119.561 119.601 119.648 119.693 119.748 119.791 119.856 119.911 119.933 119.998 120.051 120.091 120.061 120.138 120.233 121.986 122.546 121.793 121.688 121.426 121.981 122.178 122.396 122.201 121.403 121.778 121.393 121.231 120.808 120.726 120.861 121.378 121.423 121.056 121.836 121.088 120.926 121.008 123.776 124.978 125.048 125.121 121.711 121.699 121.709 121.669 121.861 121.554 122.149 121.299 127.391 128.564 128.269 129.879 128.711 121.724 121.169 121.551 121.091 121.221 121.236 121.191 121.256 122.211 122.174 121.781 122.129 122.211 121.671 123.341 121.299 121.134 122.364 123.684 123.299 123.231 122.804 122.019 122.614 121.014 121.086 120.961 121.071 120.946 120.914 120.884 122.229 121.921 122.661 122.939 122.916 122.624 122.254 120.709 120.701 120.684 120.674 120.664 -9999 -9999 -9999 -9999 -9999 -9999 -9999 -9999 -9999 -9999 -9999 -9999 -9999 -9999 -9999 -9999 -9999 -9999 -9999 -9999 -9999 -9999 -9999 -9999 -9999 -9999 -9999 -9999
107.057 110.769 103.542 103.024 102.754 102.734 102.917 103.209 102.642 101.949 101.849 101.801 101.714 101.742 100.187 100.087 99.884 99.826 99.672 99.269 98.864 98.424 98.021 97.519 96.799 95.879 94.934 93.972 92.981 92.079 91.442 90.716 90.036 89.464 90.436 92.936 91.879 87.699 88.796 86.934 87.044 87.259 85.841 85.361 84.969 84.636 84.291 83.966 83.714 83.379 83.044 82.774 82.484 82.291 82.076 81.786 81.604 81.509 81.464 81.381 81.311 81.266 81.279 81.239 83.246 81.394 79.939 79.239 81.394 80.596 79.554 80.009 80.939 85.556 82.391 81.414 81.311 81.104 81.171 81.249 81.191 82.911 81.344 81.374 81.319 81.384 81.121 80.696 80.896 80.959 81.116 81.261 81.324 81.489 81.656 81.854 82.906 82.301 82.436 82.669 82.826 83.024 83.124 83.364 83.479 83.666 83.814 83.984 85.196 84.324 84.519 84.734 84.974 85.114 85.356 85.594 85.801 85.949 86.231 86.426 86.654 87.734 89.654 87.391 87.494 87.589 87.989 88.136 88.564 88.956 88.721 88.696 88.706 88.866 90.466 95.119 92.989 92.111 92.781 90.561 90.596 91.646 92.196 90.731 90.806 91.106 90.971 91.184 91.324 91.561 91.924 92.034 91.749 92.089 92.024 92.559 93.289 93.111 92.656 92.796 92.824 93.244 93.274 93.411 93.536 93.621 93.649 93.851 93.991 97.989 94.789 100.361 101.799 94.619 94.144 95.304 95.849 96.491 95.324 96.749 107.469 104.594 108.809 99.359 100.034 99.504 100.061 100.561 101.056 101.581 102.111 102.484 102.731 103.144 103.709 104.554 105.919 105.901 107.001 107.851 108.624 109.399 111.636 111.759 110.124 110.194 110.274 111.621 110.374 110.429 111.606 117.589 119.259 119.896 119.044 118.019 112.774 114.366 114.881 115.039 115.424 116.456 116.701 116.706 117.451 117.674 117.786 117.904 118.096 118.661 119.541 118.159 118.149 118.081 118.161 118.194 118.291 118.179 118.684 118.421 118.944 118.286 118.274 118.256 118.246 118.226 118.231 118.241 118.244 118.259 118.284 118.304 118.311 118.344 118.371 118.391 118.414 118.439 119.391 120.439 119.706 118.481 118.511 118.551 118.594 118.641 118.684 118.736 118.754 118.769 118.809 118.834 118.859 118.906 118.946 118.981 118.991 119.039 119.079 119.119 119.166 119.204 119.236 119.278 119.323 119.366 119.423 119.453 119.503 119.546 119.586 119.623 119.646 119.681 119.738 119.786 119.846 119.876 119.931 119.988 120.023 120.008 120.086 120.163 120.198 121.746 121.668 122.521 120.786 121.583 121.748 121.381 121.458 121.371 121.661 121.563 121.196 120.543 120.536 120.658 120.923 121.016 121.121 120.856 121.151 120.696 121.036 122.386 121.018 122.456 121.411 122.651 123.396 122.819 122.856 121.294 121.246 120.869 120.859 120.964 120.956 120.961 121.001 121.021 121.036 121.041 121.046 121.116 121.189 121.204 121.166 121.109 121.104 121.086 121.071 121.061 121.034 121.021 121.001 120.961 120.956 120.956 120.946 120.949 120.939 120.926 120.909 120.884 120.884 120.864 120.871 120.871 120.866 120.861 120.829 120.799 120.804 120.796 120.771 120.761 120.761 120.734 120.731 120.716 120.701 120.684 120.676 -9999 -9999 -9999 -9999 -9999 -9999 -9999 -9999 -9999 -9999 -9999 -9999 -9999 -9999 -9999 -9999 -9999 -9999 -9999 -9999 -9999 -9999 -9999 -9999 -9999 -9999 -9999 -9999
104.104 103.846 103.524 103.244 103.619 103.102 103.459 102.487 102.364 102.202 102.049 101.896 101.771 102.664 105.192 100.407 100.094 99.979 99.896 99.727 99.432 99.154 98.672 97.956 97.209 96.301 95.372 94.536 93.494 92.627 91.736 91.017 90.409 91.461 89.394 92.364 88.336 87.911 87.524 87.304 89.011 89.151 86.071 85.559 85.221 84.874 84.531 84.179 83.874 83.574 83.234 82.996 82.774 82.466 82.186 81.931 81.604 81.454 81.394 81.326 81.296 81.229 81.269 81.531 86.089 85.166 80.296 79.631 78.569 79.759 79.609 79.549 80.099 81.171 81.621 81.439 81.346 81.229 81.096 81.166 81.209 81.144 81.146 81.314 81.314 81.301 81.284 80.874 80.711 80.809 80.964 81.081 81.306 81.271 81.509 81.644 81.821 82.001 82.281 82.379 82.629 82.686 83.066 83.116 83.374 83.454 83.694 83.766 85.326 84.279 84.366 84.569 84.751 84.961 85.214 85.391 85.649 85.821 85.989 86.374 86.581 86.724 88.111 87.106 87.251 87.394 87.889 87.816 88.261 88.406 88.661 88.459 88.579 88.684 88.816 89.211 89.664 92.739 93.509 90.429 90.431 90.439 90.441 91.044 92.149 90.554 91.346 90.844 91.086 91.664 91.719 93.441 91.451 91.734 91.726 92.581 92.719 92.534 93.026 92.696 92.629 93.084 92.871 92.929 93.131 93.319 93.386 93.576 95.364 99.916 96.531 95.319 96.471 93.549 94.286 94.691 95.351 95.094 95.626 96.486 100.594 105.549 109.504 101.351 99.186 99.729 100.279 102.241 105.584 101.944 102.184 102.434 102.871 103.271 103.894 104.821 105.286 106.624 107.299 109.706 111.276 109.559 110.639 110.594 110.154 110.211 110.279 111.329 110.366 110.431 111.524 118.061 118.536 117.456 115.914 114.229 112.786 114.401 114.876 114.951 115.674 118.339 116.704 116.679 117.296 117.536 117.699 118.196 120.446 120.241 119.039 118.841 118.044 118.496 118.094 118.121 118.139 118.689 119.726 120.219 118.286 118.236 118.291 118.316 118.289 118.284 118.276 118.281 118.286 118.306 118.321 118.344 118.359 118.379 118.399 118.409 118.431 118.446 118.461 118.464 118.594 118.639 118.499 118.514 118.534 118.564 118.596 118.641 118.796 119.816 119.931 118.791 118.819 118.859 118.909 120.241 119.989 119.041 119.099 119.116 119.136 119.176 119.216 119.296 119.381 119.443 119.493 119.541 119.588 119.641 119.676 119.741 119.788 119.828 119.851 119.811 119.748 119.791 119.851 119.911 119.961 119.953 119.986 120.058 120.068 120.221 120.118 120.453 120.176 120.198 120.218 120.238 120.253 120.273 120.303 120.311 120.331 120.346 120.358 120.371 120.393 120.403 120.448 120.476 120.493 120.508 120.523 120.543 120.566 120.606 120.636 120.651 120.679 120.726 120.734 120.774 120.796 120.816 120.854 120.886 120.921 120.944 120.969 122.269 122.469 121.026 121.071 121.129 121.176 121.174 121.159 121.134 121.156 121.134 121.109 121.116 121.099 121.099 121.089 121.069 121.054 121.049 121.051 121.024 121.011 120.996 120.989 120.976 120.979 120.954 120.941 120.919 120.901 120.896 120.896 120.891 120.886 120.859 120.841 120.811 120.789 120.779 120.759 120.756 120.744 120.726 120.721 120.709 -9999 -9999 -9999 -9999 -9999 -9999 -9999 -9999 -9999 -9999 -9999 -9999 -9999 -9999 -9999 -9999 -9999 -9999 -9999 -9999 -9999 -9999 -9999 -9999 -9999 -9999 -9999
104.282 103.971 103.822 103.424 103.457 103.404 102.792 102.797 102.627 102.419 102.179 101.661 107.469 112.066 110.979 108.094 100.411 100.137 100.049 99.934 99.717 99.457 99.209 98.451 97.536 96.727 95.749 94.742 93.969 92.824 92.052 91.392 98.201 92.381 90.681 89.194 88.931 88.294 87.851 87.434 87.274 86.764 86.284 85.801 85.429 85.089 84.739 84.389 84.041 83.776 83.454 83.204 82.989 82.734 82.351 82.084 81.769 81.459 81.334 81.284 81.249 81.236 81.259 81.766 87.719 89.051 80.524 79.901 79.499 79.564 79.736 79.379 79.574 80.449 81.476 81.491 81.369 81.336 81.151 81.066 81.139 81.159 81.099 81.186 81.264 81.286 81.261 81.206 80.656 80.684 80.711 80.949 81.049 81.306 81.281 81.461 81.606 81.874 81.969 82.229 82.389 82.499 82.781 83.139 83.151 83.484 83.396 83.604 87.701 84.676 84.116 84.399 84.504 84.831 84.996 85.251 85.429 85.641 85.831 86.046 86.291 86.584 86.749 86.814 87.014 87.229 87.414 87.714 87.999 88.114 88.299 88.164 88.319 88.474 88.561 88.729 88.791 88.864 89.416 90.094 91.434 90.289 90.291 90.466 90.726 90.359 91.689 91.596 90.641 91.024 91.469 91.726 91.134 91.711 91.474 91.749 92.231 91.951 92.394 92.671 92.376 92.674 92.629 92.714 92.819 93.131 93.226 93.524 93.086 93.314 97.349 98.424 97.396 93.774 94.004 99.461 95.214 99.656 97.204 102.521 99.271 101.134 100.471 99.494 99.431 99.954 100.416 101.834 102.116 101.979 102.114 102.501 103.246 103.409 103.989 104.744 105.666 105.959 107.504 109.944 111.284 110.269 110.526 110.906 110.119 110.179 110.306 110.304 110.376 110.451 110.561 110.716 110.821 111.604 112.101 112.426 113.469 115.084 115.089 115.231 116.156 117.311 116.851 116.574 116.934 116.984 117.149 118.091 119.764 119.121 119.844 120.746 121.904 124.414 119.879 118.074 118.651 119.396 118.219 118.266 118.296 118.294 118.291 118.296 118.246 118.214 118.209 118.209 118.236 118.294 118.314 118.319 118.354 118.339 118.314 118.331 118.364 118.409 118.496 118.526 118.631 118.679 118.544 118.569 118.596 118.634 118.731 118.774 118.821 118.951 118.974 118.884 118.924 118.941 119.129 119.341 119.429 119.636 119.786 119.881 119.434 119.406 119.378 121.828 122.548 120.413 122.341 122.351 120.461 121.416 120.351 120.363 120.391 123.813 120.891 119.906 119.816 119.711 119.771 119.851 119.906 119.913 119.903 119.936 119.961 120.016 120.046 120.086 120.103 120.131 120.153 121.081 120.618 120.233 120.273 120.283 120.318 120.333 120.356 120.403 120.441 120.468 120.506 120.533 120.543 120.576 120.598 120.628 120.663 120.691 120.718 120.743 120.771 120.804 120.829 120.844 120.881 120.901 120.919 120.954 120.969 120.984 121.011 121.034 121.056 121.074 121.084 121.116 121.149 121.141 121.151 121.154 121.164 121.144 121.141 121.124 121.114 121.104 121.086 121.074 121.061 121.049 121.046 121.021 121.014 121.014 120.989 120.979 120.976 120.969 120.956 120.939 120.929 120.909 120.929 120.874 120.869 120.861 120.836 120.801 120.846 120.791 120.744 120.724 120.724 120.711 120.704 120.686 120.689 -9999 -9999 -9999 -9999 -9999 -9999 -9999 -9999 -9999 -9999 -9999 -9999 -9999 -9999 -9999 -9999 -9999 -9999 -9999 -9999 -9999 -9999 -9999 -9999 -9999 -9999
105.426 105.307 104.234 103.632 103.646 103.239 103.124 103.012 102.834 102.589 102.007 106.667 112.402 111.971 112.199 108.699 100.411 100.394 100.122 100.044 99.877 99.634 99.419 98.849 97.834 96.972 96.424 95.214 94.316 92.854 92.124 93.042 100.311 90.731 94.424 90.596 88.959 88.401 87.929 87.591 87.279 86.924 86.516 86.089 85.686 85.326 84.959 84.586 84.224 83.939 83.686 83.366 83.121 82.896 82.584 82.251 81.886 81.519 81.326 81.254 81.259 81.246 81.376 81.261 84.064 83.519 80.696 80.201 79.124 78.796 79.479 79.379 79.351 80.741 82.644 81.371 81.441 81.341 81.296 81.054 81.046 81.111 81.106 81.044 81.206 81.241 81.236 81.216 80.979 80.491 80.591 80.669 80.841 81.049 81.154 81.234 81.444 81.614 81.794 82.006 82.219 82.369 82.626 83.146 83.004 83.149 83.261 83.394 83.656 83.774 84.024 84.169 84.384 84.574 84.806 84.986 85.264 85.426 85.639 85.831 86.066 86.314 86.459 86.641 86.799 86.999 87.206 87.371 87.749 87.764 87.959 88.014 88.091 88.246 88.336 88.456 88.596 88.731 88.976 94.179 92.536 89.989 90.156 90.139 90.294 91.016 95.701 91.599 91.996 90.564 90.986 91.149 90.934 91.079 91.606 92.034 91.659 91.539 91.721 92.089 92.271 93.164 92.321 94.326 92.579 92.846 92.869 92.636 92.509 92.281 96.686 99.484 94.561 93.919 97.496 102.424 97.669 98.991 96.671 97.311 103.294 98.384 98.841 100.159 107.926 100.081 100.539 101.059 101.564 101.856 102.169 102.659 102.921 103.484 104.221 105.004 105.369 105.986 106.794 107.906 109.341 109.524 109.814 110.034 110.134 110.246 110.326 110.309 110.366 110.429 110.526 115.651 119.141 120.061 119.299 118.371 112.576 114.276 114.874 114.976 115.464 118.901 117.479 116.391 116.836 116.814 118.724 117.486 119.886 118.864 120.609 123.431 124.979 125.421 124.199 119.199 118.579 118.109 118.174 118.211 118.246 118.274 118.734 118.514 118.506 118.309 118.309 118.321 118.569 118.494 118.606 118.506 118.564 119.039 118.439 118.434 118.451 119.399 119.356 119.419 119.106 118.696 118.781 118.569 118.631 118.726 119.259 119.236 119.124 118.766 118.771 118.934 118.859 118.994 119.209 119.481 119.524 119.519 119.481 119.459 119.574 119.749 120.356 119.743 120.006 120.103 120.151 120.186 120.261 120.296 120.311 120.323 121.133 123.916 120.443 122.136 119.911 119.843 119.691 119.773 119.846 119.871 119.871 119.936 120.011 120.053 120.078 120.108 120.116 120.151 120.163 120.188 120.221 120.238 120.281 120.293 120.318 120.328 120.358 120.391 120.408 120.453 120.471 120.506 120.536 120.563 120.583 120.596 120.636 120.661 120.693 120.716 120.744 120.779 120.796 120.819 120.856 120.871 120.904 120.919 120.946 120.971 121.004 121.021 121.029 121.044 121.056 121.096 121.126 121.161 121.131 121.149 121.141 121.126 121.104 121.091 121.181 122.434 121.886 121.056 121.039 121.021 121.021 120.999 120.969 120.951 120.946 120.931 120.929 120.916 120.901 120.864 120.844 120.844 121.704 121.311 120.759 120.766 120.754 120.731 121.084 120.686 120.711 120.771 120.964 121.309 121.301 120.721 120.666 120.647 -9999 -9999 -9999 -9999 -9999 -9999 -9999 -9999 -9999 -9999 -9999 -9999 -9999 -9999 -9999 -9999 -9999 -9999 -9999 -9999 -9999 -9999 -9999 -9999 -9999
108.239 104.501 104.319 104.139 103.656 103.254 103.216 103.151 102.976 107.451 112.074 114.114 114.846 111.986 112.079 111.976 107.809 100.589 100.401 100.049 99.936 99.816 99.599 98.929 97.934 97.019 96.666 95.086 93.711 93.704 93.051 92.644 95.246 95.759 94.189 91.096 90.141 88.801 88.221 87.839 87.479 87.221 86.934 86.401 85.926 85.541 85.186 84.829 84.481 84.156 83.861 83.604 83.321 83.031 82.866 82.446 82.134 81.729 81.379 81.256 81.231 81.234 81.231 81.284 81.216 81.161 80.894 80.246 80.006 79.019 78.621 79.299 79.494 79.571 80.499 80.944 81.406 81.319 81.306 81.224 80.959 81.034 81.096 81.061 81.001 81.204 81.219 81.174 81.181 80.894 80.456 80.584 80.706 80.776 80.984 81.079 81.239 81.309 81.599 81.766 82.021 82.186 82.379 82.586 82.761 82.891 83.066 83.246 83.456 83.654 83.816 83.964 84.206 84.401 84.609 84.859 85.001 85.279 85.466 85.621 85.899 86.119 86.246 86.404 86.616 86.764 87.014 87.174 87.434 87.746 87.574 87.636 87.814 88.029 88.131 88.264 88.481 88.736 89.034 90.396 89.246 89.496 89.871 90.021 89.959 90.091 90.656 90.651 91.129 90.264 90.399 90.404 91.121 91.306 90.934 91.026 91.146 91.246 91.566 91.756 91.774 91.839 92.316 93.899 92.889 92.566 92.431 92.534 93.101 92.279 93.541 96.686 93.236 93.786 94.684 100.976 96.814 96.596 97.066 97.599 98.056 98.814 99.189 100.636 108.239 100.841 100.619 101.141 101.539 101.834 102.384 102.709 103.059 104.834 104.271 104.881 107.256 109.541 106.921 108.456 109.051 109.399 109.721 110.009 110.101 110.226 110.326 110.311 110.376 110.421 111.909 116.854 119.074 120.019 119.384 118.444 112.684 114.124 114.864 115.234 116.596 124.944 123.954 116.394 116.649 118.314 119.344 120.139 119.969 118.041 122.326 124.779 125.964 126.421 125.556 124.006 118.454 118.149 118.091 118.164 118.186 118.206 118.214 118.191 118.199 118.669 118.354 118.274 118.416 118.299 118.436 118.341 118.349 118.304 118.346 118.376 118.404 118.391 118.404 118.951 118.784 118.331 118.309 119.674 118.564 118.646 118.676 118.669 118.739 118.711 118.801 118.774 118.784 119.056 119.151 119.369 119.521 119.746 119.436 119.369 119.551 119.516 120.711 119.766 119.751 119.858 119.941 120.128 120.221 120.223 120.258 120.968 120.553 120.326 120.366 120.626 120.053 119.806 119.741 119.708 119.771 119.811 119.821 119.866 119.938 119.988 120.026 120.048 120.071 120.096 120.108 120.141 120.168 120.191 120.223 120.226 120.248 120.263 120.291 120.316 120.348 120.378 120.411 120.436 120.461 120.496 120.516 120.541 120.571 120.596 120.626 120.653 120.666 120.686 120.706 120.733 120.751 120.788 120.808 120.848 120.858 120.881 120.908 120.943 120.963 120.968 120.981 121.066 121.106 121.128 121.073 121.113 121.086 121.078 121.058 121.051 121.061 121.061 121.063 121.161 121.048 121.091 121.036 121.048 121.158 121.153 121.143 120.991 120.973 120.953 120.978 121.076 121.003 121.051 120.993 121.373 121.306 121.141 121.198 121.848 121.298 120.753 124.536 128.276 129.093 128.626 127.388 123.426 122.676 122.171 -9999 -9999 -9999 -9999 -9999 -9999 -9999 -9999 -9999 -9999 -9999 -9999 -9999 -9999 -9999 -9999 -9999 -9999 -9999 -9999 -9999 -9999 -9999 -9999 -9999
107.811 108.214 106.191 106.274 103.486 103.336 103.284 103.221 111.101 112.821 114.724 114.976 115.091 114.831 111.994 112.029 112.059 107.446 103.356 100.399 99.974 99.876 99.729 98.956 97.881 96.816 95.606 94.611 94.606 94.259 93.086 93.626 93.766 94.239 92.769 91.671 90.501 89.301 90.209 88.119 87.809 87.446 87.156 86.679 86.181 85.781 85.416 85.059 84.736 84.364 84.074 83.794 83.561 83.236 82.979 82.759 82.324 81.931 81.486 81.264 81.209 81.166 81.194 81.164 81.261 81.214 80.959 80.379 79.804 79.129 78.379 79.304 79.516 79.319 79.829 81.361 81.031 81.381 81.249 81.256 81.124 82.349 84.434 81.056 81.006 80.984 81.169 81.174 81.139 81.141 80.644 80.731 80.459 80.644 80.711 80.964 81.021 81.181 81.346 81.656 81.801 82.024 82.304 82.471 82.486 82.711 82.861 83.154 83.281 83.501 83.639 83.839 84.014 84.241 84.351 84.594 84.819 85.021 85.231 85.461 85.689 85.849 85.999 86.174 86.344 86.511 86.779 86.824 86.954 87.081 87.234 87.446 87.559 87.794 87.884 88.136 88.466 88.886 88.904 88.979 88.871 88.999 89.646 89.651 91.921 90.439 89.909 89.856 89.906 90.066 89.976 90.369 90.706 90.571 91.454 90.731 91.044 91.119 91.306 91.366 91.441 91.634 92.684 93.339 92.209 91.709 91.734 91.541 92.276 92.371 93.011 92.836 93.319 94.486 95.059 100.961 96.711 96.961 97.344 97.814 98.276 98.621 100.349 101.124 100.304 100.234 100.711 101.159 101.481 102.051 102.479 102.889 103.201 103.626 104.244 104.854 105.451 106.039 106.979 111.511 114.209 109.286 110.389 112.024 110.336 110.924 110.419 110.321 110.371 110.426 110.984 116.106 119.016 119.974 119.464 118.499 112.834 113.899 115.346 115.104 118.041 123.839 124.694 116.691 117.021 116.831 116.864 118.304 118.034 120.174 121.194 123.499 125.019 126.259 126.286 124.981 123.861 118.056 118.094 118.116 118.111 118.119 118.606 118.081 118.084 118.506 118.529 118.181 118.204 118.259 118.254 118.246 118.279 118.246 118.261 118.319 118.361 118.371 118.699 118.551 118.754 118.251 118.524 119.329 118.509 118.534 118.574 118.539 119.066 118.911 119.766 119.861 118.694 119.124 120.924 121.011 121.904 123.049 123.011 121.959 122.076 121.666 120.398 119.593 119.863 119.908 119.971 121.078 120.081 120.193 120.513 120.493 120.231 120.223 120.308 120.336 121.158 119.801 119.806 119.623 119.683 119.726 119.733 119.773 119.836 119.901 119.933 120.841 122.398 119.998 120.028 120.063 120.091 120.113 120.141 120.163 120.198 120.236 120.256 120.278 120.321 120.358 120.378 120.396 120.458 120.476 120.526 120.578 120.611 120.633 121.041 120.903 121.373 121.588 121.563 121.916 122.218 121.426 121.991 122.026 122.288 122.631 122.358 122.813 122.661 122.398 121.018 121.046 121.103 121.123 121.081 121.486 121.493 121.651 126.361 125.891 126.071 124.536 123.643 122.008 122.246 122.331 122.303 121.446 121.398 121.341 121.368 121.038 121.046 121.046 121.381 123.143 122.471 120.903 120.876 120.923 120.761 120.686 120.686 120.711 120.756 120.966 125.118 127.918 129.156 128.508 127.271 123.461 121.038 121.683 120.481 -9999 -9999 -9999 -9999 -9999 -9999 -9999 -9999 -9999 -9999 -9999 -9999 -9999 -9999 -9999 -9999 -9999 -9999 -9999 -9999 -9999 -9999 -9999 -9999
112.309 114.664 115.226 106.474 103.584 103.434 103.289 110.231 111.921 114.744 115.004 115.241 115.339 115.074 114.819 112.209 111.974 111.994 109.859 104.364 100.394 99.909 99.716 98.804 97.654 96.596 95.489 96.136 95.489 93.756 93.961 94.174 94.174 92.991 93.651 93.159 91.014 89.961 90.779 88.459 88.051 87.644 87.274 86.886 86.486 86.109 85.671 85.279 84.934 84.594 84.251 84.016 83.724 83.404 83.159 82.929 82.494 82.049 81.706 81.349 81.214 81.141 81.139 81.159 81.171 81.109 80.811 80.424 79.824 79.216 78.304 77.916 78.091 79.261 79.476 81.604 80.391 81.209 81.324 81.809 81.206 81.034 85.729 80.996 81.006 80.954 81.029 81.131 81.126 81.076 80.944 80.354 80.311 80.406 80.599 80.669 80.981 80.966 81.231 81.404 81.619 81.791 82.049 82.329 82.376 82.439 82.726 82.896 83.146 83.241 83.446 83.659 83.904 84.014 84.179 84.349 84.604 84.846 85.551 85.281 85.411 85.599 85.746 85.939 86.066 86.221 86.506 86.576 86.636 86.776 86.994 87.329 87.419 87.476 87.611 87.724 88.124 88.546 88.764 88.644 88.701 88.779 88.586 89.249 89.506 90.201 89.939 90.046 89.889 89.859 89.844 90.624 90.161 90.286 90.379 90.474 90.946 90.954 91.074 91.061 92.849 95.484 91.536 91.744 91.179 91.081 92.056 91.929 92.026 92.209 93.016 93.474 93.651 95.016 98.116 100.799 97.366 97.161 97.544 97.844 98.164 98.551 98.871 99.279 99.766 100.316 100.769 101.066 103.809 102.161 102.484 102.769 103.296 103.694 104.256 104.856 105.439 105.951 106.601 113.261 113.226 111.819 111.276 110.989 110.059 110.194 110.279 110.314 110.369 110.424 111.636 114.829 118.929 119.889 119.511 118.569 112.674 114.386 114.941 114.936 116.141 117.644 118.349 116.511 116.604 116.729 116.854 116.991 117.954 118.286 120.366 121.229 123.579 125.209 126.421 125.764 124.684 118.706 118.029 118.954 118.219 118.016 118.194 117.919 117.934 118.324 118.526 118.106 118.096 118.134 118.246 118.136 118.146 118.131 118.164 118.271 118.749 122.031 123.816 123.841 123.871 123.901 123.664 118.321 118.491 121.946 124.291 124.466 124.521 124.569 124.656 124.529 118.649 119.156 125.181 125.581 125.649 125.751 125.751 125.814 124.479 121.841 120.951 119.576 119.873 119.918 125.858 126.008 124.773 120.063 121.633 120.176 120.181 120.163 120.241 120.273 121.616 119.726 119.736 119.546 119.608 119.663 119.668 119.686 119.798 123.546 121.328 121.038 121.108 121.426 121.266 121.353 121.373 121.176 121.326 121.946 121.856 121.706 122.066 121.866 120.791 120.858 121.191 120.541 120.561 120.721 121.588 122.911 122.846 120.681 120.751 121.028 121.023 121.138 121.198 121.523 121.871 121.311 121.221 121.238 121.308 121.586 121.371 121.416 121.273 122.581 121.008 121.036 121.083 121.081 121.071 121.556 121.411 124.853 129.336 131.023 131.311 129.643 127.968 121.431 121.411 121.303 121.296 121.233 121.203 121.176 121.283 121.063 121.056 121.053 121.176 123.056 122.588 120.856 120.841 120.811 120.661 120.656 120.713 120.993 121.918 121.581 126.638 128.036 129.198 128.408 127.193 121.481 120.813 121.113 120.431 120.491 -9999 -9999 -9999 -9999 -9999 -9999 -9999 -9999 -9999 -9999 -9999 -9999 -9999 -9999 -9999 -9999 -9999 -9999 -9999 -9999 -9999 -9999 -9999
111.109 114.021 109.049 103.956 103.751 103.529 110.106 111.906 114.794 115.026 115.266 115.509 115.574 115.319 115.054 114.791 111.976 112.126 111.951 100.421 100.414 100.281 99.711 98.579 97.201 96.539 95.811 95.019 93.636 93.176 93.479 95.164 95.421 92.921 92.934 93.664 91.904 90.424 89.459 88.824 88.264 87.869 87.449 87.111 86.776 86.401 85.889 85.474 85.156 84.824 84.499 84.164 83.859 83.596 83.339 83.051 82.646 82.201 81.794 81.419 81.211 81.141 81.224 81.231 81.089 81.014 80.631 80.269 79.841 79.371 79.019 78.091 78.051 79.139 79.426 79.299 79.701 80.571 81.634 81.254 81.204 81.146 80.909 80.896 80.971 80.961 80.911 81.064 81.111 81.074 81.021 80.809 80.216 80.236 80.359 80.484 80.664 80.816 81.061 81.241 81.449 81.601 81.779 82.004 82.264 82.331 82.486 82.704 82.889 83.041 83.271 83.496 83.609 83.799 83.951 84.191 84.449 84.604 84.841 84.996 85.194 85.379 85.661 85.734 85.824 85.971 86.186 86.341 86.364 86.599 86.801 87.046 87.214 87.231 87.356 87.516 87.729 88.146 88.351 88.464 88.484 88.376 88.306 88.456 90.084 93.799 91.096 89.729 92.714 89.821 89.809 89.756 89.886 90.011 90.119 90.321 90.731 90.714 90.744 90.851 91.064 91.786 91.116 90.829 90.816 91.361 92.256 91.739 91.809 92.654 94.806 95.096 94.649 94.956 97.549 96.481 96.939 97.261 97.654 97.871 98.209 98.536 98.934 99.389 99.984 100.404 100.681 101.216 101.694 102.274 102.761 102.726 103.124 103.781 104.261 104.846 105.451 105.924 106.729 110.506 113.846 113.309 112.051 110.354 110.094 110.206 110.271 110.309 110.364 110.394 111.616 114.219 118.861 119.826 119.589 118.636 113.509 113.549 114.551 115.634 116.391 121.626 123.041 116.484 116.556 116.689 116.849 116.984 117.379 117.991 118.054 118.964 118.061 124.211 125.371 124.579 119.946 117.954 117.986 118.944 117.959 119.019 118.126 118.231 118.509 118.126 118.554 118.014 118.054 118.029 118.026 118.086 118.361 118.056 118.046 118.196 118.924 124.924 125.204 125.284 125.236 125.301 125.414 118.244 118.426 121.656 125.629 126.014 126.231 126.156 126.096 124.649 118.644 119.171 125.131 126.699 127.251 127.319 127.336 127.421 126.159 121.886 120.176 119.711 119.903 125.521 126.891 127.183 126.203 125.348 121.081 120.081 120.128 120.118 120.168 120.193 121.943 119.703 119.586 119.466 119.518 119.573 119.581 119.576 119.718 120.268 120.696 123.096 123.621 120.676 121.321 121.273 120.701 121.761 121.211 121.561 121.713 122.068 122.218 121.611 120.746 121.046 120.676 121.078 120.856 120.633 121.453 122.938 122.496 120.703 120.758 121.096 121.141 121.041 121.048 121.288 121.488 121.246 121.248 121.283 121.281 121.321 121.278 121.306 121.278 123.183 120.943 121.021 121.058 121.036 121.046 121.638 121.401 127.768 128.933 131.116 131.218 129.536 127.891 121.548 121.368 121.298 121.243 121.198 121.156 121.131 121.398 122.183 122.056 121.423 121.148 122.703 122.343 120.868 122.361 120.648 120.638 120.598 120.606 120.703 120.741 120.936 126.888 128.148 129.311 128.283 127.088 120.916 120.548 121.083 120.371 120.408 -9999 -9999 -9999 -9999 -9999 -9999 -9999 -9999 -9999 -9999 -9999 -9999 -9999 -9999 -9999 -9999 -9999 -9999 -9999 -9999 -9999 -9999 -9999
107.179 104.806 104.376 104.166 104.301 103.766 111.984 114.806 115.044 115.284 115.526 115.766 115.824 115.569 115.286 115.024 114.201 112.026 101.766 100.421 100.269 99.921 99.561 98.621 98.194 96.654 97.666 95.869 93.341 93.179 93.074 95.711 94.731 95.004 92.669 92.836 95.446 91.361 90.104 89.064 88.871 88.064 87.731 87.381 86.981 86.591 86.121 85.721 85.376 85.051 84.676 84.371 84.041 83.761 83.481 83.159 82.774 82.326 81.889 81.536 81.221 81.126 81.354 81.086 80.981 80.836 80.714 81.516 79.811 79.624 79.221 78.629 78.046 78.531 79.271 79.121 79.214 80.121 80.799 81.326 81.156 81.164 81.054 80.824 80.869 80.941 80.916 80.859 81.059 81.141 81.009 80.966 80.541 80.319 80.179 80.329 80.431 80.676 80.771 81.049 81.179 81.419 81.499 81.751 81.869 82.129 82.286 82.446 82.621 82.886 83.064 83.301 83.369 83.631 83.806 84.014 84.234 84.439 84.584 84.771 84.936 85.149 85.431 85.509 85.606 85.759 86.056 85.951 86.201 86.504 86.539 86.709 86.844 86.981 87.069 87.274 87.516 87.779 88.096 88.299 88.161 88.101 88.239 88.301 89.441 92.186 91.009 89.631 90.799 91.919 89.981 89.846 89.821 89.859 89.934 90.114 90.339 90.446 94.071 93.404 90.794 90.811 90.734 90.776 91.216 92.611 91.431 91.554 91.861 92.294 93.436 94.846 94.644 96.436 96.594 96.464 97.871 97.311 97.556 97.986 98.224 98.666 100.741 99.536 100.009 100.301 104.191 101.404 101.739 102.259 102.556 102.766 105.034 103.809 104.264 104.829 105.436 105.946 106.821 111.879 115.416 113.469 112.416 110.756 110.154 110.684 110.269 110.321 110.364 110.399 110.444 113.091 118.756 119.724 119.634 118.696 114.016 112.871 115.026 115.011 115.836 119.119 118.964 118.531 116.531 116.704 116.856 116.989 117.059 117.869 117.401 117.461 117.651 118.759 124.286 121.391 117.879 117.901 117.949 121.371 122.679 123.459 123.551 123.571 122.934 120.471 117.964 117.966 123.421 123.909 123.969 124.001 124.044 124.111 118.714 118.139 118.721 124.909 126.446 126.736 126.711 126.711 126.709 118.229 118.381 120.591 125.596 126.826 126.809 126.731 126.249 124.716 118.631 119.186 125.079 126.631 126.999 127.144 127.681 126.814 126.016 121.939 121.723 120.378 122.701 126.568 127.683 128.361 127.486 126.393 125.521 121.053 119.971 120.043 120.103 120.153 121.306 119.666 119.518 119.748 119.456 119.501 119.508 119.478 119.606 121.043 121.091 120.248 120.196 120.623 121.223 120.343 120.403 120.543 120.733 125.173 125.651 125.746 125.768 125.176 122.748 120.968 120.726 120.786 120.973 120.631 121.073 122.943 122.573 120.746 120.733 121.121 121.011 121.066 121.056 121.103 121.218 121.176 121.223 121.273 121.283 121.311 121.278 121.278 121.243 123.273 120.878 120.978 121.008 120.978 120.941 121.648 121.391 126.766 128.958 130.351 131.133 129.476 127.713 121.466 121.338 121.281 121.221 121.151 121.081 121.066 121.216 124.388 125.178 123.851 120.981 120.863 120.711 121.566 120.718 121.936 121.308 121.291 121.923 121.648 120.641 120.653 126.921 128.211 129.313 128.213 127.008 121.176 120.538 121.001 120.293 120.321 120.313 -9999 -9999 -9999 -9999 -9999 -9999 -9999 -9999 -9999 -9999 -9999 -9999 -9999 -9999 -9999 -9999 -9999 -9999 -9999 -9999 -9999 -9999
104.954 104.766 104.571 104.719 104.816 112.084 114.816 115.059 115.311 115.544 115.836 116.001 116.494 115.546 115.314 115.064 114.784 104.176 100.416 100.201 99.961 99.701 99.076 99.501 98.919 98.821 97.711 93.984 93.421 93.554 93.594 95.019 92.869 92.779 92.846 95.119 94.724 92.386 90.764 89.944 88.831 88.949 88.024 87.656 87.246 86.804 86.389 85.989 85.554 85.209 84.874 84.566 84.241 83.914 83.606 83.329 82.936 82.549 82.029 81.639 81.264 81.119 81.199 81.039 80.934 80.806 80.684 80.271 79.711 79.184 78.949 78.966 78.106 77.896 80.584 79.096 79.054 79.199 80.059 81.034 81.341 81.086 81.129 80.959 80.771 80.859 80.911 80.859 80.854 81.039 81.039 80.949 81.346 82.386 80.116 80.191 80.329 80.441 80.651 80.764 81.051 81.156 81.341 81.549 81.741 81.874 82.101 82.214 82.449 82.644 82.884 82.976 83.246 83.416 83.654 83.866 83.869 84.311 84.386 84.546 84.676 84.926 85.184 85.344 85.389 85.594 85.684 85.744 85.941 86.146 86.346 87.399 86.664 86.774 86.969 87.076 87.349 87.631 87.836 88.051 88.249 88.031 88.119 90.404 88.609 88.319 88.771 90.154 89.566 92.014 89.816 90.021 89.791 91.924 89.974 90.039 90.104 90.089 100.341 101.594 93.339 90.136 94.564 91.121 92.496 95.284 91.256 91.536 94.819 92.694 93.464 95.251 97.504 95.759 96.249 96.961 97.546 99.626 97.524 97.919 98.314 99.806 99.121 99.631 99.939 100.401 100.846 101.256 101.721 103.496 102.569 106.046 103.179 103.796 104.199 104.726 105.259 105.834 107.406 110.651 109.239 109.419 109.926 110.144 110.176 110.251 110.286 110.306 110.359 110.414 110.469 113.866 118.696 119.651 119.719 118.764 115.681 113.254 114.806 115.224 116.296 116.129 116.374 117.344 117.344 116.679 116.851 117.031 117.479 117.389 117.314 117.396 117.474 117.689 118.711 117.819 117.826 118.201 118.164 123.869 124.849 124.936 125.429 125.059 125.054 122.526 117.946 117.929 124.314 125.429 125.531 125.701 125.604 124.944 119.844 118.106 119.176 124.851 125.466 125.419 126.541 126.529 126.544 118.191 118.321 119.984 125.291 125.256 125.214 125.146 125.066 124.716 119.584 119.136 124.406 125.474 125.416 125.541 127.681 125.771 124.986 121.961 121.656 120.471 119.743 123.891 126.516 127.596 128.428 127.553 126.568 125.408 119.996 119.913 120.023 120.096 120.083 119.568 119.463 120.251 119.373 119.436 119.448 119.401 119.478 120.846 121.091 120.833 121.018 121.878 123.371 121.216 120.678 120.308 120.776 125.181 127.066 127.651 127.713 126.591 125.296 123.013 121.711 120.668 120.691 120.618 121.366 120.738 120.763 120.761 120.813 121.463 120.926 121.018 121.068 121.091 121.128 121.168 121.181 121.228 121.246 121.253 121.256 121.288 123.566 126.916 125.983 120.938 120.961 120.943 120.893 121.256 121.876 122.463 123.288 123.346 122.531 122.111 122.728 121.618 121.493 121.368 121.306 121.733 121.928 121.201 121.288 124.446 125.128 123.738 121.361 121.456 120.761 120.591 120.506 120.546 120.506 120.153 120.526 120.396 120.666 122.786 127.091 128.338 129.293 128.888 126.961 121.053 121.536 120.771 120.231 120.263 120.233 121.108 -9999 -9999 -9999 -9999 -9999 -9999 -9999 -9999 -9999 -9999 -9999 -9999 -9999 -9999 -9999 -9999 -9999 -9999 -9999 -9999 -9999
105.119 104.954 104.749 104.584 112.029 114.839 115.079 115.319 115.569 115.806 116.016 116.394 115.584 115.294 115.061 114.824 101.421 100.414 100.144 99.961 99.794 99.179 100.074 103.356 101.539 96.106 95.891 93.906 93.424 93.249 93.124 93.021 92.914 92.809 92.781 93.566 93.381 92.974 91.296 95.169 97.166 89.749 88.311 87.859 87.464 87.101 86.689 86.199 85.749 85.399 85.096 84.784 84.426 84.084 83.784 83.481 83.156 82.746 82.246 81.811 81.226 81.014 81.089 80.846 80.826 80.811 80.606 80.326 79.691 79.224 78.819 78.814 78.776 78.126 77.974 79.081 78.864 78.946 79.324 80.334 81.069 81.244 81.039 81.041 80.829 80.756 80.839 80.856 80.804 80.896 81.004 80.961 80.941 81.616 80.106 81.949 80.231 80.321 80.429 80.624 80.774 80.959 81.116 81.334 81.534 81.704 81.861 82.046 82.194 82.449 82.609 82.851 83.036 83.259 83.474 83.476 83.826 83.974 84.154 84.284 84.479 84.699 84.934 85.029 85.091 85.369 85.274 85.566 85.724 85.856 86.151 86.351 86.414 87.349 86.769 87.019 87.246 87.424 87.666 87.839 87.959 87.999 87.989 88.049 88.564 88.151 88.231 88.371 88.699 89.579 90.706 89.721 89.694 89.729 89.839 89.946 90.056 90.019 102.506 102.221 90.044 92.661 92.504 90.969 91.736 92.501 91.596 92.079 92.734 97.586 101.866 98.494 95.679 95.956 97.784 97.279 96.866 97.231 97.531 99.029 99.301 98.749 99.256 99.609 99.951 100.471 100.876 101.321 101.674 102.124 102.516 105.919 104.434 104.739 106.726 104.544 105.094 105.661 106.451 107.921 109.646 109.281 110.029 110.081 110.306 110.276 110.691 110.536 110.366 110.441 110.514 110.581 118.649 119.626 119.809 118.826 114.664 114.056 114.761 115.596 115.734 116.046 116.261 116.366 119.364 116.631 116.774 117.684 117.104 117.484 117.284 117.369 117.419 117.521 117.909 117.751 117.949 118.731 118.546 123.816 125.354 126.389 126.449 126.421 125.294 121.984 117.971 117.894 124.249 125.796 126.321 126.289 126.204 125.016 120.974 118.339 118.471 122.616 122.289 120.791 122.659 121.874 121.766 118.079 118.276 119.041 119.026 118.324 118.934 121.456 121.446 119.014 119.919 119.124 119.211 119.314 119.156 119.239 119.316 122.451 122.404 122.004 120.601 120.023 119.706 119.758 121.336 128.193 128.241 128.379 127.751 119.968 120.748 120.256 119.856 119.998 120.016 120.561 119.406 119.298 119.326 119.371 119.373 119.338 119.378 120.198 120.996 120.978 120.746 121.641 121.793 120.233 121.486 120.451 120.386 125.128 126.956 127.423 127.646 128.006 126.713 125.398 122.938 120.661 124.001 124.128 122.016 121.086 121.121 120.866 121.211 121.753 120.848 121.111 129.613 127.706 121.101 121.126 121.118 121.171 121.196 121.213 121.208 121.273 124.271 127.526 127.141 120.901 120.923 120.898 120.938 121.093 121.386 128.331 129.751 131.276 130.146 128.763 124.138 121.491 121.426 121.171 121.061 120.906 120.923 121.003 121.858 124.481 124.941 123.468 121.108 120.873 120.716 120.538 120.583 120.561 120.203 120.131 120.101 120.276 120.341 121.301 127.176 128.453 129.216 128.053 126.848 120.533 120.426 120.213 120.158 120.183 120.146 120.096 -9999 -9999 -9999 -9999 -9999 -9999 -9999 -9999 -9999 -9999 -9999 -9999 -9999 -9999 -9999 -9999 -9999 -9999 -9999 -9999 -9999
105.231 105.114 105.031 111.926 114.846 115.086 115.331 115.559 115.814 115.991 115.769 115.601 116.376 115.049 114.796 111.924 110.746 100.224 100.141 100.034 100.514 99.896 99.859 99.311 97.671 96.651 95.409 94.424 97.484 93.504 93.131 93.209 92.871 92.891 92.764 93.054 92.556 93.141 93.261 97.474 95.846 89.254 90.806 88.491 87.871 87.266 86.919 86.479 86.026 85.646 85.309 84.946 84.604 84.261 83.924 83.651 83.371 83.004 82.479 81.976 81.614 81.099 80.959 80.846 80.754 80.684 80.624 80.331 79.804 79.219 78.779 78.721 79.004 78.629 77.729 79.014 78.911 78.946 79.006 79.626 80.431 81.231 81.149 81.011 80.954 80.714 80.734 80.811 80.794 80.751 80.911 80.941 80.896 80.899 81.134 81.144 80.029 80.144 80.256 80.464 80.539 80.756 80.936 81.266 81.319 81.486 81.881 81.846 81.986 82.231 82.364 82.581 82.854 83.064 83.141 83.339 83.569 83.699 83.859 84.069 84.164 84.479 84.759 84.789 84.824 84.924 85.151 85.374 85.509 85.691 85.906 86.054 86.194 86.401 86.626 86.881 86.991 87.171 87.421 87.601 87.831 87.911 88.036 88.026 88.056 88.191 88.296 88.309 88.604 92.634 92.099 89.554 89.649 89.746 89.804 90.004 90.066 90.076 90.104 91.151 99.294 103.621 93.896 93.311 98.006 96.714 96.199 92.264 93.029 93.676 101.371 99.404 96.654 96.269 96.466 97.851 96.936 97.321 98.119 97.996 98.424 98.874 99.296 99.521 100.339 100.524 100.904 101.311 101.689 102.061 102.576 108.181 109.206 109.081 110.556 104.469 105.011 105.599 106.349 107.279 108.656 110.866 111.701 110.976 110.204 110.281 110.331 110.386 110.371 110.424 110.491 110.546 118.571 119.524 119.854 118.899 116.079 113.236 114.786 115.364 115.649 115.966 116.204 116.299 117.851 119.191 116.826 116.959 116.994 117.159 117.256 117.311 117.374 117.481 119.486 119.681 119.201 119.826 120.804 123.501 125.114 125.134 125.424 125.019 124.924 123.066 117.921 117.859 124.196 124.794 124.734 124.706 124.634 124.559 120.044 117.936 118.074 118.301 118.294 118.401 118.149 117.871 117.951 117.974 118.181 118.254 117.994 117.939 118.066 119.994 119.536 118.821 119.796 119.624 119.804 119.001 119.011 119.376 119.219 119.239 119.249 119.344 119.586 119.643 119.708 119.873 120.096 120.553 128.221 127.453 121.031 120.576 120.473 119.948 119.683 119.753 119.528 119.406 119.318 119.221 119.253 119.308 119.316 119.273 119.241 119.361 120.951 120.831 120.608 120.436 120.148 120.138 120.176 120.306 120.388 125.028 125.501 125.456 126.331 127.498 128.113 126.788 124.918 120.681 123.943 124.151 120.776 121.866 123.781 120.781 122.066 120.928 120.821 126.243 132.931 130.001 121.041 121.066 121.053 121.118 121.253 121.171 121.178 121.186 122.048 126.518 122.966 120.851 120.873 120.841 120.946 122.123 121.166 128.783 130.108 131.233 129.996 128.648 124.793 121.578 121.586 121.096 120.996 120.783 120.758 120.771 120.783 120.836 120.838 120.856 122.993 121.038 121.031 120.413 120.238 120.231 120.226 120.548 121.726 120.756 120.771 122.821 127.281 128.538 129.158 127.938 126.451 120.588 120.528 120.123 120.083 120.128 120.103 120.033 120.348 -9999 -9999 -9999 -9999 -9999 -9999 -9999 -9999 -9999 -9999 -9999 -9999 -9999 -9999 -9999 -9999 -9999 -9999 -9999 -9999
105.311 105.274 105.641 107.224 113.416 114.951 115.204 115.476 115.619 115.679 115.504 115.256 115.036 114.789 111.929 111.934 105.369 100.384 100.351 100.356 101.429 99.809 99.736 99.289 97.751 96.851 96.001 97.194 97.594 93.464 93.256 93.039 93.009 92.934 92.841 92.771 92.744 92.529 92.494 94.029 96.631 90.096 88.926 89.476 88.319 87.486 87.106 86.729 86.364 85.939 85.539 85.134 84.774 84.426 84.129 83.829 83.569 83.199 82.699 82.224 81.781 81.224 80.939 80.819 80.636 80.586 80.491 80.274 79.881 79.321 78.784 78.661 78.904 79.091 77.951 79.359 78.959 78.994 78.834 80.534 80.026 82.589 81.234 82.141 80.961 80.864 83.036 88.031 80.776 80.729 80.699 80.886 80.936 84.991 80.856 80.406 80.266 79.989 80.139 80.234 80.379 80.526 80.799 80.939 81.131 81.259 81.469 81.631 81.796 81.944 82.184 82.401 82.761 82.961 82.944 83.389 83.501 83.716 83.666 83.794 83.946 84.084 84.261 84.579 84.654 84.779 84.874 85.096 85.324 85.504 85.681 85.836 86.064 86.261 86.521 88.131 86.831 87.034 87.231 87.486 87.961 87.841 87.971 87.959 88.041 88.084 88.314 88.371 89.614 92.116 91.504 89.576 89.554 89.596 89.694 89.689 89.794 89.904 90.011 90.006 99.519 95.874 90.444 96.426 97.461 97.991 101.024 93.226 93.256 93.801 95.994 95.386 97.686 99.039 96.204 96.591 96.924 97.336 97.819 98.226 98.754 98.939 99.189 99.641 100.324 100.519 100.909 101.256 101.594 107.336 102.511 106.429 111.574 112.569 106.094 104.749 104.914 105.554 106.314 107.589 107.476 110.296 112.579 118.301 115.614 110.291 110.379 110.466 110.394 110.431 110.499 110.564 116.519 114.676 115.146 113.571 112.776 113.979 115.381 115.629 115.531 115.871 116.134 116.289 116.689 118.849 117.081 116.844 116.954 117.091 117.201 117.269 117.329 117.789 119.751 118.231 119.784 118.269 119.811 121.116 122.046 121.719 121.661 122.391 120.546 119.264 117.871 117.814 118.531 117.864 117.966 118.391 118.146 117.981 117.796 117.949 120.234 118.551 117.836 118.051 117.534 117.421 117.609 120.239 119.514 121.116 117.949 117.906 118.086 118.216 118.286 119.301 120.716 120.176 120.816 118.911 118.904 119.359 119.066 119.096 119.494 119.691 119.663 119.653 119.688 119.793 119.816 119.856 120.038 121.148 119.873 120.238 119.863 119.786 119.726 119.653 119.523 119.423 119.288 119.171 119.193 119.236 119.251 119.211 119.138 119.266 120.966 120.851 121.038 120.151 120.143 120.186 120.163 120.246 120.341 120.623 121.078 123.946 126.133 126.263 128.096 126.946 124.981 120.696 123.891 124.223 120.698 124.861 128.641 120.796 120.723 120.718 120.783 120.918 123.643 122.893 120.986 121.006 120.993 121.036 121.076 121.093 121.038 121.078 121.041 122.746 120.683 120.811 120.831 121.716 120.938 122.268 121.481 128.848 130.203 131.198 129.886 128.471 121.601 121.423 121.143 120.806 120.781 120.741 120.718 120.696 120.646 120.688 120.741 120.828 123.046 122.448 122.133 122.061 121.666 121.306 122.018 123.176 122.026 122.231 120.196 119.983 120.013 120.346 121.721 120.728 120.231 120.166 120.553 119.978 120.023 120.058 120.028 119.968 120.603 119.681 -9999 -9999 -9999 -9999 -9999 -9999 -9999 -9999 -9999 -9999 -9999 -9999 -9999 -9999 -9999 -9999 -9999 -9999 -9999
105.429 105.449 105.536 105.726 107.251 113.259 114.979 115.229 115.484 115.481 115.231 114.999 114.604 111.934 111.986 104.956 104.556 102.714 100.514 100.746 100.946 100.339 100.159 99.809 98.379 97.276 96.601 95.536 95.029 93.696 93.234 93.069 92.966 92.916 92.841 92.779 92.766 94.144 93.764 92.206 93.346 91.994 91.669 89.056 88.284 87.791 87.339 86.976 86.589 86.126 85.739 85.304 84.979 84.631 84.289 83.956 83.731 83.406 82.971 82.424 81.991 81.579 80.891 80.671 80.574 80.474 80.396 80.526 79.849 79.366 78.816 78.654 81.706 78.729 78.486 77.979 78.771 78.961 78.754 78.971 82.541 80.781 81.266 83.879 80.894 80.916 80.774 86.184 88.354 81.646 80.734 80.751 80.881 88.026 80.799 80.639 79.959 79.881 79.981 80.149 80.229 80.364 80.534 80.831 80.876 81.111 81.221 81.461 81.639 81.791 81.979 82.251 87.476 85.686 86.516 84.806 83.326 83.434 83.524 83.669 83.894 83.964 84.091 84.296 84.406 84.581 84.754 84.861 85.034 85.266 85.471 85.686 85.891 86.111 86.356 86.614 86.769 86.919 87.121 87.409 87.609 87.681 87.766 87.806 87.876 87.961 88.074 88.199 88.484 95.431 91.451 90.166 89.964 91.896 89.749 89.906 89.874 90.596 91.004 89.926 93.326 93.379 90.376 90.451 91.764 94.126 96.016 93.961 95.329 97.656 95.936 98.206 97.674 98.209 96.496 96.596 97.146 97.401 97.836 98.404 98.624 98.886 99.186 100.481 100.226 100.531 100.884 101.234 101.546 101.914 102.369 102.619 106.921 108.804 108.246 105.684 104.874 105.464 107.616 110.046 107.454 108.439 116.724 118.746 117.736 111.314 110.421 110.501 110.481 110.424 110.496 110.599 114.396 115.679 117.169 118.784 116.246 112.704 114.249 114.996 115.534 115.861 116.091 116.281 116.796 116.946 116.869 116.816 116.904 117.034 117.146 117.224 117.311 117.629 119.196 118.946 119.546 117.784 117.851 118.444 118.021 119.416 118.984 120.161 117.929 117.756 117.781 119.394 118.764 117.549 117.524 117.534 117.446 117.944 120.331 120.221 120.144 118.201 117.824 117.809 117.639 117.364 117.434 120.099 119.261 121.151 117.941 117.904 117.959 118.211 118.296 119.086 120.639 120.264 121.066 118.924 118.921 119.884 119.091 119.101 119.091 119.244 119.606 120.416 119.781 119.756 119.806 120.003 121.561 123.003 123.058 123.098 119.958 120.416 119.771 119.721 119.596 119.486 119.288 119.181 119.126 119.156 119.188 119.281 119.081 119.186 121.276 121.006 121.193 120.171 120.183 120.186 120.158 120.193 120.273 120.353 120.526 120.826 123.316 125.478 127.888 126.993 125.013 120.576 123.848 124.291 122.341 126.171 125.778 120.901 120.688 120.701 120.763 120.791 120.791 120.813 120.866 120.876 120.831 120.868 120.893 120.913 120.978 121.113 121.416 121.223 120.641 120.763 120.786 121.403 120.893 121.456 121.176 123.756 125.078 124.756 126.628 125.273 121.508 121.693 121.013 120.783 120.763 120.726 120.698 120.683 120.636 120.663 121.161 121.078 123.471 122.868 120.176 120.208 120.318 120.118 120.488 122.243 120.586 121.156 120.016 120.708 122.948 123.666 123.728 122.418 121.121 120.086 119.958 119.901 119.948 119.981 119.941 119.903 121.836 121.526 -9999 -9999 -9999 -9999 -9999 -9999 -9999 -9999 -9999 -9999 -9999 -9999 -9999 -9999 -9999 -9999 -9999 -9999 -9999
105.559 105.616 105.681 105.769 105.904 107.739 113.289 114.979 115.229 115.221 114.966 114.441 111.936 111.949 108.539 104.554 102.094 100.701 100.901 100.759 100.694 100.684 100.681 102.541 100.171 97.701 96.959 96.614 95.161 95.124 94.016 93.151 93.089 92.959 92.874 92.816 92.876 96.401 92.796 94.266 92.019 91.114 90.229 89.116 88.594 88.094 87.611 87.164 86.766 86.346 85.999 85.536 85.196 84.819 84.464 84.109 83.866 83.549 83.166 82.671 82.184 81.791 81.424 80.751 80.531 80.484 80.354 80.071 79.704 79.309 78.921 78.654 80.926 78.571 78.771 77.896 78.304 78.864 78.754 78.704 79.021 82.769 80.514 84.016 85.589 80.884 80.869 82.069 83.446 85.391 80.689 80.629 80.801 80.836 80.791 80.786 80.431 79.826 79.819 79.949 80.141 80.254 80.369 80.499 80.654 80.839 81.051 81.211 81.449 81.561 81.841 83.784 82.274 82.399 82.781 83.014 83.061 83.184 83.199 83.376 83.584 83.709 83.951 84.066 84.249 84.341 84.511 84.684 84.824 85.061 85.229 85.506 85.829 85.921 86.209 86.404 86.631 86.834 87.061 87.284 87.444 87.556 87.589 87.631 87.684 87.699 87.919 88.026 93.499 97.164 95.036 92.251 91.204 89.936 90.556 100.909 101.374 97.209 90.874 89.909 95.336 90.059 90.241 90.596 93.856 96.734 92.791 96.149 93.376 95.171 97.049 96.499 95.551 96.721 96.786 98.036 99.034 97.451 97.859 98.281 99.414 98.736 99.549 99.866 100.154 100.524 100.859 101.206 101.631 101.911 102.356 102.601 102.754 103.939 103.716 104.646 104.556 109.524 118.104 120.084 115.299 115.391 117.501 118.681 118.361 111.216 110.464 110.511 110.476 110.421 110.471 112.059 117.086 119.476 120.164 119.174 116.421 112.721 114.224 115.264 115.531 115.806 116.041 116.234 116.791 117.346 117.499 117.649 116.906 116.976 117.086 117.171 117.249 117.359 118.891 117.306 117.346 117.639 117.771 117.724 117.716 118.649 118.224 117.454 117.346 118.189 120.409 119.984 118.829 117.539 117.519 117.489 117.436 117.539 119.994 120.244 120.059 118.896 117.949 117.816 117.461 117.391 117.849 118.596 118.864 120.551 117.904 117.931 117.981 118.236 118.279 118.766 120.406 118.876 119.009 119.109 118.929 119.169 119.879 119.154 119.519 121.719 119.903 120.528 120.371 120.696 120.918 121.051 121.673 121.546 121.923 121.408 120.526 120.058 119.766 119.726 120.953 120.313 119.453 119.068 119.063 119.086 119.281 119.518 119.021 119.081 123.788 121.876 123.901 120.103 120.163 120.553 120.126 120.158 120.191 120.206 120.308 120.488 122.573 125.858 125.961 125.906 125.061 120.671 123.786 124.346 127.598 131.416 127.306 125.988 120.656 120.686 120.768 120.801 120.833 120.808 120.853 120.818 124.983 129.103 129.093 127.506 125.031 120.851 120.831 120.671 120.623 120.741 120.733 120.673 121.071 122.441 122.283 122.706 124.176 121.683 121.653 122.613 122.236 122.683 121.381 123.391 122.763 122.258 120.781 120.743 120.671 121.533 121.666 122.201 122.243 122.623 120.386 120.423 120.471 120.348 120.278 120.503 119.943 119.853 119.766 124.158 128.226 129.538 129.678 128.468 125.681 120.181 120.486 119.813 119.873 119.913 119.851 119.823 119.833 119.606 119.723 -9999 -9999 -9999 -9999 -9999 -9999 -9999 -9999 -9999 -9999 -9999 -9999 -9999 -9999 -9999 -9999 -9999 -9999
105.699 105.751 105.829 105.901 105.951 105.969 109.234 114.256 114.994 114.956 114.041 111.991 111.984 111.899 109.011 104.766 101.201 101.056 100.886 100.691 100.681 100.724 100.766 100.456 99.809 98.941 97.424 96.989 95.866 94.891 93.949 93.239 93.076 93.124 93.344 93.119 92.864 92.776 92.641 92.984 92.349 91.609 90.644 89.784 90.039 88.786 87.966 87.389 86.969 86.569 86.219 85.789 85.384 84.984 84.626 84.301 84.016 83.701 83.299 82.906 82.466 82.064 81.679 81.156 80.789 80.426 80.214 79.894 79.576 80.999 78.911 82.501 78.536 78.501 78.451 78.244 77.656 78.671 78.754 78.676 78.704 79.051 79.554 93.224 81.254 80.851 80.989 80.781 81.679 81.706 80.646 80.626 80.574 80.761 80.796 80.746 80.739 80.136 79.726 79.826 80.011 80.081 80.191 80.306 80.576 80.756 80.841 80.999 81.254 81.456 81.691 81.851 81.971 82.474 82.616 82.656 82.951 83.119 82.944 83.119 83.334 83.431 83.569 83.734 83.924 84.126 84.304 84.541 84.631 84.841 85.079 85.301 85.531 85.786 85.971 86.146 86.379 86.629 86.909 87.144 87.289 87.349 87.416 87.434 87.461 87.601 88.116 88.149 89.594 94.064 94.671 92.904 89.111 93.014 98.896 106.364 96.166 90.961 91.144 89.969 91.176 93.979 92.526 91.034 91.641 92.101 92.569 92.941 104.354 97.319 94.439 95.419 96.286 95.781 97.254 97.801 96.991 97.406 97.811 98.426 98.411 98.811 99.339 100.519 100.209 103.086 102.884 101.054 101.456 101.871 102.321 102.544 102.721 103.024 103.589 104.474 104.564 105.406 111.706 119.839 118.576 118.511 117.149 118.056 112.546 110.454 110.496 110.489 110.466 110.441 110.489 111.091 118.444 119.436 120.201 119.274 118.011 112.751 114.296 115.016 115.519 115.754 115.989 116.206 116.411 116.521 116.656 116.864 117.051 116.916 117.041 117.126 117.266 117.371 118.619 117.296 117.306 117.314 117.361 117.371 117.364 117.369 118.406 117.364 117.314 117.796 120.381 119.906 119.211 117.539 117.556 117.491 117.724 117.524 118.204 122.846 125.351 120.221 120.504 117.921 117.926 117.746 118.231 117.764 117.904 118.209 118.816 119.144 118.764 118.671 119.741 120.644 120.736 120.866 120.154 120.196 119.949 119.556 119.051 119.154 119.881 119.784 119.401 119.411 119.513 119.578 119.601 119.646 119.651 119.688 119.716 119.701 119.651 119.573 119.501 119.426 119.326 119.196 119.056 118.991 118.986 119.018 119.031 119.016 118.953 118.998 125.713 128.684 126.193 120.066 120.321 120.058 120.098 120.136 120.143 120.118 119.933 120.596 121.808 123.628 123.941 123.853 123.803 120.503 120.668 121.618 126.776 131.691 130.729 128.316 120.676 120.708 120.763 120.771 121.083 120.803 122.486 122.796 128.406 129.791 131.013 129.781 128.371 121.768 120.986 120.663 120.591 120.688 120.691 120.588 120.798 122.266 121.538 121.953 122.301 122.976 122.481 122.986 123.236 121.046 121.026 122.343 123.211 123.041 120.636 121.121 120.523 120.531 120.631 122.851 120.393 120.398 121.078 120.193 120.231 119.911 119.853 119.908 119.923 119.841 119.783 121.421 128.378 129.606 129.551 128.368 125.596 120.091 120.258 119.756 119.821 119.856 119.803 119.758 120.373 119.538 119.356 -9999 -9999 -9999 -9999 -9999 -9999 -9999 -9999 -9999 -9999 -9999 -9999 -9999 -9999 -9999 -9999 -9999 -9999
106.921 105.881 105.971 106.036 106.041 106.041 106.041 108.999 114.111 114.174 111.996 111.986 112.151 108.974 106.974 102.356 101.834 101.484 100.706 100.229 100.569 100.729 100.774 100.784 100.491 99.579 98.346 97.251 96.716 95.529 94.451 93.701 93.494 93.026 92.941 92.889 92.889 92.834 92.684 92.614 93.291 92.099 91.814 90.496 89.519 88.821 88.766 87.666 87.186 86.794 86.436 86.034 85.579 85.169 84.814 84.484 84.161 83.814 83.456 83.106 82.754 82.316 81.899 81.501 81.034 80.654 80.216 79.854 79.531 79.286 78.976 78.759 78.629 78.479 78.401 79.726 80.239 78.219 82.064 81.191 78.714 78.564 79.079 80.489 84.206 81.674 80.839 80.796 80.666 80.596 80.591 80.629 80.571 80.594 80.721 80.756 80.696 80.581 79.814 79.766 79.799 79.946 80.004 80.196 80.424 80.534 80.676 81.049 81.076 81.349 81.506 81.564 82.024 82.281 82.441 82.494 82.704 82.949 83.026 83.059 83.139 83.199 83.351 83.509 83.734 84.149 84.101 84.304 84.531 84.689 84.911 85.156 85.306 85.609 85.789 85.981 86.206 86.474 86.759 87.021 87.131 87.139 87.199 87.266 87.331 87.484 87.951 87.596 87.606 89.466 89.411 90.199 88.656 102.649 108.126 106.846 95.516 91.841 90.346 90.031 90.076 101.089 92.456 91.359 91.744 92.144 92.504 92.941 96.324 94.746 94.566 97.436 99.356 95.836 97.671 97.414 97.026 97.339 97.704 98.019 98.326 98.846 99.296 99.749 105.266 108.859 101.336 100.914 103.394 102.009 102.286 102.539 102.646 103.021 103.556 104.116 104.636 105.834 115.759 119.506 119.339 117.314 114.121 110.064 110.344 110.424 110.444 110.461 110.401 110.446 110.509 110.586 117.029 119.354 120.214 119.331 118.336 112.669 114.086 114.549 114.989 115.669 115.961 116.174 116.316 116.436 116.604 116.754 117.029 116.979 117.196 117.406 117.209 118.576 117.256 117.286 117.274 117.296 117.334 117.329 117.321 117.336 118.389 117.329 117.294 118.189 120.039 118.096 118.139 118.396 119.456 121.046 117.506 117.621 117.786 123.601 126.234 120.839 117.576 117.589 117.646 117.719 117.859 117.849 118.071 118.124 118.444 118.459 118.464 118.464 119.246 120.879 120.149 118.639 118.729 118.776 118.844 120.026 119.974 119.541 120.296 119.569 119.361 119.396 119.438 119.463 119.523 119.566 120.246 121.498 121.013 119.901 119.618 119.533 119.623 120.521 121.443 121.586 120.173 118.946 118.918 118.938 118.953 118.916 118.876 120.216 126.016 128.529 127.913 120.433 120.058 120.041 120.088 120.088 120.071 120.733 120.693 120.511 120.531 120.623 121.023 123.576 123.576 120.573 120.716 122.888 127.268 130.046 125.591 121.311 121.653 120.713 120.708 120.743 120.753 120.771 126.778 127.131 128.511 129.928 131.043 129.678 128.368 121.056 121.476 120.608 120.578 120.643 120.633 120.566 120.748 120.853 124.353 128.773 130.173 129.791 129.311 129.356 129.421 122.161 120.983 121.728 121.613 121.333 120.521 120.561 120.466 120.433 120.476 120.596 120.376 120.413 120.371 120.501 120.716 120.778 119.858 119.811 119.811 119.796 120.111 121.606 128.228 129.678 129.471 128.088 124.056 120.061 120.426 119.693 119.768 119.786 119.711 119.711 120.566 119.151 119.546 125.408 -9999 -9999 -9999 -9999 -9999 -9999 -9999 -9999 -9999 -9999 -9999 -9999 -9999 -9999 -9999 -9999 -9999
107.466 106.709 106.106 106.166 106.176 106.176 106.151 106.784 107.844 111.951 111.926 110.881 107.884 104.946 103.111 102.316 101.996 101.499 100.686 100.951 100.209 100.414 100.741 100.799 100.631 101.136 103.774 98.349 97.459 96.319 95.514 94.234 93.721 93.261 93.036 92.969 92.889 92.844 92.751 92.674 92.651 92.834 91.936 91.106 90.226 89.196 88.771 88.009 87.484 87.039 86.639 86.264 85.801 85.334 84.991 84.661 84.286 83.949 83.656 83.281 82.921 82.551 82.199 81.794 81.401 80.861 80.471 80.071 79.676 79.389 79.129 78.816 78.594 78.461 78.431 78.351 78.056 77.669 84.764 81.096 82.076 85.141 86.606 96.046 82.451 80.856 80.904 80.736 80.726 80.541 80.514 80.566 80.574 80.519 80.641 80.731 80.716 80.669 80.369 79.661 79.736 79.721 79.901 80.026 80.316 80.521 80.536 80.631 80.914 81.059 81.131 81.409 81.939 81.966 82.156 82.251 82.396 82.711 82.769 82.834 82.959 82.949 83.109 83.336 83.486 83.731 83.859 84.076 84.266 84.494 84.741 85.016 85.119 85.371 85.596 85.831 86.056 86.336 86.591 86.794 87.161 86.879 86.974 87.109 87.156 87.186 87.349 87.499 87.539 88.071 88.814 90.426 88.609 99.809 104.536 108.071 95.036 94.701 94.011 89.919 90.751 90.446 91.024 91.434 94.449 92.184 92.481 92.919 93.421 94.581 99.266 97.554 97.574 95.779 96.299 97.796 96.934 97.219 97.554 97.866 98.379 98.831 100.046 101.211 101.919 102.589 103.959 100.919 102.971 102.416 102.259 102.691 102.659 103.036 103.456 104.009 104.574 105.186 113.214 118.969 119.269 115.441 112.206 110.789 110.314 110.364 110.374 110.349 110.394 110.454 110.499 110.534 116.824 119.286 120.214 119.399 118.369 112.796 113.609 114.529 115.194 115.614 115.879 116.079 116.224 116.386 116.561 116.714 116.899 117.074 117.019 117.061 117.074 117.424 117.229 117.249 117.239 118.506 118.566 117.356 117.396 118.296 118.124 118.901 118.786 118.939 118.886 118.321 117.491 117.771 118.034 118.954 121.304 117.354 118.621 123.491 125.259 118.354 117.491 117.546 117.609 117.639 117.724 117.744 117.841 118.004 117.799 117.726 117.614 117.941 120.504 124.641 118.524 118.476 118.581 118.596 118.754 121.874 121.776 119.831 119.066 119.324 119.536 119.351 119.368 119.393 119.493 119.528 123.153 127.836 126.643 125.628 125.628 119.518 119.731 119.608 120.176 123.046 127.146 121.621 118.856 118.868 118.868 118.846 118.796 118.801 120.283 123.558 124.573 120.051 120.053 120.053 120.028 119.993 120.003 120.038 120.363 120.536 120.661 120.696 120.586 122.928 122.886 120.536 120.968 124.138 125.326 120.968 120.666 120.681 121.983 120.806 120.853 120.926 120.898 121.581 127.138 128.336 128.636 130.056 131.053 130.676 130.218 121.243 121.336 120.558 120.591 120.598 120.596 120.556 121.496 120.911 123.336 128.763 130.143 129.776 128.933 128.038 128.348 121.073 121.043 120.646 120.538 120.596 120.481 120.498 120.428 120.616 121.281 120.578 120.953 120.333 120.418 119.976 120.016 120.063 119.831 119.796 119.776 119.731 119.743 121.993 125.546 125.586 126.521 124.563 120.953 119.918 120.081 119.626 119.698 119.716 119.641 119.681 120.326 119.183 119.828 125.516 -9999 -9999 -9999 -9999 -9999 -9999 -9999 -9999 -9999 -9999 -9999 -9999 -9999 -9999 -9999 -9999 -9999
107.819 107.226 107.049 106.386 106.366 106.364 106.304 106.349 106.851 109.451 111.776 106.021 104.249 103.604 104.266 102.454 102.154 101.356 100.914 100.516 100.256 100.256 100.504 100.809 103.841 104.479 104.586 101.041 98.246 97.196 96.364 95.191 93.856 93.519 93.071 93.059 92.919 92.876 92.811 92.856 92.661 93.016 92.764 91.921 90.776 89.899 88.934 88.544 87.781 87.331 86.874 86.509 86.004 85.519 85.136 84.809 84.451 84.106 83.829 83.491 83.109 82.779 82.381 82.006 81.646 81.221 80.749 80.371 80.094 79.601 79.364 79.454 78.751 78.581 78.476 78.476 78.391 78.381 78.421 80.181 92.449 79.009 81.929 90.679 85.881 94.026 81.694 80.726 80.711 80.661 80.456 80.491 80.546 80.519 80.431 80.646 84.349 80.619 80.611 79.991 79.564 79.631 79.739 79.921 80.191 80.269 80.336 80.459 80.769 81.099 81.141 81.741 81.839 82.001 82.011 82.209 82.239 82.434 82.739 82.604 82.611 82.761 82.921 83.134 83.374 83.556 83.761 83.841 84.096 84.259 84.481 84.761 84.956 85.119 85.389 85.631 85.924 86.224 86.341 86.451 86.629 86.664 86.841 86.934 86.979 87.006 87.249 87.861 87.431 87.641 87.779 92.844 93.549 99.614 94.284 98.024 93.874 97.086 96.184 91.026 93.386 91.131 91.094 102.111 102.174 92.286 92.514 93.406 93.581 98.836 97.531 96.004 95.381 95.746 99.379 96.404 96.741 97.071 97.354 97.896 98.349 98.749 99.374 99.754 99.934 102.516 100.809 102.071 101.414 101.721 102.081 102.499 102.636 102.906 103.389 103.946 108.881 106.031 110.354 118.689 117.019 115.179 114.029 110.774 110.321 110.456 111.426 110.994 110.419 110.471 110.509 110.541 116.799 119.221 120.206 119.489 118.486 112.791 114.339 115.216 115.104 115.644 115.884 116.064 116.189 116.334 116.506 116.629 117.381 117.604 117.046 117.061 118.739 117.126 117.189 117.246 118.514 118.611 117.856 118.121 118.559 118.489 117.329 117.924 117.309 118.741 117.941 117.646 117.369 117.404 119.901 124.004 123.644 119.929 117.194 117.651 117.586 117.531 117.789 117.476 117.546 117.819 118.106 117.566 117.579 117.424 117.799 117.384 117.396 117.491 120.164 123.444 119.814 118.441 118.454 118.501 118.471 119.561 120.654 119.129 118.994 119.374 120.236 119.278 119.293 119.378 120.311 122.653 124.691 127.891 126.796 126.466 126.461 119.548 119.593 119.593 119.563 123.523 128.074 124.558 118.778 118.783 118.791 118.771 118.713 118.718 118.868 121.253 120.888 119.996 119.996 119.978 119.961 119.986 119.938 120.353 120.436 120.201 120.516 120.633 121.263 122.146 120.518 120.588 120.748 120.878 121.628 121.066 120.643 120.746 120.696 120.718 120.743 120.783 120.796 120.833 127.013 127.048 128.726 130.148 130.878 129.533 128.421 120.941 121.386 120.501 120.921 120.548 120.541 120.496 121.783 121.291 120.961 128.768 130.133 129.418 127.561 121.298 121.518 121.031 121.021 120.588 120.566 120.513 120.473 120.583 120.423 120.466 120.688 121.228 120.378 121.461 120.411 119.983 120.598 120.563 119.808 119.796 119.763 119.723 119.743 122.418 123.641 123.631 122.186 119.816 119.811 119.736 119.816 120.058 119.636 119.658 119.553 119.651 120.561 119.546 121.276 125.618 126.866 -9999 -9999 -9999 -9999 -9999 -9999 -9999 -9999 -9999 -9999 -9999 -9999 -9999 -9999 -9999 -9999
107.349 107.261 107.956 107.256 106.606 106.539 106.459 106.391 106.246 106.894 105.729 104.914 104.841 103.504 102.939 102.696 102.261 101.729 101.319 100.974 100.609 100.196 100.529 100.829 101.221 103.654 104.654 104.594 104.714 100.004 97.104 95.844 94.636 93.784 93.241 93.606 92.956 92.949 92.889 92.774 92.759 92.634 93.721 92.284 91.624 91.089 89.254 89.134 88.096 87.604 87.179 86.716 86.171 85.746 85.329 85.019 84.636 84.251 83.939 83.941 83.286 82.936 82.574 82.189 81.846 81.511 81.069 80.631 80.234 79.884 79.559 79.251 78.911 78.649 78.434 78.364 78.351 77.801 77.404 78.296 91.784 81.296 78.501 78.519 94.389 81.491 83.074 83.329 80.621 80.701 80.574 80.399 80.466 80.521 80.434 81.369 80.626 80.639 80.581 80.369 79.644 79.521 79.799 79.691 79.884 86.374 80.126 80.466 80.839 80.786 81.129 81.429 81.506 81.616 81.639 81.796 81.899 82.049 82.171 82.356 82.591 83.466 82.754 82.919 83.166 83.376 83.476 83.634 83.881 84.036 84.311 84.571 84.766 84.971 85.249 85.546 85.846 86.239 86.059 86.184 86.509 86.509 86.584 86.704 86.819 86.871 86.811 87.196 87.191 87.321 94.896 99.389 93.386 88.681 89.304 91.086 98.794 99.936 98.924 90.816 89.864 91.321 91.461 91.379 92.059 92.699 92.811 93.731 95.259 94.579 101.966 102.759 97.601 96.914 96.114 96.316 96.651 96.911 97.454 97.909 98.374 98.731 99.126 99.736 99.816 100.144 100.376 100.901 101.226 101.579 102.006 103.316 102.649 102.884 103.346 107.539 105.706 105.086 109.231 116.019 115.354 115.104 115.639 115.019 111.169 110.311 110.276 110.349 110.414 110.479 110.519 110.546 116.811 119.136 120.124 119.559 118.551 112.716 114.929 115.421 115.701 115.966 116.581 117.361 116.164 116.299 116.524 117.001 117.671 116.741 116.909 117.131 117.171 118.309 117.444 117.684 118.946 118.941 119.444 117.209 117.416 117.376 117.231 117.226 117.254 119.744 119.044 117.551 117.439 117.346 117.406 117.644 117.861 117.011 117.091 117.119 117.129 120.924 117.069 117.129 117.276 117.331 117.404 117.434 117.436 117.294 118.079 118.114 117.319 117.214 118.856 122.881 118.079 119.841 119.196 118.531 118.146 118.339 118.664 118.846 118.909 119.309 120.893 119.228 119.221 119.236 120.221 122.623 125.358 127.856 127.766 127.776 127.818 119.518 119.588 119.538 119.503 119.441 120.608 118.841 118.698 118.708 118.721 118.696 118.631 118.616 119.356 125.248 122.246 120.316 119.963 119.961 120.043 119.948 119.943 121.383 120.353 120.166 120.168 120.121 124.663 126.393 120.236 121.861 120.683 121.508 121.393 120.616 120.531 120.626 120.663 120.668 120.698 120.763 120.763 120.776 120.993 123.046 128.838 130.253 130.816 129.356 127.198 120.951 121.201 120.426 120.963 120.498 120.503 120.436 120.818 121.063 121.106 120.663 120.808 120.763 121.221 120.998 121.123 121.378 121.281 121.633 120.576 120.813 120.873 121.223 121.061 121.188 120.871 121.588 120.436 120.648 120.396 120.386 120.133 120.796 120.041 120.096 119.821 120.091 120.091 120.253 120.446 120.408 120.003 119.816 119.708 119.678 119.756 120.726 119.568 119.591 120.401 119.626 120.258 119.231 120.791 125.733 127.103 126.978 -9999 -9999 -9999 -9999 -9999 -9999 -9999 -9999 -9999 -9999 -9999 -9999 -9999 -9999 -9999
108.501 107.491 107.231 107.251 106.879 106.739 106.626 106.771 106.871 106.411 106.291 105.374 105.251 103.181 103.426 102.259 102.901 101.869 101.749 101.354 101.131 100.891 101.019 100.536 100.624 102.361 103.969 101.031 102.964 102.274 97.931 96.741 95.501 94.289 93.216 93.096 92.996 93.004 92.924 92.849 92.709 94.361 92.579 92.796 93.126 91.796 89.704 88.986 88.364 87.814 87.319 86.826 86.434 86.066 85.669 85.216 84.849 84.469 84.141 83.869 83.526 83.144 82.811 82.414 82.059 81.761 81.461 80.906 80.529 80.119 79.804 79.589 79.186 78.751 78.544 78.401 78.434 78.161 77.369 77.779 78.419 78.374 79.246 78.434 79.149 80.521 84.014 81.516 80.756 80.646 80.674 80.454 83.821 80.764 80.441 82.196 80.516 80.586 80.536 80.521 80.079 79.449 79.566 79.554 79.761 79.984 79.979 80.449 80.511 80.994 81.216 81.189 81.384 81.491 81.331 81.564 81.744 81.776 81.924 82.089 82.599 82.391 82.626 82.824 82.974 83.186 83.284 83.436 83.691 83.859 84.086 84.334 84.589 84.864 85.214 85.401 85.496 85.649 85.794 86.024 86.286 86.436 86.474 86.546 86.611 86.701 86.861 86.799 86.974 88.814 88.631 98.159 93.929 88.506 88.481 89.259 94.934 97.016 96.219 90.844 89.694 90.921 92.176 91.494 91.871 92.246 92.761 93.219 93.696 94.544 94.531 94.991 95.249 95.579 95.911 96.251 96.499 97.044 97.916 97.906 98.666 101.464 102.726 102.709 101.861 100.081 100.334 100.804 102.426 101.706 101.966 103.451 102.781 102.859 103.321 103.894 106.681 106.241 115.199 118.966 116.866 116.624 116.741 115.589 111.101 110.269 110.274 110.339 110.401 110.484 110.539 110.596 114.271 119.081 120.061 119.649 118.641 113.646 113.939 114.154 116.526 115.484 115.814 115.969 116.116 116.239 116.376 118.006 116.656 117.896 116.924 117.621 117.119 119.944 119.294 117.396 117.156 117.156 117.986 117.211 117.189 117.364 117.301 117.279 117.159 118.586 119.386 119.734 117.329 117.281 117.129 120.004 120.644 121.549 116.901 116.664 118.924 124.599 117.256 116.756 116.739 117.131 117.196 117.251 117.261 117.204 117.426 117.396 117.249 117.226 117.851 118.084 121.396 121.621 121.641 121.591 118.736 118.321 118.401 118.501 118.609 118.656 120.768 119.191 119.168 119.166 120.878 122.603 125.056 127.901 126.563 122.843 121.266 119.488 119.516 119.468 119.458 119.398 120.291 118.726 118.616 118.618 118.633 118.621 118.556 118.533 122.056 121.221 124.481 122.771 121.213 119.948 119.916 120.213 122.186 121.173 120.453 120.151 120.163 120.143 120.143 120.333 120.073 122.113 120.631 121.028 121.651 120.728 120.576 120.661 120.656 120.651 120.808 120.823 120.838 120.748 121.196 121.721 125.753 126.906 127.193 129.508 126.246 121.066 120.858 120.328 120.411 120.456 120.423 120.391 120.548 120.578 121.038 124.931 126.636 127.148 126.408 122.266 123.041 121.143 120.761 120.598 120.311 120.293 120.321 120.301 120.516 120.383 120.443 122.011 121.438 121.078 121.316 121.281 122.231 122.096 122.201 121.996 120.531 122.308 123.581 124.856 125.858 127.206 126.733 125.486 120.128 120.006 119.611 120.108 119.523 119.571 120.228 119.586 119.741 119.223 122.008 125.826 127.111 126.881 125.628 -9999 -9999 -9999 -9999 -9999 -9999 -9999 -9999 -9999 -9999 -9999 -9999 -9999 -9999
107.846 108.279 108.006 107.161 107.056 106.916 106.789 107.044 106.511 106.301 104.994 104.029 108.124 110.906 110.674 110.401 110.156 101.636 101.716 101.636 101.431 101.269 101.259 101.069 100.536 100.754 101.231 101.116 102.856 103.039 101.386 98.601 97.079 95.159 93.691 93.171 93.056 92.989 92.929 92.906 92.786 92.646 92.536 93.386 96.281 93.741 90.824 89.439 88.774 88.189 87.736 87.166 86.661 86.244 85.884 85.474 85.091 84.704 84.366 84.026 83.704 83.336 83.006 82.676 82.311 81.979 81.681 81.261 80.821 80.409 80.714 79.711 79.294 78.926 78.671 78.484 78.454 79.384 77.586 77.314 78.476 78.369 78.654 82.501 78.581 79.149 90.066 81.086 80.906 80.661 81.729 80.561 80.419 80.341 80.431 80.379 80.309 80.526 80.551 80.474 80.401 79.761 79.331 79.454 79.506 79.729 79.839 80.224 80.486 80.469 80.719 80.906 81.056 80.896 80.731 80.991 81.391 81.646 81.669 81.941 82.126 82.239 82.359 82.609 82.761 82.896 83.074 83.224 83.481 83.766 83.906 84.131 84.459 84.739 84.966 85.044 85.284 85.506 85.621 85.864 86.574 86.514 86.471 86.439 86.529 86.504 86.759 86.654 86.714 86.741 86.941 89.661 89.501 96.481 93.581 98.619 93.009 89.231 91.491 89.486 89.619 89.824 91.484 91.624 91.819 92.379 95.086 93.244 93.719 94.201 94.556 94.879 95.154 95.494 95.934 96.071 101.454 97.561 98.229 98.404 100.289 99.151 99.139 100.209 100.004 99.981 100.866 100.894 103.151 101.504 102.071 103.651 106.761 102.891 103.251 104.289 108.141 109.501 118.189 119.671 118.224 116.534 115.046 115.806 110.989 110.266 110.259 110.319 110.389 110.474 110.546 110.571 114.689 118.996 119.991 119.699 118.694 113.036 113.619 113.596 114.406 115.581 115.851 115.914 116.064 117.784 117.186 116.674 117.056 116.986 117.319 116.949 116.956 117.011 117.466 117.111 117.111 117.129 117.299 117.171 117.194 117.341 118.056 117.479 116.931 117.201 117.666 118.054 120.804 119.694 117.841 120.846 122.839 122.671 122.454 120.881 117.766 119.706 117.656 116.746 116.651 116.599 116.569 116.789 117.021 117.329 117.171 117.219 117.236 117.351 117.874 118.401 121.361 122.599 122.859 121.789 119.114 118.239 118.361 118.439 118.579 118.614 120.851 119.156 119.136 119.148 120.003 122.113 122.138 119.248 119.251 119.321 119.336 119.456 119.426 119.416 119.381 119.366 119.371 118.821 118.503 118.533 118.541 118.526 118.468 118.431 118.566 121.343 120.416 121.361 126.153 126.321 121.171 126.283 125.591 122.256 122.776 121.186 120.378 120.131 120.136 120.148 120.703 122.033 121.706 121.531 122.753 122.368 120.626 120.626 120.616 120.966 121.511 121.833 121.666 122.076 121.341 120.691 120.651 120.636 120.628 120.613 120.583 120.648 120.448 120.273 120.363 120.398 120.378 120.418 120.786 120.678 126.148 129.233 130.141 129.698 128.516 124.866 124.723 122.563 120.736 120.368 120.308 120.293 120.286 120.303 120.326 120.361 121.201 120.698 120.698 120.178 120.293 120.313 120.968 119.911 121.918 120.096 122.218 125.168 126.403 127.316 128.638 129.443 128.668 128.403 119.801 120.028 119.463 120.048 119.453 119.451 119.403 119.973 119.788 119.218 123.421 125.858 126.326 126.458 125.543 120.753 -9999 -9999 -9999 -9999 -9999 -9999 -9999 -9999 -9999 -9999 -9999 -9999 -9999
108.437 107.519 107.419 107.251 107.111 107.041 107.136 106.801 106.636 105.206 104.471 110.374 113.319 111.049 110.846 110.556 110.294 109.329 101.909 101.396 101.334 101.131 101.344 101.619 101.486 101.051 101.031 100.771 101.044 103.549 103.046 99.934 98.321 96.314 94.709 93.484 93.871 96.346 97.339 92.909 92.831 92.696 92.599 92.746 93.336 92.289 91.039 90.144 89.086 88.404 88.234 87.541 86.996 86.541 86.129 85.856 85.319 84.974 84.601 84.229 83.869 83.551 83.219 82.899 82.559 82.221 81.981 82.066 81.189 80.879 80.239 79.861 79.524 79.136 78.824 79.349 78.471 78.344 77.444 79.416 78.466 96.746 95.559 79.639 79.779 78.384 79.731 79.671 80.654 80.751 80.526 80.571 80.429 80.251 80.329 80.379 80.319 80.329 80.494 80.511 80.426 80.134 79.571 79.434 79.466 79.584 79.761 80.234 80.404 80.331 80.379 80.611 80.369 80.384 79.874 80.201 81.411 81.399 81.579 81.674 81.824 82.001 82.166 82.406 82.649 82.781 83.039 83.141 83.291 83.544 83.769 84.006 84.286 84.456 85.986 84.836 85.059 85.349 85.354 86.021 85.811 86.171 86.499 86.526 86.431 86.486 86.356 86.406 86.364 86.629 86.936 87.384 88.016 94.224 96.379 94.491 94.966 90.294 89.266 89.634 89.624 89.784 90.804 91.736 91.836 92.341 97.874 93.326 93.791 94.196 94.564 94.811 95.091 96.789 95.661 96.204 96.614 96.994 97.384 98.184 98.386 101.444 99.119 99.379 100.726 100.174 101.236 100.704 101.031 101.391 101.911 103.146 110.126 102.851 103.479 103.754 104.226 107.976 114.564 115.851 120.324 117.106 113.816 111.836 110.166 110.254 111.396 111.576 110.384 110.459 110.529 110.561 112.939 118.956 119.946 119.771 118.769 112.906 113.506 113.751 114.359 116.009 116.481 116.751 116.381 116.919 116.651 116.706 116.641 116.674 116.921 118.451 116.879 116.944 117.011 117.126 118.571 119.939 117.034 118.031 119.951 120.014 119.781 122.476 122.779 119.661 122.031 123.064 123.389 119.731 116.956 117.016 121.569 123.329 123.591 123.391 119.566 123.026 122.824 122.331 116.564 122.544 122.316 117.761 116.716 116.759 116.774 116.886 116.984 117.821 117.946 118.039 121.321 122.551 123.031 121.941 120.841 119.914 118.686 118.646 118.501 118.554 121.338 119.171 119.176 119.176 119.731 121.143 122.008 119.206 119.221 119.281 119.363 119.418 119.378 119.361 119.338 119.273 119.296 118.531 118.408 118.441 118.448 118.436 118.383 118.341 118.521 122.096 120.301 123.143 127.328 126.491 121.593 127.256 126.968 124.596 123.373 123.601 122.623 121.666 121.003 120.093 122.418 122.353 127.938 122.463 122.326 124.801 123.583 122.163 121.241 122.038 121.393 122.126 122.253 121.793 121.461 120.743 122.376 123.321 120.628 120.833 120.641 122.046 122.311 120.246 120.336 120.363 121.641 120.393 120.743 120.681 126.511 128.998 130.058 129.746 128.558 126.951 126.958 123.156 121.188 120.393 120.273 120.663 120.498 120.218 120.371 121.263 122.081 120.906 120.133 120.083 120.116 120.203 119.916 119.851 119.796 119.823 121.433 122.586 122.533 127.301 128.638 129.458 128.661 128.318 119.711 119.653 119.383 120.686 119.393 119.378 119.268 119.863 119.436 119.293 121.418 123.681 124.518 124.503 124.236 119.403 118.468 -9999 -9999 -9999 -9999 -9999 -9999 -9999 -9999 -9999 -9999 -9999 -9999
107.629 107.446 107.391 107.334 107.256 107.229 107.914 107.401 105.766 105.221 109.504 112.234 113.061 112.494 110.996 109.956 110.491 110.214 103.219 101.526 101.121 101.216 101.981 102.236 101.294 101.116 101.044 101.871 103.114 103.424 103.576 102.574 98.491 96.729 95.486 94.219 94.504 95.431 98.724 92.974 92.871 92.759 92.659 92.534 92.909 91.939 91.096 90.286 89.564 88.856 88.596 87.831 87.341 86.834 86.404 85.981 85.781 85.256 84.871 84.449 84.171 83.791 83.441 83.101 82.786 82.496 82.281 81.884 81.381 80.949 80.536 80.134 79.784 79.396 79.039 78.726 78.514 78.269 79.989 80.559 78.426 93.754 94.974 78.481 81.351 80.556 78.399 80.779 83.689 81.046 80.669 80.474 80.484 80.276 80.209 82.826 80.309 80.251 80.391 80.451 80.401 80.321 79.896 79.521 79.464 79.471 79.644 79.841 79.951 79.944 80.054 79.844 79.416 79.224 79.491 79.604 80.604 81.174 81.406 81.586 81.669 81.844 82.984 82.174 82.384 82.564 82.874 83.071 83.159 83.321 83.639 83.871 84.069 84.211 86.539 84.756 84.881 85.119 85.354 85.596 85.636 85.989 86.074 86.076 86.006 86.564 86.449 86.156 86.524 88.814 86.984 92.034 93.814 93.979 94.931 94.974 94.326 93.669 89.471 89.476 89.574 89.764 89.921 91.696 91.864 97.906 94.201 93.371 93.794 94.174 94.469 94.686 95.141 95.316 95.626 96.074 96.594 97.491 97.346 98.721 98.846 101.296 100.799 101.709 99.539 100.124 100.591 100.609 100.946 101.324 102.559 104.384 104.071 102.974 103.256 103.681 105.871 104.831 105.554 112.879 115.184 110.186 109.854 109.986 110.056 110.174 110.221 110.564 110.389 110.461 110.536 110.594 110.739 111.644 112.024 112.524 112.611 113.021 113.834 115.484 116.116 116.689 115.881 116.976 118.586 120.101 116.429 116.596 116.549 116.611 116.664 116.989 116.779 116.796 116.814 120.781 122.669 122.881 117.034 123.149 123.429 122.881 119.911 123.569 123.876 121.019 120.629 124.186 124.456 120.109 119.969 117.289 116.534 124.009 124.271 124.374 120.139 124.146 123.959 120.424 117.299 123.671 123.469 116.671 120.009 120.946 119.536 117.176 116.759 117.804 117.906 120.024 121.271 122.024 121.976 121.929 120.964 118.986 118.529 118.374 118.441 118.896 121.138 119.178 119.218 119.201 119.206 119.208 119.243 119.163 119.186 121.468 119.621 119.358 119.296 119.363 119.596 119.401 119.771 118.413 118.308 118.333 118.348 118.331 118.296 118.228 118.363 119.498 119.553 124.883 120.586 120.988 120.431 121.471 120.273 120.143 122.363 122.611 122.436 119.866 119.866 119.851 119.878 120.276 122.351 120.596 122.368 124.928 124.491 120.588 120.301 122.006 121.538 121.243 122.081 122.306 120.621 121.036 120.933 120.781 120.486 121.203 120.506 121.248 121.491 120.183 120.288 120.316 120.761 120.338 120.563 120.666 125.036 128.818 130.016 129.371 128.638 127.583 127.531 125.488 120.981 121.306 121.598 120.361 121.571 120.711 120.288 121.273 123.063 120.633 120.146 120.036 120.208 119.963 119.846 119.771 119.858 121.326 119.651 119.501 119.993 125.033 127.028 125.238 124.218 122.713 119.651 120.308 119.328 119.953 119.333 119.323 119.228 119.273 119.298 119.698 119.363 119.016 118.893 118.783 118.628 118.538 118.578 -9999 -9999 -9999 -9999 -9999 -9999 -9999 -9999 -9999 -9999 -9999 -9999
107.584 107.469 107.271 107.316 107.321 107.894 106.956 106.314 105.889 105.731 105.804 113.384 112.736 113.104 111.184 110.729 110.606 110.341 107.121 103.136 102.559 102.601 101.341 101.246 101.171 101.414 100.644 100.144 102.974 103.294 101.789 102.056 104.221 98.551 96.351 95.071 94.549 94.341 93.834 93.494 92.974 92.846 92.756 92.644 92.859 92.249 92.766 90.559 89.724 89.171 89.001 88.336 87.684 87.179 86.709 86.319 85.971 85.961 85.174 84.811 84.364 83.991 83.654 83.326 83.001 82.771 82.391 82.021 81.676 81.289 80.829 80.424 80.036 79.689 79.291 78.926 78.594 78.346 79.374 87.716 77.869 85.944 87.434 78.449 78.374 78.696 78.241 80.254 81.569 84.184 80.934 80.486 80.479 80.434 80.141 80.461 80.296 80.246 80.179 80.369 80.436 80.324 80.084 79.699 79.431 80.079 79.266 79.324 79.506 79.611 79.371 79.121 79.144 79.109 79.154 79.569 80.001 80.756 81.146 81.356 81.509 81.699 82.011 82.171 82.321 82.499 82.644 82.889 83.144 83.321 83.501 83.661 83.909 84.059 84.226 84.446 84.779 84.994 85.176 85.524 85.289 85.411 85.719 85.631 85.921 86.436 88.564 90.146 89.184 87.279 89.286 92.509 93.669 95.621 95.571 94.181 92.431 90.549 89.436 90.056 89.596 89.731 89.899 91.264 91.971 92.321 92.894 93.354 93.951 94.029 94.271 94.556 94.904 95.194 95.826 96.084 96.541 97.574 97.554 97.706 101.814 100.056 103.879 99.179 99.591 101.426 100.846 100.936 100.904 101.206 101.726 104.129 104.286 102.841 103.379 104.086 104.929 104.691 105.526 109.894 108.631 109.504 109.976 109.981 110.009 110.096 110.196 110.354 110.421 110.481 110.554 110.599 110.984 111.221 111.599 112.669 112.846 113.241 113.544 113.889 115.044 115.366 115.554 115.729 117.016 116.894 116.709 116.506 117.346 119.286 120.086 117.499 122.244 122.716 117.206 120.561 123.786 124.101 119.341 123.861 124.564 124.624 120.284 124.476 124.216 123.516 120.804 123.879 123.579 121.726 120.431 116.664 116.584 122.941 123.149 122.444 120.696 123.391 123.601 120.386 121.784 124.219 124.344 119.429 123.521 123.304 123.109 122.884 116.814 117.814 117.929 117.979 119.501 119.406 120.181 119.514 118.681 118.854 119.339 118.509 118.406 118.721 121.106 119.298 119.198 119.151 119.168 119.138 119.186 119.201 123.248 122.013 119.268 119.263 119.213 119.351 120.043 119.538 119.661 118.333 118.186 118.221 118.246 118.236 118.191 118.116 118.248 118.358 118.688 119.078 120.336 120.398 119.263 119.273 119.291 119.348 121.811 122.061 121.653 119.801 119.873 119.868 119.876 119.923 120.313 121.976 121.316 121.208 120.733 120.181 120.198 120.253 120.333 121.373 122.638 122.526 120.466 120.668 121.003 121.976 121.776 120.633 120.418 120.431 120.213 120.156 120.246 120.241 121.521 120.323 120.598 120.703 124.711 128.778 129.983 129.893 128.711 127.261 127.018 124.656 120.986 120.366 120.256 120.176 120.171 120.113 120.091 120.181 120.393 120.421 120.271 120.248 120.126 119.998 120.093 120.231 120.431 120.393 119.568 119.541 119.681 119.501 119.806 120.258 119.936 119.341 119.321 119.333 119.251 119.236 119.268 119.266 119.186 119.143 119.033 118.883 118.713 118.696 118.623 118.611 118.521 118.423 118.606 120.663 -9999 -9999 -9999 -9999 -9999 -9999 -9999 -9999 -9999 -9999 -9999
108.594 107.431 107.314 107.266 108.289 107.524 107.341 106.679 106.136 105.881 104.936 110.451 111.376 112.419 113.031 111.059 110.671 110.499 110.276 105.131 102.219 101.519 101.281 101.331 101.209 101.091 100.874 100.481 102.309 100.659 101.219 100.981 101.739 100.871 98.471 96.101 95.544 94.851 93.934 93.394 93.239 92.941 92.826 92.749 94.936 92.511 92.134 90.576 92.674 89.491 89.101 88.649 88.024 87.569 87.051 86.596 86.184 85.949 85.996 85.431 85.521 84.831 83.954 83.539 83.249 84.404 82.619 82.254 81.936 81.569 81.159 80.704 80.291 79.914 79.559 79.164 78.764 78.541 78.436 87.806 80.641 79.459 91.726 79.976 79.739 78.399 78.286 78.206 78.921 79.564 83.274 82.724 83.099 80.909 80.264 84.204 80.184 80.239 80.176 80.234 80.361 80.331 80.274 79.836 79.336 79.116 79.219 79.224 79.231 79.166 79.114 79.076 79.079 79.109 79.111 79.106 79.419 80.174 80.779 81.199 81.389 81.566 81.701 81.916 82.241 82.526 82.536 82.739 82.979 83.029 83.414 83.586 83.771 83.966 83.966 84.169 84.486 84.716 85.106 85.146 85.281 85.291 85.384 86.381 87.639 87.941 88.619 90.179 91.484 91.041 91.599 90.821 87.536 93.061 94.479 91.026 90.136 89.156 90.671 89.816 90.111 89.729 89.876 90.264 91.784 95.626 97.559 94.899 93.724 93.804 94.094 94.424 94.724 95.184 95.626 99.054 97.776 96.939 98.721 97.731 98.774 101.369 99.634 100.916 99.296 99.746 100.606 101.554 101.729 101.164 101.634 102.749 102.534 102.906 103.829 104.421 104.141 104.574 106.004 109.284 107.849 108.914 109.699 109.809 109.971 110.054 110.176 110.281 110.411 110.799 110.574 110.856 111.929 118.909 119.836 120.046 119.106 114.764 113.281 113.786 114.949 115.316 115.484 115.664 115.834 116.016 116.554 116.396 122.851 123.171 123.004 116.829 123.531 123.831 121.194 120.434 124.494 124.214 121.561 122.569 123.874 123.574 120.716 122.634 123.111 122.799 120.111 122.629 122.236 120.824 119.711 118.934 118.259 117.034 120.809 120.351 120.621 122.271 122.474 120.214 122.384 123.084 123.291 120.656 124.274 124.341 124.186 123.921 116.981 117.806 117.881 117.976 119.099 120.384 125.501 125.701 118.344 118.561 119.594 120.636 119.284 120.186 122.003 119.166 119.151 121.608 120.673 121.646 121.648 123.173 124.551 124.396 122.253 118.936 118.608 118.998 118.608 118.423 118.328 118.166 118.066 118.111 118.138 118.136 118.093 118.041 118.166 120.228 119.288 119.371 122.196 125.648 125.651 125.668 125.481 122.486 119.308 119.808 119.721 119.761 119.821 119.831 119.861 119.888 120.138 120.746 123.451 126.883 120.291 120.171 120.193 120.271 121.241 120.493 120.501 122.028 124.308 128.728 130.103 129.773 128.353 122.063 120.441 121.608 120.311 120.121 120.208 120.201 120.968 120.211 120.426 120.301 124.381 130.118 130.223 129.956 128.766 125.288 120.793 120.866 120.436 120.326 120.218 120.158 120.103 120.071 120.038 120.168 120.706 121.026 120.543 120.343 120.763 119.786 121.271 121.618 121.683 121.296 119.566 119.606 121.908 125.871 126.583 127.568 125.826 120.841 119.588 119.636 119.153 119.191 119.211 119.186 119.091 119.578 119.003 119.243 120.928 121.688 121.323 120.413 118.721 118.378 118.693 118.218 118.118 -9999 -9999 -9999 -9999 -9999 -9999 -9999 -9999 -9999 -9999
107.534 107.489 107.414 107.289 107.369 108.821 107.806 107.079 106.574 106.044 105.939 105.441 108.126 112.374 112.916 109.796 110.014 110.024 110.381 109.899 104.046 101.526 101.406 101.374 101.301 101.196 101.344 101.401 99.694 99.444 99.221 101.364 101.149 99.814 99.496 96.761 96.089 94.961 93.729 93.446 93.389 93.259 93.034 92.776 92.629 93.316 91.684 90.779 93.439 93.396 89.319 88.841 88.579 88.149 87.436 86.891 86.461 86.021 86.001 85.219 84.906 84.584 84.289 83.729 83.476 83.109 82.836 82.521 82.191 81.804 81.441 81.026 80.579 80.201 79.831 79.471 79.039 81.339 78.764 78.316 78.129 79.589 77.324 78.224 78.361 80.214 81.049 78.171 78.251 78.939 79.849 80.939 84.609 86.846 80.339 80.119 80.374 80.194 80.184 80.116 80.276 80.321 80.259 80.079 79.504 79.094 79.031 79.114 79.076 79.071 79.129 79.061 79.089 79.086 79.079 79.139 79.149 79.694 81.616 80.999 81.269 81.396 81.529 81.816 82.106 82.211 82.351 82.479 82.646 82.901 83.201 83.499 83.579 83.751 83.781 83.969 84.394 84.539 84.586 84.784 85.099 85.051 87.569 88.531 88.246 90.044 91.389 92.181 92.519 90.874 86.654 86.976 88.089 88.384 89.119 91.904 92.459 89.779 93.831 96.991 96.089 89.766 89.841 90.081 92.881 93.671 96.984 98.469 95.664 93.614 93.929 94.224 94.746 95.121 95.601 99.416 97.336 101.494 98.179 97.784 97.986 99.084 99.066 98.874 99.626 101.296 100.061 102.534 103.156 101.714 102.481 106.479 102.496 103.939 103.081 105.034 104.271 104.376 108.366 112.109 107.484 108.654 111.601 110.589 109.809 109.984 110.116 110.224 110.384 111.871 110.576 110.621 111.296 118.831 119.764 120.094 119.166 116.451 113.316 113.356 114.896 115.294 115.456 116.081 116.506 116.186 116.481 122.296 123.541 124.276 124.326 120.021 124.241 124.186 123.879 120.819 123.386 123.106 122.369 120.309 122.769 121.379 119.939 119.171 117.216 118.834 117.509 116.711 116.731 116.751 116.701 120.284 119.121 116.529 116.549 116.691 116.671 116.434 118.311 119.389 117.116 119.349 120.564 119.986 123.169 123.399 123.189 123.069 116.731 117.529 117.736 117.254 118.569 122.936 126.011 126.051 120.179 119.114 119.091 119.309 119.969 123.589 120.978 119.096 119.116 121.398 121.433 121.598 121.626 123.626 124.598 125.798 124.158 121.723 118.861 118.881 118.726 118.408 118.261 118.033 117.941 118.008 118.036 118.038 117.991 117.951 118.078 119.701 119.206 119.201 123.793 126.308 127.268 127.126 125.598 122.488 119.358 119.643 119.773 119.803 119.813 119.808 119.838 121.003 123.086 122.236 127.543 128.943 120.726 120.123 120.166 120.193 120.401 120.336 120.603 123.156 125.063 128.991 130.008 129.843 128.921 124.521 120.386 120.841 120.211 120.106 120.171 120.158 120.078 120.126 120.146 120.171 120.256 128.011 129.301 126.913 126.356 122.701 120.381 120.393 120.721 120.508 120.266 120.701 120.043 120.238 120.233 120.148 120.883 120.303 120.343 119.868 119.711 119.571 119.613 120.746 119.843 119.876 119.838 119.543 124.943 128.621 129.021 128.651 128.218 121.788 119.553 120.048 119.091 119.121 119.153 119.128 119.058 120.263 119.131 124.951 128.356 129.136 128.721 127.451 123.648 121.388 118.096 118.026 117.983 118.023 -9999 -9999 -9999 -9999 -9999 -9999 -9999 -9999 -9999
107.911 107.496 107.434 107.374 107.331 108.394 109.099 107.316 107.109 106.484 106.101 105.944 105.941 110.546 112.246 113.401 110.129 110.789 110.516 110.254 106.406 101.639 101.576 101.431 101.641 101.686 100.349 99.941 99.664 99.449 99.289 99.301 98.951 98.816 99.944 99.349 96.584 95.229 94.121 93.501 93.409 93.206 93.149 92.901 92.674 93.286 91.759 91.476 90.854 90.246 90.191 89.541 88.849 88.619 88.549 87.466 86.734 86.331 86.029 85.944 85.131 84.984 84.376 83.984 83.656 83.371 83.026 82.766 82.454 82.074 81.699 81.334 80.904 80.476 80.091 80.549 83.731 82.056 79.679 78.544 79.956 79.189 77.179 77.556 78.381 78.366 79.049 78.139 80.651 78.429 79.506 85.466 81.124 95.974 80.364 80.251 80.021 80.099 80.164 80.111 80.081 80.251 80.289 80.174 79.829 79.231 78.956 79.116 79.069 79.054 79.111 79.069 79.049 79.079 79.099 79.119 79.076 79.271 80.999 81.209 81.579 81.781 81.636 81.914 82.129 82.179 82.149 82.279 82.489 82.826 82.976 83.261 83.354 83.439 83.606 83.811 84.954 85.841 84.339 84.494 84.614 86.024 87.311 88.906 89.741 91.311 91.896 93.039 93.256 92.091 87.161 87.071 87.804 88.344 88.719 92.821 97.779 97.379 97.941 98.789 99.031 89.844 89.854 89.986 90.126 92.694 95.161 92.869 93.116 93.479 93.734 94.189 96.056 95.086 97.026 97.394 101.594 100.656 99.066 97.589 98.679 98.481 98.599 99.069 99.771 99.664 100.211 100.179 100.751 101.274 101.549 103.249 103.174 103.576 105.866 104.549 103.821 105.059 109.224 112.516 110.266 108.481 109.439 109.544 109.769 109.864 110.024 110.181 110.371 111.484 110.581 110.616 110.861 118.769 119.701 120.156 119.239 116.784 114.089 114.591 116.066 115.206 115.311 115.504 115.711 116.624 116.381 122.921 123.809 123.576 123.259 120.691 122.274 123.071 122.771 120.246 120.609 117.524 118.554 116.831 117.349 117.256 116.744 117.266 117.981 117.021 116.736 117.201 116.694 116.694 116.604 116.979 117.921 117.036 116.454 116.446 116.509 116.471 116.411 116.436 117.174 116.431 116.511 117.331 119.319 122.001 120.204 119.316 116.756 116.976 121.606 124.054 122.994 119.714 120.599 123.424 117.811 117.934 118.046 118.201 126.444 126.579 125.331 118.738 118.741 118.736 118.728 119.986 120.588 123.298 124.673 125.828 124.188 122.103 118.716 119.076 119.068 118.946 118.638 117.923 117.826 117.888 117.926 117.928 117.888 117.853 118.001 119.526 119.211 119.196 123.506 126.126 126.108 126.113 125.598 122.498 119.426 119.673 119.761 119.756 119.781 119.776 119.838 120.003 121.723 123.228 120.011 122.346 120.041 120.131 120.158 120.181 120.248 120.401 120.756 122.743 123.498 128.551 129.901 129.921 128.523 124.656 120.741 120.598 120.161 121.093 120.111 120.108 120.016 120.063 120.111 120.138 120.148 120.248 120.228 120.383 120.468 120.538 120.648 120.746 121.926 122.338 122.441 121.593 121.046 121.456 120.478 120.106 121.448 121.846 120.136 119.676 119.666 119.616 119.526 119.531 119.501 119.896 120.536 125.928 126.921 128.103 128.993 128.466 127.348 121.746 119.448 120.506 119.011 119.046 119.073 119.183 119.026 120.008 119.151 125.541 128.058 129.276 128.608 127.363 123.686 122.598 118.613 117.956 117.918 117.958 117.967 -9999 -9999 -9999 -9999 -9999 -9999 -9999 -9999
