ncols 407
nrows 30
xllcorner    431028
yllcorner    439578
cellsize     2
NODATA_value -9999
-9999 -9999 -9999 -9999 -9999 -9999 -9999 -9999 -9999 -9999 -9999 -9999 -9999 -9999 -9999 -9999 -9999 -9999 -9999 -9999 -9999 161.024 165.467 170.989 176.027 178.089 169.817 165.417 165.379 159.082 159.014 158.989 159.584 161.254 161.452 159.099 158.709 158.539 158.482 158.469 158.449 158.542 158.627 158.357 158.254 158.377 158.479 158.699 158.872 158.989 158.842 158.447 158.467 158.644 158.902 158.694 158.784 160.174 161.632 161.424 160.204 159.574 159.847 160.084 159.119 158.399 158.417 158.374 158.384 158.969 159.089 158.382 158.074 158.029 158.029 158.132 158.199 158.217 158.147 158.039 158.122 158.107 158.167 158.154 158.134 158.049 158.407 159.404 160.434 161.624 162.687 163.677 164.227 164.284 164.162 164.084 164.119 164.167 164.172 164.119 164.187 164.229 164.064 164.094 164.204 164.109 163.984 164.019 164.042 164.019 164.052 164.072 164.097 164.099 164.052 164.062 164.079 164.147 164.084 163.929 163.997 164.102 164.092 164.144 164.089 164.004 163.994 164.012 164.057 164.104 164.054 163.982 163.709 162.789 161.719 160.477 159.184 158.282 157.917 157.769 157.667 157.419 157.239 157.252 158.102 157.552 156.844 156.647 157.254 157.232 156.429 156.454 156.334 156.242 156.167 156.507 157.547 156.944 155.732 155.689 158.237 159.539 159.157 158.247 157.459 155.704 157.269 157.714 158.754 159.234 158.137 155.554 154.862 154.954 156.317 156.377 155.949 155.697 155.187 154.809 154.862 154.857 154.904 156.734 164.709 169.612 168.93 166.845 161.55 157.16 155.235 154.572 154.945 155.125 154.955 158.507 160.622 161.26 161.125 160.472 160.122 160.117 159.33 157.837 155.655 156.25 155.03 154.425 154.45 154.637 154.757 155.535 155.862 156.062 156.03 155.095 156.27 155.272 154.54 154.607 154.672 154.74 156.035 160.262 162.265 159.352 156.527 158.782 159.087 156.847 159.802 161.855 162.027 161.127 161.86 162.052 160.555 158.952 156.717 155.835 155.8 155.522 155.532 155.507 155.402 155.307 155.367 156.807 159.16 156.057 155.712 155.59 157.24 158.455 157.765 155.89 155.53 155.225 155.26 155.487 156.207 157.08 160.582 161.102 161.087 159.875 155.665 154.847 155.202 155 154.56 154.465 154.58 154.71 154.762 154.605 154.652 154.605 154.647 155.495 156.647 156.822 156.515 156.92 156.315 155.71 155.272 156 156.377 156.175 155.345 155.745 156.865 157.48 156.94 155.02 154.517 154.55 154.67 154.682 154.547 154.617 154.582 154.947 156.467 157.692 157.825 157.947 158.705 159.72 159.63 159.445 159.302 158.057 156.227 157.547 159.255 160.677 160.687 160.647 159.927 158.087 156.67 157.305 156.645 156.28 155.392 156.53 157.23 156.012 155.767 155.147 157.39 158.86 158.777 159.25 157.64 154.792 154.722 154.585 154.395 154.537 154.565 154.615 154.667 154.675 154.757 154.73 154.65 154.732 154.685 154.525 154.577 154.515 154.562 154.587 159.565 163.707 161.787 157.682 159.97 162.267 162.45 160.165 162.2 162.987 160.085 154.777 155.212 162.305 170.495 170.595 168.927 169.735 162.45 156.2 159.67 172.91 173.335 169.032 169.105 161.917 170.452 171.287 172.4 172.862 171.262 165.685 157.19 155.632 157.53 153.04 153.092 153.037 153.087 153.077 153.165 153.065 153.142 153.052 153.052 153.202 153.307 155.242 159.6 157.27 159.58
-9999 -9999 -9999 -9999 -9999 -9999 -9999 -9999 -9999 -9999 -9999 -9999 -9999 -9999 -9999 -9999 -9999 -9999 -9999 -9999 -9999 -9999 -9999 169.604 173.864 167.477 169.192 170.802 162.282 159.087 159.059 159.129 159.062 159.792 158.977 158.754 158.649 158.592 158.662 158.739 158.722 158.692 158.732 158.644 158.679 158.692 158.642 158.912 159.242 159.537 159.124 158.654 158.417 158.549 158.734 158.732 158.969 160.349 162.242 163.014 162.587 162.354 162.787 162.549 160.714 158.847 158.409 158.404 158.642 159.684 159.549 158.314 158.114 158.104 158.137 158.184 158.259 158.264 158.222 158.214 158.262 158.189 158.187 158.244 158.227 158.232 158.342 159.204 160.322 161.502 162.647 163.524 164.097 164.204 164.092 164.087 164.132 164.192 164.144 164.112 164.217 164.182 164.087 164.067 164.104 164.094 164.057 164.077 164.102 164.102 164.102 164.064 164.034 164.127 164.104 164.054 164.122 164.209 164.109 163.957 163.897 164.014 164.119 164.174 164.072 164.012 164.032 164.044 164.012 164.024 164.014 163.934 163.682 162.889 161.784 160.619 159.444 158.459 157.987 157.802 157.682 157.642 157.299 157.249 157.269 157.184 156.962 156.882 156.754 156.579 156.544 156.444 156.442 156.457 156.564 156.817 157.704 156.542 156.114 155.699 158.287 159.504 159.069 158.232 157.217 155.699 156.602 157.097 158.559 159.102 158.102 155.922 154.972 155.142 155.334 155.087 155.152 155.217 154.927 154.764 154.944 155.002 155.129 157.544 168.544 170.692 170.015 167.555 161.64 155.327 154.837 154.67 154.542 155.07 154.335 157.527 160.097 160.532 161.05 161.002 160.987 161.117 160.662 160.555 159.865 159.972 158.552 154.787 154.515 154.54 154.832 156.235 155.835 156.537 157.05 156.812 156.805 156.59 156.282 155.775 155.227 154.997 155.537 159.787 160.39 157.225 156.192 156.057 156.18 156.09 157.462 159.827 160.267 159.455 158.947 159.577 158.23 156.14 155.712 155.61 155.562 155.402 155.362 155.352 155.257 155.192 155.305 155.197 155.125 155.152 155.152 155.155 155.785 157.612 158.05 157.21 157.43 155.71 155.247 155.242 155.252 156.372 159.162 159.62 159.675 158.917 155.642 155.107 155.86 155.93 155.745 154.775 154.73 154.807 154.537 154.502 154.765 154.717 154.69 154.867 154.755 154.725 154.655 155.577 156.445 156.187 155.585 154.857 155.592 155.02 154.75 154.84 155.912 156.805 156.16 154.965 154.512 154.712 154.885 154.867 154.575 154.367 154.462 154.902 155.355 156.287 156.765 156.912 158.162 160.5 160.927 160.965 160.845 156.55 154.682 155.355 156.63 158.33 158.757 158.762 157.732 156.982 157.727 156.84 156.567 156.315 154.7 157.675 158.477 155.42 154.852 155.132 157.285 157.5 156.837 155.965 155.48 154.715 154.635 154.48 154.502 155.217 155.16 155.105 154.677 154.52 154.497 154.712 154.672 154.652 154.597 154.587 154.595 155.79 158.642 160.37 162.49 163.542 164.145 161.53 160.722 165.262 163.085 161.945 165.29 165.612 166.987 162.175 156.987 160.46 170.29 170.517 170.352 170.942 163.535 152.787 154.922 163.98 170.752 168.015 162.807 164.017 166.36 160.682 164.797 161.957 160.672 163.557 156.182 152.912 152.922 152.85 152.845 152.87 152.857 152.907 153.005 152.997 153 152.96 152.935 153.005 153.057 156.195 160.625 161.837 161.46
-9999 -9999 -9999 -9999 -9999 -9999 -9999 -9999 -9999 -9999 -9999 -9999 -9999 -9999 -9999 -9999 -9999 -9999 -9999 -9999 -9999 -9999 -9999 -9999 167.704 164.084 171.772 167.234 161.547 159.649 159.294 159.584 159.209 158.934 158.964 158.984 158.954 158.959 159.017 158.952 159.159 159.187 159.087 158.924 158.914 158.849 158.719 158.854 159.509 160.247 159.507 158.944 158.514 158.362 158.414 158.472 158.439 159.549 161.649 163.602 164.827 165.027 165.162 164.044 162.179 160.219 158.552 158.504 159.059 160.159 159.192 158.222 158.149 158.169 158.244 158.262 158.227 158.304 158.292 158.342 158.364 158.254 158.277 158.309 158.284 158.312 158.442 159.054 160.212 161.382 162.624 163.444 163.972 164.152 164.129 164.152 164.112 164.157 164.109 164.077 164.152 164.147 164.109 164.112 164.029 164.024 164.024 164.062 164.094 164.104 164.107 164.067 164.064 164.119 164.157 164.112 164.104 164.184 164.064 164.069 163.937 163.957 164.077 164.072 164.049 164.039 164.057 164.059 163.989 163.944 163.994 163.929 163.667 163.002 161.952 160.754 159.547 158.472 157.962 157.867 157.714 157.629 157.409 157.357 157.352 157.177 157.162 157.037 156.847 156.744 156.654 156.564 156.612 157.034 157.732 156.619 156.337 155.937 156.259 156.139 158.019 159.227 159.244 158.267 156.777 155.767 155.489 157.169 158.529 159.037 158.344 155.954 154.974 155.709 155.729 154.889 154.872 155.037 154.919 154.979 155.059 155.072 155.774 163.509 169.717 170.529 170.057 168.12 165.252 157.457 155.04 154.617 154.46 155.632 154.662 155.857 158.05 159.28 159.915 160.18 160.635 160.915 161.357 161.645 161.275 161.07 160.762 159.41 157.53 155.945 155.285 156.275 155.305 156.262 156.815 156.967 157.237 157.255 157.317 157.617 157.097 155.362 156.34 156.652 156.765 156.092 156.482 156.38 156.072 156.245 156.347 156.83 156.622 156.785 155.982 156.297 155.927 155.695 155.725 155.68 155.462 155.425 155.405 155.312 155.212 155.17 155.322 155.285 155.152 155.135 155.222 155.187 155.165 156.47 158.147 157.69 157.065 155.492 155.51 155.83 155.847 155.5 155.527 156.12 157.72 157.547 156.047 156.565 158.347 159.122 158.482 156.522 154.885 154.552 154.377 154.63 155.06 154.87 154.6 155.265 154.897 154.722 154.8 155.725 157.132 157.685 156.152 154.69 154.505 154.55 154.507 154.677 155.38 155.765 154.94 154.545 154.445 154.682 154.822 156.05 155.592 155.34 154.637 154.415 154.41 154.522 154.662 154.757 157.225 160.852 160.77 160.9 160.402 157.105 154.477 154.542 154.507 154.827 155.282 156.29 156.712 155.8 156.95 156.312 154.712 155.657 154.912 154.882 157.352 156.375 155.875 154.58 154.915 155.315 155.022 154.817 154.745 154.8 154.602 154.43 155.055 158.015 158.535 157.815 154.635 154.517 154.475 154.637 154.672 154.667 154.77 154.775 154.737 155.395 159.977 161.2 162.42 163.207 161.3 158.63 158.032 161.6 165.245 166.652 161.985 168.227 169.515 169.62 166.745 167.437 168.357 169.182 170.835 171.205 166.435 155.952 154.69 166.482 167.937 168.185 161.03 156.26 153.215 152.752 158.467 161.525 153.59 153.972 153.027 152.665 152.757 152.725 152.747 152.81 152.8 152.725 153.355 152.94 152.835 152.715 152.84 152.855 153.542 154.595 159.82 161.182 159.57
-9999 -9999 -9999 -9999 -9999 -9999 -9999 -9999 -9999 -9999 -9999 -9999 -9999 -9999 -9999 -9999 -9999 -9999 -9999 -9999 -9999 -9999 -9999 -9999 170.787 170.257 165.892 162.167 162.602 160.734 160.119 160.009 159.302 158.994 159.122 158.999 159.087 159.317 159.232 159.064 159.184 159.724 159.609 159.337 158.907 158.782 158.684 158.652 159.147 159.897 160.227 159.039 158.637 158.437 158.399 158.427 158.394 159.397 161.854 163.624 165.242 166.132 165.759 164.264 161.992 159.589 158.479 158.562 159.624 160.359 158.872 158.304 158.254 158.222 158.274 158.324 158.282 158.327 158.374 158.422 158.374 158.312 158.384 158.364 158.302 158.402 158.582 158.957 160.114 161.314 162.579 163.649 164.044 164.097 164.167 164.234 164.149 164.072 164.079 164.069 164.114 164.167 164.154 164.167 164.084 164.044 164.072 164.059 164.069 164.069 164.117 164.099 164.097 164.157 164.204 164.182 164.159 164.137 164.042 164.084 164.132 164.052 164.047 164.042 164.094 164.112 164.084 164.057 163.954 163.922 163.967 163.992 163.739 163.099 162.147 160.934 159.689 158.517 157.999 157.917 157.817 157.639 157.447 157.467 157.422 157.252 157.289 157.067 157.039 156.884 156.954 156.722 157.284 158.107 157.704 156.312 156.087 155.924 156.042 157.152 158.287 159.429 159.227 158.229 156.012 155.472 155.274 157.034 158.402 159.187 158.427 155.859 154.992 155.487 156.222 155.482 155.052 155.122 155.084 155.124 155.164 155.164 158.429 166.209 169.687 170.237 169.8 163.12 156.915 155.177 155.02 154.75 154.732 154.822 154.73 154.57 154.42 156.092 156.885 156.122 158.737 159.355 160.537 161.332 161.272 161.81 161.665 161.36 161.032 160.582 157.242 154.867 154.857 155.697 155.247 156.155 157.195 157.147 157.512 157.452 157.592 157.745 158.842 159.087 157.787 156.65 156.452 156.177 156.02 156.045 156.087 155.947 155.972 155.917 155.775 155.745 155.8 155.622 155.685 155.642 155.445 155.44 155.502 155.35 155.235 155.242 155.267 155.265 155.385 155.187 155.227 155.217 155.06 156.802 158.272 156.66 157.11 156.42 156.08 156.93 156.847 157.27 157.467 156.885 158.47 158.64 157.222 157.185 158.577 159.697 158.93 156.977 154.887 154.305 154.455 154.737 155.047 154.932 154.6 154.815 156.565 157.025 157.42 157.71 158.247 158.572 157.222 154.447 154.442 154.475 154.455 154.735 155.702 156.755 155.26 154.43 154.42 154.565 154.54 157.065 160.13 159.727 159.405 157.9 155.985 154.68 154.547 154.34 157.025 159.662 159.04 159.355 158.175 157.062 155.1 155.8 155.03 154.437 154.88 155.047 156.347 155.46 155.225 156.032 155.38 156.15 155.172 154.405 154.962 155.865 155.067 154.825 154.717 154.7 154.68 154.722 154.61 154.615 154.49 154.505 156.362 160.36 162.41 160.175 154.682 154.555 155.002 155.33 154.702 154.825 154.89 155.085 155.465 156.35 159.082 160.662 161.782 162.242 164.08 159.225 158.897 162.327 169.82 170.547 168.82 161.155 168.825 170.115 168.692 166.702 169.492 169.887 171.06 170.69 162.775 153.352 155.1 162.49 163.9 164.33 159.237 154.512 153.207 152.622 153.762 152.847 152.582 152.65 152.572 152.6 152.735 152.837 152.69 152.782 152.732 152.917 154.697 154.652 153.59 153.13 153.762 154.612 156.96 154.342 154.135 155.25 156.75
-9999 -9999 -9999 -9999 -9999 -9999 -9999 -9999 -9999 -9999 -9999 -9999 -9999 -9999 -9999 -9999 -9999 -9999 -9999 -9999 -9999 -9999 -9999 -9999 -9999 172.077 166.782 164.587 162.859 162.319 161.842 161.389 159.152 158.999 158.957 158.917 159.022 159.047 158.922 158.824 159.444 160.417 159.999 159.302 158.822 158.612 158.562 158.707 159.172 159.394 160.047 159.532 158.629 158.472 158.677 158.524 158.464 158.459 160.824 163.482 165.074 166.352 165.824 163.654 160.677 158.929 158.677 158.784 159.572 160.567 159.457 158.509 158.307 158.254 158.277 158.372 158.402 158.459 158.472 158.477 158.414 158.394 158.482 158.457 158.399 158.419 158.569 158.957 160.002 161.247 162.462 163.549 164.094 164.169 164.207 164.287 164.264 164.132 164.044 164.054 164.182 164.299 164.229 164.189 164.162 164.149 164.147 164.104 164.074 164.054 164.124 164.147 164.114 164.164 164.224 164.222 164.227 164.249 164.182 164.079 164.114 164.134 164.084 164.092 164.127 164.112 164.032 164.032 163.982 163.992 164.047 164.062 163.809 163.114 162.274 161.087 159.842 158.709 158.169 157.899 157.842 157.662 157.482 158.432 158.362 158.074 157.989 157.274 157.054 157.244 158.504 157.049 157.409 157.697 157.107 156.324 156.264 156.002 155.937 156.252 158.159 159.439 159.289 158.079 155.797 156.762 155.624 156.539 158.322 159.302 157.942 155.562 155.039 155.164 155.844 156.037 155.119 155.114 155.182 155.282 155.337 155.277 160.827 167.079 168.217 167.697 166.057 161.98 156.952 155.125 155.035 154.98 155.91 156.692 155.152 154.62 154.532 154.93 154.642 154.227 155.4 155.562 158.827 159.985 159.6 160.912 161.295 161.55 161.64 161.507 157.897 154.885 154.532 154.42 154.522 154.892 155.607 156.275 156.695 157.195 157.292 157.802 157.992 158.05 157.125 156.895 156.9 156.237 156.077 155.922 155.937 155.922 155.877 155.875 155.74 155.705 155.822 155.7 155.69 155.627 155.525 155.477 155.597 155.427 155.357 155.362 155.317 155.162 155.26 155.212 155.11 155.147 155.137 155.827 158.125 157.9 157.472 156.297 156.397 156.262 156.232 159.17 160.117 160.06 160.432 160.627 159.18 156.45 158.375 159.257 158.3 156.902 154.97 154.222 154.477 154.552 154.367 154.632 154.562 154.565 157.59 158.34 158.375 158.292 158.325 158.175 157.045 154.547 154.46 154.485 154.56 155.045 155.982 156.662 154.94 155.192 154.405 154.47 154.405 158.182 160.975 160.992 161.34 160.95 157.817 156.347 155.8 154.572 155.76 156.487 156.985 157.555 156.235 154.765 154.75 157.215 157.04 157.095 156.165 155.875 156.59 155.852 155.58 156.582 157.742 158.312 156.802 154.435 154.59 154.707 154.58 154.685 154.695 154.765 154.76 154.707 154.64 154.465 154.437 154.93 156.86 161.21 164.825 163.675 164.26 157.98 157.287 156.682 155.357 154.625 159.187 157.872 157.815 157.7 156.067 157.06 160.385 160.677 166.545 164.457 165.102 167.692 170.247 170.787 170.252 168.222 163.82 168.49 166.952 163.997 167.022 169.415 170.09 168.572 163.552 154.735 152.457 156.285 158.802 162.59 159.12 155.07 152.785 152.427 152.47 152.617 152.555 152.622 152.545 152.48 152.487 152.627 152.6 152.605 152.67 153.627 154.822 153.822 153.82 154.855 156.25 157.682 159.05 156.175 153.007 153.04 153.635
-9999 -9999 -9999 -9999 -9999 -9999 -9999 -9999 -9999 -9999 -9999 -9999 -9999 -9999 -9999 -9999 -9999 -9999 -9999 -9999 -9999 -9999 -9999 -9999 -9999 -9999 170.104 166.724 163.439 163.919 163.369 161.247 159.067 158.929 158.852 158.847 158.727 158.719 158.732 158.682 159.664 161.354 159.719 158.767 159.924 160.262 158.722 159.924 161.292 160.172 159.707 159.459 158.794 158.587 158.827 158.782 158.507 158.462 158.897 162.274 163.994 164.839 163.272 161.877 159.364 158.942 159.407 159.317 158.782 160.339 160.359 159.169 158.457 158.309 158.382 158.507 158.527 158.552 158.529 158.522 158.489 158.474 158.534 158.607 158.554 158.492 158.579 159.022 159.949 161.122 162.289 163.319 163.994 164.164 164.202 164.237 164.224 164.087 164.039 164.044 164.164 164.239 164.244 164.137 164.104 164.092 164.107 164.094 164.099 164.109 164.142 164.132 164.097 164.047 164.072 164.102 164.132 164.157 164.202 164.122 164.079 164.119 164.112 164.107 164.127 164.107 164.032 164.087 164.119 164.104 164.109 164.112 164.019 163.484 162.379 161.179 159.897 159.009 158.262 157.944 157.812 157.709 157.547 157.669 157.964 158.827 158.162 158.187 158.199 158.277 158.959 157.719 156.802 156.842 156.589 156.394 156.817 156.799 155.994 155.639 156.654 158.742 158.427 157.002 155.607 157.597 156.817 155.792 157.724 157.739 156.247 155.132 155.104 155.199 155.377 155.487 155.722 155.574 155.332 155.377 155.389 157.197 166.062 168.749 168.802 166.219 162.34 158.577 155.675 155.167 155.117 155.077 155.912 158.18 157.74 155.877 154.63 155.025 154.84 154.347 154.435 154.79 156.88 157.362 156.42 158.825 159.645 160.67 161.007 161.325 155.922 155.49 154.807 154.517 154.697 154.69 154.622 154.665 154.96 155.382 155.845 157.415 157.702 156.91 156.445 156.53 157.052 156.457 155.945 155.875 155.83 155.852 155.83 155.772 155.742 155.755 155.707 155.837 155.67 155.615 155.772 155.532 155.64 155.585 155.412 155.44 155.342 155.272 155.24 155.235 155.107 155.065 155.12 155.687 157.54 158.12 156.66 155.247 155.052 155.152 156.852 160.272 161.157 160.967 160.867 160.78 159.53 155.517 155.482 156.32 154.87 154.747 154.24 154.13 154.28 154.465 154.37 154.637 154.592 154.712 157.782 158.67 158.325 157.96 157.76 156.912 155.742 154.437 154.495 154.597 156.307 157.962 159.002 159.035 157.555 157.96 156.29 155.745 154.427 157.44 159.992 160.465 160.56 160.717 160.702 158.015 155.517 154.442 154.377 154.38 155.075 156.75 156.495 154.767 155.152 158.155 159.822 159.765 157.09 156.81 158.137 158.692 157.075 158.957 159.277 158.585 156.98 154.605 154.565 154.712 154.632 154.73 154.725 154.75 154.747 154.675 154.76 154.867 154.817 156.495 158.1 161.347 164.967 165.95 162.682 161.887 159.487 158.627 156.497 155.64 164.137 165.672 165.572 162.61 156.552 157.595 158.552 164.292 159.572 163.93 169.475 169.28 170.285 170.07 169.45 169.297 155.235 163.907 163.677 155.257 161.1 167.967 157.545 161.657 159.305 154.595 152.185 152.677 155.562 159.795 158.362 155.54 153.745 152.35 152.402 152.42 152.43 152.522 152.46 152.52 152.465 152.537 152.812 152.697 152.615 152.815 153.247 152.797 154.555 158.08 159.285 159.492 159.097 158.642 154.165 153.007 153.005
-9999 -9999 -9999 -9999 -9999 -9999 -9999 -9999 -9999 -9999 -9999 -9999 -9999 -9999 -9999 -9999 -9999 -9999 -9999 -9999 -9999 -9999 -9999 -9999 -9999 -9999 170.284 166.657 163.899 164.649 163.507 161.342 159.524 158.959 159.507 159.424 158.709 159.114 159.082 158.992 159.867 161.034 159.069 159.534 161.114 162.714 163.194 163.489 163.732 161.439 158.879 158.779 158.809 158.574 158.602 158.594 158.479 158.622 158.947 159.344 159.387 159.399 159.714 158.947 158.839 158.689 159.027 159.184 159.177 160.997 161.189 159.834 158.909 158.519 158.524 158.637 158.682 158.634 158.614 158.542 158.539 158.564 158.654 158.749 158.659 158.602 158.654 158.979 159.872 161.037 162.174 163.019 163.722 164.064 164.164 164.199 164.197 164.082 164.032 164.012 164.092 164.194 164.264 164.247 164.159 164.132 164.082 164.114 164.142 164.192 164.174 164.129 164.099 164.069 164.119 164.114 164.054 164.134 164.192 164.124 164.069 164.084 164.069 164.074 164.144 164.139 164.077 164.142 164.127 164.167 164.157 164.127 164.059 163.607 162.437 161.214 159.964 159.039 158.357 157.992 157.727 157.729 157.567 157.527 157.702 158.014 159.637 159.662 158.987 158.674 158.329 157.802 156.847 156.504 156.434 156.397 156.334 156.244 156.062 155.682 155.432 155.949 155.924 155.622 156.599 158.634 158.067 157.897 158.042 155.869 155.194 155.292 155.234 155.264 155.319 155.829 158.454 157.214 155.382 155.399 155.499 161.107 168.747 169.699 168.979 163.199 157.165 155.945 155.105 155.227 155.17 155.145 156.055 157.852 157.05 155.682 155.797 155.185 155.132 154.64 155.39 155.322 155.8 155.957 155.292 155.682 155.262 157.715 158.757 158.02 155.167 155.187 155.77 155.477 154.815 154.78 154.785 154.74 154.85 155.077 155.225 156.037 156.282 156.392 156.185 157.045 159.025 157.11 155.98 155.91 155.9 155.86 155.777 155.72 155.755 155.712 155.572 155.64 155.575 155.48 155.64 155.577 155.62 155.635 155.45 155.455 155.387 155.31 155.217 155.152 155.015 155.02 155.052 155.352 156.757 158.162 155.712 155.025 154.93 155.672 157.875 159.69 159.417 160.005 159.85 159.267 157.632 155.665 155.28 154.882 154.432 154.442 154.162 154.135 154.157 154.247 154.437 154.627 154.507 154.455 155.485 157.015 157.225 156.962 156.695 155.722 154.435 154.35 156.095 160.745 161.272 165.835 163.115 160.42 160.01 159.927 159.557 158.13 155.142 156.242 158.872 157.92 157.835 158.912 158.912 157.56 155.547 154.34 154.352 154.227 154.24 154.87 155.297 156.492 156.462 158.757 160.475 161.135 157.695 158.002 161.14 162.85 159.55 157.962 156.92 156.872 156.085 154.69 154.592 154.745 154.66 154.557 154.547 154.62 154.712 154.687 155.505 156.41 156.092 156.492 160.097 161.907 162.377 167.277 164.317 159.052 156.885 158.83 157.58 156.482 158.482 167.91 169.342 169.485 162.092 153.91 155.507 162.672 167.457 169.062 170.535 168.377 166.3 166.055 165.415 163.89 154.805 155.847 159.075 158.03 155.985 161.56 157.09 154.405 152.982 152.445 152.057 152.217 155.765 159.485 160.607 158.275 154.482 152.315 152.402 152.312 152.395 152.437 152.34 152.4 152.39 152.385 152.49 152.555 152.497 152.572 152.575 152.662 153.847 156.437 158.647 158.302 156.302 157.015 154.63 153.052 152.837
-9999 -9999 -9999 -9999 -9999 -9999 -9999 -9999 -9999 -9999 -9999 -9999 -9999 -9999 -9999 -9999 -9999 -9999 -9999 -9999 -9999 -9999 -9999 -9999 -9999 -9999 -9999 163.741 162.419 162.402 163.377 162.407 160.589 159.257 160.547 160.454 160.509 161.324 161.579 161.017 160.632 160.682 159.184 160.352 161.557 163.229 164.519 165.224 164.444 160.684 158.904 159.397 159.522 158.749 158.529 158.544 158.449 159.069 160.212 160.814 161.254 162.207 162.599 159.809 158.717 158.602 158.552 158.584 159.429 161.022 161.874 160.217 158.847 158.619 158.597 158.657 158.717 158.747 158.714 158.619 158.584 158.644 158.754 158.834 158.754 158.702 158.749 158.974 159.784 160.932 162.179 163.279 163.737 163.909 164.094 164.207 164.214 164.169 164.044 164.014 164.034 164.174 164.254 164.299 164.229 164.139 164.079 164.119 164.162 164.189 164.119 164.104 164.107 164.074 164.132 164.122 164.062 164.132 164.162 164.099 164.092 164.064 164.047 164.044 164.139 164.144 164.049 164.082 164.054 164.042 164.149 164.092 163.997 163.632 162.592 161.359 160.064 159.017 158.339 157.922 157.737 157.739 157.637 157.572 158.392 159.897 161.327 159.192 158.259 158.652 157.577 156.889 156.749 156.574 156.532 156.419 156.312 156.227 156.197 155.967 155.859 155.929 156.067 156.404 157.882 161.659 162.519 161.827 158.639 156.229 155.357 155.434 155.582 155.479 155.514 155.527 159.699 159.132 157.447 155.549 156.047 162.489 167.379 168.244 167.932 160.859 155.262 155.077 155.11 155.215 155.16 155.117 155.147 155.17 155.042 155.907 156.87 155.477 156.602 155.855 155.512 155.195 154.967 155.01 155.797 155.295 154.642 155.197 155.28 154.91 155.202 156.185 156.837 157.115 156.797 156.132 155.602 155.157 155.012 155.09 155.027 155.322 156.305 157.53 157.05 156.895 158.805 158.602 156.345 155.882 155.852 155.752 155.737 155.74 155.687 155.657 155.577 155.54 155.547 155.57 155.52 155.577 155.647 155.565 155.51 155.475 155.42 155.325 155.26 155.19 155.16 155.19 155.09 155.042 156.307 157.957 155.837 155.002 154.97 155.14 156.485 157.652 157.105 157.39 157.662 157.122 155.85 155.072 154.76 154.925 154.497 154.342 154.195 154.157 154.157 154.17 154.342 154.495 154.38 154.387 154.33 155.317 155.542 155.425 155.085 155.152 154.617 154.275 159.855 166.93 168.88 168.91 167.08 160.81 159.185 159.04 159.592 157.78 155.342 154.712 156.325 155.76 155.425 156.5 155.757 156.29 155.147 154.347 154.317 154.282 154.267 154.315 155.065 156.92 156.717 158.102 159.792 160.915 158.275 159.667 161.877 161.317 158.002 155.672 154.83 154.852 155.507 154.735 154.602 154.382 154.282 154.322 154.372 154.485 154.64 154.942 156.125 157.475 158.42 161.635 166.035 166.51 163.327 169.087 165.795 157.44 159.11 160.552 159.817 155.942 154.242 164.11 169.985 169.075 165.047 157.957 156.367 161.745 163.885 166.127 169.287 161.652 159.482 164.477 161.342 162.262 156.6 153.042 154.017 152.297 152.727 154.707 152.512 152.057 152.072 152.142 152.035 152.22 154.695 160.257 162.145 157.887 153.777 152.125 152.32 152.165 152.225 152.182 152.23 152.21 152.267 152.24 152.315 152.37 152.34 152.46 152.485 152.662 152.752 153.892 154.47 153.712 152.99 153.372 153.132 152.872 152.847
-9999 -9999 -9999 -9999 -9999 -9999 -9999 -9999 -9999 -9999 -9999 -9999 -9999 -9999 -9999 -9999 -9999 -9999 -9999 -9999 -9999 -9999 -9999 -9999 -9999 -9999 -9999 -9999 159.264 161.174 162.764 162.937 161.544 159.979 159.444 162.364 162.972 163.437 163.894 163.239 162.294 160.134 159.712 160.962 162.159 163.599 164.659 165.037 164.542 162.117 160.219 159.937 160.094 158.889 158.449 158.879 159.017 159.489 161.179 162.207 163.122 165.144 165.187 161.829 158.884 158.597 158.589 158.589 158.714 159.882 161.332 160.529 158.747 158.682 158.729 158.714 158.769 158.844 158.832 158.727 158.732 158.769 158.832 158.892 158.887 158.802 158.847 159.022 159.672 160.824 162.122 163.162 163.857 164.042 164.139 164.239 164.217 164.207 164.139 164.079 164.137 164.207 164.234 164.209 164.174 164.097 164.087 164.129 164.162 164.154 164.069 164.049 164.097 164.044 164.014 164.054 164.057 164.062 164.094 164.037 163.989 164.039 164.052 163.942 163.842 163.934 163.954 163.837 163.669 163.622 163.852 163.794 163.447 163.174 162.702 161.594 160.269 159.059 158.319 157.929 157.839 157.654 157.534 157.652 159.314 161.867 161.577 159.737 157.629 158.644 158.797 157.002 156.717 156.604 156.557 156.522 156.457 156.317 156.364 156.402 156.044 155.952 155.999 156.147 158.412 161.894 164.392 161.589 157.242 155.724 155.572 156.427 157.334 156.182 158.069 156.567 160.439 162.302 158.147 155.662 160.084 163.994 166.304 165.902 164.689 158.159 155.122 155.122 155.097 155.122 155.195 155.01 154.92 154.782 154.98 155.2 155.1 155.667 157.337 157.025 157.295 156.72 156.05 156.032 156.595 155.342 154.792 154.822 155.71 156.355 155.17 156.795 157.41 157.222 157.387 157.365 157.455 157.155 155.36 155.007 155.127 155.797 157.37 157.707 157.772 157.007 156.897 156.865 155.857 155.87 155.882 155.805 155.747 155.812 155.672 155.65 155.605 155.43 155.552 155.572 155.52 155.545 155.632 155.56 155.54 155.462 155.435 155.325 155.325 155.225 155.167 155.122 155.112 155.092 155.92 157.285 156.63 155.405 155.242 155.235 156.53 156.995 156.705 156.73 156.302 155.027 155.105 154.717 154.337 154.452 154.445 154.417 154.3 154.222 154.167 154.132 154.212 154.337 154.475 154.395 154.68 154.787 154.5 154.957 154.262 154.332 155.36 154.77 160.612 167.627 168.9 168.82 168.172 163.117 156.737 156.867 156.647 156.467 154.717 154.585 155.27 154.53 155.067 155.845 154.887 156.05 154.867 154.385 154.285 154.22 154.272 154.222 155.165 156.835 155.96 157.195 158.62 159.32 158.227 157.957 157.487 158.805 155.982 154.505 154.59 154.52 154.74 154.56 154.432 154.285 154.325 154.425 154.385 154.342 154.507 155.245 155.575 156.987 158.33 160.412 164.86 165.637 159.29 166.945 162.257 156.137 158.292 162.987 163.345 156.245 157.952 168.325 168.247 165.897 169.567 161.472 153.3 158.555 163.55 162.097 163.562 160.767 157.65 164.812 158.437 157.12 154.407 152.56 152.082 151.915 152.03 152.095 151.975 152.187 152.527 152.42 152 151.825 152.722 156.487 159.585 157 152.177 152.097 152.207 152.2 152.16 152.14 152.172 152.082 152.122 152.17 152.082 152.12 152.112 152.172 152.37 152.44 152.762 153.702 152.575 152.72 152.497 152.63 152.617 152.732 152.857
-9999 -9999 -9999 -9999 -9999 -9999 -9999 -9999 -9999 -9999 -9999 -9999 -9999 -9999 -9999 -9999 -9999 -9999 -9999 -9999 -9999 -9999 -9999 -9999 -9999 -9999 -9999 -9999 -9999 161.427 162.299 162.489 162.129 160.304 159.539 161.902 164.844 164.719 164.822 164.967 162.959 160.212 160.159 161.419 162.687 163.554 163.487 163.312 163.097 162.332 160.074 159.454 159.547 158.554 158.514 158.972 160.034 160.464 161.262 163.362 164.794 166.162 166.549 164.062 160.567 158.649 158.642 158.702 158.864 160.799 162.752 160.402 158.807 158.767 158.864 158.874 158.834 158.874 158.924 158.864 158.864 158.867 158.897 158.999 158.994 158.929 158.944 159.139 159.632 160.757 162.059 163.034 163.767 164.132 164.232 164.282 164.232 164.202 164.167 164.079 164.057 164.134 164.177 164.114 164.114 164.112 164.112 164.144 164.157 164.162 164.127 163.997 163.937 163.917 163.844 163.809 163.854 163.844 163.807 163.682 163.614 163.637 163.554 163.322 163.249 163.192 163.097 162.919 162.994 162.809 162.682 162.759 162.587 162.249 162.174 161.627 160.429 159.274 158.354 157.982 157.754 157.642 157.732 158.004 158.284 159.057 158.767 158.359 157.484 158.629 158.207 156.969 156.842 156.722 156.702 156.574 156.492 156.434 156.477 156.359 156.194 156.184 156.162 156.084 157.137 160.934 161.692 159.792 156.582 156.544 156.112 157.294 159.182 158.464 159.917 159.332 161.079 163.064 162.759 158.502 159.487 160.232 162.584 159.932 159.007 155.364 155.01 155.085 155.152 155.077 155.032 155.06 154.97 154.98 155.137 155.025 155.075 155.09 155.075 155.435 156.212 155.565 156.672 156.9 157.267 156.76 155.11 155.272 156.36 156.242 155.055 155.312 156.722 157.015 157.535 157.632 157.415 157.287 155.595 155.047 154.97 155.792 158.015 157.932 158.735 159.52 158.987 157.117 155.895 155.822 155.82 155.835 155.742 155.787 155.78 155.712 155.632 155.535 155.49 155.562 155.507 155.522 155.572 155.427 155.537 155.535 155.472 155.347 155.202 155.225 155.187 155.08 155.042 155.01 155.512 157.21 157.757 157.232 157.432 157.13 157.535 157.982 157.275 157.792 158.802 158.265 158.907 156.615 154.352 154.472 154.572 154.705 154.522 154.42 154.307 154.19 154.207 154.275 155.18 156.77 156.677 156.972 154.89 155.36 154.582 154.215 154.69 155.005 158.07 167.117 168.415 168.182 166.027 162.967 158.88 158.485 156.587 156.357 156.12 154.855 154.83 154.47 155.082 155.43 155.12 156.38 154.675 154.32 154.275 154.442 154.997 155.435 156.44 156.925 157.37 158.847 159.172 158.485 156.495 155.772 154.877 155.715 154.75 154.637 154.712 154.507 154.46 154.392 154.437 154.465 154.497 155.115 154.41 154.39 154.927 156.002 155.382 157.755 160.027 156.017 159.452 165.26 165.292 159.705 160.217 156.447 158.867 161.807 163.937 158.405 163.107 167.19 168.555 170.59 164.82 154.087 152.57 155.825 162.717 158.075 156.157 160.605 160.705 162.402 159.19 152.497 152.172 152.142 152.047 151.827 151.772 151.97 152.377 152.085 151.89 151.945 151.847 152.2 155.565 156.527 156.165 152.045 152.1 152.085 152.072 152.175 152.142 152.07 152.047 152.057 151.99 152.077 151.975 151.957 151.985 152.052 152.16 152.275 152.687 152.495 152.385 152.275 152.28 152.477 152.552 152.562 152.56
-9999 -9999 -9999 -9999 -9999 -9999 -9999 -9999 -9999 -9999 -9999 -9999 -9999 -9999 -9999 -9999 -9999 -9999 -9999 -9999 -9999 -9999 -9999 -9999 -9999 -9999 -9999 -9999 -9999 162.879 159.919 160.509 161.849 160.349 160.164 161.167 164.227 164.797 164.752 164.937 163.847 162.069 161.002 161.282 161.329 161.774 161.764 161.087 160.777 160.577 159.394 159.167 159.204 158.587 158.552 158.529 158.989 159.342 160.584 162.927 164.572 165.582 165.587 165.127 162.464 159.329 158.727 158.759 159.202 161.357 163.462 159.744 158.974 158.937 158.997 158.962 158.902 158.882 158.949 159.012 158.994 158.984 158.982 159.077 159.104 159.069 159.094 159.152 159.612 160.717 161.962 162.934 163.589 164.017 164.197 164.247 164.207 164.144 164.129 164.047 163.904 163.899 163.947 163.929 163.919 163.877 163.807 163.782 163.732 163.639 163.579 163.427 163.337 163.272 163.157 163.127 163.087 162.899 162.734 162.587 162.507 162.404 162.317 162.254 162.119 161.894 161.784 161.844 161.867 161.767 161.424 161.534 161.429 161.142 161.097 160.979 160.224 159.377 158.599 158.052 157.767 157.674 157.992 157.832 157.774 157.722 157.607 157.352 157.807 159.859 157.502 157.689 157.219 157.107 157.232 157.332 156.534 157.902 159.747 158.797 157.184 157.164 156.292 156.287 157.412 159.062 158.242 158.832 160.819 161.579 160.869 157.912 161.232 162.362 163.474 164.529 164.842 166.444 166.984 161.059 158.927 160.582 161.079 157.077 155.152 155.062 155.072 155.077 155.157 155.055 154.97 155.01 154.972 155.062 155.117 154.887 154.962 155.07 155.1 155.11 155.077 154.887 155.167 155.457 156.75 156.507 156.585 156.87 156.175 156.312 154.835 154.912 155.332 155.302 155.637 157.387 157.47 156.985 155.342 155.072 154.967 156.732 159.802 160.952 161.677 164.765 164.987 164.542 158.235 155.777 155.757 155.725 155.725 155.645 155.647 155.535 155.542 155.565 155.47 155.455 155.452 155.54 155.535 155.485 155.507 155.592 155.537 155.342 155.312 155.217 155.16 155.11 155.075 154.972 155.065 157.145 158.557 157.515 156.267 155.807 155.1 157.077 158.47 159.29 160.085 160.477 160.737 159.64 156.775 154.587 154.687 154.435 154.342 154.417 154.275 154.272 154.26 154.277 155.1 157.342 157.08 155.885 154.645 154.475 154.31 154.55 154.302 154.155 157.472 161.127 162.342 162.362 161.055 159.282 158.2 158.69 158.985 158.31 157.605 156.747 155.302 154.97 157.532 159.495 158.277 157.915 154.715 154.667 155.072 155.69 156.737 158.192 159.547 158.36 157.592 158.602 156.807 156.465 154.86 154.96 154.962 154.737 155.372 157.252 156.247 154.57 154.45 154.45 154.647 155.335 157.595 158.07 154.445 154.98 157.712 156.387 154.702 161.732 164.597 160.015 160.112 159.35 163.582 165.625 166.54 158.892 163.395 159.005 166.322 166.665 162.525 157.325 161.365 169.087 167.027 160.977 152.505 152.75 159.677 156.647 153.66 154.477 152.302 153.49 152.16 151.94 152.225 152.34 152.115 151.785 151.687 151.795 151.967 152.365 153.09 153.235 154.982 154.155 158.412 158.907 157.05 152.06 152.03 152.097 152.132 152.05 152.042 151.952 151.895 151.96 151.97 151.892 151.907 151.85 151.892 151.925 151.91 152.595 154.002 152.455 152.235 152.162 152.247 152.22 152.282 152.397 152.44
-9999 -9999 -9999 -9999 -9999 -9999 -9999 -9999 -9999 -9999 -9999 -9999 -9999 -9999 -9999 -9999 -9999 -9999 -9999 -9999 -9999 -9999 -9999 -9999 -9999 -9999 -9999 -9999 -9999 -9999 161.324 161.992 161.949 161.649 160.044 160.937 163.009 163.362 161.219 162.722 163.039 161.542 160.977 159.697 159.064 160.159 159.642 158.937 158.809 158.659 158.517 158.504 158.542 158.559 158.542 158.519 158.562 158.644 159.744 161.727 163.672 164.279 164.224 164.447 162.577 159.767 159.127 158.967 159.704 161.822 162.524 159.182 158.927 158.887 159.002 158.954 158.909 158.914 159.009 159.069 159.089 159.114 159.107 159.102 159.179 159.192 159.169 159.132 159.574 160.644 161.747 162.784 163.269 163.597 163.922 163.974 163.867 163.819 163.842 163.712 163.577 163.389 163.369 163.354 163.327 163.149 162.987 162.949 162.752 162.532 162.422 162.389 162.262 162.194 162.112 161.989 161.834 161.699 161.682 161.484 161.237 161.112 161.039 160.954 160.939 160.924 160.714 160.689 160.714 160.657 160.322 160.362 160.287 160.067 159.942 159.889 159.634 159.107 158.599 158.137 157.927 157.812 158.127 158.157 157.799 158.167 158.007 157.312 158.074 159.554 157.622 158.879 158.702 159.199 160.387 161.047 160.574 161.649 162.367 161.227 159.059 158.747 156.934 158.742 160.177 159.927 158.677 162.867 164.337 164.907 164.732 162.677 162.909 164.127 164.919 165.307 166.044 167.264 168.312 166.732 161.734 159.949 158.557 157.197 155.429 155.217 155.027 154.915 155.015 155.065 155.075 155.01 155.022 155.14 155.005 154.825 154.842 154.907 154.97 154.907 154.802 154.76 154.827 155.477 155.43 155.487 155.915 157.185 155.88 155.347 154.905 155.75 156.972 155.092 156.435 156.935 157.57 156.597 155.107 154.997 155.2 159.535 165.012 163.702 164.682 166.627 171.6 171.44 161.537 155.762 155.76 155.615 155.732 155.655 155.577 155.58 155.54 155.597 155.702 155.612 155.74 155.69 155.512 155.407 155.457 155.487 155.5 155.487 155.362 155.215 155.127 155.132 155.192 155.002 155.057 156.517 158.292 156.195 154.675 154.62 154.575 156.507 160.495 160.81 160.645 160.742 161.19 161.522 162.305 157.752 161.31 160.302 157.11 155.262 154.24 154.152 154.075 154.05 154.972 156.617 156.47 154.565 153.942 153.93 155.025 155.52 154.275 153.87 154.36 155.222 155.845 156.715 155.612 155.21 154.715 155.062 157.48 157.45 155.667 157.882 159.117 155.68 160.75 163.79 161.035 157.927 155.272 156.547 156.782 157.042 159.172 160.925 160.332 156.43 155.2 155.565 154.552 154.737 155.962 157.312 157.307 156.682 158.082 160.77 158.682 154.432 154.442 154.552 157.885 161.437 162.212 161.137 154.74 157.62 164.992 161.477 160.902 167.237 166.252 163.315 165.797 157.117 156.845 157.602 160.877 154.16 156.74 157.817 164.235 166.69 158.412 153.76 160.505 164.285 160.44 156.66 152.375 152.172 154.205 156.097 152.825 151.825 151.712 151.845 151.915 151.802 152.12 152.642 152.027 151.66 151.75 152.237 154.472 155.15 155.49 155.66 158.81 158.97 159.44 159.857 158.005 152.395 152.167 152.197 152.112 152.042 151.94 151.982 151.7 151.767 151.812 151.742 151.717 151.787 151.747 151.862 151.855 152.342 152.52 151.98 152.077 152.087 152.05 152.105 152.212 152.235 152.297
-9999 -9999 -9999 -9999 -9999 -9999 -9999 -9999 -9999 -9999 -9999 -9999 -9999 -9999 -9999 -9999 -9999 -9999 -9999 -9999 -9999 -9999 -9999 -9999 -9999 -9999 -9999 -9999 -9999 -9999 -9999 162.287 161.874 162.114 161.772 160.272 161.584 159.672 158.999 160.312 159.432 160.037 160.677 158.982 158.459 158.849 158.462 158.504 158.492 158.459 158.512 158.517 158.487 158.492 158.497 158.567 158.664 158.659 158.859 160.834 162.947 162.962 162.679 163.137 161.594 159.447 159.142 159.819 159.279 160.172 160.762 159.704 158.754 158.734 158.854 158.927 158.884 158.882 159.002 159.074 159.032 159.037 159.147 159.159 159.224 159.237 159.204 159.197 159.542 160.542 161.504 162.282 162.732 162.899 162.897 162.869 162.764 162.684 162.619 162.507 162.394 162.269 162.202 162.157 162.107 161.924 161.829 161.737 161.472 161.302 161.222 161.192 161.189 161.179 161.069 160.939 160.914 160.894 160.827 160.727 160.612 160.364 160.162 160.297 160.242 160.184 160.082 160.017 159.882 159.674 159.652 159.637 159.454 160.214 161.344 159.464 158.882 158.709 158.507 158.184 158.384 158.074 158.154 158.692 157.699 158.409 158.339 157.357 158.649 160.654 161.884 162.264 162.522 162.002 163.069 163.192 163.244 163.492 162.787 162.247 160.417 158.622 159.837 160.942 161.364 162.054 162.364 163.927 164.824 165.374 165.282 163.672 164.319 165.499 165.034 164.579 165.434 166.242 166.989 165.732 162.639 160.709 157.322 155.787 155.362 155.834 155.425 155.082 154.96 155.065 155.025 154.937 155.305 155.162 154.945 154.922 154.915 154.96 154.87 154.707 154.82 154.805 154.75 155.21 155.34 155.122 155.332 155.462 155.195 154.965 155.692 157.8 161.28 156.442 157.6 157.455 157.267 155.892 154.89 154.95 155.542 161.125 163.607 165.307 167.14 170.402 170.085 165.992 162.907 155.602 155.677 155.672 155.522 155.597 155.55 155.58 155.597 155.527 155.657 155.707 155.705 155.78 155.595 155.512 155.592 155.502 155.495 155.48 155.38 155.272 155.24 155.112 155.125 155.065 155.015 155.74 157.947 156.432 154.582 154.572 154.58 155.992 160.547 160.17 159.75 158.897 160.247 163.845 163.497 162.732 165.255 163.835 161.13 157.542 154.165 154.05 153.925 154.217 155.525 156.132 155.565 154.297 153.78 154.075 156.027 156.825 155.717 153.815 153.87 153.957 154.642 156.83 156.355 154.552 153.997 153.977 154.852 154.987 155.082 158.577 160.29 159.347 161.915 163.76 160.775 158.007 156.857 158.047 158.732 158.052 158.917 159.427 158.037 155.02 154.187 154.29 155.365 156.947 158.53 159.795 159.6 158.535 160.175 163.682 161.637 154.257 154.335 154.997 159.197 162.872 163.717 163.985 157.835 164.112 170.242 169.645 169.977 170.52 168.777 163.492 160.005 161.805 156.865 161.415 154.325 153.025 154.342 159.335 156.295 162.49 158.215 154.392 155.19 154.462 154.377 152.812 152.37 152.237 152.617 152.83 151.915 151.937 151.625 151.887 151.88 151.74 151.737 151.982 151.825 152.38 152.39 154.075 154.737 158.385 158.522 159.042 159.76 160.005 160.482 160.645 158.995 153.402 152.417 152.017 152.067 151.99 151.882 151.727 151.665 151.635 151.662 151.592 151.615 151.605 151.627 151.787 151.697 151.825 151.902 151.815 151.927 151.957 151.987 152.112 152.1 152.125 152.247
-9999 -9999 -9999 -9999 -9999 -9999 -9999 -9999 -9999 -9999 -9999 -9999 -9999 -9999 -9999 -9999 -9999 -9999 -9999 -9999 -9999 -9999 -9999 -9999 -9999 -9999 -9999 -9999 -9999 -9999 -9999 -9999 162.899 163.379 163.852 160.674 158.917 158.562 158.509 158.447 158.767 159.294 160.052 158.754 158.452 158.462 158.477 158.524 158.574 159.009 159.044 158.687 158.474 158.459 158.494 158.634 158.842 158.712 158.584 159.192 159.677 159.829 159.877 159.849 160.252 158.904 158.957 159.452 159.204 158.867 159.424 159.024 158.569 158.637 158.854 158.944 158.849 158.857 158.894 159.024 159.004 158.959 159.057 159.114 159.169 159.319 159.312 159.347 159.547 160.264 161.032 161.674 161.792 161.687 161.702 161.587 161.562 161.494 161.382 161.329 161.282 161.209 161.089 160.919 160.907 160.862 160.814 160.719 160.599 160.434 160.404 160.437 160.457 160.429 160.404 160.387 160.412 160.474 160.449 160.337 160.279 160.237 160.099 160.039 159.992 159.917 159.829 159.807 159.704 159.549 159.474 159.782 161.239 162.832 163.862 161.797 158.812 158.554 158.332 158.177 158.862 161.109 161.217 159.887 157.977 157.794 157.749 158.014 158.819 161.307 163.467 163.277 163.082 162.579 163.339 162.889 163.462 163.622 162.552 161.032 158.339 158.707 159.904 161.089 160.917 160.247 160.254 163.872 165.849 166.534 166.557 163.507 160.449 164.289 164.344 164.289 164.094 163.942 164.219 164.567 163.257 161.974 161.119 160.474 158.179 158.267 155.917 155.337 155.152 155.047 154.887 154.85 155.707 155.955 154.977 155.01 154.892 154.832 154.857 154.722 154.73 154.705 154.837 154.817 154.785 154.95 155.112 155.195 155.035 154.965 157.642 160.282 160.752 157.92 157.53 157.36 156.9 155.557 154.917 155.77 162.052 166.562 166.71 169.495 170.877 167.715 167.025 158.745 158.247 155.515 155.572 155.525 155.477 155.49 155.537 155.515 155.555 155.535 155.532 155.71 155.675 155.66 155.627 155.485 155.55 155.59 155.435 155.44 155.322 155.227 155.2 155.232 155.087 155.045 154.91 154.93 156.755 157.66 155.68 154.465 154.505 155.015 157.862 159.042 158.025 156.47 160.317 164.585 165.7 165.287 161.035 164.962 161.177 157.087 154.1 153.945 153.852 153.962 154.51 154.862 154.755 154.085 154.117 155.71 157.497 158.015 157.13 154.667 153.757 153.895 154.375 155.415 158.495 156.555 153.93 154.507 156.445 157.375 160.007 160.165 159.662 159.822 160.972 161.81 160.295 157.85 157.782 159.537 160.782 159.06 155.765 155.152 154.64 154.08 154.18 156.307 156.165 159.36 161.202 162.285 162.085 160.462 160.092 163.157 166.665 156.657 154.532 156.607 157.615 161.245 162.257 163.552 164.507 169.375 170.605 170.52 170.65 171.177 169.472 167.677 157.36 155.462 153.815 153.31 153.07 153.03 152.782 152.677 152.575 156.655 162.227 155.98 152.42 152.435 152.425 152.367 152.235 152.19 152.24 152.147 151.877 151.917 151.717 151.757 151.842 151.727 151.722 152.602 153.535 157.13 158.11 158.25 159.105 159.615 159.86 160.237 160.735 160.64 160.78 160.202 159.702 156.622 152.815 151.995 151.915 151.81 151.817 151.632 151.63 151.507 151.472 151.56 151.58 151.477 151.585 151.662 151.515 151.59 151.687 151.735 151.672 151.832 151.92 152.04 151.977 152.002 151.987
-9999 -9999 -9999 -9999 -9999 -9999 -9999 -9999 -9999 -9999 -9999 -9999 -9999 -9999 -9999 -9999 -9999 -9999 -9999 -9999 -9999 -9999 -9999 -9999 -9999 -9999 -9999 -9999 -9999 -9999 -9999 -9999 -9999 167.667 167.307 160.999 158.807 158.419 158.479 158.449 158.609 158.994 158.897 158.587 158.527 158.432 158.532 158.817 158.827 159.054 159.169 158.739 158.574 158.507 158.507 158.427 158.579 158.607 158.514 158.859 160.407 161.374 162.812 162.664 162.362 159.647 158.574 158.582 158.594 158.632 158.697 158.629 158.622 158.602 158.724 158.777 158.784 158.867 158.892 158.937 159.019 158.997 158.964 158.969 159.112 159.214 159.352 159.434 159.529 160.017 160.454 160.692 160.504 160.542 160.664 160.462 160.599 160.652 160.524 160.542 160.584 160.512 160.509 160.477 160.552 160.469 160.402 160.362 160.304 160.274 160.287 160.302 160.324 160.274 160.254 160.234 160.329 160.399 160.272 160.217 160.189 160.094 159.992 159.997 160.009 160.109 159.924 160.087 159.962 159.797 159.382 160.507 163.319 165.037 165.474 164.272 160.079 159.384 158.852 158.114 159.052 161.732 162.762 160.074 158.394 158.019 157.959 157.664 157.347 159.774 161.674 162.854 162.784 161.627 162.307 162.442 162.659 162.917 162.837 159.947 156.659 156.397 157.254 159.477 157.809 156.329 156.324 160.132 165.767 166.572 164.252 161.399 156.984 159.552 159.199 162.287 163.277 163.342 162.807 163.229 163.309 162.749 162.882 163.682 162.664 156.827 155.437 155.387 155.347 155.285 155.015 154.922 155.447 155.532 155.082 155.037 154.897 154.862 154.805 154.79 154.86 154.912 154.662 154.637 154.745 154.912 154.915 154.875 154.94 154.957 155.155 156.222 159.69 155.935 157.257 157.222 156.445 155.155 154.68 155.545 158.095 163.317 165.877 168.207 169.417 165.392 158.022 157.04 155.65 155.467 155.462 155.44 155.51 155.395 155.41 155.505 155.487 155.51 155.467 155.487 155.572 155.572 155.542 155.457 155.407 155.52 155.417 155.32 155.335 155.317 155.262 155.225 155.082 155.037 154.977 155.232 156.627 157.885 156.202 154.605 154.94 155.627 155.775 156.805 156.232 154.69 161.182 164.087 165.202 164.297 162.697 162.227 158.735 154.452 153.882 153.805 153.855 153.935 153.997 153.96 153.915 153.915 153.767 155.247 157.255 158.272 157.56 155.022 153.67 153.82 154.072 155.077 157.355 159.275 155.185 157.485 158.997 159.212 160.657 161.547 159.957 158.905 160.272 160.622 160.657 158.915 157.485 157.767 158.705 158.362 156 154.105 154.005 154.217 156.287 160.762 158.06 158.227 163.897 164.822 167.145 164.78 163.307 165.132 162.087 157.23 158.54 162.235 159.22 160.322 161.392 161.647 164.732 168.115 170.157 170.477 170.315 170.237 168.975 162.58 157.002 155.17 154.09 152.86 153.66 152.835 152.752 152.655 152.412 152.565 152.45 152.38 152.292 152.325 152.417 152.4 152.12 152.055 152.112 152.082 151.912 151.867 151.802 151.79 151.815 151.712 152.812 155.767 156.755 158.81 159.34 159.76 160.125 160.402 160.6 160.72 160.63 160.26 159.827 159.355 158.6 157.887 154.057 151.992 151.915 151.742 151.607 151.497 151.485 151.485 151.355 151.405 151.42 151.347 151.402 151.517 151.45 151.367 151.567 151.705 151.652 151.677 151.82 151.772 151.762 151.752 151.922
-9999 -9999 -9999 -9999 -9999 -9999 -9999 -9999 -9999 -9999 -9999 -9999 -9999 -9999 -9999 -9999 -9999 -9999 -9999 -9999 -9999 -9999 -9999 -9999 -9999 -9999 -9999 -9999 -9999 -9999 -9999 -9999 -9999 -9999 166.427 163.172 161.679 159.212 158.439 158.387 158.424 158.574 158.549 158.542 158.612 158.557 158.592 159.059 158.997 158.694 158.612 158.517 158.614 158.644 158.479 158.339 158.264 158.674 158.934 159.194 160.874 163.109 164.779 165.512 163.999 161.342 159.319 158.557 158.492 158.499 158.702 158.749 158.667 158.689 158.592 158.617 158.724 158.852 158.924 158.964 159.007 158.997 158.987 160.017 162.654 162.632 161.537 160.069 159.477 159.709 159.859 159.744 159.974 159.907 159.854 160.034 160.269 160.914 161.427 161.359 160.519 161.077 161.444 160.737 160.394 160.309 160.294 160.319 160.297 160.947 161.814 160.517 160.282 160.179 160.194 160.262 160.499 160.389 160.014 160.189 160.224 159.802 159.762 159.969 160.882 161.167 159.992 160.652 161.814 161.829 160.922 160.747 163.297 165.169 166.052 163.469 160.004 160.159 159.917 158.322 159.039 161.759 163.009 160.634 157.609 156.889 156.694 156.737 156.609 157.357 158.794 160.234 160.519 158.149 159.187 160.177 161.237 160.977 161.192 157.764 156.369 156.362 156.277 156.587 156.214 156.149 156.157 156.669 161.699 164.192 160.214 157.542 156.147 156.387 155.932 158.372 160.607 161.644 161.597 161.994 163.542 163.317 163.582 164.489 162.844 157.169 155.36 155.345 155.377 155.26 155.175 155.075 155.11 155.11 155.137 155.155 155.125 155.752 155.967 155.545 155.227 155.385 154.88 154.645 154.732 154.742 154.795 154.825 154.767 154.77 154.815 155.027 157.345 157.16 157.285 156.707 155.862 154.752 154.682 156.187 161.042 168.405 167.677 167.44 166.462 163.852 159.702 155.52 155.487 155.352 155.4 155.462 155.49 155.417 155.342 155.455 155.42 155.402 155.427 155.472 155.66 155.512 155.41 155.397 155.362 155.355 155.45 155.38 155.28 155.365 155.255 155.017 155.112 155.097 155.03 155.542 158.452 158.497 156.917 154.737 155.045 155.762 156.047 156.002 155.065 154.195 162.322 163.97 164.165 162.072 155.79 157.825 156.037 155.312 153.892 153.775 153.842 153.895 153.937 153.865 153.825 153.815 153.75 154.22 156.572 157.79 157.912 156.34 154.145 153.71 154.285 156.69 159.77 158.09 156.595 160.387 159.92 158.712 157.107 160.777 161.097 156.985 158.23 159.845 160.262 159.185 156.19 155.667 155.87 158.017 160.192 156.152 155.125 159.092 163.362 162.94 156.517 160.967 166.537 166.927 167.812 168.385 167.96 167.545 162.08 159.14 158.595 157.32 163.275 163.872 164.022 159.19 159.745 165.24 165.375 166.817 160.13 163.957 168.17 161.545 157.342 160.692 159.26 156.347 155.95 152.865 152.625 152.517 152.47 152.462 152.45 152.265 152.212 152.365 152.357 152.335 152.137 152.007 151.995 151.867 151.89 152.8 153.285 154.092 155.762 156.595 157.985 159.385 159.682 159.98 160.48 160.802 160.752 160.56 160.185 159.905 159.425 159.07 158.777 157.977 154.127 153.615 153.807 151.98 151.827 151.607 151.407 151.422 151.355 151.442 151.365 151.202 151.222 151.297 151.312 151.27 151.4 151.435 151.427 151.475 151.457 151.497 151.607 151.605 151.7 151.617 151.652
-9999 -9999 -9999 -9999 -9999 -9999 -9999 -9999 -9999 -9999 -9999 -9999 -9999 -9999 -9999 -9999 -9999 -9999 -9999 -9999 -9999 -9999 -9999 -9999 -9999 -9999 -9999 -9999 -9999 -9999 -9999 -9999 -9999 -9999 165.337 164.754 163.034 160.229 158.372 158.317 158.427 158.462 158.507 158.437 159.604 160.709 160.342 159.372 158.682 158.494 158.429 158.352 158.409 158.519 158.519 158.514 158.652 158.684 159.574 160.224 161.002 163.379 164.917 165.009 164.529 162.694 160.017 158.649 158.434 158.539 158.894 158.772 158.452 158.632 158.667 158.552 158.679 158.807 158.932 158.982 158.979 159.194 161.774 163.969 166.214 168.294 167.279 165.972 164.019 161.744 160.897 159.647 159.769 159.729 159.839 160.112 161.212 163.649 165.664 166.189 162.914 161.594 164.137 162.252 160.359 160.147 160.187 160.197 160.444 162.074 163.049 160.812 159.967 159.837 159.834 159.944 160.062 159.849 159.604 159.727 159.757 159.517 159.492 159.559 160.252 162.534 162.297 161.957 163.614 163.997 163.124 161.594 161.832 163.499 162.204 159.539 159.294 161.207 162.344 160.484 158.407 160.317 161.282 159.899 157.112 156.839 156.617 156.619 156.542 156.482 156.532 157.097 156.994 156.382 156.647 156.654 156.837 157.077 156.747 156.294 156.322 156.309 156.289 156.214 156.142 156.137 156.117 156.154 156.899 160.279 157.699 156.487 155.914 155.924 155.857 155.834 156.539 157.454 156.647 158.377 159.054 158.934 160.684 163.024 159.329 155.772 155.33 155.287 155.307 155.217 155.12 155.072 155.067 155.125 155.19 155.135 155.065 155.197 158.635 159.045 156.73 155.135 154.995 154.925 154.862 154.722 154.892 155.172 154.842 154.547 154.585 154.745 155.097 156.342 157.252 156.232 154.787 154.617 154.935 156.837 164.567 170.625 171.645 170.397 167.855 164.38 160.612 155.572 155.37 155.302 155.36 155.38 155.402 155.39 155.38 155.455 155.382 155.357 155.345 155.457 155.875 155.597 155.382 155.352 155.477 155.407 155.455 155.472 155.357 155.255 155.252 155.035 155.007 154.985 154.997 155.057 158.797 159.492 159.832 156.037 154.145 154.202 154.227 154.67 154.917 154.275 154.677 158.175 158.455 155.912 153.9 153.877 154.455 155.532 154.707 153.76 153.8 153.815 153.842 153.86 153.727 153.767 153.76 154.252 156.285 157.255 157.835 157.392 155.532 153.857 154.092 155.17 156.617 156.04 158.805 159.11 157.922 159.15 160.737 160.87 160.662 158.87 156.36 155.707 157.36 156.442 154.8 154.157 154.347 156.937 161.7 162.927 160.58 163.34 166.155 163.487 156.625 159.73 166.655 169.792 170.38 170.25 169.717 169.032 164.49 156.987 155.437 159.185 167.522 168.08 166.367 162.13 158.297 158.187 156.567 163.092 164.01 165.065 167.387 165.872 162.545 163.747 157.782 164.747 157.207 153.61 154.35 152.34 152.18 152.137 152.352 152.26 152.242 152.317 152.23 152.135 152.092 151.905 151.897 151.83 152.507 157.097 158.177 158.507 158.92 159.475 159.71 160.335 160.592 160.815 160.435 160.26 160.175 159.905 159.212 158.71 158.382 157.83 155.21 155.502 153.35 151.68 152.12 152.06 151.57 151.402 151.285 151.287 151.265 151.28 151.24 151.147 151.082 151.227 151.275 151.142 151.23 151.315 151.237 151.242 151.302 151.325 151.352 151.535 151.49 151.477 151.47
-9999 -9999 -9999 -9999 -9999 -9999 -9999 -9999 -9999 -9999 -9999 -9999 -9999 -9999 -9999 -9999 -9999 -9999 -9999 -9999 -9999 -9999 -9999 -9999 -9999 -9999 -9999 -9999 -9999 -9999 -9999 -9999 -9999 -9999 -9999 164.814 163.149 160.714 159.057 158.399 158.672 159.067 158.674 158.507 160.544 163.237 163.767 162.449 161.182 158.557 158.394 158.352 158.412 158.694 160.449 161.762 162.112 161.669 158.992 158.994 160.152 162.894 165.109 165.292 164.519 162.829 160.274 158.904 159.004 160.377 161.264 159.709 158.522 158.694 158.717 158.629 158.637 158.752 158.854 158.967 158.937 160.117 165.042 168.337 170.572 172.752 172.897 172.849 171.242 166.207 163.807 161.039 159.682 159.817 159.907 160.582 163.122 165.782 168.742 169.419 165.554 162.644 163.797 162.942 160.989 159.797 159.724 159.659 159.884 162.762 162.307 159.712 159.464 159.444 159.429 159.439 159.449 159.342 159.262 159.212 159.214 159.202 159.194 159.127 159.962 163.144 165.207 164.614 164.469 165.854 164.734 161.902 159.502 158.929 158.464 159.492 161.399 162.944 163.679 162.949 159.874 158.119 159.204 157.497 156.912 156.767 156.547 156.409 156.474 156.457 156.472 156.367 156.324 156.204 156.322 156.309 156.264 156.189 156.264 156.282 156.319 156.194 156.079 155.999 156.124 156.067 156.099 156.109 156.022 156.622 156.039 155.987 155.882 155.707 155.747 155.734 155.704 155.652 155.702 156.029 156.049 159.804 161.004 161.644 157.052 155.284 155.25 155.16 155.18 155.2 155.105 155.075 155.16 155.127 155.13 155.065 154.967 155.137 158.457 158.92 155.697 155.137 155.02 155.047 154.86 154.905 154.76 155.557 155.235 154.632 154.612 154.467 154.615 154.737 156.027 155.705 154.662 154.452 155.425 157.68 166.515 171.882 172.14 170.452 169.77 161.855 156.705 155.472 155.362 155.312 155.3 155.315 155.425 155.437 155.32 155.462 155.397 155.32 155.332 155.362 155.29 155.357 155.242 155.277 155.33 155.41 155.462 155.505 155.437 155.22 155.102 154.95 154.91 154.845 154.945 158.072 159.767 160.137 160.837 156.9 153.98 153.865 153.847 154.165 155.567 155.015 154.112 153.87 153.565 153.53 153.522 153.512 153.685 154.36 154.272 153.73 153.652 153.672 153.725 153.752 153.717 153.71 153.792 153.912 155.212 156.897 157.787 157.31 156.35 154.892 154.917 154.565 155.147 157.297 159.167 159.072 157.307 156.84 160.047 160.882 159.857 159.515 157.332 154.155 154.11 154.352 154.157 154.012 153.917 156.905 161.895 165.175 163.96 163.597 165.565 165.76 164.77 166.112 169.657 170.82 170.972 170.555 169.572 169.225 164.935 155.447 154.507 159.33 167.615 166.035 167.472 167.795 164.825 158.4 153.705 160.297 162.477 161.055 164.045 165.63 163.315 165.652 162.687 166.592 164.127 158.315 161.887 154.255 152.417 152.345 152.257 152.225 152.23 152.11 151.977 152.007 152.007 151.792 151.882 151.777 151.787 157.875 159.425 159.767 160.205 160.507 160.75 160.527 160.517 160.135 159.772 159.322 158.417 157.642 157.432 156.572 155.207 153.145 151.75 151.81 151.765 151.585 151.73 151.54 151.292 151.202 151.16 151.147 151.215 151.13 151.067 150.97 150.975 151.072 151.182 151.1 151.16 151.257 151.16 151.107 151.277 151.207 151.155 151.165 151.215 151.247 151.3
-9999 -9999 -9999 -9999 -9999 -9999 -9999 -9999 -9999 -9999 -9999 -9999 -9999 -9999 -9999 -9999 -9999 -9999 -9999 -9999 -9999 -9999 -9999 -9999 -9999 -9999 -9999 -9999 -9999 -9999 -9999 -9999 -9999 -9999 -9999 -9999 164.367 163.054 161.374 159.669 159.112 159.427 159.264 158.889 161.194 163.842 165.204 164.839 163.469 160.289 158.902 158.832 158.964 160.622 162.957 165.227 166.324 165.472 161.407 158.582 159.314 162.137 164.807 165.562 164.614 162.642 160.109 159.957 162.447 164.607 164.742 162.497 160.859 160.664 162.024 160.182 158.652 158.694 158.754 158.802 158.774 161.479 166.487 171.854 174.597 175.522 175.779 174.989 169.894 167.264 168.362 165.547 160.599 159.762 159.862 161.004 163.644 166.942 168.269 168.297 165.954 163.302 161.894 161.452 159.992 159.509 159.494 159.417 159.347 160.019 159.952 159.319 159.337 159.297 159.259 159.237 159.247 159.224 159.129 158.947 158.884 158.812 158.672 158.584 160.612 164.269 166.749 166.907 165.994 165.827 165.022 161.689 158.684 157.817 158.192 159.567 161.892 163.472 163.357 163.424 160.547 157.372 157.529 157.029 156.832 156.532 156.417 156.404 156.439 156.322 156.302 156.287 156.252 156.217 156.304 156.274 156.177 156.082 156.154 156.172 156.179 156.122 156.202 157.539 156.029 155.944 155.999 156.019 155.899 155.919 155.894 155.904 155.872 155.699 155.629 155.617 155.579 155.529 155.654 155.742 155.822 161.217 164.209 164.312 157.234 155.224 155.205 155.09 155.142 155.202 155.057 155.002 155.107 155.165 155.017 154.925 154.947 154.97 155.91 156.352 155.007 155.005 155.047 155.045 155.062 154.987 154.935 155.242 155.342 154.8 154.71 154.485 154.557 154.652 154.7 154.535 154.412 154.442 155.9 157.952 167.265 171.82 171.725 169.152 170.96 163.795 158.5 155.527 155.3 155.28 155.18 155.21 155.317 155.397 155.41 155.77 155.827 155.272 155.282 155.762 155.09 155.137 155.235 155.23 155.24 155.345 155.39 155.372 155.305 155.197 154.987 154.962 154.89 154.837 155.305 159.142 160.182 160.372 161.385 160.86 157.86 154.432 153.867 153.795 154.237 155.712 154.667 153.59 153.41 153.427 153.492 153.42 153.607 153.94 153.847 153.772 153.55 153.485 153.475 153.475 153.487 153.635 153.775 153.84 154.075 155.73 157.06 155.52 154.822 155.3 157.462 156.165 154.997 156.887 158.5 156.995 157.397 155.477 159.13 159.375 157.295 157.4 156.477 154 153.937 153.975 154.01 153.925 154.942 160.187 163.665 165.677 165.412 163.227 164.725 165.48 163.255 163.16 169.787 169.115 164.447 170.047 168.717 165.162 167.685 156.49 153.6 155.23 164.347 164.075 163.845 163.85 163.93 157.035 153.185 153.812 155.55 156.622 158.72 159.43 161.497 161.802 159.367 161.762 159.38 161.577 166.12 160.06 152.995 152.285 152.277 152.337 152.335 152.497 151.957 151.967 152.02 151.942 151.937 151.712 151.542 152.302 160.172 160.73 161.022 160.672 160.47 159.995 159.637 159.182 157.28 157.162 153.71 153.252 153.957 152.815 151.73 151.722 151.567 151.575 151.39 151.307 151.352 151.312 151.23 151.15 151.055 151.075 151.14 150.955 150.895 150.852 150.88 150.82 150.922 150.955 150.875 151.027 151.062 150.92 151.035 151.05 151.02 150.96 150.957 150.975 150.985
-9999 -9999 -9999 -9999 -9999 -9999 -9999 -9999 -9999 -9999 -9999 -9999 -9999 -9999 -9999 -9999 -9999 -9999 -9999 -9999 -9999 -9999 -9999 -9999 -9999 -9999 -9999 -9999 -9999 -9999 -9999 -9999 -9999 -9999 -9999 -9999 -9999 165.1 163.65 161.655 159.732 158.82 158.635 158.727 160.63 162.785 164.412 165.13 163.547 161.995 161.41 161.245 162.062 163.49 165.782 168.042 169.207 168.915 165.535 160.865 159.137 160.815 163.57 165.682 164.582 162.447 161.655 162.097 164.632 167.897 168.932 167.23 166.285 166.337 166.76 163.775 159.062 159.552 161.127 162.08 161.277 164.245 168.765 172.597 175.09 175.775 176.515 175.935 173.1 170.837 170.377 167.08 161.325 159.707 159.742 160.435 162.482 165.542 166.167 162.815 159.862 159.28 159.182 158.982 158.922 159.07 159.257 159.335 159.282 159.255 159.252 159.182 159.167 159.135 159.047 158.995 158.96 158.91 158.75 158.365 158.2 158.197 157.977 157.9 158.607 161.81 165.36 166.465 165.522 164.73 163.662 161.225 158.587 157.4 157.532 158.542 159.857 162.515 161.925 161.84 159.035 157.337 157.357 157.15 156.745 156.472 156.385 156.297 156.31 156.157 156.225 156.205 156.177 156.15 156.15 156.14 156.142 156.027 156.102 156.152 156.12 158.037 160.74 159.122 156.085 155.835 155.722 155.802 155.745 155.73 155.715 155.73 155.765 155.622 155.58 155.535 155.59 155.465 155.602 155.705 156.195 163.38 165.24 165.82 159.695 155.322 155.207 157.53 157.442 157.68 156.857 157.312 156.3 155.292 155.85 155.25 155.065 154.957 155.04 154.992 154.912 155.007 155.047 155.335 155.377 155.145 154.952 155.04 155.01 154.897 154.782 154.637 154.692 154.822 154.577 154.565 154.522 154.465 155.01 156.24 158.805 165.445 167.335 170.547 169.925 161.34 156.542 155.345 155.167 155.055 154.995 155.09 155.167 157.037 155.885 155.582 155.58 155.305 155.143 155.41 154.975 154.9 155.073 155.125 155.188 155.165 155.285 155.253 155.19 155.14 154.935 154.89 154.823 154.693 154.735 158.338 160.31 160.738 161.233 161.513 157.7 154.97 153.755 153.728 154.048 155.473 154.178 153.59 153.443 153.788 155.065 153.835 153.565 153.76 153.843 153.785 153.633 153.48 153.388 153.305 153.383 153.54 153.685 153.775 153.77 154.28 156.02 154.323 154.013 154.923 156.13 156.865 157.148 157.523 156.468 154.365 154.945 157.008 157.99 157.295 154.848 154.105 154.253 153.865 153.895 153.955 153.973 153.91 156.733 160.435 165.298 167.358 166.123 163.555 163.998 164.185 160.418 158.613 164.688 165.91 166.718 163.833 167.56 163.375 162.103 155.178 153.42 153.24 163.64 167.195 159.875 158.113 162.695 160.585 153.615 153.313 153.475 153.06 153.615 154.808 154.815 154.928 152.823 156.675 157.968 154.478 159.768 159.94 152.24 152.238 152.198 152.2 152.55 152.873 152.935 151.99 151.785 151.875 151.995 151.698 151.585 151.783 156.15 160.65 160.155 159.935 159.368 158.93 158.523 158.03 152.47 153.01 151.845 151.76 152.015 152.053 151.608 151.513 151.27 151.278 151.155 151.11 151.03 151.058 151 150.99 150.93 150.928 150.88 150.845 150.7 150.79 150.87 150.755 150.743 150.855 150.835 150.79 150.928 150.855 150.813 150.905 150.83 150.8 150.895 150.895 150.728
-9999 -9999 -9999 -9999 -9999 -9999 -9999 -9999 -9999 -9999 -9999 -9999 -9999 -9999 -9999 -9999 -9999 -9999 -9999 -9999 -9999 -9999 -9999 -9999 -9999 -9999 -9999 -9999 -9999 -9999 -9999 -9999 -9999 -9999 -9999 -9999 -9999 -9999 164.117 161.835 159.7 158.385 158.387 158.765 159.685 161.012 162.497 164.752 164.617 163.577 163.005 164.04 165.46 166.72 168.465 170.09 170.095 170.13 169.592 165.71 162.807 161.217 166.075 166.632 164.71 162.842 162.165 163.605 165.297 168.747 172.082 172.387 172.1 171.635 169.632 165.552 161.132 163.865 165.802 166.65 166.85 169.625 171.862 172.952 175.01 175.78 176.185 176.062 175.502 171.327 168.79 167.115 163.335 161.355 159.35 159.365 161.335 161.86 160.13 158.645 158.405 158.482 158.76 158.442 158.07 158.622 159.022 159.237 159.212 159.227 159.167 159.032 158.975 158.925 158.835 158.845 158.822 158.762 158.52 158.137 157.717 157.632 157.59 157.457 157.57 158.542 160.73 159.945 162.16 161.082 159.32 159.332 158.247 157.36 157.295 157.587 158.257 158.872 159.415 159.84 158.447 157.322 157.362 157.155 156.735 156.445 156.37 156.192 156.187 156.077 156.037 156.265 156.175 156.042 156.052 156.11 156.07 155.94 156.037 156.847 158.485 159.98 161.282 157.525 155.807 155.775 155.665 155.737 155.727 155.612 155.625 155.597 155.577 155.58 155.432 155.367 155.417 155.35 155.472 155.575 155.897 162.47 165.512 165.52 158.512 155.975 158.425 162.447 162.7 160.945 161.95 162.212 159.922 156.662 159.447 160.467 158.342 156.89 157.695 156.477 156.967 155.87 156.247 157.427 156.987 155.822 155.005 155.025 154.992 154.867 154.827 154.895 154.785 155.122 154.807 154.712 154.587 154.507 154.56 154.592 158.657 161.122 161.822 166.18 164.975 156.602 155.48 155.2 155.065 155.047 154.907 156.44 159.207 160.967 159.592 155.162 155.285 155.273 155.225 155.133 155.018 154.91 154.88 155.05 155.05 155.07 155.105 155.158 155.085 155.018 154.888 154.745 154.708 154.465 155.785 159.255 160.158 160.808 161.283 161.065 157.798 153.815 153.768 153.758 154.3 155.698 154.89 154.175 154.278 156.173 156.793 155 153.878 153.678 153.718 153.705 153.625 153.55 153.45 153.458 153.55 153.648 153.735 153.715 153.73 153.663 154.283 153.875 153.925 154.578 155.105 155.348 155.528 157.68 155.875 153.933 154.043 154.783 154.948 154.8 154.105 154.035 153.918 153.91 153.968 154.003 154.083 155.51 156.468 154.97 165.155 166.345 168.6 165.54 163.033 162.203 159.813 157.485 157.993 157.653 160.613 162.553 166.19 160.655 155.845 153.913 154.29 153.143 162.958 166.278 164.04 159.8 155.955 157.463 153.465 153.24 153.178 153.123 153.173 153.038 153.028 152.955 152.795 153.76 154.51 153.058 156.293 157.453 152.343 152.215 152.103 152.475 152.935 153.663 153.363 151.713 151.695 151.783 151.773 151.63 151.743 151.585 152.425 158.363 159.103 157.32 156.875 153.938 153.738 152.903 151.683 151.595 151.53 151.56 151.593 151.54 151.445 151.315 151.115 151.465 150.988 151.178 151.805 153.065 150.745 150.843 150.803 150.773 150.68 150.648 150.613 150.648 150.678 150.598 150.598 150.745 150.73 150.633 150.685 150.718 150.588 150.585 150.61 150.61 150.643 150.578 150.61
-9999 -9999 -9999 -9999 -9999 -9999 -9999 -9999 -9999 -9999 -9999 -9999 -9999 -9999 -9999 -9999 -9999 -9999 -9999 -9999 -9999 -9999 -9999 -9999 -9999 -9999 -9999 -9999 -9999 -9999 -9999 -9999 -9999 -9999 -9999 -9999 -9999 -9999 162.638 160.287 158.937 158.35 158.325 158.69 158.812 158.682 160.537 162.96 162.747 163.23 166.63 167.045 168.237 169.552 170.295 171.567 172.187 171.95 171.832 170.587 169.017 168.552 169.327 168.215 165.485 163.262 162.562 163.99 165.695 169.192 173.175 173.985 170.985 169.28 165.635 162.622 164.852 167.81 169.887 171.247 172.302 173.005 170.41 167.44 171.515 174.897 175.575 175.635 175.757 161.222 165.72 170.047 166.782 162.57 159.412 158.457 158.715 158.022 159.295 160.385 160.197 160.105 160.812 160.657 158.997 158.437 159.005 159.007 158.987 159.047 158.955 158.832 158.765 158.685 158.6 158.62 158.62 158.525 158.317 157.925 157.477 157.315 157.34 157.352 157.36 157.382 157.395 157.422 158.087 157.312 157.287 157.667 157.572 157.4 157.27 157.217 157.355 157.27 157.822 157.762 157.38 157.165 157.31 157.062 156.65 156.43 156.27 156.137 156.22 156.09 155.922 156.21 156.17 155.937 155.942 155.93 155.885 155.812 155.902 158.085 160.415 159.557 158.472 156.102 155.767 155.682 155.562 155.587 155.65 155.5 155.39 155.42 155.502 155.432 155.342 155.28 155.337 155.345 155.437 155.5 155.537 160.582 164.465 164.21 157.467 157.67 162.177 162.98 163.03 162.675 162.95 163.092 162.615 162.962 162.025 163.127 162.5 162.375 163.167 161.665 160.655 161.687 161.857 162.35 161.36 161.545 160.68 157.665 156.347 154.842 154.822 154.85 154.907 156.967 157.27 155.452 154.632 154.49 154.787 154.55 155.502 158.14 168.297 171.395 172.267 167.02 162.227 157.375 155.017 158.21 160.617 162.4 164.717 163.932 160.172 155.725 155.108 155.045 155.163 155.233 154.91 154.845 154.898 154.965 154.865 154.913 154.868 154.993 154.888 154.793 154.838 154.67 154.758 154.385 156.45 159.225 159.938 160.195 160.573 161.145 157.63 153.883 153.76 153.623 153.803 154.193 154.913 154.988 155.16 156.215 157.858 156.873 154.295 153.615 153.615 153.615 153.58 153.565 153.538 153.545 153.515 153.525 153.643 153.675 153.658 153.72 153.738 153.855 154 153.99 154.683 154.44 153.943 155.04 155.23 153.883 153.91 153.893 153.938 154.338 155 154.493 154.028 154.018 153.995 154.22 155.703 158.005 159.298 156.985 160.633 164.145 168.925 166.2 162.485 159.765 157.975 156.498 155.325 153.188 153.565 158.09 159.773 159.843 158.42 157.113 158.188 160.975 164.415 160.853 163.658 165.415 159.758 159.138 153.363 153.15 153.17 153.288 153.188 153.02 152.93 153.055 152.865 152.675 152.55 152.425 153.615 153.993 152.198 152.095 151.95 152.263 152.575 153.148 152.508 151.805 151.578 151.535 151.385 151.523 151.463 151.515 151.683 153.55 156.763 153.993 153.523 151.798 151.773 151.733 151.635 151.463 151.533 151.503 151.328 151.243 151.13 150.933 151.26 153.06 153.985 155.095 155.263 158.175 153.923 151.708 150.828 150.578 150.488 150.495 150.47 150.52 150.483 150.513 150.56 150.528 150.63 150.53 150.49 150.615 150.593 150.45 150.433 150.465 150.44 150.41 150.425
-9999 -9999 -9999 -9999 -9999 -9999 -9999 -9999 -9999 -9999 -9999 -9999 -9999 -9999 -9999 -9999 -9999 -9999 -9999 -9999 -9999 -9999 -9999 -9999 -9999 -9999 -9999 -9999 -9999 -9999 -9999 -9999 -9999 -9999 -9999 -9999 -9999 -9999 -9999 160.585 159.217 158.737 158.412 158.427 158.47 158.482 158.93 160.41 162.135 168.14 170.995 171.197 171.497 171.48 171.96 172.625 173.742 173.735 172.41 167.802 168.225 170.412 170.542 169.577 165.017 162.62 162.305 163.875 165.367 170.472 174.157 171.892 170.087 166.882 164.745 166.38 168.29 170.852 172.55 173.99 174.645 174.977 172.972 161.68 164.865 168.905 172.2 168.57 170.265 167.62 165.142 166.962 164.955 159.33 158.542 157.922 157.517 157.555 159.865 161.88 162.035 162.11 161.915 159.705 158.042 158.287 158.835 158.885 158.765 158.695 158.662 158.572 158.48 158.375 158.28 158.205 158.19 158.597 158.577 158.377 157.937 158.06 158.167 157.8 157.41 157.347 157.287 157.28 157.21 157.185 157.192 157.267 157.28 157.39 157.237 157.127 157.222 157.247 157.215 157.257 157.265 157.022 157.095 157.032 156.665 156.367 156.077 155.965 156.072 156.017 155.897 155.93 155.957 155.892 155.86 155.857 155.775 155.605 155.632 156.537 157.585 157.017 156.477 155.645 155.612 155.61 155.587 155.63 155.562 155.44 155.382 155.44 155.487 155.315 155.265 155.2 155.125 155.272 155.41 155.437 155.415 159.007 161.957 161.547 156.397 158.83 163.03 162.962 163.025 163.082 162.925 163.102 162.982 162.96 163.245 163.412 163.05 163.07 163.132 163.075 163.04 162.96 162.96 163.232 163.1 162.97 163.105 162.342 159.67 154.88 154.83 154.85 154.927 156.26 156.72 155.457 154.71 154.597 158.765 160.995 162.57 165.372 165.742 172.017 173.267 172.035 173.237 169.442 157.73 160.305 163.435 164.515 165.23 164.627 163.09 160.31 156.1 154.98 154.993 155.063 154.87 154.633 154.695 154.82 154.753 154.785 154.65 154.875 154.71 154.62 154.638 154.653 154.59 154.21 154.795 155.355 156.9 159.38 159.865 159.978 158.338 154.895 153.975 154.475 155.193 155.665 155.408 154.568 153.918 155.53 157.61 157.07 155.413 154.103 153.585 153.59 153.413 153.293 153.465 153.465 153.413 153.38 153.42 153.455 153.588 153.735 153.725 153.908 153.928 153.635 153.938 154.088 153.618 153.663 153.913 153.685 153.64 153.72 153.97 155.583 156.17 154.53 154.073 155.208 155.178 155.828 157.708 158.79 159.055 158.918 160.553 162.985 165.413 162.613 158.865 157.32 155.908 153.888 153.298 153.043 153.355 157.35 153.848 154.42 158.3 159.635 168.063 167.963 168.053 167.75 168.73 168.985 166.243 164.033 158.09 153.205 153.2 153.33 153.238 153.038 152.808 152.948 152.978 152.748 152.76 152.528 152.25 152.103 152.105 152.033 151.95 151.878 151.945 152.013 151.91 151.698 151.575 151.488 151.415 151.405 151.44 151.555 151.605 151.845 152.768 152.163 151.773 151.823 151.673 151.558 151.613 151.638 151.535 151.425 151.253 151.103 151.02 150.805 151.808 154.305 157.938 154.723 155.333 160.413 157.208 152.978 150.79 150.433 150.345 150.403 150.33 150.315 150.295 150.34 150.245 150.303 150.468 150.34 150.27 150.438 150.393 150.24 150.263 150.4 150.263 150.135 150.19
-9999 -9999 -9999 -9999 -9999 -9999 -9999 -9999 -9999 -9999 -9999 -9999 -9999 -9999 -9999 -9999 -9999 -9999 -9999 -9999 -9999 -9999 -9999 -9999 -9999 -9999 -9999 -9999 -9999 -9999 -9999 -9999 -9999 -9999 -9999 -9999 -9999 -9999 -9999 -9999 160.667 159.88 159.37 158.547 158.772 158.672 158.885 161.437 164.065 169.34 172.535 173.355 173.002 172.322 172.372 172.937 173.435 174.235 170.297 168.122 169.175 171.33 170.665 165.632 160.722 160.832 161.197 162.517 163.835 167.647 170.37 172.947 172.87 170.125 168.015 170.01 171.962 173.552 174.622 175.195 175.682 175.712 174.532 166.312 159.742 162.777 160.525 159.245 163.027 160.43 161.547 160.845 158.985 158.492 158.125 157.652 157.437 157.537 160.15 162.052 162.14 162.14 162.057 160.49 157.52 158.017 158.342 158.397 158.362 158.26 158.205 158.115 157.895 157.662 157.597 157.577 157.707 159.557 160.54 160.84 160.742 160.762 160.962 160.307 157.81 157.295 157.185 157.347 157.33 157.265 157.255 157.247 157.102 157.097 157.1 157.067 157.1 157.19 157.21 157.197 157.215 157.027 156.905 156.902 156.7 156.365 156.067 155.972 155.995 155.935 155.95 155.75 155.817 155.825 155.792 155.735 155.66 155.582 155.602 155.687 155.635 155.677 155.655 155.515 155.487 155.537 155.53 155.515 155.535 155.45 155.387 155.382 155.435 155.257 155.237 155.13 154.982 155.077 155.275 155.395 155.392 156.43 158.3 158.335 156.007 159.697 162.837 162.867 162.89 163.187 163.257 162.98 163.067 162.887 163.01 163.067 163.125 163.052 162.977 162.942 162.945 162.982 162.94 162.932 163.015 163.007 162.972 161.797 157.467 154.772 154.785 154.72 154.765 154.68 154.727 154.572 154.78 154.635 155.86 161.09 167.43 168.56 166.84 172.637 173.615 173.045 166.987 168.285 157.705 158.217 161.372 164.08 164.417 165.18 164.167 163.027 159.21 155.025 154.993 154.863 154.68 154.628 154.603 154.728 154.693 154.755 154.745 154.658 154.635 154.593 154.488 154.513 154.485 154.73 154.008 153.835 153.845 157.13 160.105 159.245 158.48 156.88 155.705 156.155 156.403 156.295 155.398 154.085 153.535 155.705 157.348 157.923 156.463 154.24 153.555 153.603 153.63 153.258 153.298 153.428 153.398 153.375 153.365 153.385 153.428 153.55 153.565 153.623 153.755 153.528 153.48 153.44 153.428 153.518 153.62 153.608 153.643 153.7 154.088 155.138 157.475 155.248 154.745 156.413 158.053 159.838 161.805 161.103 158.7 158.713 159.363 159.875 161.775 159.215 156.29 155.5 153.875 152.815 157.728 153.27 152.833 153.64 152.885 155.575 160.155 163.838 168.733 170.458 169.978 169.778 169.54 162.878 160.678 159.3 159.26 153.803 153.133 153.08 153.07 152.953 152.895 152.875 152.818 152.623 152.49 152.428 152.225 152.14 152.145 151.98 151.788 151.693 151.533 151.595 151.668 151.658 151.633 151.49 151.5 151.48 151.543 151.55 151.603 151.72 151.705 151.773 151.655 151.795 151.658 151.535 151.49 151.385 151.3 151.19 151.115 150.945 150.888 150.793 151.725 153.02 155.59 158.668 156.668 157.605 156.57 155.933 150.61 150.238 150.188 150.05 150.195 150.093 150.175 150.16 150.068 150.125 150.255 150.225 150.2 150.195 150.263 150.178 150.18 150.19 150.068 150.02 150.043
-9999 -9999 -9999 -9999 -9999 -9999 -9999 -9999 -9999 -9999 -9999 -9999 -9999 -9999 -9999 -9999 -9999 -9999 -9999 -9999 -9999 -9999 -9999 -9999 -9999 -9999 -9999 -9999 -9999 -9999 -9999 -9999 -9999 -9999 -9999 -9999 -9999 -9999 -9999 -9999 -9999 161.295 160.322 159.34 159.66 158.577 159.49 162.557 165.69 169.342 172.785 174.172 173.585 170.925 172.63 173.09 173.355 173.542 172.587 172.005 171.955 171.865 167.557 162.855 160.35 160.115 160.035 160.497 160.947 161.482 162.995 168.777 170.222 170.952 170.842 172.36 173.637 174.655 175.03 174.1 173.227 174.432 170.57 162.022 158.92 158.92 158.687 158.75 158.747 158.75 159.107 158.56 158.267 158.057 157.812 157.52 157.387 157.345 160.297 162.012 162.145 162.145 161.647 159.54 157.442 157.452 157.597 157.735 157.88 157.82 157.797 157.755 157.505 158.325 159.535 159.707 159.922 160.702 161.83 161.977 162.172 162.237 162.26 162.295 160.36 157.555 157.275 157.267 157.122 157.07 157.16 157.097 156.977 156.925 156.972 157.062 157 157.017 157.23 157.237 157.137 157.025 156.927 156.99 156.772 156.37 156.022 155.875 155.882 155.747 155.727 155.672 155.727 155.647 155.72 155.67 155.637 155.562 155.58 155.515 155.535 155.63 155.65 155.94 155.737 155.555 155.327 155.312 155.42 155.337 155.252 155.175 155.18 155.177 155.222 155.087 154.98 154.985 155.132 155.265 155.247 155.372 156.422 155.74 155.057 158.18 158.01 161.362 162.135 160.712 162.417 162.207 160.627 162.657 163.04 162.905 163.162 162.947 162.852 162.892 162.97 163.02 163.025 163.02 163.032 163.092 163.095 161.475 155.19 154.732 154.662 154.575 154.51 154.56 154.415 154.44 154.567 154.545 154.89 160.33 166.46 168.947 170.695 172.427 173.11 172.55 162.362 155.642 154.827 154.947 160.485 160.195 161.035 165.105 165.087 164.23 161.403 154.905 154.975 154.935 154.58 154.425 154.55 154.663 154.723 154.665 154.71 154.62 154.633 154.745 154.273 154.168 154.685 156.3 154.633 153.683 153.65 153.908 157 156.58 156.283 155.533 154.9 157.035 157.523 156.833 155.085 153.755 153.76 155.523 157.028 157.758 157.223 155.513 153.648 153.475 153.488 153.473 153.408 153.378 153.395 153.395 153.38 153.405 153.49 153.53 153.485 153.595 153.723 153.653 153.563 153.555 153.55 153.538 153.573 153.663 153.665 153.473 155.815 158.215 160.518 159.628 156.178 156.38 158.698 163.763 167.945 165.623 158.228 154.4 154.088 155.585 156.033 154.715 154.833 153.49 155.095 157.92 163.405 158.41 154.695 152.685 152.735 154.133 160.173 165.193 168.768 169.58 169.018 167.078 162.653 154.238 153.373 153.605 154.828 153.94 152.93 152.678 152.658 154.558 153.865 152.625 152.545 152.568 152.41 152.345 152.158 151.998 151.933 151.935 151.838 151.65 151.435 151.403 151.565 151.488 151.51 151.453 151.45 151.508 151.373 151.465 151.525 151.678 151.533 151.525 151.565 151.518 151.4 151.318 151.228 151.205 151.06 150.998 150.753 151.16 151.785 151.898 152.035 153.758 156.953 160.31 158.613 155.648 160.17 158.883 153.423 150.193 150.09 150.035 150.048 149.935 149.935 149.985 150.008 149.948 150.02 150.073 149.988 149.993 150.008 150.06 149.908 149.923 149.82 149.885 149.838
-9999 -9999 -9999 -9999 -9999 -9999 -9999 -9999 -9999 -9999 -9999 -9999 -9999 -9999 -9999 -9999 -9999 -9999 -9999 -9999 -9999 -9999 -9999 -9999 -9999 -9999 -9999 -9999 -9999 -9999 -9999 -9999 -9999 -9999 -9999 -9999 -9999 -9999 -9999 -9999 -9999 159.605 160.185 160.31 161.155 159.25 160.127 163.137 165.19 168.81 171.95 173.822 167.555 167.565 171.652 172.845 173.185 172.897 171.967 170.8 170.857 171.122 162 158.91 158.825 158.412 158.845 160.05 160.747 160.655 161.29 167.022 171.34 172.292 173.322 174.515 175.637 174.805 171.962 165.345 166.165 169.102 169.652 162.56 159.25 158.687 158.625 158.722 158.695 158.642 158.485 158.132 157.847 157.675 157.445 157.39 157.405 157.367 159.837 161.98 162.075 162.127 162.03 160.48 158.235 157.342 157.335 157.397 157.475 157.495 157.55 157.58 157.527 159.155 161.505 162.457 162.532 162.697 162.797 162.775 162.997 163.112 163.137 163.237 161.08 157.565 157.267 157.305 157.21 157.017 157.097 157.08 156.995 157 156.95 157.03 157.005 156.965 157.152 157.262 157.097 156.99 156.975 157.05 156.757 156.335 155.912 155.797 155.775 155.647 155.602 155.645 155.6 155.485 155.482 155.56 155.495 155.577 155.625 155.48 155.527 155.51 155.622 158.662 156.49 155.465 155.29 155.29 155.235 155.117 155.167 155.085 155.067 155.045 155.04 154.885 154.917 154.895 155 155.117 155.137 155.252 155.905 159.532 159.992 156.122 154.915 157.097 159.185 157.782 158.527 158.74 155.41 158.595 160.667 157.36 160.262 162.31 160.337 159.785 159.425 159.99 161.912 161.607 161.692 162.602 162.502 159.677 154.642 154.605 154.662 154.507 154.285 154.437 154.305 154.27 154.365 154.377 154.38 156.272 159.075 160.907 166.537 168.552 166.8 163.442 158.255 154.555 154.637 154.76 155.525 158.795 162.217 164.65 165.532 164.362 161.163 157.363 154.913 154.728 154.555 154.478 154.49 154.485 154.57 154.613 154.548 154.618 154.635 155.373 154.433 153.878 153.755 154.653 154.15 153.683 153.5 153.573 153.653 153.91 153.848 153.55 154.668 156.835 157.69 157.25 156.015 155.23 155.293 155.603 156.498 157.24 157.648 155.998 153.628 153.568 153.398 153.398 153.358 153.273 153.33 153.378 153.37 153.295 153.44 153.498 153.42 153.568 153.67 153.745 153.668 153.645 153.675 153.663 153.655 153.708 153.648 153.415 154.703 159.208 160.765 161.88 158.745 155.168 159.953 169.743 170.035 168.878 160.445 153.023 152.945 152.965 152.76 152.968 155.563 157.033 159.31 166.245 167.588 162.593 158.69 153.02 152.705 152.81 156.873 161.013 163.14 164.373 159.915 155.608 157.745 152.925 152.923 152.915 153.01 153.948 153.195 153.585 157.978 160.133 153.16 155.03 152.508 152.298 152.218 152.165 152.09 151.955 151.978 151.905 151.878 151.595 151.575 151.588 151.483 151.513 151.42 151.278 151.398 151.505 151.473 151.52 151.48 151.413 151.403 151.408 151.398 151.228 151.255 151.15 150.993 151.015 150.938 150.86 150.555 151.525 153.15 153.34 155.97 156.508 156.623 157.72 158.265 158.043 159.603 160.98 157.655 150.855 149.843 149.808 149.84 149.753 149.683 149.815 149.915 149.72 149.793 149.973 149.883 149.785 149.805 149.823 149.698 149.595 149.608 149.555 149.618
-9999 -9999 -9999 -9999 -9999 -9999 -9999 -9999 -9999 -9999 -9999 -9999 -9999 -9999 -9999 -9999 -9999 -9999 -9999 -9999 -9999 -9999 -9999 -9999 -9999 -9999 -9999 -9999 -9999 -9999 -9999 -9999 -9999 -9999 -9999 -9999 -9999 -9999 -9999 -9999 -9999 -9999 161.008 161.242 161.887 161.622 160.287 162.252 163.597 165.975 170.662 172.422 169.535 166.285 169.422 171.162 172.207 171.837 169.437 167.797 164.485 159.697 157.86 157.907 157.957 157.957 158.565 159.562 159.197 158.635 161.05 168.297 174.087 174.677 175.505 176.417 176.697 175.237 173.832 165.45 159.125 160.632 159.142 158.485 158.602 158.697 158.657 158.65 158.505 158.275 158.065 157.66 157.497 157.39 157.355 157.287 157.362 157.515 159.9 162.122 162.1 162.145 162.097 161.87 159.825 157.752 157.275 157.33 157.375 157.42 157.5 157.505 157.48 158.007 160.465 163.03 163.495 163.55 163.747 163.85 163.92 164.052 164.125 164.135 161.13 157.87 157.295 157.265 157.29 157.125 157.09 157.115 157.057 157.107 157.045 156.97 157.012 157.005 156.995 157.107 157.04 156.955 156.95 157.005 156.69 156.35 155.862 155.68 155.707 155.627 155.552 155.685 155.62 155.392 155.315 155.43 155.467 155.462 155.395 155.385 155.417 156.687 160.377 160.16 156.335 158.29 156.28 155.24 155.197 155.085 154.995 154.992 155.03 154.89 154.912 154.795 154.77 154.775 154.88 155.015 155.047 155.127 158.272 164.602 163.255 158.022 162.582 157.62 156.135 156.112 155.097 154.797 154.765 155.217 155.775 154.957 156.037 157.492 155.627 156.425 155.41 154.812 155.1 155.55 155.927 157.297 156.49 155.405 154.682 154.595 154.622 155.75 157.305 157.767 156.31 154.857 154.547 154.382 154.292 154.092 153.997 154.365 158.587 157.8 157.49 155.022 155.11 154.767 154.615 154.625 154.765 155.607 159.952 163.882 164.272 161.435 156.513 154.86 154.46 154.385 154.328 154.47 154.425 154.498 154.453 154.535 154.435 154.855 155.135 154.705 153.8 153.715 153.583 153.58 154.56 157.025 157.233 159.728 157.575 154.065 154.933 154.37 155.898 156.403 157.265 157.65 156.8 155.82 155.575 155.603 156.318 156.81 156.96 156.248 153.558 153.625 153.403 153.345 153.308 153.18 153.218 153.283 153.343 153.338 153.358 153.38 153.74 156.888 153.703 153.715 153.758 153.723 153.788 153.765 153.718 153.753 153.698 153.798 154.955 157.998 159.49 160.283 157.328 154.278 164.073 169.628 169.94 168.463 159.988 152.96 152.873 152.728 152.683 154.578 161.748 161.923 163.813 169.328 168.958 159.815 153.143 153.628 152.82 152.803 153.36 158.118 156.2 161.725 159.538 153.94 154.018 152.95 152.763 152.705 152.728 153.018 152.943 157.835 163.573 164.97 164.03 162.76 155.13 152.015 152.098 152.063 152.195 152.618 154.68 155.533 152.015 151.598 151.6 151.638 151.255 151.28 151.39 151.463 151.41 151.458 151.448 151.413 151.43 151.338 151.32 151.295 151.188 151.01 151.1 150.973 151.52 151.208 152.23 153.115 152.055 152.548 153.19 153.54 155.808 157.69 158.065 155.063 154.66 157.12 153.053 157.948 151.963 149.72 149.678 149.57 149.618 149.64 149.668 149.568 149.77 149.665 149.538 149.678 149.713 149.615 149.515 149.638 149.61 149.568 149.523 149.468 149.45
-9999 -9999 -9999 -9999 -9999 -9999 -9999 -9999 -9999 -9999 -9999 -9999 -9999 -9999 -9999 -9999 -9999 -9999 -9999 -9999 -9999 -9999 -9999 -9999 -9999 -9999 -9999 -9999 -9999 -9999 -9999 -9999 -9999 -9999 -9999 -9999 -9999 -9999 -9999 -9999 -9999 -9999 -9999 162.321 161.542 159.53 158.4 159.925 160.18 158.632 166.475 167.167 166.532 166.437 161.727 164.357 166.557 162.665 163.867 166.245 158.707 157.785 157.76 157.817 157.825 157.84 158.142 158.442 157.86 157.845 163.04 170.457 174.645 174.652 174.66 175.477 176.212 176.137 175.367 173.632 161.905 158.062 158.15 158.3 158.482 158.575 158.48 158.417 158.212 157.827 157.527 157.21 157.505 157.697 157.51 157.877 158.365 158.11 160.377 162.185 162.215 162.172 162.09 162.045 161.14 158.997 158.01 158.682 158.847 158.747 159.005 158.952 158.542 159.365 162.062 164.175 164.402 164.412 164.582 164.722 164.82 164.98 164.972 165.012 164.43 160.212 157.437 157.217 157.152 157.092 157.132 157.12 156.947 157.045 157.125 156.997 156.925 156.95 156.925 156.917 156.977 156.945 156.912 156.915 156.682 156.407 155.967 155.55 155.54 155.495 155.437 155.472 155.367 155.375 155.382 155.405 155.35 155.31 155.28 155.257 155.292 158.022 161.805 158.762 158.045 158.16 157.212 155.125 155.025 154.97 155.015 154.997 155.002 154.865 154.872 154.785 154.74 154.775 154.807 154.932 154.947 155.385 159.397 166.455 166.335 163.667 168.007 167.657 158.112 154.87 154.842 154.847 154.77 154.785 154.757 154.752 154.912 154.82 155.782 158.025 157.222 155.1 154.825 154.95 154.922 154.73 154.78 154.612 154.49 154.465 154.482 157.017 161.715 161.615 161.295 160.112 157.485 154.167 154.142 154.032 153.85 154.48 156.962 157.752 158.417 155.242 154.632 154.47 154.282 154.285 154.385 154.415 157.5 159.687 158.48 155.022 154.293 154.258 154.178 154.305 154.303 154.358 154.263 154.218 154.18 154.293 154.268 154.278 155.848 154.96 153.8 153.655 153.423 154.235 157.033 161.105 160.583 162.39 158.09 154.233 154.133 154.823 155.778 156.1 156.628 157.633 157.273 156.283 155.57 155.268 155.185 154.915 154.775 154.33 153.44 153.383 153.39 153.355 153.185 153.073 153.1 153.153 153.218 153.25 153.343 153.463 155.92 160.233 159.635 153.638 153.725 153.953 154.665 153.863 153.665 153.9 153.745 155.59 155.338 154.793 155.313 157.185 154.235 154.248 155.508 167.82 169.035 168.298 159.76 152.89 152.78 152.64 152.825 158.775 164.628 167.13 168.21 168.86 167.863 164.003 157.158 153.86 153.763 153.265 152.605 156.168 154.71 153.875 152.935 152.705 152.615 152.593 152.58 152.535 152.548 152.548 152.473 156.07 165.878 166.905 166.24 163.958 153.728 151.968 153.003 154.628 157.583 156.365 159.46 156.685 152.93 151.585 151.46 151.685 151.478 151.308 151.44 151.453 151.415 151.375 151.32 151.295 151.275 151.25 151.07 151.67 152.113 152.768 154.653 154.273 154.788 153.648 155.718 154.93 154.003 153.705 153.778 153.808 155.173 151.735 152.12 151.355 150.053 152.16 152.718 153.395 149.593 149.618 149.69 149.495 149.41 149.49 149.575 149.463 149.458 149.615 149.415 149.403 149.56 149.495 149.435 149.498 149.518 149.378 149.333 149.315 149.315
-9999 -9999 -9999 -9999 -9999 -9999 -9999 -9999 -9999 -9999 -9999 -9999 -9999 -9999 -9999 -9999 -9999 -9999 -9999 -9999 -9999 -9999 -9999 -9999 -9999 -9999 -9999 -9999 -9999 -9999 -9999 -9999 -9999 -9999 -9999 -9999 -9999 -9999 -9999 -9999 -9999 -9999 -9999 -9999 158.587 157.2 157.337 157.75 157.835 157.58 158.8 158.2 161.397 159.405 158.107 160.76 159.577 158.182 159.202 158.2 157.835 157.762 157.767 157.8 157.735 157.677 157.7 157.737 157.605 158.862 165.497 172.29 174.555 174.702 174.59 175.137 175.997 176.405 174.932 170.052 161.74 157.807 157.937 158.087 158.312 158.397 158.27 158.172 157.845 157.625 158.465 158.205 158.63 159.252 159.17 159.207 159.9 160.53 161.03 162.095 162.177 162.167 162.072 161.84 161.38 160.31 160.14 160.302 160.76 160.76 160.752 160.41 159.832 161.415 164.012 165.117 165.11 165.112 165.135 165.207 165.197 165.32 165.277 165.132 164.317 158.735 157.32 157.11 157.09 156.992 156.927 157.015 156.982 157.012 157.045 156.985 156.832 156.815 156.872 156.845 156.86 156.957 156.93 156.777 156.685 156.485 156.12 155.715 155.462 155.392 155.342 155.367 155.352 155.307 155.427 155.392 155.347 155.207 155.155 155.122 155.142 157.547 163.49 162.305 159.03 155.6 155.037 155.015 154.932 154.857 154.915 154.83 154.877 154.812 154.77 154.747 154.745 154.767 154.727 154.747 154.97 154.965 157.49 162.177 167.08 166.027 161.795 167.47 157.557 154.855 155.142 154.862 154.735 154.737 154.847 154.725 154.757 154.742 155.735 157.162 158.555 156.71 154.842 154.8 154.752 154.66 154.69 154.617 154.472 154.382 154.497 155.795 160.32 162.042 162.105 162.257 158.21 154.067 154.06 153.86 155.545 157.92 163.445 164.642 162.742 161.062 155.43 154.307 154.015 153.937 153.965 154.1 154.697 154.39 154.002 153.945 153.99 153.963 154.095 154.105 154.225 154.155 154.148 154.145 154.048 154.013 153.933 153.733 154.023 153.853 154.585 154.27 154.748 158.985 161.088 162.67 163.163 163.133 159.555 153.455 153.418 154.525 154.793 155.858 156.3 157.14 157.55 156.595 155.833 155.27 154.035 153.518 153.353 153.355 153.46 153.29 153.155 153.25 153.198 153.015 153.083 153.113 153.138 153.213 153.348 153.485 155.553 160.398 164.738 159.103 157.303 156.358 156.953 155.718 153.93 155.425 155.165 154.645 154.465 154.198 154.283 153.993 153.065 153.02 155.615 165.215 167.438 167.418 163.27 154.805 152.67 152.66 152.598 154.94 165.658 167.83 168.978 168.083 159.55 155.71 152.998 154.275 153.875 154.205 152.49 154.855 154.88 152.655 152.605 152.58 152.488 152.463 152.393 152.403 152.27 152.345 152.253 153.865 161.965 165.658 163.473 158.735 151.975 152.87 156.93 159.853 160.5 160.775 160.67 159.848 155.363 151.388 151.315 151.27 151.333 151.275 151.393 151.37 151.295 151.18 151.193 151.075 151.198 153.053 152.688 156.525 156.533 153.568 157.145 156.368 157.075 156.93 157.738 155.868 154.473 154.37 152.878 150.748 153.343 151.07 149.208 149.363 149.485 149.638 149.703 149.52 149.403 149.463 149.433 149.273 149.228 149.155 149.353 149.34 149.27 149.443 149.413 149.345 149.325 149.325 149.268 149.213 149.378 149.245 149.148 149.08 149.13
-9999 -9999 -9999 -9999 -9999 -9999 -9999 -9999 -9999 -9999 -9999 -9999 -9999 -9999 -9999 -9999 -9999 -9999 -9999 -9999 -9999 -9999 -9999 -9999 -9999 -9999 -9999 -9999 -9999 -9999 -9999 -9999 -9999 -9999 -9999 -9999 -9999 -9999 -9999 -9999 -9999 -9999 -9999 -9999 -9999 157.527 157.94 158.865 158.66 158.582 159.437 158.532 157.59 157.445 158.12 158.447 158.01 157.74 157.677 157.82 157.8 157.692 157.747 157.797 157.847 157.62 157.545 157.537 157.6 160.785 167.885 172.947 174.467 174.797 175.097 175.39 176.06 176.627 175.585 171.542 163.545 157.95 157.747 157.885 158.03 158.155 158.117 158.002 157.517 157.65 158.875 158.477 159.377 159.927 160.195 160.247 160.145 162.032 163.245 162.095 162.08 161.997 161.677 161.47 161.415 160.832 160.8 160.665 160.687 160.87 160.915 160.925 160.895 162.425 164.452 165.26 165.257 165.242 165.195 165.09 164.94 164.87 164.952 164.765 163.257 158.762 157.242 156.965 156.905 156.98 156.92 156.935 156.967 156.992 157.047 156.965 156.815 156.745 156.79 156.83 156.822 156.897 156.947 156.812 156.86 156.592 156.2 155.712 155.42 155.372 155.307 155.402 155.347 155.135 155.21 155.287 155.26 155.112 155.037 155.125 155.232 156.11 161.917 162.937 160.005 156.972 154.912 154.95 154.8 154.677 154.797 154.817 154.83 154.747 154.662 154.557 154.575 154.6 154.772 155.957 157.157 154.86 156.182 159.9 161.785 163.065 164.735 167.242 157.717 156.18 158.012 156.012 154.812 154.632 154.772 154.632 154.61 154.637 154.757 154.922 155.295 155.455 154.725 154.692 154.747 154.52 154.495 154.605 154.497 154.717 156.28 157.922 161.705 162.137 162.03 162.052 158.247 153.98 153.9 153.725 155.747 160.105 161.012 166.267 164.43 162.535 157.962 154.105 153.997 154.035 153.85 153.94 154.767 154.272 153.855 153.742 153.748 153.863 153.875 153.885 153.918 154.1 154.165 154.178 154.115 153.875 153.828 153.65 153.405 153.29 157.75 159.543 160.88 162.27 163.208 163.655 163.663 163.228 162.44 156.233 153.333 154.693 153.708 155.278 156.165 156.425 156.425 154.9 154.398 154.608 154.813 153.44 153.24 153.128 153.39 153.238 153.243 153.465 155.593 156.21 154.083 153.12 153.193 153.315 153.375 153.485 155.42 156.923 159.108 165.938 164.848 166.775 164.865 161.24 157.773 160.358 157.258 154.205 153.768 154.88 155.88 154.28 153.095 152.925 153.195 158.4 165.093 166.09 165.023 155.965 152.52 152.543 153.895 154.72 162.458 167.285 165.703 167.195 157.923 152.178 152.375 152.393 152.505 152.478 152.46 154.51 153.66 152.538 152.478 152.385 152.355 152.305 152.21 152.223 151.998 152.028 152.038 152.008 157.658 159.715 158.15 155.303 154.298 157.01 160.28 160.603 160.123 160.848 160.76 160.1 157.43 151.973 151.238 151.19 151.155 151.198 151.233 151.228 151.1 151.053 150.968 150.865 153.035 156.718 157.638 159.225 160.34 159.975 160.058 158.4 158.028 157.463 156.4 154.505 152.98 152.273 150.418 151.478 152.93 150.178 149.213 149.305 149.378 149.545 149.56 149.313 149.263 149.175 149.228 149.188 149.098 148.998 149.135 149.123 149.013 149.023 149.258 149.21 149.163 149.1 149.08 149.058 149.108 149.008 148.958 148.89 148.895
