ncols 433
nrows 32
xllcorner    431092
yllcorner    430674
cellsize     2
NODATA_value -9999
39.817 39.262 37.329 37.018 35.172 35.149 35.126 35.119 35.173 35.172 35.199 35.31 35.33 35.406 35.467 35.592 36.411 36.088 35.718 39.486 41.502 41.796 41.787 41.809 42.025 42.119 42.391 42.076 42.142 37.484 42.391 42.484 42.428 42.644 38.566 35.82 38.002 36.51 38.303 36.879 36.35 36.101 36.688 36.44 36.406 36.498 36.531 36.594 36.681 36.72 36.716 36.847 42.626 44.411 46.66 45.788 44.056 40.225 39.749 39.826 39.909 39.871 39.946 39.545 39.642 40.078 40.115 42.091 44.852 47.379 44.948 37.957 36.387 36.5 35.924 35.912 36.01 35.98 36.259 36.386 41.65 41.821 42.113 44.627 45.597 46.238 46.873 46.274 45.564 45.057 45.174 45.2 40.704 36.861 36.307 36.237 37.047 36.603 36.568 36.397 40.621 42.496 43.088 41.92 36.229 36.028 36.085 36.398 36.294 36.23 36.338 36.382 36.568 36.424 36.4 36.507 36.589 38.068 40.36 41.237 40.393 37.782 36.924 37.071 37.115 37.252 37.256 37.184 37.056 37.173 36.982 38.591 40.351 41.232 40.183 37.629 36.965 37.371 37.428 37.454 37.551 37.62 37.566 37.556 37.445 39.069 40.762 41.929 41.332 39.539 37.482 37.314 37.486 37.14 37.046 36.785 36.776 36.815 37.344 37.775 37.29 40.422 42.494 38.75 37.424 37.274 37.335 36.868 36.857 36.853 36.924 37.008 37.074 37.054 37.059 37.123 37.215 37.357 37.014 37.911 37.702 37.995 37.69 37.121 38.585 41.076 42.753 43.127 38.369 40.351 38.014 37.981 37.933 37.646 39.815 40.674 38.928 39.748 40.168 39.96 40.211 39.423 37.962 39.236 40.215 38.837 40.125 38.895 38.14 38.068 38.234 39.231 38.248 38.672 41.393 41.038 37.921 37.757 38.783 38.169 37.991 39.157 43.532 44.277 44.324 43.479 38.703 37.873 37.967 39.858 39.916 37.901 37.9 37.911 37.964 38.107 38.244 38.771 40.418 39.513 40.684 40.201 40.182 42.123 45.358 42.157 40.897 39.127 39.245 39.291 39.19 39.251 39.626 39.469 39.549 39.725 39.363 39.36 39.517 39.702 39.671 39.693 40.69 40.759 40.715 39.429 38.898 39.306 39.191 40.643 39.933 40.256 42.067 41.948 40.887 39.553 39.44 40.125 40.325 40.244 40.151 40.269 40.977 40.137 41.017 43.332 42.968 47.215 42.122 44.128 38.977 39.416 37.541 42.416 41.993 37.357 37.091 40.925 41.276 43.095 35.762 37.105 33.871 33.01 32.574 31.345 30.813 30.102 30.104 30.01 30.069 30.107 30.073 30.1 30.114 29.873 29.917 30.204 30.214 30.135 30.171 30.146 30.186 29.985 29.915 29.784 29.804 29.906 29.947 29.935 29.964 30.752 33.154 34.648 36.845 38.639 36.757 40.135 39.488 38.189 38.63 39.376 39.586 40.446 40.64 40.854 42.376 40.901 39.743 39.448 38.902 38.747 38.631 38.678 38.396 38.283 38.132 38.147 38.211 38.236 38.256 38.311 38.371 38.373 38.463 38.502 38.574 38.625 38.662 38.695 38.695 38.773 38.803 38.789 38.767 38.761 38.789 38.756 38.74 38.712 38.685 38.704 38.663 38.635 38.618 38.625 38.595 38.591 38.582 38.584 38.53 38.528 38.867 41.49 42.717 42.751 41.325 43.371 46.822 48.22 40.749 39.231 40.848 36.844 36.178 35.717 35.556 35.282 35.216 35.028 35.088 34.69 34.408 34.422 34.464 34.599 37.52 37.31 37.027 37.046 37.715 37.964 37.911 37.979 39.293 39.345 39.279 39.297 39.317 39.322 39.359 39.33 39.157
41.35 41.318 37.879 35.76 35.24 35.118 35.173 35.15 35.19 35.241 35.247 35.269 35.409 35.424 35.508 35.774 35.733 35.69 35.71 36.172 42.653 42.747 42.791 42.92 42.74 42.804 42.787 42.801 42.431 37.302 42.48 42.511 42.521 42.275 39.605 36.071 38.101 37.399 36.346 38.083 41.224 37.889 37.335 36.869 36.596 36.695 36.674 36.787 36.694 38.281 38.801 39.055 41.979 44.287 46.092 46.072 44.007 40.816 40.038 40.051 40.158 40.199 40.35 40.518 40.602 40.764 40.789 41.498 43.329 46.915 45.235 38.397 36.434 36.776 35.983 35.918 35.953 35.968 36.218 36.481 36.413 36.437 36.491 38.162 45.028 45.925 46.746 46.371 45.617 44.833 44.851 44.875 40.949 36.907 36.37 36.304 36.871 36.613 36.688 36.397 41.297 42.439 42.972 41.853 36.953 36.084 36.085 36.536 36.26 36.225 36.277 36.375 36.403 36.438 36.451 36.525 36.585 37.168 40.164 41.185 40.321 38.527 37.333 37.547 37.126 37.227 37.303 37.319 37.276 37.251 37.101 38.698 40.237 41.223 39.954 38.309 37.154 37.396 37.706 37.742 37.683 37.787 37.632 37.663 37.537 39.209 40.668 41.92 41.44 40.106 38.503 37.389 37.633 37.774 37.387 36.925 36.853 37.99 37.903 37.655 37.514 43.133 43.999 43.712 38.61 37.484 37.356 37.481 36.987 36.948 36.91 36.974 37.091 37.151 37.151 37.185 37.192 37.477 37.537 37.361 37.256 37.433 37.808 37.302 37.555 39.778 39.719 40.834 41.659 43.994 43.02 39.525 38.155 37.802 39.879 40.255 38.471 38.793 38.054 38.196 38.638 38.646 38.082 38.132 38.347 38.271 39.47 39.691 40.006 38.942 38.427 39.613 38.251 38.238 40.719 41.012 38.007 37.909 37.943 37.986 37.99 37.979 39.346 39.403 39.543 38.675 37.805 37.998 38.191 38.725 39.772 38.483 38.524 38.281 38.844 38.678 40.69 41.149 40.45 38.773 40.42 40.383 39.166 41.328 44.676 44.624 41.231 39.243 39.318 39.332 39.313 39.33 39.221 40.431 41.112 40.116 43.451 39.921 40.973 39.167 39.168 39.161 39.07 41.181 42.09 40.447 38.823 39.312 39.486 39.227 40.447 40.224 40.782 39.864 41.58 42.098 40.458 39.273 39.56 40.557 40.429 40.183 41.164 40.484 40.15 40.481 43.741 43.383 43.899 44.018 40.891 39.618 43.652 47.542 39.912 39.274 36.884 36.742 40.501 35.159 36.153 35.596 34.541 38.525 32.495 33.207 32.205 31.428 30.575 30.081 30.068 30.009 29.955 30.081 30.083 30.158 30.043 29.929 30.043 30.25 30.189 30.124 30.132 30.154 30.092 30.005 29.961 29.919 29.96 29.976 29.915 29.916 30.47 35.088 37.13 39.221 36.957 35.16 35.949 36.948 37.255 37.587 38.464 39.134 39.523 39.714 40.179 42.495 41.706 40.78 40.464 40.471 40.834 40.337 40.275 38.499 38.097 38.149 38.183 38.237 38.323 38.375 38.385 38.468 38.514 38.557 38.584 38.614 38.673 38.713 38.776 38.823 38.815 38.838 38.847 38.817 38.812 38.81 38.789 38.755 38.733 38.731 38.739 38.708 38.675 38.686 38.622 38.634 38.599 38.6 38.598 38.654 41.416 44.458 40.692 42.833 45.924 42.347 40.931 42.47 45.733 37.29 36.4 36.005 35.701 35.377 35.147 34.862 35.52 35.24 35.018 35.659 38.495 38.618 39.1 39.448 39.499 39.624 37.642 37.52 37.527 37.602 36.193 36.009 38.438 39.253 39.221 39.312 39.323 39.295 39.319 39.265 38.21
41.194 41.417 37.125 36.129 35.376 35.199 35.254 35.237 35.23 35.306 35.339 35.393 35.374 35.461 35.637 36.221 35.706 35.667 35.791 36.682 42.444 42.688 41.955 42.055 41.823 41.63 41.691 42.013 41.648 37.404 41.149 41.432 41.405 41.071 40.896 39.644 44.79 43.802 44.805 45.286 44.997 40.405 36.894 36.742 36.758 38.313 38.45 39.711 39.708 39.988 40.169 40.228 42.107 43.924 46.047 46.611 44.513 42.719 40.495 38.672 40.658 40.795 40.301 41.039 41.214 41.242 41.985 42.056 43.76 46.253 45.156 38.746 36.463 36.626 36.059 35.988 36.112 36.113 36.316 36.587 36.442 36.369 36.353 37.469 45.058 45.87 46.703 46.389 45.632 44.595 43.972 42.263 38.848 37.034 36.427 36.431 36.382 36.472 37.062 36.484 40.939 42.58 42.962 38.88 36.616 36.143 36.385 38.117 36.54 38.047 36.441 36.404 36.421 36.457 36.49 36.575 36.602 37.204 40.174 41.116 40.26 38.919 37.21 37.968 37.24 37.397 37.394 37.415 37.529 37.463 37.015 38.653 40.341 41.007 40.4 38.043 37.137 37.518 39.446 42.268 41.53 39.599 37.647 37.695 37.606 38.078 40.795 41.851 41.153 39.076 38.745 37.716 37.83 37.843 37.272 37 37.057 38.817 38.174 38.407 42.346 43.821 44.821 44.635 43.646 38.675 37.379 37.225 37.123 37.054 36.998 36.984 37.053 37.142 37.22 37.262 37.272 37.253 37.363 37.462 37.524 37.468 37.593 37.336 37.216 37.363 37.293 37.494 43.428 44.515 44.041 43.487 42.667 37.983 39.005 37.892 37.894 38.604 38.102 38.131 38.184 38.263 38.276 38.227 38.413 38.285 38.479 40.142 41.43 38.991 38.478 39.836 38.489 38.994 40.029 40.883 38.053 38.027 37.981 38.027 38.084 38.735 39.026 38.13 39.221 40.818 40.03 41.07 39.55 39.066 39.945 38.857 38.614 38.596 38.695 38.875 41.433 41.245 41.174 39.254 39.049 39.394 39.048 39.04 43.194 43.337 39.78 39.306 39.383 39.411 39.373 39.398 39.293 40.591 42.459 44.546 45.673 45.575 42.38 39.192 39.186 39.084 38.907 40.446 41.937 40.508 38.814 38.709 38.891 38.827 40.014 39.04 38.989 38.934 39.305 40.842 39.738 40.596 39.651 39.325 40.157 40.412 42.133 41.813 40.479 40.283 40.406 41.304 43.17 42.218 44.113 43.586 46.583 42.701 45.882 45.097 37.545 42.226 44.839 37.662 35.656 41.017 35.49 35.71 37.812 36.275 33.917 32.402 30.957 30.378 30.13 30.229 30.051 29.912 29.948 30.044 30.075 30.146 30.016 29.89 29.967 30.101 30.147 30.174 30.206 30.12 30.016 30.062 30.023 30 29.923 29.935 29.856 29.868 31.016 36.034 36.968 33.769 36.387 36.338 37.87 39.688 37.752 40.33 41.849 41.297 40.56 42.043 40.838 40.373 40.923 41.67 41.621 41.08 39.517 38.422 38.129 38.176 38.231 38.311 38.345 38.376 38.417 38.556 38.55 38.54 38.599 38.899 38.735 38.785 38.798 38.925 38.896 38.913 38.918 39.289 38.869 38.832 38.901 38.936 38.907 38.917 38.861 38.843 38.74 38.744 38.669 38.69 38.642 38.632 38.654 38.626 41.544 42.864 43.978 40.291 39.871 46.11 44.795 37.741 41.384 36.465 36.002 35.619 35.199 34.966 39.277 41.1 35.678 34.9 35.075 34.908 39.42 39.832 39.88 40.064 40.345 40.422 39.44 39.412 40.008 40.451 39.863 35.449 34.949 34.253 38.061 35.801 39.182 39.313 39.302 39.22 34.858
41.198 41.43 39.639 36.539 35.51 35.239 35.258 35.285 35.377 35.369 35.392 35.415 35.428 35.46 35.639 36.207 35.795 36.144 36.018 39.628 42.368 41.338 38.251 38.055 37.213 37.555 37.124 36.598 38.076 35.747 37.187 36.276 36.701 36.676 35.823 41.728 44.448 48.168 45.879 46.64 45.085 40.263 36.716 36.852 36.843 38.93 40.353 40.414 40.599 40.723 40.842 40.776 41.773 43.661 45.817 46.844 45.015 42.842 41.216 41.329 41.376 42.106 42.395 41.018 42.756 43.264 43.674 43.46 44.635 45.808 45.535 41.691 36.57 37.367 36.056 36.076 36.087 36.088 36.591 37.356 36.737 36.311 36.403 44.097 44.972 45.765 46.591 46.562 45.542 44.558 37.842 36.347 36.463 36.594 36.513 36.592 36.493 36.543 36.681 36.456 36.336 36.635 36.616 36.413 36.176 36.228 42.547 44.358 41.402 44.931 37.706 36.315 36.523 36.451 36.591 36.571 36.61 38.529 40.241 41.31 40.434 37.663 37.04 37.351 43.19 43.927 42.093 37.646 37.655 37.706 39.197 40.55 42.044 41.258 40.337 37.856 37.317 39.699 41.642 42.991 42.84 41.98 37.932 37.751 37.615 38.007 40.854 41.745 41.272 39.797 38.78 37.579 37.585 37.235 37.241 37.17 37.155 37.886 38.211 41.762 43.616 44.578 44.754 44.08 42.887 37.517 37.667 38.29 37.132 37.16 37.52 37.143 37.081 37.147 37.276 37.555 37.331 37.323 37.384 37.357 37.47 37.538 37.587 37.565 37.519 37.452 37.759 40.909 44.404 44.801 44.948 44.642 43.913 37.916 39.085 37.974 38.038 38.377 38.33 38.319 38.323 39.039 38.58 38.411 40.049 40.683 39.064 39.133 43.762 42.755 41.131 43.652 44.384 44.334 41.312 39.607 38.81 38.109 38.086 38.103 38.496 41.496 42.074 43.539 42.775 43.723 42.184 41.138 39.378 38.591 40.48 38.969 38.808 38.836 39.166 39.246 41.472 41.457 41.315 39.512 39.255 39.556 40.243 42.082 43.174 42.503 39.829 39.364 39.436 39.458 39.398 39.456 39.762 39.204 39.478 44.11 45.889 45.569 43.515 39.29 39.16 39.043 39.505 39.753 39.503 39.545 38.933 38.747 39.057 38.798 42.248 42.203 38.967 38.846 38.783 38.73 38.771 39.736 40.704 41.137 39.34 39.408 41.212 40.776 40.686 40.583 40.359 40.422 40.565 41.364 40.628 40.363 47.902 50.529 43.676 41.878 39.923 39.784 43.885 39.295 43.282 36.401 35.632 39.829 34.26 40.304 42.085 39.613 37.432 31.792 33.078 32.355 32.151 30.099 30.075 29.881 29.976 30.093 30.101 30.091 29.96 29.847 29.999 30.16 30.117 30.095 30.143 30.132 30.098 29.992 30.01 29.907 29.943 29.898 29.887 29.999 33.518 33.026 36.974 34.53 36.432 39.791 41.075 39.928 42.056 41.61 41.982 42.562 41.399 39.253 40.121 41.573 41.551 41.17 41.52 38.999 38.624 38.537 38.469 39.174 39.626 39.553 39.024 42.237 39.847 40.512 44.822 46.489 41.168 42.019 42.221 39.745 39.315 39.624 39.857 48.904 40.015 41.909 42.884 39.899 40.462 42.952 43.836 39.322 40.96 40.043 38.863 39.184 41.756 41.766 39.663 40.506 39.85 42.39 41.755 41.152 44.026 46.352 45.383 36.789 36.315 35.912 35.513 35.141 35.482 38.636 42.065 42.49 42.711 35.116 36.103 35.301 40.383 40.656 40.757 40.866 41.041 41.043 40.928 40.589 40.528 40.524 40.472 34.604 34.965 34.325 34.279 34.27 34.236 34.745 35.586 38.153 34.77
40.958 41.44 39.741 35.826 35.792 35.322 35.303 35.352 35.396 35.435 35.452 35.494 35.501 35.602 35.693 35.904 36.019 38.156 41.341 42.555 42.593 41.156 35.869 35.718 35.705 35.731 35.79 35.79 35.814 35.859 35.797 35.896 35.825 35.916 37.235 41.093 44.756 48.872 46.063 45.604 45.932 41.663 37.964 39.979 40.133 40.293 40.959 41.067 41.268 41.56 41.307 41.508 41.758 43.187 44.686 42.2 45.367 43.479 42.575 42.041 43.565 43.851 44.091 44.889 44.858 45.491 45.582 46.067 48.259 46.803 46.218 43.403 36.714 36.689 36.203 36.152 36.147 36.223 36.346 37.828 36.558 36.406 37.481 43.007 45.065 45.732 46.879 46.234 45.55 43.551 36.743 37.107 36.49 36.751 36.655 36.632 36.599 36.651 36.824 36.673 36.823 36.631 36.641 36.652 37.107 37.938 42.629 48.23 48.963 48.427 46.11 42.479 43.774 40.334 36.751 37.546 36.614 37.44 40.193 41.173 40.371 37.736 37.052 40.255 44.587 44.922 44.882 37.768 37.611 37.586 39.407 41.102 42.161 41.486 38.5 37.565 37.666 37.861 41.498 42.803 42.641 40.092 37.816 37.772 37.613 38.069 40.638 41.673 41.345 40.316 37.62 37.625 37.538 37.34 37.335 37.349 37.336 37.433 38.159 42.278 44.148 44.928 44.387 43.258 39.11 38.252 38.839 39.26 38.167 38.527 38.513 37.642 37.293 37.912 38.424 38.077 37.562 37.411 37.426 37.518 37.498 37.603 37.898 37.798 37.733 37.759 38.308 41.915 43.488 43.815 44.526 44.615 38.427 39.078 38.839 38.127 38.365 39.135 39.287 38.573 38.419 39.372 41.232 39.344 42.035 43.119 39.882 43.062 44.883 44.96 41.253 43.253 45.24 44.912 41.119 40.315 38.611 38.219 38.15 38.31 39.041 41.08 44.69 45.627 45.669 44.395 40.028 39.402 38.622 38.727 40.308 39.216 39.141 39.25 39.467 39.364 39.816 40.195 42.639 41.506 43.056 40.94 45.176 45.302 43.648 41.036 39.591 39.449 39.503 39.559 39.484 39.496 39.869 39.291 39.073 40.763 45.548 44.951 42.159 39.149 38.931 38.93 39.708 39.836 38.864 43.064 43.07 43.904 43.831 44.164 44.554 39.095 41.544 39.556 38.801 38.784 38.798 39.717 39.543 40.665 41.63 39.218 39.599 40.709 40.285 40.636 40.587 40.457 40.681 41.666 40.954 44.563 41.577 44.623 44.661 38.962 39.771 45.811 43.634 45.747 44.683 37.666 42.224 37.338 36.918 40.914 41.454 38.056 36.458 39.828 33.102 32.515 30.695 30.351 30.168 30.041 29.956 29.827 29.938 30.067 30.058 30.074 30.009 29.917 30.148 30.188 30.141 30.117 30.184 30.072 30.065 30.081 29.93 29.885 29.877 29.898 30.593 30.55 33.297 33.859 37.201 36.787 35.18 34.426 37.375 36.271 41.419 40.197 42.694 41.253 39.601 40.41 41.274 42.236 42.968 40.621 41.613 41.094 40.572 40.761 40.126 40.413 40.563 41.392 43.995 45.157 46.105 46.429 47.801 44.997 47.323 45.929 40.422 43.171 42.763 47.749 41.067 41.896 44.586 45.094 41.304 40.759 43.687 45.161 47.111 42.511 42.667 45.492 43.673 42.931 44.062 44.488 45.769 45 40.608 38.444 44.025 39.331 37.374 36.199 35.857 35.392 35.087 35.097 40.599 42.243 42.685 43.136 43.662 42.375 38.257 36.471 41.235 41.564 41.599 41.505 41.516 41.478 41.002 40.562 40.531 40.57 40.678 34.787 34.546 34.34 34.328 34.27 34.269 34.263 34.251 34.252 34.208
41.105 41.639 39.64 36.321 35.54 35.386 35.426 35.458 35.53 35.465 35.5 35.523 35.572 35.6 35.715 35.924 35.84 38.015 40.878 42.389 42.652 41.277 36.334 35.747 35.747 35.765 35.804 35.811 35.88 37.189 38.987 38.793 35.957 35.876 35.874 40.534 43.987 44.992 43.963 45.112 46.516 43.862 41.173 40.714 40.819 40.961 41.392 41.696 41.775 41.992 41.919 42.345 42.5 43.282 44.593 46.924 45.902 44.457 44.565 45.302 45.71 46.024 46.51 46.946 46.895 46.753 46.918 46.354 46.746 45.872 46.733 44.169 38.099 37.032 36.272 36.265 36.268 36.3 36.359 37.017 37.403 37.405 36.976 37.863 39.08 38.051 40.163 37.517 38.823 39.592 38.026 37.799 38.434 38.353 36.794 36.757 36.694 36.635 36.76 36.759 36.699 36.694 36.708 36.722 36.784 36.765 36.833 44.911 49.285 49.328 48.668 48.158 47.215 47.789 43.698 37.416 36.675 38.452 40.158 41.375 40.335 39.319 37.118 37.42 43.24 44.884 42.777 38.085 37.672 37.696 38.2 41.121 41.948 41.294 40.316 37.687 37.779 37.929 37.903 42.541 41.67 40.318 37.964 37.84 37.622 38.731 40.589 41.846 41.223 39.124 37.651 37.683 37.644 37.498 37.444 37.418 37.759 37.638 37.615 39.701 43.641 44.503 43.832 42.689 39.582 38.719 39.131 39.186 39.234 38.202 38.59 37.803 37.993 38.544 38.016 37.599 37.35 37.46 37.465 37.529 37.588 37.847 38.909 37.901 37.834 38.315 38.456 37.722 39.964 41.278 43.533 39.467 38.332 38.155 39.216 38.346 44.099 44.362 44.26 41.947 38.479 38.632 44.319 44.426 44.48 44.413 44.428 44.326 44.988 44.888 40.979 43.015 44.343 44.257 41.185 40.997 38.357 38.292 38.23 38.501 39.024 42.654 44.801 45.638 45.478 44.506 39.792 40.816 39.725 40.21 40.559 39.464 44.085 43.974 44.37 43.415 40.365 40.294 41.592 45.38 45.304 45.886 45.921 45.96 41.708 39.842 39.631 39.455 39.601 39.606 39.519 39.603 39.9 41.326 39.967 40.414 42.003 42.548 41.069 39.088 39.009 38.857 38.829 39.163 38.891 45.347 45.347 45.441 45.522 45.795 44.423 39.012 43.18 44.57 41.479 38.956 40.199 40.787 39.009 39.187 39.696 41.14 40.368 39.359 40.438 40.15 40.359 40.671 40.749 40.703 42.305 43.027 40.669 40.669 40.839 42.85 42.124 39.078 39.323 40.744 44.428 39.38 45.062 41.9 38.205 36.824 35.584 34.817 36.697 35.641 35.91 32.858 34.021 31.089 30.633 30.56 30.096 30.039 30.002 29.945 29.987 30.078 30.034 30.085 29.918 30.013 30.21 30.11 30.07 30.13 30.074 30.051 30.067 29.977 29.862 29.864 29.877 29.904 29.837 31.314 35.245 36.374 35.527 33.767 34.115 34.762 36.1 37.227 40.184 38.306 38.492 39.342 39.722 40.96 42.089 41.88 41.306 40.923 40.8 42.023 42.466 41.97 41.576 41.169 43.349 43.636 43.719 44.239 48.348 47.669 47.426 44.381 45.92 42.948 43.683 41.632 48.776 47.134 47.518 45.775 45.183 47.258 42.691 41.541 48.44 48.113 47.497 47.518 46.854 45.742 45.71 46.52 47.353 46.203 42.808 37.569 36.97 36.204 36.013 35.694 35.399 34.982 38.566 41.892 42.607 43.073 43.485 43.914 44.328 44.817 37.557 34.867 40.024 41.216 41.084 41.025 40.803 40.68 40.568 40.545 40.674 40.66 40.633 37.276 34.694 34.482 34.317 34.319 34.281 34.271 34.251 34.516 34.237
41.004 41.642 38.693 35.99 35.709 35.47 35.467 35.528 35.516 35.523 35.612 35.632 35.628 35.666 35.793 35.927 35.867 36.279 40.556 42.324 42.792 41.744 36.045 35.774 35.87 35.784 35.829 35.875 35.871 37.846 40.373 40.064 37.442 35.94 35.947 41.347 44.232 44.068 43.013 44.907 46.541 43.491 41.253 41.239 41.723 42.204 42.663 42.725 42.994 43.167 43.627 44.187 44.62 44.96 45.162 46.688 46.576 46.532 46.787 47.049 46.826 47.598 46.121 46.035 45.487 45.459 44.814 44.645 44.165 44.673 46.92 44.721 38.428 37.162 36.491 36.383 36.464 36.389 36.385 36.992 36.967 37.053 37.05 37.265 37.185 37.737 37.248 37.252 37.195 38.658 37.134 37.761 38.664 37.805 36.863 36.804 36.819 36.76 36.872 36.83 36.787 36.82 36.784 36.83 36.855 37.089 36.908 36.979 47.247 48.64 48.619 48.117 48.333 49.009 42.914 39.039 36.694 37.963 40.417 41.251 40.344 37.826 37.109 37.369 41.243 39.316 37.924 37.753 37.907 37.812 38.263 40.957 42.184 41.398 38.544 37.626 37.816 37.959 37.927 38.88 38.291 38.947 37.942 37.86 37.564 38.013 40.311 39.333 41.167 38.116 37.712 37.859 37.732 37.651 37.631 37.617 38.059 37.778 37.678 38.403 38.483 39.122 42.841 40.513 39.593 37.99 39.09 39.067 38.6 38.219 39.037 38.203 38.471 37.963 38.001 38.824 38.316 37.508 37.481 37.582 37.649 37.709 37.804 37.795 37.715 37.83 38.179 38.886 37.924 37.786 37.749 37.686 38.281 39.384 39.295 39.557 45.089 45.267 45.145 40.851 38.404 38.52 43.634 45.397 45.377 45.221 44.617 44.139 43.909 43.919 41.603 40.885 40.766 41.683 40.552 39.963 38.474 38.345 38.337 38.558 38.675 41.117 44.678 45.548 45.497 44.607 41.722 40.882 39.637 39.144 40.353 39.604 45.776 45.847 45.731 45.709 41.505 40.18 41.126 46.312 46.145 45.546 45.225 45.285 42.034 39.928 39.742 39.559 39.701 39.656 39.6 39.658 39.808 42.611 43.178 39.91 42.112 42.623 41.771 40.488 39.597 38.926 38.842 38.962 38.732 44.524 46.091 45.736 45.869 45.865 44.363 40.518 44.124 44.609 44.95 43.445 42.142 41.638 40.95 39.198 39.252 39.271 41.204 39.688 39.146 39.579 40.154 40.653 41.206 40.572 40.312 40.525 40.379 40.882 40.464 43.315 46.577 44.192 43.623 42.869 44.144 40.917 44.656 43.45 40.492 37.172 36.658 41.089 39.095 36.247 39.263 36.209 33.658 32.821 38.48 36.57 30.716 30.443 30.201 29.972 30.008 29.949 30.059 30.063 30.073 30.011 29.963 30.204 30.217 30.113 30.042 30.126 30.112 30.037 29.991 29.966 29.812 29.831 29.864 29.872 29.773 31.687 30.373 31.142 31.457 32.887 34.663 34.846 36.168 36.941 37.34 38.519 39.62 39.351 39.827 40.302 40.475 40.137 41.047 42.912 42.976 42.232 41.134 40.783 40.991 41.537 40.734 40.089 41.291 41.427 45.247 46.302 46.706 47.06 43.249 48.131 46.584 48.089 45.505 44.737 47.104 48.778 45.483 46.001 39.656 42.686 44.791 48.066 45.82 41.392 48.18 47.171 45.905 38.66 37.033 36.431 36.055 35.545 35.375 35.125 35.032 39.676 42.146 42.606 43.139 43.488 44.047 44.633 44.681 44.243 42.194 36.564 38.719 40.373 40.281 40.177 40.015 39.556 40.418 40.618 40.569 40.579 40.595 37.433 35.587 34.606 34.318 34.34 34.35 34.295 34.285 34.43 34.165
40.812 42.146 40.432 36.412 36.044 35.568 35.514 35.589 35.619 35.655 35.679 36.579 36.296 35.75 37.877 36.049 35.929 35.892 40.511 42.285 42.584 41.73 37.514 36.621 36.956 36.987 36.036 35.894 36.039 39.277 40.302 40.373 38.048 36.073 36.799 44.224 42.76 45.483 42.651 44.584 46.502 43.932 43.047 43.339 43.602 43.989 44.646 44.465 44.982 45.569 46.07 46.049 46.615 46.584 47.107 46.728 46.876 46.266 45.945 45.303 45.137 44.851 44.265 43.79 43.098 42.891 42.741 42.332 41.225 43.27 46.152 45.477 39.307 37.219 36.594 36.477 36.536 36.481 36.552 36.899 36.812 36.88 36.997 36.994 36.986 40.797 43.329 44.459 43.737 40.744 37.046 37.203 37.193 37.375 36.969 36.902 36.958 36.916 36.972 36.947 36.924 36.918 36.938 36.933 36.937 37.275 37.001 37.175 46.21 47.72 47.679 47.276 40.549 45.81 40.666 37.671 36.658 38.183 39.993 41.196 40.451 37.779 37.172 37.417 37.499 37.561 37.81 37.905 37.793 38.991 39.087 40.811 42.139 41.417 38.508 37.742 37.898 38.08 38.141 38.171 38.123 38.075 38.027 38.004 37.714 37.502 37.831 38.42 37.524 37.436 37.616 37.845 37.799 37.772 37.738 37.786 38.233 38.024 37.802 37.785 37.73 39.042 37.743 38.015 37.805 37.628 37.912 39.915 40.943 40.455 38.923 42.979 38.905 38.244 38.383 38.31 38.103 37.896 37.539 37.556 37.555 37.692 37.844 37.744 37.75 37.826 37.992 38.148 38.063 38.022 38.256 38.786 37.98 38.193 38.358 39.751 44.751 44.585 44.653 44.587 38.384 38.642 44.866 44.821 44.899 44.946 44.269 40.651 41.21 39.193 38.465 39.099 39.154 38.385 38.588 39.333 38.502 38.466 38.471 38.67 38.775 39.239 44.355 45.556 45.514 44.447 40.241 39.787 39.532 40.38 41.587 40.702 44.767 46.106 46.043 46.12 40.681 39.988 41.336 45.628 45.747 42.575 44.369 41.341 40.247 40.012 39.778 39.61 39.759 39.743 39.706 39.83 41.489 40.426 40.344 39.544 39.987 40.462 39.391 39.576 39.118 38.922 38.866 39.541 38.907 44.985 45.151 45.069 45.158 45.007 43.654 40.722 42.093 44.71 45.726 45.279 44.792 43.768 39.686 39.137 39.236 39.258 39.543 40.309 40.091 39.577 39.455 39.52 40.483 40.413 40.455 40.655 40.394 40.443 40.437 41.382 45.669 46.135 47.125 41.803 39.499 42.575 43.545 42.035 39.866 38.688 38.463 44.272 46.042 37.973 35.188 34.864 38.361 34.766 32.398 38.574 34.389 33.468 32.205 30.72 30.101 29.987 29.933 29.956 30.053 30.1 30.081 30.095 30.221 30.297 30.2 30.114 30.056 30.127 30.051 30.027 30.097 29.948 29.803 29.859 29.89 29.809 29.83 29.88 31.188 35.243 33.183 34.6 34.654 35.169 35.982 37.086 39.359 39.555 39.434 39.421 39.989 39.499 41.779 41.09 41.243 41.614 41.155 40.977 41.032 40.256 42.508 41.125 39.594 38.702 38.83 39.708 42.718 46.041 45.41 49.118 47.239 40.356 42.739 47.094 45.58 46.73 47.229 41.763 46.683 42.421 40.432 47.577 45.792 44.514 45.962 47.529 45.398 36.868 36.111 35.505 35.199 35.17 35.048 38.519 41.287 42.362 42.703 43.36 43.759 44.161 44.681 44.384 44.053 43.528 43.086 40.985 36.254 39.563 39.397 39.277 39.165 39.019 39.165 37.275 36.885 36.077 36.792 34.426 35.17 34.643 34.344 34.337 34.351 34.33 34.649 34.376 34.232
40.921 41.974 41.205 38.037 36.127 35.519 35.561 35.636 35.694 35.803 35.766 38.673 40.82 40.388 40.784 38.604 36.037 35.836 36.25 37.409 36.436 38.559 36.278 36.013 36.076 36.184 35.944 36.073 35.994 36.067 39.343 37.511 36.536 36.12 39.358 43.987 44.851 45.741 45.527 43.879 46.657 45.13 44.957 45.593 45.807 46.077 46.326 46.713 46.942 47.006 46.463 46.621 46.101 45.763 45.405 44.63 44.655 44.642 43.94 44.046 45.009 42.768 39.794 39.392 38.446 37.686 38.249 36.842 36.83 42.344 45.453 45.589 39.254 37.361 36.615 36.597 36.635 36.648 36.672 37.858 37.679 39.16 40.181 36.99 36.97 38.17 43.296 44.296 43.805 42.511 37.213 37.25 37.684 39.134 37.127 37.036 37.035 36.98 37.243 37.072 37.051 37.043 41.671 37.358 39.292 38.204 37.153 37.289 44.905 47.272 47.798 45.341 45.06 40.08 41.071 38.448 37.077 39.273 40.272 41.142 40.289 39.29 37.251 37.666 37.671 37.812 37.927 38.033 38.048 37.921 39.102 41.034 42.077 41.492 38.966 37.829 38.09 38.273 38.368 38.424 38.319 38.331 38.184 37.998 37.877 37.886 38.341 38.4 37.524 37.468 37.746 37.904 37.945 37.895 37.877 37.965 38.431 38.052 37.913 37.911 37.892 38.353 37.89 38.811 39.428 38.171 40.163 40.722 40.842 40.864 42.19 44.939 44.161 40.859 39.123 38.326 38.178 38.014 37.904 37.651 37.698 37.69 37.79 37.863 37.908 37.935 37.892 38.008 38.25 38.498 38.298 38.595 38.295 38.48 38.393 42.191 43.531 43.753 43.802 40.998 39.374 38.526 42.324 43.904 44.007 43.584 40.642 38.877 39.729 38.538 38.54 38.588 38.608 38.685 39.665 39.279 38.599 38.609 38.632 38.792 38.884 39.619 40.325 41.5 42.555 41.67 40.327 40.831 39.405 39.631 41.375 40.523 44.506 45.15 45.082 45.251 40.528 40.07 43.463 44.821 44.854 42.151 41.683 42.36 41.418 40.013 39.836 39.75 39.804 39.825 39.771 39.831 41.817 41.381 42.027 44.791 45.515 45.122 42.687 39.212 39.086 39.049 38.903 38.826 39.645 40.688 41.998 43.655 44.178 42.544 38.84 39.145 42.191 44.803 45.22 45.58 45.549 44.897 44.457 38.948 38.964 40.019 40.399 41.285 41.081 39.612 39.5 39.118 39.19 39.986 40.836 40.294 40.139 40.398 41.332 40.513 41.959 41.499 41.957 40.031 41.828 46.939 41.906 41.428 42.095 41.019 40.633 44.485 39.605 37.331 36.606 37.572 37.844 36.544 34.495 33.409 38.569 32.35 33.404 31.704 30.87 30.639 30.09 30.027 29.956 29.961 30.049 30.061 30.047 30.097 30.229 30.308 30.164 30.073 30.014 30.101 30.054 30.078 30.001 29.952 29.834 29.819 29.842 29.832 30.302 33.591 34.57 36.561 37.389 33.749 34.338 34.971 36.177 37.359 38.723 39.094 39.282 39.164 39.343 39.015 38.444 41.223 42.508 44.143 42.531 41.724 42.171 43.086 42.16 39.599 38.981 40.167 40.558 43.457 44.496 49.538 45.891 39.823 39.235 46.681 45.019 44.216 43.071 44.974 46.234 41.254 41.292 46.145 46.981 46.959 40.348 43.681 36.522 35.852 35.26 34.908 34.701 34.941 40.865 42.074 42.533 43.081 43.437 44.18 44.383 44.702 44.428 43.848 43.256 42.866 42.386 41.72 36.39 38.812 38.347 37.71 36.126 35.762 36.14 34.543 35.686 34.778 35.734 35.47 35.335 34.748 34.325 34.361 34.378 34.399 34.51 34.367 34.276
40.442 41.811 40.539 36.784 35.856 35.6 35.651 35.736 35.752 35.839 36.017 39.77 41.225 41.397 41.234 40.86 36.714 35.948 38.199 37.13 35.857 35.871 35.918 35.97 36.037 36.002 36.065 36.247 40.576 36.269 36.202 36.262 36.33 36.276 36.249 40.209 43.665 45.301 44.034 44.04 46.754 46.894 46.984 46.611 47.016 46.488 45.9 45.65 45.439 44.875 44.805 42.09 43.91 43.761 43.329 42.872 42.617 39.608 41.19 43.818 44.902 43.116 37.387 36.8 36.943 36.854 36.786 36.791 36.836 39.682 38.561 38.334 37.254 37.02 36.722 36.729 36.763 36.732 36.749 38.693 39.252 40.669 40.523 37.708 37.024 40.849 43.21 44.424 43.732 42.255 38.645 37.872 39.764 38.796 37.217 37.138 37.107 37.168 37.415 37.14 37.7 42.49 44.09 43.728 42.581 37.216 37.256 37.021 38.002 41.674 46.216 41.461 38.513 39.528 39.325 39.274 40.245 40.247 40.272 39.221 39.492 37.606 38.351 38.193 38.254 39.466 38.212 38.13 38.084 38.07 38.217 40.994 41.936 41.44 40.089 37.924 38.18 38.405 38.524 38.555 38.557 39.026 38.468 38.251 38.809 37.889 38.544 38.247 37.589 37.604 37.806 38.082 38.049 38.014 38.056 38.026 38.323 38.884 38.464 37.963 39.38 42.629 38.547 38.229 39.806 40.55 40.662 40.584 40.398 39.652 44.692 45.622 45.207 44.649 43.887 39.511 38.45 38.293 38.307 38.234 38.551 37.807 37.756 37.88 37.921 37.987 37.966 37.958 38.02 38.202 38.261 38.535 38.435 38.639 38.408 39.514 39.546 39.539 38.826 38.373 39.58 38.546 38.537 39.006 39.458 39.833 38.925 38.779 40.03 38.788 38.868 38.939 39.812 40.304 39.804 38.831 38.714 38.735 38.82 38.984 39.112 39.34 39.001 40.19 41.155 40.886 39.871 39.581 39.524 39.691 41.126 39.913 42.138 42.619 42.751 40.831 39.492 39.996 39.559 39.274 40.044 39.935 39.485 43.381 44.273 41.065 39.889 39.797 39.863 39.879 39.82 39.859 41.623 41.859 41.377 45.16 46.233 46.06 41.652 39.316 39.159 39.088 38.968 38.838 39.438 38.862 41.535 41.177 39.433 39.17 39.016 39.721 41.34 43.694 44.582 45.099 45.206 44.29 41.467 39.16 41.053 40.997 40.924 40.622 40.019 39.878 40.656 39.877 39.338 39.126 39.59 39.986 39.92 40.269 40.204 40.157 40.264 40.399 40.606 40.804 43.235 41.858 40.449 44.362 41.785 47.717 44.261 45.06 40.975 40.112 42.606 45.318 41.636 38.066 38.927 35.49 36.5 33.751 35.883 38.043 33.269 32.874 31.181 30.713 30.118 29.991 29.965 29.96 30.055 30.055 30.125 30.185 30.247 30.297 30.129 30.044 30.076 30.149 30.116 30.029 29.936 29.896 29.807 29.849 29.829 30.537 30.578 31.933 34.785 32.461 33.387 33.601 34.441 36.077 37.339 38.156 38.841 38.962 39.23 39.59 39.289 41.849 44.575 44.667 42.432 42.638 43.856 44.094 43.4 41.972 40.231 39.319 38.679 43.48 43.342 46.895 45.139 42.121 42.777 45.106 44.086 44.267 44.864 45.029 40.185 41.912 39.462 47.621 46.715 38.919 37.313 36.555 35.592 35.059 34.729 34.639 34.648 34.682 40.676 42.689 43.122 43.766 44.083 44.588 44.688 44.119 43.686 43.227 42.736 42.313 40.464 35.486 34.721 34.433 34.373 34.367 34.353 35.113 35.398 34.499 35.245 34.976 34.879 34.667 34.568 34.793 34.369 34.391 34.374 34.388 34.372 34.324 34.288
41.153 41.94 41.096 36.857 36.274 35.724 35.657 35.733 35.829 35.916 36.776 39.597 41.366 42.188 41.794 40.271 37.246 36.117 40.261 42.569 36.112 36.092 36.13 36.126 36.148 36.176 36.238 36.21 36.278 36.347 36.341 36.507 36.413 36.424 36.387 36.49 43.527 43.642 42.748 42.998 46.223 46.415 45.455 42.584 44.848 44.604 44.035 43.555 43.512 42.962 42.924 42.421 41.202 40.847 40.893 38.666 36.802 36.81 36.758 37.434 43.819 38.3 36.725 36.761 36.811 36.831 36.849 36.815 36.833 36.813 36.802 36.806 38.109 36.929 36.779 36.776 36.842 36.837 36.936 38.087 37.046 37.769 37.576 37.566 37.195 41.29 43.25 44.417 43.762 40.349 37.284 37.307 39.603 38.468 37.28 37.255 37.266 37.271 37.554 37.391 38.138 43.105 44.325 44.296 43.124 38.398 37.229 37.415 37.789 40.52 40.11 37.467 37.476 37.524 37.829 37.966 38.1 37.773 37.721 37.281 37.609 37.74 38.319 37.951 39.972 40.06 38.506 38.243 38.159 38.16 38.213 40.968 42.038 41.338 39.884 38.063 38.313 38.727 39.369 38.856 38.79 38.772 38.326 38.414 38.001 37.838 37.934 38.061 37.743 37.863 37.976 38.299 38.233 38.13 38.178 38.18 39.556 38.568 38.53 38.702 42.947 44.188 45.279 43.218 39.003 38.747 40.383 40.401 39.353 43.95 45.006 45.58 45.675 45.357 45.104 44.344 39.643 38.644 38.458 38.237 38.25 38.089 39.066 40.87 37.969 37.967 38.055 38.069 38.148 38.078 38.207 38.375 38.479 38.512 38.53 39.193 39.339 38.991 38.892 38.87 38.67 38.718 38.673 38.644 38.819 38.821 38.898 38.94 38.975 38.983 39.056 39.081 39.657 39.563 39.092 38.887 38.875 38.92 38.989 38.978 39.23 39.402 39.702 39.803 41.813 41.642 41.393 41.482 41.292 41.524 41.929 39.728 39.768 39.711 40.513 40.248 39.787 40.122 40.788 39.873 40.078 40.787 41.632 43.863 44.611 41.424 39.807 39.863 39.919 39.96 39.943 39.954 42.165 41.952 39.692 45.198 45.976 46.072 45.002 39.474 39.259 39.169 38.926 38.859 38.829 38.899 41.963 42.643 42.814 39.646 39.379 39.033 38.919 40.855 42.704 44.326 40.549 39.745 38.875 38.951 40.553 39.713 39.696 39.205 40.082 39.556 40.706 41.561 40.877 39.396 39.258 39.385 39.678 39.819 40.327 40.425 40.324 40.108 40.349 43.977 42.171 41.474 43.11 44.721 44.147 45.393 43.369 46.236 40.076 46.636 38.969 38.509 37.516 37.617 41.157 35.834 35.957 33.243 34.5 34.002 35.094 32.368 32.354 32.337 30.435 30.109 29.97 29.948 30.011 30.089 30.163 30.03 30.079 30.131 30.262 30.22 30.071 30.148 30.127 30.096 30.077 30.083 29.954 29.874 29.856 29.825 29.797 30.501 29.795 30.454 30.912 31.684 32.658 33.371 35.444 36.537 37.402 38.038 38.682 38.964 38.602 40.377 43.505 42.625 39.725 41.722 42.356 42.087 39.325 41.773 40.501 39.28 37.536 38.632 39.489 44.106 43.983 41.277 40.697 41.82 46.623 45.142 40.574 43.682 43.236 38.935 38.565 42.001 38.509 37.162 36.679 36.031 35.202 34.972 34.841 34.71 34.64 34.676 34.737 41.536 43.738 44.473 44.728 44.463 44.04 43.476 42.833 42.474 41.982 37.224 34.828 34.703 34.733 34.633 34.396 34.38 34.333 34.505 34.394 34.37 34.381 34.316 34.323 34.249 34.339 34.339 34.363 34.378 34.394 34.433 34.366 34.334 34.331
40.958 41.367 40.978 36.893 35.935 35.717 35.758 35.792 35.828 35.925 36.927 36.706 37.322 41.602 39.463 38.4 36.578 36.207 36.078 36.099 36.141 36.32 36.345 36.374 36.394 36.395 36.421 36.485 36.501 36.516 36.551 36.596 36.606 36.593 36.583 36.659 38.288 40.281 39.519 42.013 45.068 45.557 44.113 43.5 42.544 39.756 41.432 41.394 40.576 38.83 40.018 39.789 39.852 39.796 39.849 39.709 36.843 36.748 36.777 37.839 37.477 36.754 36.743 36.809 36.774 36.825 36.796 36.779 36.823 36.812 36.818 36.871 37.982 37.016 36.966 36.938 36.929 36.9 36.947 38.02 37.662 37.126 37.511 37.052 37.171 42.124 43.284 44.43 43.801 42.461 37.333 37.26 37.835 37.81 37.337 37.308 37.338 37.448 38.285 37.858 40.391 43.074 44.431 44.467 43.372 38.937 38.452 37.69 38.288 38.406 37.948 38.123 37.91 37.981 37.971 37.953 37.842 38.064 38.258 38.109 38.15 39.122 38.374 38.304 38.522 38.74 38.471 38.375 38.257 38.413 38.24 41.63 38.083 42.35 38.152 40.61 38.52 38.858 38.917 38.845 38.747 40.267 40.216 38.381 37.848 41.515 43.769 44.508 43.702 42.46 38.196 38.953 38.408 38.3 38.255 38.273 39.233 38.634 38.642 41.343 44.479 44.991 45.212 44.501 42.076 38.388 39.294 40.574 40.254 42.079 44.027 44.479 45.034 45.521 45.703 45.09 38.853 38.742 38.582 38.655 39.081 38.388 43.102 43.019 38.917 37.965 38.072 38.116 38.177 38.241 38.223 38.29 38.371 38.387 38.409 38.944 39.482 38.569 38.604 38.598 38.611 38.661 38.709 38.726 38.778 38.819 38.839 38.8 38.819 38.938 38.955 38.997 39.057 39.1 38.982 39.01 38.979 39.05 39.12 39.118 39.184 40.115 40.771 39.713 39.513 39.548 39.588 39.617 39.618 39.642 39.582 39.735 39.893 39.727 40.076 39.893 39.903 39.797 40.182 40.387 40.401 40.339 39.867 42.505 42.939 40.245 39.855 39.959 39.994 40.032 39.928 40.012 41.656 41.552 39.614 40.992 42.746 43.828 42.022 39.956 40.118 39.441 38.862 38.821 38.785 39.069 39.645 42.233 43.224 40.688 38.872 38.787 38.823 38.846 38.887 39.638 38.849 38.865 40.12 40.931 40.518 39.213 39.122 39.163 39.181 39.581 40.905 40.337 40.716 40.891 40.521 39.445 39.299 39.569 40.453 40.002 40.077 40.287 40.422 40.783 44.109 41.528 43.339 40.845 43.677 41.959 45.481 45.488 45.516 45.264 41.241 42.069 39.103 42.04 37.794 37.607 42.097 36.12 34.974 35.673 36.281 37.756 35.836 33.089 32.608 32.278 30.314 30.01 30.041 30.037 30.03 30.084 30.069 30.034 30.089 30.072 30.132 30.131 30.083 30.007 30.034 30.119 30.041 30.018 29.882 29.715 29.721 29.812 29.824 29.798 29.732 30.098 31.177 32.925 33.629 34.711 35.529 36.303 38.378 39.911 40.312 43.042 42.305 42.104 40.192 39.888 40.57 41.813 40.315 39.719 38.239 37.82 38.939 38.739 40.527 43.779 44.469 42.271 41.257 39.565 41.387 43.673 45.574 45.046 40.576 38.742 37.786 37.448 36.917 36.602 36.302 35.542 35.253 35.079 34.902 34.74 34.617 34.723 35.769 36.621 42.555 44.681 44.091 43.77 43.284 42.903 42.363 41.722 35.779 34.859 34.707 34.633 34.636 34.748 34.469 34.456 34.438 34.451 34.47 34.434 34.371 34.371 34.316 34.354 34.338 34.35 34.364 34.455 34.494 34.505 34.42 34.413 34.408
38.267 37.354 36.492 37.015 36.347 35.894 35.827 35.825 35.84 35.917 36.781 36.486 36.463 36.399 36.877 36.437 36.444 36.334 36.348 36.342 36.393 36.436 36.485 36.576 36.537 36.554 36.658 36.69 36.672 36.722 36.812 36.779 36.78 36.826 36.835 36.825 36.827 37.192 37.175 37.635 45.155 46.608 43.388 37.376 37.587 36.713 37.437 39.949 39.744 39.681 39.826 38.638 37.59 37.461 36.777 36.755 36.753 36.799 36.872 36.808 36.775 36.754 36.818 36.739 36.835 36.912 36.883 37.142 36.943 37.149 36.891 37.229 37.796 37.078 37.076 37.025 37.032 37.023 37.05 39.49 38.479 38.75 37.889 37.888 37.614 39.273 43.462 44.524 43.826 42.519 37.61 37.562 38.824 38.01 37.497 37.45 37.422 37.503 37.586 37.463 39.16 43.38 44.321 44.677 43.305 38.377 37.62 38.745 38.849 39.363 38.244 38.269 38.77 38.484 38.387 38.189 38.178 38.108 38.428 38.388 38.38 38.347 38.285 38.268 38.26 38.355 38.605 38.449 38.464 38.416 38.445 42.797 45.009 45.906 45.181 43.122 38.606 38.728 38.839 38.86 38.885 39.397 38.987 38.337 38.259 42.725 44.303 45.275 44.299 42.256 38.204 38.456 38.492 38.387 38.409 38.44 38.81 39.14 38.688 43.879 45.246 45.878 44.957 43.622 38.738 38.304 39.561 39.711 38.869 40.979 41.674 43.454 44.248 44.674 45.331 39.741 38.95 38.945 38.867 40.405 41.08 39.295 41.909 43.437 39.555 38.12 38.074 38.117 38.2 38.219 38.307 38.318 38.39 38.388 38.428 38.492 38.861 38.5 38.528 38.49 38.472 38.555 38.529 38.61 38.664 38.653 38.716 38.788 38.823 38.851 38.885 38.933 38.994 39.048 39.061 39.116 39.082 39.141 39.184 39.214 39.225 40.14 39.646 40.319 39.361 39.426 39.481 39.456 39.523 39.549 39.595 39.62 39.585 39.603 39.706 39.7 39.689 39.689 39.777 39.783 39.825 39.874 40.401 40.864 40.196 39.922 39.997 40.001 40.068 40.053 40.01 40.105 41.312 42.048 40.615 40.678 42.417 42.813 41.658 39.495 39.566 39.206 38.865 38.825 38.797 38.865 40.319 40.011 39.55 41.831 38.76 38.742 38.65 39.397 40.379 39.388 39.031 39.44 41.268 41.25 40.516 39.126 39.106 39.268 39.656 39.117 40.694 39.495 39.476 39.612 40.262 40.298 39.937 39.491 39.42 39.676 39.661 40.08 40.192 40.513 40.297 40.217 40.91 40.96 41.109 44.726 43.698 41.707 40.577 42.208 40.236 40.465 39.956 39.002 42.91 37.812 41.532 36.346 35.758 37.086 36.343 34.569 35.018 34.588 34.111 31.507 30.715 31.03 30.935 30.06 29.979 29.959 29.951 29.951 29.971 30.005 30.084 30.042 30.081 30.126 30.045 30.075 30.099 30.098 30.064 29.993 29.838 29.696 29.828 29.817 29.796 29.743 29.785 31.263 34.156 35.682 35.419 37.189 38.417 36.967 42.33 44.512 44.346 42.722 40.055 39.264 39.795 39.274 38.761 38.928 38.341 39.303 41.492 41.843 41.158 42.232 43.313 39.952 39.365 39.42 39.887 45.604 42.191 43.005 37.933 37.315 36.775 36.577 36.239 35.897 35.659 35.466 35.294 35.171 35.01 34.847 34.746 35.602 35.61 35.634 36.817 43.936 43.74 43.026 42.669 42.167 38.132 34.898 34.82 34.75 34.679 34.635 34.601 34.813 34.757 34.568 34.589 34.561 34.579 34.542 34.499 34.462 34.462 34.405 34.455 34.393 34.444 34.462 34.524 34.471 34.458 34.493 34.454
39.07 40.775 39.913 36.486 36.491 35.873 35.879 35.883 35.884 35.961 36.928 36.487 36.53 36.546 36.548 36.52 36.523 36.476 36.789 36.72 36.588 36.778 37.95 37.052 36.896 36.797 36.797 37.248 37.248 38.148 38.176 39.179 38.918 39.006 38.977 39.445 39.523 39.341 36.585 37.685 44.14 47.04 44.614 38.008 36.696 36.678 37.245 37.564 36.788 36.739 36.748 36.753 36.761 36.716 36.775 36.821 36.749 37.105 36.803 36.867 37.021 36.995 37.034 37.013 37.039 37.033 37.076 37.061 37.075 37.107 37.112 37.14 37.145 37.354 37.149 37.123 37.183 37.079 37.107 38.654 37.237 37.13 37.135 37.095 37.25 38.906 43.13 44.35 43.667 42.705 38.17 37.376 38.372 38.026 37.598 37.531 37.492 37.638 37.678 37.567 40.168 43.504 44.508 44.716 43.383 38.275 37.679 37.854 39.103 38.443 38.514 39.285 42.152 41.47 42.206 41.192 42.2 38.546 38.457 38.462 38.457 39.547 39.153 38.968 38.501 38.604 38.669 39.223 38.603 38.534 38.546 42.309 44.81 45.888 45.335 43.725 38.631 38.796 38.923 39.059 39.132 39.374 39.273 39.484 38.659 42.204 44.821 45.479 44.985 41.164 38.348 39.137 38.621 38.546 38.534 38.552 38.683 38.718 42.421 44.781 45.651 45.579 44.513 42.72 40.783 38.443 38.603 39.221 38.851 39.329 39.913 39.717 41.937 43.973 41.507 38.958 39.109 39.093 39.012 40.342 40.332 39.067 40.426 39.89 38.77 39.297 38.413 38.237 38.213 38.226 38.319 38.37 38.386 38.43 38.493 38.525 38.564 38.568 38.632 38.619 38.637 38.647 38.69 38.706 38.747 38.765 38.866 38.874 38.897 38.873 38.983 38.983 39.036 39.027 39.076 39.157 39.155 39.206 39.197 39.248 39.316 39.288 39.372 39.415 39.493 39.516 39.544 39.595 39.587 39.682 39.702 39.669 39.705 39.786 39.792 39.781 39.798 39.837 39.847 39.935 39.91 39.93 40.094 40.024 40.121 40.013 40.096 40.053 40.186 40.102 40.082 40.149 41.818 41.121 41.648 40.067 42.317 42.88 41.576 39.451 39.312 39.152 39.205 38.85 38.871 38.822 38.92 38.761 38.746 38.698 38.703 38.69 38.728 39.073 38.983 39.509 40.132 39.515 40.712 39.737 39.29 39.133 41.76 41.942 40.144 39.559 41.012 39.358 39.289 39.34 39.733 39.773 40.554 40.313 39.979 39.6 39.209 39.488 40.735 40.042 40.358 40.258 40.446 40.899 40.701 40.807 41.644 42.303 41.372 40.652 41.843 42.755 41.337 39.986 39.178 39.502 43.34 39.186 37.133 36.983 35.931 34.456 33.271 39.891 36.317 33.132 32.33 31.263 31.591 31.929 31.252 30.058 30.104 29.968 29.932 29.948 30.007 30.008 30.072 30.059 30.068 30.206 30.047 30.153 30.767 30.09 30.094 29.978 29.744 29.667 29.774 29.794 29.754 29.741 30.275 33.819 37.07 36.875 36.971 40.33 40.887 42.902 44.291 42.14 40.837 40.324 39.632 40.258 37.693 38.642 39.506 39.894 39.512 40.103 39.249 39.348 39.502 39.298 42.18 44.109 39.899 39.392 40.663 37.935 37.269 36.586 36.023 36.025 35.852 40.441 35.784 35.551 35.394 35.258 35.115 34.945 34.798 34.648 34.916 34.649 34.742 40.144 42.956 42.478 41.866 35.882 34.953 34.781 34.744 34.697 34.668 34.682 34.631 34.656 35.19 34.866 34.731 34.725 34.706 34.703 34.696 34.677 34.647 34.61 34.584 34.536 34.529 34.549 34.542 34.586 34.522 34.501 34.495
39.681 42.221 41.842 37.807 36.029 35.857 35.932 35.973 35.982 35.986 36.357 37.98 38.172 38.37 37.222 38.938 38.381 38.559 36.729 36.802 38.448 39.049 39.759 39.797 39.463 39.787 39.977 39.433 37.222 38.626 40.194 40.415 40.705 40.646 40.777 40.686 40.766 39.718 37.868 36.775 38.572 39.355 39.162 37.394 36.68 36.732 36.766 36.773 36.725 36.703 36.716 36.778 36.82 36.778 36.857 36.841 36.868 37.036 37.103 37.155 37.144 37.198 37.214 37.239 37.234 37.28 37.305 37.331 37.312 37.289 37.305 37.292 37.305 37.88 37.256 37.251 37.307 37.249 37.216 38.547 38.697 38.692 38.771 38.38 39.027 42.815 44.008 45.043 43.935 42.758 37.866 37.626 38.672 37.897 37.711 37.756 37.635 37.739 37.923 37.749 39.509 43.59 44.881 45.018 43.794 39.177 37.844 38.058 39.506 38.795 38.418 42.785 44.692 44.498 44.707 44.535 40.178 38.639 38.448 38.554 38.531 39.265 40.664 39.25 38.69 38.87 38.977 39.519 38.958 39.124 38.89 42.094 45.255 46.521 45.848 41.831 39.705 39.487 40.5 40.634 39.352 39.141 38.914 38.629 38.387 42.27 44.958 45.753 44.84 43.716 38.908 38.761 38.721 38.619 38.683 38.714 38.691 38.676 38.445 39.785 44.336 44.953 41.234 39.324 42.091 39.337 39.001 39.046 38.988 39.102 39.539 39.326 39.92 41.342 39.562 39.358 39.74 40.5 39.169 40.742 40.066 39.816 39.22 39.346 39.172 39.376 38.578 38.627 38.822 38.421 38.298 38.362 38.315 38.466 38.476 38.56 38.534 38.517 38.634 38.622 38.668 38.826 39.63 39.482 38.815 38.83 38.837 38.887 38.917 38.965 39.01 39.281 39.044 39.042 39.149 39.12 39.178 39.189 39.217 39.22 39.275 39.879 39.333 39.306 39.469 39.514 39.885 39.61 39.848 39.617 39.67 39.624 39.674 39.905 39.754 39.783 39.855 39.868 39.903 39.905 39.912 39.915 39.982 40.045 40.05 40.083 40.142 40.163 40.241 40.169 40.158 40.25 40.717 42.811 42.311 42.433 42.364 42.38 41.255 41.464 41.882 39.869 38.984 38.986 38.867 38.855 38.867 38.826 38.827 38.806 38.774 38.756 38.722 38.792 38.922 39.093 42.391 44.321 41.437 43.204 41.397 39.727 40.262 41.497 42.17 40.133 39.233 39.231 39.237 39.257 40.144 40.613 39.952 40.028 41.637 40.931 39.609 39.469 39.292 39.82 40.701 40.311 40.408 40.721 40.695 40.67 40.825 40.631 43.101 41.267 43.945 42.238 42.234 40.201 40.203 44.673 45.478 43.956 42.774 38.211 39.997 36.623 35.827 40.383 37.88 36.803 36.324 33.174 32.061 32.47 31.966 31.004 31.179 30.131 30.861 29.865 30.03 29.979 30.047 30.009 30.073 30.08 30.129 31.133 33.734 32.755 30.123 30.154 29.98 29.902 29.808 29.636 29.729 29.802 29.735 32.785 36.724 36.541 37.714 35.763 35.579 40.944 41.378 40.989 42.083 42.677 42.206 42.482 40.427 41.749 44.242 40.193 37.927 39.221 39.087 39.248 39.297 40.803 44.936 43.769 40.012 38.464 37.941 37.198 36.581 35.972 37.322 35.565 41.314 43.184 41.103 35.856 35.516 35.433 35.556 35.036 34.904 34.766 34.628 35.039 35.84 35.149 40.706 40.434 35.011 34.892 34.815 34.772 34.747 34.765 34.697 34.684 34.71 34.679 34.731 34.916 34.902 34.907 34.824 34.885 34.866 34.909 34.907 35.458 34.797 34.694 34.69 34.647 34.69 34.606 34.589 34.589 34.584
40.612 42.215 42.09 37.198 36.34 35.931 36.079 36.026 35.987 36.041 38.74 39.991 39.976 40.054 40.069 40.127 40.167 40.197 36.578 36.61 40.538 40.7 40.586 40.876 40.931 40.992 41.266 40.788 36.864 36.881 40.521 41.389 41.492 41.183 41.516 41.338 41.237 39.944 36.857 36.545 36.675 36.669 36.689 36.76 36.827 36.825 36.868 36.863 36.804 36.869 36.877 36.918 37.038 36.976 37.012 36.997 37.013 37.093 37.222 37.314 37.329 37.374 37.395 37.38 37.42 37.426 37.431 37.423 37.454 37.51 37.606 37.522 37.482 38.038 37.419 37.408 37.351 37.307 37.378 38.618 37.525 37.55 37.558 37.575 38.093 43.464 44.672 44.899 43.871 39.159 37.771 37.858 39.342 38.308 37.728 37.764 37.766 37.898 38.001 37.792 40.909 43.584 44.861 44.895 43.64 38.46 37.828 37.933 39.491 38.515 40.075 44.995 45.686 45.712 45.528 45.777 41.899 38.898 38.857 44.039 43.244 44.124 43.836 43.905 39.827 39.11 38.795 38.919 39.197 38.901 38.959 43.549 45.51 46.47 45.767 42.889 39.099 39.27 39.331 40.339 39.172 39.081 38.929 38.592 39.28 43.854 44.908 45.866 44.97 43.987 38.52 38.847 38.886 38.858 38.806 38.905 39.367 38.762 38.651 39.307 39.895 39.73 40.188 39.039 40.244 39.016 39.273 39.62 39.105 39.478 39.526 39.482 39.498 39.834 39.214 41.57 41.584 41.554 39.358 40.499 41.057 39.636 39.786 39.42 39.125 40.01 38.937 38.978 39.206 39.332 38.529 38.364 38.446 38.438 38.521 40.186 38.7 38.557 38.591 38.658 38.673 38.938 39.268 39.071 38.79 38.796 38.901 38.925 38.957 38.92 39.182 39.39 39.146 39.139 39.175 39.144 39.161 39.127 39.224 39.273 39.354 40.011 40.173 39.523 39.928 39.564 39.685 40.677 40.027 39.507 39.583 39.616 39.778 40.318 40.092 39.748 39.9 39.81 39.788 39.862 39.966 39.987 40.074 40.014 40.053 40.118 40.181 40.21 40.277 40.294 40.217 40.263 40.491 41.122 42.61 42.086 40.015 39.622 40.036 39.985 39.741 39.472 39.628 39.451 40.703 39.155 38.962 38.887 38.872 38.867 38.83 38.757 40.632 43.67 40.166 40.948 45.222 46.249 46.079 45.043 43.121 40.676 39.205 39.11 39.544 39.057 39.223 39.217 39.243 39.248 40.728 41.339 41.059 41.704 40.236 39.823 40.926 41.039 39.559 39.728 39.373 39.936 40.81 40.47 40.465 40.559 40.7 40.689 41.181 41.148 41.648 41.915 42.738 44.206 41.07 40.276 41.238 40.384 40.041 39.436 39.875 37.045 40.776 42.136 38.089 36.223 35.01 37.677 34.544 32.835 32.049 32.106 31.599 32.098 30.492 29.934 30.38 29.988 29.94 29.96 29.958 29.979 30.093 30.179 31.104 32.991 33.314 32.313 30.204 30.106 29.963 29.864 29.651 29.571 29.756 29.784 29.724 29.822 31.223 31.299 34.908 36.461 40.584 39.811 37.751 41.538 41.81 40.352 41.77 42.748 43.38 41.631 41.127 40.521 38.886 39.259 39.736 39.445 43.752 44.023 38.612 38.046 37.497 36.638 36.334 35.881 38.606 42.797 44.238 43.657 42.957 41.214 36.997 35.849 35.844 35.169 35.03 34.801 34.685 34.613 34.812 34.832 34.846 34.925 34.99 34.86 34.811 34.82 34.758 34.766 34.802 34.761 34.767 34.713 34.853 36.93 37.694 37.534 35.68 39.921 36.68 36.613 38.519 37.555 34.865 35.012 35.293 34.797 34.813 34.679 34.653 34.62 34.635
40.261 43.118 41.893 38.334 36.164 36.02 36.069 36.124 36.077 36.107 39.425 40.882 40.981 41.09 41.252 41.137 40.997 41.194 36.875 36.553 39.87 41.126 41.223 40.904 40.955 40.82 40.74 40.375 36.867 36.972 39.617 40.69 40.575 40.338 40.443 40.295 40.378 39.204 37.008 37.144 36.766 36.831 36.9 36.923 36.949 36.935 37.039 36.979 37.019 37.052 37.06 37.09 37.078 37.145 37.188 37.184 38.796 37.248 37.407 37.389 37.397 37.388 37.387 37.449 37.51 37.497 37.526 37.536 37.556 37.561 37.629 37.619 37.682 37.866 37.46 37.464 37.472 37.396 37.384 37.783 37.512 37.599 37.618 37.642 38.105 42.752 44.467 44.87 43.836 39.56 37.793 37.914 38.367 38.245 37.886 37.867 37.836 37.978 38.053 37.899 38.029 43.903 44.999 45.246 44.075 38.958 38.004 38.451 38.794 38.636 40.954 45.085 45.058 45.092 45.088 45.001 40.289 38.353 39.358 45.122 45.418 45.393 45.327 45.318 41.804 39.579 39.922 39.249 39.022 39.016 38.964 43.635 45.559 46.466 45.656 44.636 39.248 40.359 39.777 40.856 40.649 40.19 39.278 39.146 39.094 43.83 45.38 46.439 45.567 43.514 40.026 39.593 39.008 38.975 38.901 38.991 39.747 38.973 38.904 39.104 38.861 39.005 39.494 40.013 43.582 40.591 40.169 40.342 40.105 39.805 39.58 39.533 39.548 39.556 39.567 41.441 41.503 41.461 39.431 41.111 39.794 40.953 40.091 39.472 39.41 39.756 40.171 39.263 39.474 39.465 39.128 38.691 38.724 38.89 39.235 39.35 39.244 39.418 38.849 39.047 39.222 39.141 39.027 38.973 39.031 39.174 39.334 39.618 39.298 39.377 39.2 39.088 39.655 39.695 40.108 39.52 39.235 39.469 39.357 39.479 39.505 39.876 39.349 39.526 40.186 40.104 39.752 39.973 39.626 39.632 40.539 40.795 40.552 40.801 39.99 40.565 40.995 40.215 40.834 39.996 40.345 40.115 40.148 40.175 40.19 40.17 40.177 40.275 40.304 40.329 40.291 40.379 40.748 41.656 40.676 40.309 39.745 39.684 40.392 40.489 39.573 39.558 39.487 41.08 42.352 42.097 40.306 39 38.974 38.938 38.914 39.119 39.556 42.116 42.685 43.112 45.158 46.122 45.975 44.842 42.178 41.335 40.03 39.845 39.726 39.307 39.263 39.234 39.255 39.237 41.038 41.454 39.536 39.813 39.641 39.555 39.791 40.777 39.963 41.419 40.184 39.379 39.881 40.382 40.956 40.288 40.482 40.393 40.618 40.671 40.971 41.339 46.49 41.214 41.637 41.309 47.564 45.069 41.68 41.045 39.345 41.319 44.301 48.183 48.056 42.794 41.787 44.089 36.245 40.944 37.554 34.387 33.484 31.503 30.098 30.012 30.608 30.26 29.901 29.923 29.957 29.944 29.96 29.975 30.1 30.024 30.553 33.638 33.666 32.004 30.467 30.069 29.982 29.69 29.654 29.538 29.759 29.736 29.737 29.764 36.095 34.566 37.787 38.057 40.101 41.226 37.753 36.76 36.669 41.062 39.659 38.719 40.979 41.277 39.315 41.632 40.362 39.37 39.943 40.04 37.984 37.272 36.71 36.319 36.142 35.869 41.552 45.413 44.818 44.33 43.544 43.049 42.411 35.98 35.436 36.134 35.138 34.928 34.795 34.63 34.684 34.818 34.872 34.942 34.959 34.925 34.859 34.827 34.83 34.902 34.87 34.865 34.802 34.772 34.908 37.148 38.325 38.726 36.661 41.534 43.046 43.821 44.057 42.018 36.676 35.132 34.934 35.085 34.894 34.804 34.719 34.713 34.667
39.699 42.231 41.897 38.166 36.339 36.02 36.135 36.176 36.094 36.159 39.219 40.717 40.826 40.53 40.396 40.269 40.117 40.035 36.606 36.603 38.806 40.192 40.046 39.717 39.855 39.639 39.673 39.327 37.22 36.899 37.796 39.502 38.324 39.256 37.774 39.241 37.705 39.164 38.81 36.851 36.922 36.981 37.064 37.068 37.096 37.105 37.125 37.131 37.181 37.183 37.242 37.227 37.219 37.29 37.258 37.404 40.381 41.619 37.896 37.392 37.381 37.391 37.416 37.48 37.527 37.574 37.592 37.6 37.622 37.635 37.711 37.709 37.685 37.764 37.535 37.538 37.598 37.52 37.693 40.758 38.47 38.148 37.929 37.747 37.8 41.871 44.608 44.811 43.798 38.403 38.126 38.047 38.419 38.356 38.043 38.033 37.981 38.109 38.078 38.018 38.005 43.843 45.214 45.22 44.137 39.01 38.11 39.052 38.886 39.421 38.897 43.464 43.676 43.883 43.867 43.911 39.868 38.604 38.801 44.743 45.721 45.672 45.855 45.646 40.722 38.916 40.702 39.599 39.201 39.464 39.415 42.886 45.403 46.494 45.753 44.586 39.567 39.684 39.716 41.212 41.509 39.743 39.292 39.141 39.061 43.133 45.558 46.518 45.608 43.697 39.767 39.565 39.158 39.088 39.114 39.213 39.342 39.117 39.14 40.105 39.391 39.846 40.943 40.903 44.413 44.78 41.182 40.631 41.443 41.032 41.276 40.201 41.586 41.233 40.595 41.522 41.423 41.346 39.572 41.037 40.066 39.659 40.276 40.932 39.59 40.05 41.249 39.533 40.241 39.688 39.272 40.277 39.86 39.719 39.768 39.799 39.472 40.541 39.358 39.266 39.673 39.704 39.701 39.603 39.462 40.581 39.658 39.922 39.953 39.97 39.867 39.508 39.831 40.774 40.928 40.098 40.326 40.485 39.543 39.561 39.616 39.545 39.475 39.618 39.534 39.953 39.873 39.775 39.687 40.123 39.831 40.112 40.113 40.03 39.878 40.03 40.154 40.426 40.909 39.965 40.139 40.057 40.065 40.344 40.93 40.322 40.254 40.375 40.398 40.386 40.367 40.428 40.897 41.012 40.173 39.928 40.248 39.796 39.802 39.871 39.924 39.632 39.611 39.637 40.234 42.078 40.901 39.368 39.076 38.962 39.007 40.335 39.428 39.38 39.203 43.231 45.168 46.108 45.901 45.183 40.265 39.152 39.145 39.367 39.259 39.209 39.206 39.236 39.331 39.303 41.266 41.518 39.669 39.491 39.7 39.488 39.594 39.837 39.309 41.675 42.198 40.255 39.731 39.432 39.588 40.063 40.208 40.181 40.282 40.18 40.708 41.89 45.269 41.484 40.987 45.645 43.724 42.207 41.293 40.066 39.701 40.629 44.549 47.693 46.646 41.197 39.5 36.3 36.889 38.498 38.094 35.446 37.328 32.478 33.183 32.064 31.306 30.644 30.063 30 29.9 29.964 30.052 29.921 29.862 29.975 29.984 30.055 30.871 33.614 33.376 32.38 30.057 30.021 29.97 29.752 29.509 29.645 29.733 29.813 30.554 31.371 31.728 36.594 38.599 39.252 33.953 39.113 36.013 39.015 38.123 38.826 39.357 40.819 42.713 42.248 40.987 39.529 38.432 38.114 37.053 36.578 36.257 36.014 35.904 43.086 44.491 45.07 45.353 44.687 44.231 43.663 42.918 41.305 37.54 36.509 36.208 35.129 34.838 34.733 34.679 34.712 34.848 34.918 34.903 34.879 34.901 34.881 34.91 34.916 34.957 34.935 34.87 34.831 34.927 35.056 36.575 37.447 40.033 42.393 43.202 43.938 44.486 43.951 43.066 41.109 36.324 35.11 34.916 34.812 34.752 34.772 34.739
38.78 42.017 42.161 38.274 37.169 36.163 36.159 36.278 36.174 36.17 38.615 39.457 39.291 39.117 39.072 39.179 38.646 38.681 36.647 36.601 36.665 37.466 37.489 37.504 37.092 37.278 36.841 36.779 36.776 36.83 36.89 36.907 37.014 37.005 36.953 36.979 36.975 41.06 41.547 40.522 38.225 37.07 37.163 38.106 37.267 37.24 37.271 37.222 38.594 37.768 38.955 37.65 37.261 37.316 37.344 37.309 38.178 38.409 37.396 37.394 37.39 37.439 37.47 37.483 37.568 37.6 37.671 37.648 37.677 37.722 37.763 37.762 37.816 38.441 37.669 37.732 37.751 37.668 37.692 39.01 37.901 38.382 37.849 37.762 37.732 43.301 44.547 44.835 43.555 38.826 37.823 38.041 38.104 38.254 38.189 38.206 38.122 38.253 38.347 38.188 38.339 43.984 44.994 45.158 43.97 39.129 38.104 38.22 38.303 38.382 38.317 38.321 39.275 38.434 39.329 38.354 38.372 38.377 38.594 44.668 44.538 44.683 44.602 44.527 40.539 38.793 40.311 39.483 39.108 39.766 39.24 43.191 45.473 46.534 45.808 42.668 39.282 39.352 39.422 41.225 41.037 39.806 39.668 39.622 39.974 44.464 45.668 46.735 45.74 44.848 39.456 39.974 39.325 39.195 39.225 39.207 39.5 39.577 39.556 39.872 39.568 42.807 40.181 39.646 39.646 40.229 39.836 40.25 41.827 41.069 41.467 40.68 43.24 41.196 41.279 41.124 40.785 39.865 39.636 40.419 39.659 41.236 39.873 41.432 43.368 40.213 39.681 41.255 43.612 39.96 40.599 41.188 40.057 42.519 40.135 41.918 39.965 39.99 39.599 39.867 42.893 40.156 40.643 40.094 40.114 42.957 40.72 42.801 40.467 40.722 39.892 39.814 41.855 40.378 40.356 39.773 40.665 40.104 39.695 41.12 39.844 42.319 39.794 39.719 39.964 39.785 39.91 39.707 39.778 40.534 39.819 39.929 40.571 40.1 39.891 40.09 40.158 40.186 39.994 40.027 39.952 40.045 40.039 40.308 40.544 40.455 40.327 40.431 40.441 40.463 40.447 40.524 41.012 42.472 40.168 39.959 40.76 39.872 39.871 39.792 40.674 40.085 42.268 40.353 40.172 40.06 39.343 40.505 39.197 39.035 39.02 39.333 39.474 39.995 39.202 42.966 45.032 42.37 45.709 44.918 39.255 39.808 40.247 41.858 40.62 39.218 41.997 39.465 40.324 40.783 42.245 40.099 39.51 40.089 41.23 41.484 39.479 39.987 39.507 39.34 39.927 41.871 41.895 41.018 39.782 39.371 39.552 39.991 40.217 40.074 40.264 39.917 39.893 40.377 40.635 40.695 42.121 42.444 40.269 40.715 40.078 40.341 45.456 39.687 44.304 42.786 40.108 40.802 39.106 42.591 35.167 41.727 39.096 32.416 32.244 33.249 32.354 31.282 30.251 29.727 29.851 29.915 29.953 29.921 29.952 29.956 29.95 29.987 29.979 30.094 32.518 33.756 32.947 30.225 30.127 30.001 29.924 29.845 29.47 29.664 29.748 29.733 29.739 29.72 35.515 38.209 32.926 33.868 36.443 40.374 40.112 37.311 39.173 38.501 42.822 44.152 43.661 39.132 37.715 36.807 36.989 36.177 36.084 35.947 41.919 43.36 43.92 44.46 44.954 45.3 44.817 44.189 43.46 42.942 41.146 36.895 35.589 35.249 35.013 34.906 34.843 34.833 34.832 34.846 34.92 34.944 34.957 34.921 34.973 34.975 35.098 34.945 34.914 34.851 34.987 36.026 35.058 35.179 42.116 42.749 43.601 44.213 44.389 43.699 42.736 41.965 35.688 35.096 34.97 34.883 34.809 34.816 34.81
39.626 41.987 42.158 37.871 36.455 36.234 36.211 36.29 36.22 36.211 36.372 37.212 37.656 36.897 36.707 36.696 36.686 36.683 36.62 36.585 36.629 36.764 36.773 36.809 36.774 36.806 36.804 36.818 36.796 36.818 36.873 36.884 36.863 36.873 36.865 36.855 36.977 41.37 42.137 42.369 38.014 37.28 37.262 37.322 37.274 37.271 37.234 37.291 40.35 39.748 38.871 37.924 37.267 37.271 37.303 37.334 37.335 37.351 37.389 37.443 37.465 37.512 37.551 37.579 37.588 37.701 37.7 37.731 37.752 37.769 37.884 37.89 37.963 38.451 37.83 37.792 37.806 37.754 39.023 39.737 37.897 41.138 38.455 37.768 38.363 43.356 40.147 43.393 43.115 38.27 38.297 38.004 38.433 38.401 38.272 38.249 38.263 38.372 38.413 38.28 38.262 39.777 39.969 40.196 39.814 38.718 38.24 38.275 38.325 38.417 38.401 38.411 38.5 38.48 38.561 38.595 38.532 38.798 38.376 39.843 39.921 42.886 39.982 42.517 39.744 40.482 39.11 39.186 39.138 39.306 39.25 40.639 41.297 41.283 41.283 40.725 39.531 40.763 39.606 39.954 41.148 40.6 40.04 39.678 39.584 43.881 46.212 47.06 46.102 44.053 39.667 39.645 39.411 39.31 39.368 39.334 39.554 39.636 42.519 45.942 44.953 45.981 41.652 41.572 39.771 39.837 40.035 40.126 40.194 40.417 41.916 42.905 43.491 43.022 42.48 41.406 40.22 39.77 39.743 40.364 43.544 45.659 47.031 45.726 45.415 41.733 41.793 45.653 46.666 45.588 45.657 40.363 39.763 45.392 45.869 48.02 45.721 45.18 39.804 44.117 46.123 47.922 46.157 42.761 40.137 43.91 45.775 46.644 45.797 44.514 40.547 43.569 45.735 45.772 45.799 45.119 40.019 39.82 45.237 46.135 46.227 45.645 41.349 39.86 45.305 43.662 42.589 44.08 40.746 39.955 43.276 45.447 45.199 44.849 42.155 40.204 40.192 40.146 40.453 44.689 43.815 40.238 40.151 40.385 40.439 41.837 40.492 40.432 40.525 40.577 40.484 40.57 40.71 42.272 40.124 40.023 41.762 42.351 42.174 39.968 40.937 42.149 43.172 44.525 40.113 39.642 39.424 39.209 39.22 39.084 39.093 38.991 39.289 39.537 39.274 39.556 39.116 39.139 39.101 39.159 39.415 41.75 43.861 44.098 43.771 40.327 40.783 44.768 44.504 42.476 40.728 42.173 39.6 41.74 43.497 40.724 39.394 39.998 40.333 39.541 39.455 39.345 40.129 40.524 40.808 40.17 39.745 39.648 40.399 40.068 40.367 40.025 39.988 40.016 40.125 40.378 41.545 41.348 40.248 41.713 41.011 41.378 44.709 41.579 39.372 45.064 44.261 45.313 42.266 37.909 39.743 35.623 43.937 37.242 36.532 32.163 31.51 31.145 31.594 29.697 29.791 30.038 30.013 29.964 29.889 29.906 29.947 30.005 30.008 29.959 29.983 30.089 32.847 33.701 32.812 30.181 30.095 29.958 29.876 29.759 29.639 29.679 29.758 29.82 31.136 31.01 30.546 30.278 35.741 39.696 40.88 38.497 38.791 39.682 43.155 43.18 44.412 41.17 37.293 36.424 37.137 36.273 36.219 35.676 39.734 42.737 43.344 43.97 44.547 45.126 45.4 44.638 44.165 43.607 42.804 40.97 36.79 35.873 35.201 35.02 34.964 34.907 34.935 34.985 35.008 35.016 35.039 35.073 35.086 35.03 36.637 34.999 34.947 34.88 34.929 35.243 39.214 39.792 42.265 42.964 43.856 44.513 43.968 43.339 42.64 41.387 35.388 35.221 34.988 34.88 34.873 34.876 34.856
40.048 41.973 42.33 40.782 37.514 36.289 36.261 36.403 36.299 36.252 36.279 36.447 36.707 36.587 36.778 36.652 36.635 36.608 36.618 36.583 36.569 36.635 36.684 36.64 36.676 36.671 36.706 36.72 36.755 36.773 36.827 37.423 36.89 36.937 37.033 37.563 39.297 40.742 41.987 43.342 37.222 37.227 37.307 37.307 37.262 37.258 37.216 37.238 37.279 37.527 37.278 37.289 37.354 37.329 37.344 37.366 37.392 37.418 37.43 37.519 37.543 37.574 37.627 37.696 37.734 37.763 37.816 37.804 37.831 37.81 37.916 37.985 38.037 38.147 37.904 37.889 37.907 37.903 37.864 37.865 37.799 38.363 37.637 37.68 37.619 37.646 37.674 37.715 37.647 37.651 37.887 38.103 38.436 38.428 38.391 38.443 38.425 38.522 38.558 38.46 38.379 38.421 38.381 38.405 38.392 38.386 38.382 38.367 38.725 38.603 38.528 38.559 38.593 38.644 38.788 38.727 38.715 39.642 38.627 38.687 39.498 39.839 38.818 38.805 39.638 40.942 39.117 39.15 39.142 39.252 39.231 39.213 39.195 39.142 39.152 39.152 40.75 41.352 41.294 40.359 41.429 40.806 39.776 39.675 39.596 43.41 46.291 46.773 46.064 42.52 39.661 40.086 39.582 39.409 39.435 39.502 39.755 39.641 41.93 46.038 46.934 46.306 45.309 39.872 39.812 39.948 40.115 40.296 40.365 40.404 41.624 43.177 43.703 43.472 43.397 42.872 42.445 42.524 40 40.679 43.06 45.915 46.682 46.384 45.436 42.042 40.883 46.007 46.919 46.781 45.778 41.302 39.908 45.217 46.691 47.035 45.986 44.317 40.188 44.808 46.668 47.415 46.509 42.747 40.056 43.955 46.526 47.415 46.728 44.677 40.122 43.637 46.11 46.92 46.657 45.559 40.941 42.559 45.823 46.551 47.047 45.977 41.825 39.953 45.547 46.732 47.733 45.922 41.425 39.842 44.721 46.611 47.486 46.23 42.598 40.346 40.143 41.311 41.403 45.735 45.281 44.097 42.321 40.485 43.284 44.003 42.138 40.526 40.583 40.654 40.604 40.624 40.71 42.306 40.026 39.926 42.014 43.192 43.435 40.779 39.992 43.185 45.292 46.058 43.085 39.752 39.58 39.326 39.186 39.187 39.107 39.088 40.249 40.001 39.489 39.534 39.449 39.391 39.657 40.933 41.413 41.767 43.543 45.007 41.951 40.286 44.208 46.143 46.002 43.18 40.528 43.591 45.615 45.369 45.461 41.91 39.403 43.428 44.652 44.454 45.127 40.491 39.455 39.855 41.84 40.485 42.624 44.631 44.476 42.321 40.143 40.533 39.953 40.028 39.992 39.853 40.163 40.031 40.794 40.335 41.607 44.112 45.477 41.913 39.977 41.415 42.586 41.243 40.925 38.265 38.713 40.55 38.174 42.055 38.771 36.715 37.055 32.659 31.433 31.213 34.828 36.454 32.935 31.321 30.647 30.157 29.97 29.901 29.916 29.915 29.869 29.902 29.944 30.524 32.04 33.68 31.372 31.928 30.056 29.902 29.888 29.866 29.799 29.868 29.788 29.779 29.767 29.843 30.825 36.727 37.352 36.453 37.5 37.481 41.724 42.882 42.277 40.765 38.198 38.303 37.004 36.936 36.289 35.99 35.704 37.586 42.653 43.397 44.031 44.574 45.137 45.291 44.762 44.073 43.54 42.952 41.148 36.321 36.109 35.08 35.043 35.072 35.06 35.061 35.113 35.137 36.15 35.203 35.148 35.109 35.142 34.991 34.922 34.862 34.985 35.419 41.021 41.848 42.701 43.272 44.166 44.583 43.889 43.018 42.404 36.889 35.384 35.13 35 34.914 34.946 34.899 34.85
37.456 41.932 42.6 40.561 37.35 36.367 36.356 36.402 36.41 36.394 36.327 36.387 36.495 36.485 36.547 36.557 36.61 36.581 36.612 36.629 36.623 36.654 36.68 36.706 36.711 36.763 36.732 36.74 36.761 36.827 37.351 37.433 36.975 37.094 37.781 37.051 40.787 38.085 38.734 40.811 38.438 37.362 37.354 37.323 37.31 37.257 37.296 37.291 37.283 37.293 37.335 37.341 37.317 37.384 37.383 37.434 37.443 37.488 37.533 37.576 37.629 37.68 37.695 37.761 37.786 37.821 37.809 37.829 37.839 37.863 37.959 38.043 38.111 38.652 38.064 37.991 38.061 37.932 37.95 37.947 37.837 37.841 37.794 39.51 38.219 37.682 37.816 38.166 37.787 37.733 38.155 39.63 40.083 38.924 38.533 38.558 38.54 38.599 38.839 38.824 38.553 38.532 38.523 38.572 38.581 38.428 38.48 38.619 38.55 38.654 38.658 38.675 38.699 38.798 38.791 38.864 38.917 39.551 38.921 39.554 39.046 39.742 39.114 39.354 39.296 39.173 39.171 39.215 39.21 39.404 39.418 39.43 39.45 39.404 39.45 39.577 39.496 39.962 40.895 40.381 41.186 41.53 40.428 39.8 39.821 39.789 41.768 40.967 41.43 39.62 39.637 39.756 39.664 39.572 39.612 39.59 39.87 39.783 43.357 45.968 46.787 46.548 45.561 41.647 40.108 40.465 40.486 40.689 40.746 40.923 41.897 40.358 45.006 45.355 45.176 45.569 45.353 45.337 42.614 41.996 44.299 46.061 46.153 46.376 45.42 42.503 42.782 45.945 46.548 46.5 45.738 41.397 39.994 45.758 46.484 46.515 46.121 41.674 40.302 45.807 46.58 46.848 46.545 45.522 40.238 44.964 46.513 46.824 46.533 42.743 40.006 43.818 46.218 46.61 46.68 45.539 41.22 40.509 45.975 46.631 46.683 45.888 40.927 39.926 45.567 46.289 46.577 45.987 40.562 40.033 45.556 46.697 46.879 46.46 41.731 40.505 40.096 40.709 44.979 46.38 46.966 46.45 45.12 42.357 44.767 45.439 42.83 40.605 40.692 40.709 40.697 40.78 40.836 42.709 39.925 42.819 44.986 43.675 42.753 40.999 42.947 45.703 46.388 46.865 46.828 44.392 39.719 39.47 40.471 39.23 39.204 41.071 39.768 39.573 43.707 45.052 46.814 45.379 44.059 40.607 40.434 40.023 40.369 41.452 39.453 41.358 41.665 46.142 45.978 42.116 40.148 44.106 46.309 46.351 46.235 43.374 39.421 44.676 45.999 46.001 45.01 40.385 39.357 40.958 42.417 41.382 43.664 45.777 45.474 44.787 40.431 39.667 39.741 40.026 40.156 40.249 40.082 39.785 39.99 40.483 41.751 43.798 42.371 41.688 39.817 40.947 40.34 39.233 40.381 44.64 41.312 37.62 38.706 42.96 43.669 40.562 42.347 37.444 33.72 32.686 39.436 38.923 34.38 34.918 31.741 32.205 31.31 30.315 29.889 29.907 29.953 29.889 29.981 29.838 29.852 30.627 32.155 32.946 31.354 30.173 29.962 29.893 29.997 29.976 30.513 30.041 29.863 29.753 29.763 30.731 29.973 37.117 38.292 39.426 41.605 40.041 39.907 40.011 37.362 40.242 39.564 38.547 38.679 36.29 36.145 35.764 40.888 42.708 43.382 44.031 44.592 45.222 45.215 44.743 44.133 43.41 42.805 40.641 35.678 35.378 35.119 35.135 35.092 35.158 35.199 35.23 35.799 36.35 35.19 35.264 35.75 34.915 34.892 34.878 35.04 38.466 41.388 42.056 42.866 43.548 44.509 44.336 43.482 42.843 41.797 35.079 35.466 35.192 35.065 35 34.946 34.956 34.91
38.991 41.927 42.692 40.611 36.701 36.469 36.408 36.445 36.486 36.409 36.451 36.461 36.528 36.555 36.548 36.611 36.597 36.628 36.65 36.646 36.683 36.72 36.698 36.731 36.745 36.757 36.801 36.826 36.829 37.125 41.938 39.036 37.905 37.185 38.084 37.313 37.203 40.685 38.878 41.704 40.576 37.451 37.399 37.341 37.421 37.302 37.355 37.326 37.322 37.338 37.408 37.413 37.41 37.409 37.479 37.502 37.538 37.574 37.628 37.67 37.732 37.735 37.776 37.809 37.859 37.874 37.906 37.908 37.912 37.915 38 38.111 38.17 38.401 38.173 38.2 38.193 38.05 38.467 38.681 38.633 38.739 38.846 40.014 41.54 39.664 39.026 39.271 38.929 38.76 38.932 39.399 39.068 38.895 38.672 38.73 38.707 38.653 38.684 38.707 38.76 38.969 38.508 38.665 38.927 38.77 38.854 38.86 38.58 38.836 38.687 38.752 38.87 38.863 38.924 38.986 38.901 38.95 38.955 39.108 39.175 39.461 39.243 39.287 39.185 39.171 39.181 39.2 39.273 39.324 39.504 41.548 39.886 40.653 43.101 40.283 39.653 39.676 39.798 39.843 40.37 41.818 41.455 40.843 41.078 40.153 39.9 40.013 40.438 40.537 39.963 39.91 39.757 39.74 39.75 39.783 39.992 40.103 40.041 46.072 47.357 47.391 46.281 43.96 40.326 40.403 40.536 40.688 41.2 41.588 42.631 42.168 46.758 46.684 46.942 46.805 46.953 46.534 42.967 41.833 43.412 45.03 45.12 45.079 44.941 40.79 42.685 45.381 45.387 45.476 45.299 40.92 39.975 44.281 45.329 45.517 45.473 42.534 40.501 45.595 45.743 42.978 45.486 44.396 40.117 44.411 45.793 45.433 45.603 42.696 41.555 41.193 45.4 45.609 45.43 45.486 41.085 40.116 45.625 45.515 45.663 45.625 41.708 40.133 45.328 45.576 45.621 45.438 40.409 40.044 45.374 45.69 45.552 45.747 43.899 40.099 40.214 40.521 45.424 46.038 46.724 46.692 45.749 41.605 41.074 41.612 41.533 40.867 40.704 40.771 40.707 40.818 40.838 40.874 41.083 45.518 46.27 44.063 40.923 39.778 40.92 46.282 46.861 46.693 46.067 44.878 40.33 39.582 40.79 39.276 39.302 42.139 43.172 40.653 44.868 46.084 46.82 45.952 44.144 40.295 39.63 39.594 39.531 39.564 41.655 43.123 41.506 45.18 45.085 39.45 39.789 40.804 45.665 45.83 45.717 42.396 40.904 45.423 46.149 43.107 40.375 39.341 39.425 42.056 42.353 42.331 44.632 45.789 45.883 45.656 41.731 40.727 39.573 39.669 39.875 39.967 40.434 40.306 40.016 39.946 39.965 43.051 45.351 44.078 45.753 46.097 45.124 41.293 45.304 39.881 39.307 40.735 45.242 44.514 41.067 44.294 40.474 41.55 38.785 35.629 36.81 39.904 39.823 32.71 33.318 36.633 35.999 31.9 31.672 30.604 29.936 29.87 29.883 29.915 29.909 29.884 29.906 31.195 32.969 32.858 30.78 30.071 29.925 29.932 30.37 30.22 29.893 29.776 29.768 29.77 29.741 30.649 35.033 37.546 39.237 38.15 35.91 38.372 40.12 41.173 40.748 40.341 39.987 37.622 36.251 36.001 35.719 39.136 42.774 43.358 44.029 44.583 45.169 45.156 44.567 43.922 43.22 36.431 35.519 35.381 35.268 35.183 35.252 35.26 35.297 35.343 35.367 35.763 35.294 35.621 34.952 34.921 34.894 34.904 36.422 39.733 41.7 42.364 43.134 43.818 44.562 44.124 43.205 42.59 41.626 35.144 35.318 35.232 35.084 35.08 35.055 34.978 34.947
37.544 42.048 42.783 39.813 36.594 36.531 36.485 36.584 36.549 36.512 36.506 37.816 37.093 36.617 36.666 36.711 36.737 36.752 36.813 36.889 36.8 36.734 36.726 36.79 36.766 37.464 37.87 37.818 41.133 43.611 41.689 42.901 38.526 37.235 37.446 41.483 43.798 42.931 42.807 41.955 38.671 37.391 37.372 37.372 37.354 37.352 37.429 37.379 37.358 37.383 37.442 37.433 37.472 37.566 37.53 37.533 37.6 37.64 37.707 37.733 37.798 37.814 37.858 37.921 37.91 37.937 37.92 37.95 37.991 37.962 38.047 38.166 38.249 38.524 38.281 38.239 38.302 38.221 38.325 38.861 38.869 38.963 38.97 39.17 44.004 42.631 43.771 40.167 39.074 38.974 39.022 39.051 39.703 39.383 38.803 38.861 38.818 38.771 38.756 38.727 38.66 38.623 38.587 38.483 38.507 38.465 38.47 38.527 38.511 38.565 38.55 38.602 38.64 38.733 38.669 38.766 38.82 38.82 38.877 38.939 39 39.074 39.089 39.075 39.155 39.208 39.205 39.294 39.367 39.511 39.671 42.805 46.114 46.999 46.353 41.927 39.652 39.766 39.876 39.954 41.752 41.638 40.16 40.008 40.153 41.427 45.433 44.1 42.543 45.541 40.276 40.059 40.01 39.885 39.924 39.938 40.509 40.301 40.249 45.81 46.871 47.656 46.481 44.637 40.379 40.446 40.592 40.752 41.255 45.478 45.61 46.005 45.326 45.416 45.159 45.63 45.348 45.068 42.539 41.63 40.182 40.049 41.548 40.807 40.523 41.101 41.125 40.466 40.447 40.974 40.392 40.039 40.094 40.019 39.929 40.694 40.434 40.579 40.264 40.533 40.253 40.126 42.749 42.557 40.281 40.362 40.767 40.439 40.182 42.44 42.912 41.753 41.971 41.744 42.913 42.942 40.027 40.012 41.89 40.432 41.475 41.733 40.475 40.17 42.939 42.818 40.345 41.316 40.003 40.295 41.263 41.315 41.696 40.728 40.75 40.633 40.724 40.275 40.67 45.18 46.07 46.052 41.666 40.333 40.557 40.921 41.731 41.006 40.857 40.853 40.788 40.849 40.881 40.891 40.122 41.16 46.756 46.292 42.564 40.578 39.805 43.596 46.443 46.019 44.045 42.44 40.533 39.654 39.686 39.346 39.326 40.664 42.559 40.4 44.565 46.172 46.71 45.99 42.868 39.947 40.552 40.711 40.032 40.274 40.476 41.422 40.817 41.708 40.839 40.203 40.335 41.623 44.68 43.801 43.602 41.474 39.615 44.462 45.215 42.208 39.516 39.727 41.472 42.257 42.418 41.058 42.243 44.724 45.368 42.049 40.56 40.299 41.338 40.8 39.908 39.571 39.9 40.261 40.209 40.016 39.935 40.298 41.195 44.246 46.581 45.194 45.834 41.054 39.884 39.235 44.134 45.458 41.619 45.186 41.541 41.732 39.456 37.682 40.575 35.506 39.502 34.074 34.126 32.893 37.654 34.521 31.786 36.328 32.464 31.487 31.383 30.32 29.899 29.937 29.893 29.969 29.846 29.944 30.082 32.147 33.548 33.005 30.755 30.069 29.883 29.854 29.959 29.898 29.903 29.841 29.74 29.675 29.696 33.637 34.911 36.494 35.993 39.151 39.809 38.256 42.047 41.39 40.359 39.141 38.251 36.255 35.952 35.608 41.013 42.898 43.47 43.903 44.594 45.216 45.236 44.666 38.512 35.588 35.616 35.321 35.239 35.293 35.269 35.305 35.348 35.427 35.555 35.706 35.434 35.045 34.935 34.946 34.914 35.079 37.936 41.029 41.889 42.625 43.427 44.259 44.356 43.736 42.925 42.214 41.453 35.361 35.367 35.234 35.101 35.116 35.062 35.022 34.988
37.599 41.709 41.727 39.524 37.674 36.803 36.592 36.629 36.667 36.604 36.742 40.485 40.09 38.913 38.562 41.747 38.2 41.083 38.293 37.052 36.96 36.804 36.877 36.905 36.987 38.099 38.278 38.047 37.268 38.28 43.233 42.934 38.457 37.367 37.433 42.396 43.367 40.617 41.229 41.341 37.447 37.435 37.384 37.356 37.377 37.378 37.372 37.427 37.435 37.445 37.474 37.503 37.526 37.562 37.607 37.667 37.662 37.74 37.77 37.796 37.816 37.861 37.964 37.932 37.989 38.003 38.044 38.044 38.058 38.041 38.13 38.197 38.328 38.558 38.397 38.426 38.389 38.304 38.419 38.92 39.083 39.121 39.128 42.725 45.189 46.048 45.146 40.865 39.522 39.101 39.244 39.083 40.203 39.082 38.956 39.031 38.994 38.86 38.833 38.756 38.669 38.624 38.596 38.605 38.511 38.437 38.504 38.526 38.555 38.615 38.679 38.629 38.663 38.674 38.821 38.79 38.869 38.892 38.981 39.019 39.1 39.099 39.168 39.19 39.219 39.214 39.258 39.306 39.379 39.854 39.646 40.804 46.094 47.183 46.24 45.189 39.903 39.956 39.978 40.135 45.064 41.884 40.024 40.058 40.108 42.32 45.974 47.434 47.175 46.052 42.068 40.283 40.133 40.026 39.934 40.024 40.319 40.361 40.249 44.105 46.653 47.722 46.87 44.811 40.359 40.507 40.643 40.886 42.766 47.441 47.039 40.542 41.694 43.227 43.394 43.257 42.999 41.65 40.854 40.396 40.272 41.954 43.236 40.117 40.004 40.6 40.059 40.054 41.725 40.819 40.242 40.326 42.029 42.224 41.132 40.617 40.443 40.783 40.322 40.326 40.293 40.463 40.902 40.588 40.55 40.657 40.734 40.958 40.668 40.771 42.323 40.188 40.489 40.279 40.62 40.046 40.019 39.986 40.16 41.238 40.43 40.149 40.089 40.253 40.246 40.356 40.455 40.18 39.832 40.054 39.967 40.191 40.527 40.167 40.587 41.769 40.897 40.39 40.471 40.341 44.226 42.568 40.336 40.56 40.686 41.266 40.964 40.997 40.919 40.918 40.917 40.95 40.963 40.63 40.307 40.053 44.897 45.641 45.036 40.468 39.83 39.921 45.147 45.142 41.785 39.887 39.905 39.805 39.451 39.394 39.404 39.46 39.987 39.699 45.38 46.213 46.681 45.881 42.453 39.694 39.828 39.74 39.647 39.608 39.638 39.689 39.812 40.392 39.323 40.273 39.603 39.483 40.539 40.729 40.095 40.137 40.562 42.015 43.056 40.372 40.203 39.389 39.969 41.744 41.548 40.992 39.478 40.25 39.962 39.649 39.635 39.694 39.784 40.557 41.63 42.781 44.08 40.513 40.076 40.093 39.975 39.915 39.838 41.411 42.006 39.987 45.491 44.697 44.12 45.564 45.136 42.745 43.257 41.515 42.438 39.277 42.984 42.2 39.16 37.952 37.778 37.314 38.171 34.856 38.405 31.101 34.52 37.448 36.24 35.292 32.178 31.588 31.396 31.008 30.421 29.952 29.849 29.922 29.911 29.982 30.019 31.053 33.551 32.39 30.792 29.951 29.855 29.894 29.935 29.929 30.003 29.739 29.725 29.74 30.511 31.589 31.434 35.441 37.442 40.145 42.333 41.206 41.987 39.926 39.34 37.542 36.208 36.05 35.765 40.971 42.95 43.499 44.047 44.757 43.589 37.309 35.608 35.622 36.453 35.623 35.268 35.315 35.352 35.368 35.4 35.561 35.629 35.624 35.631 35.327 35.005 34.979 34.971 35.017 35.013 40.18 42.155 42.939 43.758 44.449 44.086 43.35 42.739 42.055 37.95 35.401 35.395 35.26 35.181 35.191 35.094 36.601 35.036
37.082 38.366 37.221 37.378 37.381 37.048 36.605 36.688 36.734 36.723 39.364 41.113 41.222 40.536 42.498 44.283 44.134 42.802 38.104 37.112 36.998 36.9 36.931 36.976 37.084 37.73 37.602 37.553 37.405 37.374 37.425 37.42 37.424 37.433 37.42 38.231 37.843 37.399 37.915 39.607 38.164 37.456 37.433 37.437 37.418 37.493 37.427 37.439 37.449 37.531 37.6 37.565 37.544 37.615 37.677 37.652 37.781 37.838 37.811 37.876 37.905 37.951 37.952 38.054 38.11 38.623 38.599 38.071 38.101 38.156 38.249 38.353 38.462 38.749 38.488 38.463 38.482 38.415 38.891 39.022 39.169 39.22 39.18 41.933 45.114 46.054 45.45 42.803 39.26 40.151 40.368 39.333 39.554 39.412 39.167 39.129 39.102 38.992 38.847 38.747 38.636 38.623 38.608 38.564 38.509 38.521 38.516 38.519 38.518 38.53 39.314 39.412 38.734 38.683 38.773 38.788 38.852 39.391 40.072 39.188 40.175 39.914 39.132 39.204 39.198 39.26 39.262 39.231 39.392 40.307 39.97 43.987 46.453 47.448 47.04 44.9 41.555 41.266 41.363 40.979 43.711 41.751 40.399 41.563 41.489 43.019 46.131 47.207 47.048 46.169 42.119 40.518 40.557 40.113 40.134 40.152 40.343 40.481 40.343 44.058 46.451 47.513 45.783 41.158 40.249 40.584 40.702 41.065 47.006 49.275 49.549 40.297 39.963 39.964 40.004 39.979 39.987 40.029 40.015 41.154 41.442 40.462 42.713 40.065 40.123 40.872 40.171 40.143 42.51 40.894 40.331 40.518 42.225 41.046 40.66 40.617 40.493 42.452 41.925 40.85 40.525 40.745 40.839 40.721 41.904 40.933 40.909 40.929 40.743 40.862 40.954 40.236 40.59 40.681 40.09 40.136 40.409 40.28 40.395 40.453 40.782 40.313 40.155 40.189 40.114 40.789 42.765 43.147 43.095 41.317 40.146 40.123 40.216 41.043 41.74 40.576 40.443 40.44 40.653 40.325 40.324 40.308 40.467 40.595 40.895 41.126 40.958 40.968 40.991 40.965 40.943 40.933 40.983 40.733 40.459 40.272 40.02 43.437 40.479 39.932 39.938 39.962 39.93 40.822 39.92 39.99 39.948 39.895 39.558 39.525 39.553 39.597 40.689 40.378 41.184 40.817 41.71 42.36 41.034 40.169 39.858 39.779 39.752 39.755 41.412 41.29 39.81 40.297 39.394 39.431 39.255 39.179 40.211 40.592 39.564 39.249 39.272 39.318 39.362 40.367 39.678 39.768 39.969 42.245 41.155 43.376 42.598 43.024 39.814 39.659 39.572 39.623 39.682 39.769 42.765 45.641 46.086 43.596 40.271 39.572 39.912 39.979 39.98 40 39.747 42.249 44.345 41.806 44.944 47.674 46.23 40.511 42.642 44.646 41.542 39.421 44.273 42.824 40.897 41.94 37.569 42.05 43.53 42.004 41.997 36.767 35.231 36.53 37.702 34.841 32.553 32.905 31.753 31.87 30.749 31.112 29.882 29.828 29.84 29.881 29.882 29.939 30.101 32.056 33.254 32.897 29.987 29.878 29.909 29.949 29.902 29.862 29.791 29.679 29.771 29.716 29.785 30.345 32.706 38.453 41.357 41.885 40.951 38.95 39.346 41.419 39.29 36.396 36.118 35.618 40.986 42.956 43.517 43.823 36.682 36.427 36.025 36.492 36.504 35.578 35.315 35.359 35.351 35.386 35.453 35.607 35.572 35.368 35.174 35.078 35.052 35.025 35.027 35.028 35.053 38.508 42.388 43.179 44.002 44.648 43.914 43.063 42.413 41.722 35.999 35.736 35.445 35.272 35.217 35.192 35.191 35.332 35.078
36.924 40.683 41.312 41.002 37.822 36.833 36.674 36.882 36.884 36.763 39.44 40.983 41.658 38.336 41.5 43.609 43.917 43.176 38.73 37.126 37.067 37.085 37.13 37.219 37.281 37.342 37.412 37.458 37.475 37.478 37.451 37.48 37.444 37.48 37.463 37.492 37.503 37.509 38.042 37.676 38.566 37.464 37.474 37.44 37.491 37.493 37.451 37.557 37.509 37.547 37.557 37.635 37.584 37.64 37.781 37.775 37.774 37.85 37.894 38.091 38.105 37.982 37.997 38.667 38.384 38.432 38.418 38.183 38.215 38.372 38.46 38.534 38.563 39.057 38.58 38.57 38.615 38.551 39.008 39.147 39.31 39.313 39.244 41.851 45.237 46.039 45.278 44.175 39.299 40.103 40.589 39.54 40.895 39.879 39.283 39.296 39.895 39.114 38.963 38.886 38.861 39.119 38.828 38.969 38.954 39.534 38.684 38.699 38.744 39.083 38.722 39.17 38.858 39.227 38.892 39.068 39.013 39.135 39.048 39.21 41.622 40.15 41.572 41.935 39.455 39.314 39.333 39.398 39.445 40.779 40.233 44.239 46.746 47.858 46.866 43.97 41.699 40.322 40.445 43.554 41.983 40.603 40.634 40.803 40.662 44.367 46.706 47.878 47.776 46.543 41.388 40.804 40.623 40.316 40.294 40.26 41.312 40.576 40.348 40.242 40.455 41.61 40.338 41.265 41.139 42.066 41.068 43.835 48.906 51.054 49.882 44.578 40.429 40.449 40.487 40.467 40.095 39.998 40.064 41.435 42.058 43.233 44.048 44.237 41.997 40.775 41.132 40.574 42.699 42.12 41.722 40.891 42.586 42.806 41.582 41.072 40.917 42.482 42.36 41.14 40.954 41.454 41.228 42.07 41.88 41.4 41.211 41.242 41.302 41.09 41.701 40.691 41.229 42.443 42.37 41.982 40.411 43.309 41.847 41.302 42.795 40.454 40.316 41.441 41.08 42.056 44.281 43.859 46.209 47.067 40.639 42.338 40.795 42.756 42.67 42.478 40.595 40.824 40.821 40.645 40.809 40.636 40.778 40.783 41.002 41.637 41.021 41.004 41.11 41.067 41.012 40.949 40.987 41.088 40.599 40.434 40.686 40.126 40.194 40.581 40.229 40.042 40.253 40.401 40.059 40.008 42.685 44.212 40.552 39.711 39.622 40.462 40.178 43.535 40.655 41.838 43.148 40.773 41.625 41.277 42.667 42.279 41.176 40.237 41.789 41.27 40.196 40.223 39.62 39.299 39.286 39.201 39.399 39.537 39.289 39.646 39.215 39.156 40.133 39.455 39.335 39.302 39.335 42.99 45.276 46.292 46.117 45.041 42.916 41.049 39.521 39.58 39.678 39.793 43.868 46.171 46.438 46.003 43.275 40.24 39.654 39.67 39.978 39.97 39.803 39.806 39.836 42.868 45.726 47.59 47.638 42.574 41.791 44.924 43.705 43.85 41.863 38.357 43.928 41.493 37.706 43.297 40.981 42.46 43.559 37.644 32.324 35.844 38.186 36.374 39.458 36.174 34.424 34.962 31.57 31.644 31.506 30.95 29.937 29.795 29.804 29.892 29.832 29.918 30.418 30.951 29.855 29.975 29.945 29.847 29.823 29.833 29.875 29.642 29.661 29.783 29.665 29.686 29.702 35.865 39.817 40.446 38.771 36.206 40.442 41.126 41.906 39.092 38.375 35.932 35.765 40.94 38.986 36.381 35.85 35.695 36.211 36.5 35.498 35.527 35.388 35.412 35.425 35.453 35.522 35.67 35.547 35.334 35.216 35.134 35.143 35.104 35.072 35.047 35.224 41.248 42.753 43.483 44.09 44.45 43.738 43.01 42.075 41.249 35.452 35.566 35.449 35.312 35.244 35.218 35.285 35.227 35.107
37.001 42.249 43.352 42.656 37.972 37.047 36.802 36.888 36.947 36.822 36.94 39.577 38.706 37.515 41.596 43.23 44.131 43.032 41.015 37.625 37.146 37.184 37.266 37.342 37.394 37.425 37.463 37.479 37.544 37.486 38.073 37.518 38.201 38.806 38.018 37.614 39.263 39.49 38.681 38.235 37.501 37.528 37.509 37.51 37.507 37.507 37.503 37.526 37.578 37.571 37.581 37.667 37.72 37.822 37.72 37.932 39.971 40.178 38.052 39.6 40.631 38.98 40.882 38.545 38.291 38.325 38.335 38.388 38.648 39.162 39.364 38.904 38.92 38.865 38.768 38.708 38.736 38.707 38.844 39.328 39.401 39.403 39.305 40.385 45.141 46.322 45.319 43.456 39.564 40.512 40.164 39.573 39.897 39.517 39.377 39.488 40.397 39.455 40.076 39.97 39.93 39.95 40.016 39.934 39.871 39.482 39.53 39.318 38.862 39.348 38.975 39.174 39.124 39.03 39.002 39.208 39.171 39.319 39.264 41.176 41.65 42.899 43.445 43.98 43.033 39.873 39.467 39.609 39.586 40.653 40.914 44.691 46.46 47.652 47.01 45.378 41.289 40.557 41.112 44.29 43.379 40.71 40.631 40.697 40.728 43.39 46.818 47.818 47.715 46.374 41.438 41.003 40.743 41.463 40.649 40.431 40.461 40.582 40.657 40.682 40.908 43.183 43.236 44.243 41.087 41.199 42.828 42.288 49.022 51.031 50.552 44.439 40.565 41.122 40.881 40.224 40.057 40.243 40.711 41.29 41.222 41.095 42.675 41.767 41.603 40.96 42.428 41.406 42.291 42.64 41.852 41.289 42.632 43.183 42.973 43.82 44.44 42.97 41.632 41.387 41.528 42.592 42.921 42.884 41.83 41.769 42.916 43.495 43.109 43.339 42.056 41.899 42.914 43.563 42.318 42.147 43.104 44.047 43.875 44.726 44.595 43.19 42.626 42.057 42.517 42.173 42.062 41.889 42.485 44.646 42.583 42.416 42.523 43.451 43.499 43.515 41.757 40.953 40.91 41.149 41.858 41.078 41.032 41.033 41.179 41.966 41.099 41.086 41.115 41.11 41.074 40.944 40.868 40.808 40.8 40.821 40.751 40.495 40.889 40.61 40.21 39.997 39.982 39.939 39.993 40.1 41.37 45.117 43.425 39.76 40.065 40.021 39.803 43.706 45.665 46.75 46.324 45.458 42.816 40.734 43.144 43.593 41.809 41.129 40.956 41.553 42.086 39.528 39.353 39.312 39.283 39.287 39.22 39.329 40.161 39.826 39.098 39.089 39.238 39.138 39.234 39.351 40.354 41.256 45 46.158 46.046 45.186 42.376 41.783 39.864 42.659 40.093 40.081 43.672 42.808 46.088 44.751 43.483 42.676 41.977 39.935 39.652 40.105 40.037 40.106 40.193 40.179 44.4 43.615 40.586 45.595 45.83 45.555 44.651 42.772 43.415 39.169 43.408 43.735 40.167 43.382 39.867 42.575 38.852 39.376 40.883 35.225 31.926 34.543 34.297 40.007 40.048 38.865 32.943 32.013 30.91 31.269 31.321 30.961 29.8 29.804 29.758 29.813 29.759 29.756 29.777 29.88 29.865 29.887 29.923 29.907 29.866 29.719 29.586 29.886 29.554 29.688 29.669 29.662 32.03 31.288 29.687 31.296 37.06 39.518 39.575 38.086 37.537 39.013 37.339 35.955 36.239 35.672 36.099 36.616 36.175 36.301 35.538 35.406 35.443 35.456 35.442 36.159 35.815 36.113 35.43 35.335 35.186 35.148 35.155 35.097 35.096 35.094 35.166 42.246 43.07 43.617 44.421 44.204 43.46 42.75 41.713 35.788 35.548 35.684 35.476 35.349 35.31 35.287 35.395 35.321 35.179
37.13 42.124 43.339 42.647 38.016 37.184 36.931 37.012 37.047 37 37.063 38.654 37.556 37.063 40.573 43.237 44.226 43.176 42.026 37.895 37.074 37.164 37.3 37.485 37.421 37.625 40.113 39.794 40.356 40.259 40.478 40.206 40.549 40.687 40.9 40.907 40.976 40.942 40.987 40.506 38.176 37.548 37.575 37.589 37.57 37.52 37.551 37.603 38.057 38.097 37.915 37.989 37.758 37.875 41.618 40.107 41.052 40.979 38.279 40.384 43.097 42.692 42.637 39.822 38.604 39.193 38.588 38.926 38.765 38.708 38.724 38.799 38.838 38.866 38.826 38.765 38.832 38.778 38.844 39.362 39.493 39.512 39.481 43.662 45.996 46.815 45.891 41.533 39.881 39.534 39.686 39.717 39.83 39.743 39.607 39.635 40.663 40.31 39.933 40.034 40.098 40.122 40.087 40.079 40.095 42.018 39.83 39.115 40.104 38.888 38.989 39.034 39.066 39.126 39.221 39.413 39.472 39.525 39.435 39.77 40.475 41.282 43.259 43.781 43.557 40.646 39.75 39.681 39.799 40.335 40.778 40.43 41.887 42.127 40.591 41.413 42.696 41.011 41.181 45.13 45.8 43.73 40.948 40.647 40.637 41.57 42.453 43.981 47.502 43.579 42.223 40.807 40.63 40.661 40.507 40.531 40.542 40.748 40.708 40.857 45.376 47.308 46.937 45.933 40.889 40.874 41.043 41.564 44.412 49.669 46.021 43.029 42.549 43.834 42.852 40.212 41.401 42.005 40.716 40.774 40.837 40.889 40.822 40.897 40.787 40.765 41.117 41.018 40.959 41.068 41.471 41.041 42.247 43.285 43.056 43.106 44.401 41.808 42.346 41.432 41.236 42.56 43.223 42.163 41.761 41.788 42.215 42.416 43.42 43.411 41.942 41.877 41.95 42.149 42 41.968 42.386 43.869 44.099 43.773 44.932 42.622 41.783 41.726 41.944 41.939 41.637 41.596 41.531 41.9 41.398 46.056 43.383 41.714 43.193 43.897 42.337 41.349 41.685 42.537 41.639 41.453 41.195 41.28 41.205 41.187 41.101 41.081 41.18 41.253 41.104 41.01 40.966 40.808 40.735 40.665 40.567 40.386 40.277 40.165 40.038 39.847 39.843 39.72 39.741 39.663 40.254 40.179 39.708 39.765 40.47 39.971 39.872 43.504 42.438 46.483 46.267 45.427 42.393 39.829 40.917 41.925 42.243 42.099 40.099 40.015 40.45 42.172 41.868 40.89 40.965 39.294 39.267 39.195 39.355 39.119 39.139 39.071 39.103 39.076 39.22 40.055 40.052 39.593 40.952 42.977 42.77 42.425 40.028 39.424 42.168 44.994 42.417 43.554 43.212 45.075 41.411 40.409 39.716 40.303 43.102 40.885 41.184 39.812 39.553 39.738 40.037 39.992 39.746 40.315 40.311 43.135 40.889 43.28 43.762 44.84 45.734 41.152 38.604 39.117 45.317 42.025 40.733 43.193 42.629 41.822 44.393 41.47 36.917 40.928 37.396 34.685 36.497 36.152 39.7 31.15 34.173 31.024 32.091 31.693 30.248 29.728 29.868 29.717 29.77 29.821 29.781 29.767 29.868 29.918 29.862 29.812 29.88 29.853 29.837 29.66 29.565 29.566 29.408 29.588 29.666 29.692 29.694 30.156 32.932 33.794 36.927 36.289 36.183 37.196 37.697 37.795 36.208 36.538 36.405 36.459 35.576 35.935 35.655 35.497 35.523 35.465 35.523 35.538 35.678 35.573 35.405 35.317 35.222 35.195 35.192 35.165 35.105 35.091 39.781 42.514 43.314 44.113 44.478 43.791 43.198 42.402 38.075 35.209 35.691 35.623 35.433 35.39 35.355 35.322 35.527 35.248 35.136
37.238 41.777 43.346 42.787 38.163 37.096 36.938 37.028 37.09 37.059 37.03 39.023 40.883 37.812 40.569 43.152 44.211 43.235 41.023 37.837 37.045 37.165 37.326 37.603 42.395 42.082 43.059 43.075 42.107 41.631 41.5 41.76 41.796 42.076 41.848 41.892 42.092 42.031 41.91 41.198 37.605 37.565 37.587 37.602 37.584 37.574 37.659 37.598 37.821 37.889 37.746 37.714 37.85 38.642 41.524 43.194 39.292 39.18 38.354 38.766 42.512 40.268 38.356 38.601 38.422 38.494 38.598 38.643 38.699 38.785 38.845 38.875 38.977 39.042 39.01 38.957 38.933 38.881 39.256 39.534 39.608 39.597 39.563 43.438 45.873 46.806 45.908 43.497 39.749 39.639 39.89 39.793 40.268 39.904 39.706 39.788 39.847 39.855 40.014 43.083 44.04 44.386 43.404 44.785 40.264 42.647 40.383 40.514 41.497 42.307 40.255 40.115 42.042 40.818 43.354 43.219 42.985 42.724 41.637 40.68 41.491 42.806 42.991 41.196 44.518 40.105 39.933 39.93 39.948 40.35 40.546 40.721 41.209 40.992 40.802 40.982 41.868 41.551 40.781 43.964 45.566 43.249 41.075 41.432 41.587 41.027 40.945 40.683 40.891 40.956 41.428 41.146 40.827 40.644 40.626 40.665 40.699 40.882 40.849 44.903 46.887 47.993 47.703 46.562 41.919 40.883 41.091 41.278 42.629 42.383 42.297 42.125 43.537 44.072 43.507 41.26 42.521 42.646 41.044 40.793 40.897 40.926 40.873 40.803 40.845 40.828 40.74 40.818 40.909 41.538 41.152 41.034 41.97 43.338 43.146 42.633 41.18 43.106 42.154 43.057 42.78 42.84 43.261 42.11 41.826 41.831 42.463 42.803 42.052 43.728 41.985 41.961 41.914 42.053 41.967 41.902 43.4 44.276 42.948 43.761 44.262 43.754 42.165 42.098 42.217 44.561 41.752 41.667 41.905 42.879 44.532 44.161 41.702 41.725 42.94 43.002 41.973 41.666 41.43 44.111 45.532 45.497 45.385 44.973 41.336 41.368 41.203 41.256 41.288 41.298 41.231 41.122 40.979 40.827 40.736 40.619 40.54 40.466 40.275 40.201 40.018 39.935 39.83 39.764 39.695 39.643 39.679 39.652 39.664 39.663 39.786 39.94 39.929 40.686 39.826 39.775 39.765 40.024 39.828 39.92 41.732 41.494 41.905 43.092 42.994 40.627 40.715 43.085 45.674 43.971 41.714 40.272 39.419 39.219 39.218 39.141 39.146 39.096 39.144 39.285 40.496 42.719 41.907 44.114 43.561 39.801 40.309 41.215 39.395 39.732 42.948 43.352 42.331 42.984 44.624 43.873 39.575 39.576 39.611 39.647 41.581 40.142 39.912 41.207 40.313 39.802 39.647 39.738 40.198 40.158 39.974 40.783 39.989 42.369 41.082 41.175 44.913 42.218 42.792 40.384 40.546 37.958 41.696 43.226 43.295 42.006 42.759 43.863 37.977 40.308 41.483 35.675 37.187 36.308 35.472 31.679 36.872 37.287 32.684 31.633 31.536 31.696 30.624 31.646 29.91 29.885 29.766 29.823 29.763 29.717 29.92 29.846 29.853 29.9 29.902 29.866 29.875 29.629 29.467 29.424 29.432 29.872 29.818 29.696 29.636 29.636 32.072 33.786 36.38 37.076 37.882 36.914 36.825 37.033 36.563 35.819 35.77 36.053 35.552 35.55 35.557 35.542 36.303 35.683 36.799 36.13 35.958 35.415 35.319 35.307 35.278 35.229 35.152 35.03 40.52 42.455 43.446 44.325 44.523 43.517 42.878 42.271 36.282 35.949 35.737 35.61 35.518 35.438 35.419 35.419 35.541 35.283 35.204
37.449 42.215 43.442 42.804 38.475 37.205 37.049 37.095 37.182 37.138 37.158 37.868 40.2 37.657 40.795 43.295 44.236 43.244 41.823 37.859 37.007 37.241 37.321 37.602 44.014 44.12 44.236 44.404 42.724 41.759 41.977 41.678 41.648 41.546 41.337 41.5 41.539 42.158 41.053 38.978 39.447 37.62 37.583 37.64 37.641 37.771 37.605 37.676 37.863 37.989 37.799 37.813 38.385 39.952 40.918 40.922 38.522 38.108 38.212 38.145 38.597 38.38 38.354 38.457 38.498 38.601 38.693 38.763 38.821 38.937 39.004 39.054 39.119 39.163 39.059 39.065 39.035 38.966 39.414 39.567 39.68 39.679 39.724 43.329 45.953 46.884 45.779 43.577 39.805 39.83 39.954 40.027 40.204 39.99 39.91 40.716 40.347 40.685 40.105 41.394 46.411 47.717 46.894 44.8 40.243 40.128 40.079 40.182 39.59 43.47 45.258 45.341 45.304 45.355 45.334 45.814 45.969 45.833 45.869 45.96 46.202 46.074 42.384 42.16 44.328 40.36 40.108 40.142 40.115 40.464 41.943 45.027 45.953 45.881 45.003 41.205 41.34 40.776 40.871 41.826 44.06 43.738 41.212 41.327 41.155 41.271 42.055 41.805 41.942 42.142 41.154 41.022 40.905 40.797 40.768 40.842 41.772 41.147 41.46 41.24 46.562 47.662 48.002 46.682 42.335 41.276 41.499 41.571 41.571 41.55 41.831 41.857 43.201 44.03 43.81 43.03 41.626 42.688 41.235 40.826 40.94 40.975 41.154 41.57 43.333 42.998 41.83 42.803 43.61 41.783 41.082 41.143 41.362 41.871 40.982 41.28 41.314 44.464 44.052 43.952 43.897 42.369 41.553 41.884 42.243 42.174 42.973 42.442 42.001 42.122 42.041 41.941 41.982 42.205 42.061 41.949 41.984 42.569 42.654 44.799 45.578 43.429 42.547 42.467 43.847 42.753 41.776 41.778 42.682 43.598 43.434 42.007 42.107 41.813 43.161 43.343 42.892 41.75 41.391 44.904 47.463 48.173 47.638 45.665 42.274 41.74 41.374 41.274 41.381 41.321 41.255 41.198 41.025 40.897 40.762 40.735 40.542 40.43 40.31 40.23 40.05 39.903 39.816 39.762 39.708 39.626 39.675 39.609 39.694 39.66 39.615 39.77 39.842 40.291 40.102 39.792 39.789 39.807 39.887 41.777 42.039 41.259 42.545 43.337 43.063 42.072 41.11 45.341 46.263 46.492 42.451 43.539 42.042 40.284 39.313 39.276 39.158 39.218 39.336 39.653 43.058 45.361 46.111 45.898 44.978 39.404 39.447 39.454 40.93 39.669 39.658 40.778 39.833 40.774 42.174 39.965 39.466 39.503 39.52 39.565 39.645 39.679 39.726 39.756 40.196 41.16 40.997 39.863 39.835 39.868 40.003 40.941 40.618 40.653 40.538 40.883 40.451 43.228 45.082 44.892 41.873 40.599 41.715 43.437 43.377 41.972 44.032 43.18 36.321 40.218 41.978 42.068 39.467 36.179 32.984 37.201 33.798 36.121 37.159 33.561 31.978 31.389 32.085 31.702 31.448 30.097 29.818 29.866 29.768 29.801 29.716 29.788 29.953 29.832 29.813 29.88 29.806 29.818 29.791 29.633 30.118 32.148 29.992 29.604 29.766 29.639 29.638 30.604 30.089 31.044 32.065 35.462 36.488 36.244 38.356 37.077 37.433 38.667 35.694 35.608 35.578 35.607 35.615 35.864 35.696 35.592 35.776 35.368 35.314 35.325 35.337 35.31 35.239 35.205 34.996 36.465 41.834 44.492 44.162 43.356 42.576 41.718 35.103 35.937 35.792 35.583 35.519 35.438 35.419 35.577 35.588 35.328 35.241
37.344 40.782 43.391 43.056 38.246 37.339 37.105 37.204 37.25 37.229 37.14 37.293 37.29 37.129 41.181 42.946 44.263 43.42 40.886 37.157 37.432 37.258 37.351 37.447 42.868 44.521 44.405 44.394 43.934 40.647 40.63 40.54 40.523 40.425 40.339 40.258 40.195 39.989 40.024 38.366 37.581 39.91 38.902 38.855 37.847 38.371 37.709 38.154 38.499 38.025 38.115 38.202 38.095 38.118 37.962 38.029 38.071 38.122 38.183 38.182 38.281 38.37 38.48 38.555 38.634 38.709 38.813 38.937 39.062 39.138 39.204 39.265 39.31 39.252 39.119 39.155 39.161 39.059 39.283 39.673 39.807 39.821 39.795 43.447 45.929 46.794 45.802 44.11 39.852 39.902 40.034 40.181 40.809 40.281 40.098 40.696 40.607 41.076 40.325 45.426 46.662 47.795 47.125 45.895 40.414 40.541 41.386 40.149 40.147 42.146 46.46 46.165 46.412 46.496 46.491 46.99 46.888 47.002 47.006 47.148 47.381 47.219 46.124 45.861 44.354 40.768 40.325 40.293 40.367 40.608 43.02 46.508 47.716 48.053 46.737 42.305 41.131 40.898 40.985 41.058 41.356 41.088 41.094 41.08 45.524 46.339 48.632 46.952 43.88 41.454 41.24 41.03 40.917 40.852 40.905 40.946 41.695 41.15 41.295 41.092 46.402 48.122 48.645 47.632 43.816 41.334 41.456 41.56 41.618 41.624 41.574 41.427 42.504 43.598 42.109 41.335 41.33 41.277 40.663 40.744 40.905 40.885 40.96 42.915 43.832 43.849 45.166 45.264 46.346 45.488 46.774 46.824 47.05 42.033 40.992 41.391 46.341 46.913 46.862 46.508 47.217 45.635 41.366 41.918 48.016 47.352 46.95 47.887 46.933 47.836 47.339 46.787 47.837 47.028 47.988 47.183 43.201 42.467 46.159 48.347 48.298 47.992 47.751 47.619 44.088 42.344 41.972 41.949 42.948 43.509 42.637 42.779 42.026 42.269 43.615 44.325 44.262 44.386 43.788 45.546 47.498 48.46 47.988 46.072 42.987 42.402 41.398 41.354 41.388 41.397 41.323 41.226 41.13 41.293 43.739 42.019 41.801 41.579 40.72 40.372 40.199 40.242 39.997 39.878 39.75 39.665 39.702 39.724 39.695 39.688 39.665 39.691 39.74 39.796 40.668 40.225 39.991 39.897 39.816 40.073 41.393 40.145 40.622 42.937 42.419 41.43 39.752 44.679 46.607 46.607 45.937 45.041 44.6 42.256 39.439 42.168 41.389 41.362 39.54 39.788 40.269 45.292 46.23 45.924 44.934 39.48 39.778 40.08 42.875 41.514 39.506 39.597 39.485 41.117 42.12 41.267 40.793 39.368 39.455 39.486 39.92 41.553 40.448 39.612 39.666 40.059 41.561 41.257 40.092 39.963 39.659 39.803 40.215 40.583 40.76 40.487 40.431 41.138 41.333 44.54 45.003 44.793 42.816 41.386 43.351 42.226 42.43 42.645 38.791 40.553 41.201 43.829 42.525 34.58 39.15 36.551 36.559 30.961 37.662 38.533 34.487 31.819 32.026 31.837 32.007 31.938 31.419 30.098 29.811 29.787 29.75 29.716 29.755 29.753 29.841 29.78 29.866 29.872 29.83 29.819 29.732 30.024 29.402 29.431 29.404 29.63 29.735 29.613 29.63 29.568 31.449 36.848 37.073 36.407 38.888 36.234 39.461 38.994 36.251 35.824 36.013 38.057 35.692 35.776 35.708 35.576 35.457 35.431 35.43 35.408 35.367 35.352 35.355 35.438 38.128 35.33 35.915 38.627 37.463 37.319 42.055 38.789 37.153 35.859 35.781 35.604 35.507 35.503 35.479 35.612 35.47 35.38 35.249
