ncols 427
nrows 32
xllcorner    431114
yllcorner    434194
cellsize     2
NODATA_value -9999
34.873 35.003 35.073 35.143 35.191 35.216 35.243 35.243 35.398 35.493 35.561 35.628 35.761 35.883 35.976 36.031 36.053 36.071 36.051 36.036 36.021 36.023 36.053 36.096 36.213 36.268 36.371 36.431 36.643 36.863 47.126 63.831 64.173 64.236 38.033 36.956 36.923 36.911 36.948 36.896 36.873 36.856 36.846 36.851 36.863 36.851 36.838 36.753 36.743 36.763 36.728 36.816 37.123 37.603 37.971 38.361 38.798 39.173 39.451 39.716 40.006 40.216 40.443 40.656 40.781 40.831 50.343 66.813 68.101 68.066 43.051 40.828 40.741 40.961 40.928 40.721 40.751 40.803 40.928 41.078 41.263 41.501 41.631 41.758 41.911 42.128 42.248 42.393 42.581 42.778 42.953 43.268 43.518 43.706 43.911 44.141 44.296 44.503 44.751 44.913 45.061 45.158 45.258 45.373 45.438 45.513 45.581 45.646 45.671 45.728 45.806 45.856 45.868 45.866 45.986 46.048 46.133 46.283 46.146 46.188 46.448 46.923 46.966 73.131 74.223 74.211 74.236 74.233 65.881 47.026 47.013 47.021 46.976 46.953 47.933 46.933 46.908 46.898 46.941 46.988 46.998 46.941 46.868 46.743 46.741 46.758 46.721 46.733 46.746 48.028 47.268 47.021 47.028 47.023 46.966 47.003 46.706 46.613 46.518 46.428 46.343 46.321 46.281 46.241 46.121 46.118 52.831 57.381 57.343 57.321 57.301 51.753 46.123 46.111 46.068 46.133 46.126 46.151 46.178 46.203 46.178 46.146 46.161 46.151 46.003 45.723 45.481 45.263 45.108 44.913 44.773 44.661 44.701 44.766 44.764 44.729 44.896 45.534 45.506 45.491 45.519 45.536 45.611 45.674 45.704 45.756 45.821 45.956 46.524 47.111 48.451 47.439 47.501 47.554 47.636 47.721 47.831 47.939 48.146 48.379 48.609 48.786 48.934 49.079 50.031 50.216 50.171 50.154 50.146 50.121 50.116 50.116 50.106 50.081 50.066 50.066 50.054 50.034 50.014 50.006 49.991 49.989 49.974 49.946 49.961 49.959 49.949 49.921 49.919 49.904 49.886 49.881 49.866 49.824 49.821 49.849 49.836 49.824 49.766 49.709 50.024 51.121 52.801 51.946 51.871 51.926 52.039 52.056 52.031 52.001 51.974 51.986 51.994 51.969 51.954 51.899 51.834 51.756 51.729 51.759 51.761 51.781 51.824 51.989 52.121 52.604 52.911 53.134 53.259 53.346 53.416 53.461 53.466 53.421 53.399 53.381 53.349 53.314 53.254 53.126 52.969 52.649 52.349 52.199 52.206 52.114 52.006 52.099 54.319 52.244 52.244 52.269 56.024 58.026 58.811 59.011 58.246 57.359 52.236 52.196 52.061 52.051 51.961 51.874 51.961 52.229 51.854 51.754 51.881 51.934 52.006 52.061 52.081 52.074 52.124 52.251 52.236 52.199 52.189 52.139 52.269 52.339 52.389 54.904 55.821 58.271 58.844 54.736 52.906 52.944 52.976 53.031 53.035 53.076 53.546 54.207 53.441 54.918 58.89 59.438 59.204 56.252 56.348 54.064 53.967 53.96 53.956 53.875 53.88 54.03 54.294 54.572 54.762 54.897 55.122 55.287 57.054 55.799 55.425 55.569 55.643 55.679 55.851 60.032 61.132 59.318 62.474 62.131 62.428 63.139 62.034 66.953 67.373 66.155 66.363 68.036 69.431 69.483 69.017 68.274 66.325 63.989 63.881 63.973 64.075 64.156 64.232 64.335 64.405 64.493 64.595 64.776 67.58 65.9 66.188 67.705 68.379 70.146 69.554 68.922 69.074 68.976 68.553 65.681 65.682 65.744 65.747
37.196 37.231 35.066 35.111 35.141 35.148 35.151 35.116 35.116 35.293 35.363 35.468 35.588 35.723 35.823 35.898 35.941 35.948 35.956 35.933 35.901 35.868 35.886 35.963 36.143 36.241 36.303 36.401 36.546 36.848 36.933 47.598 41.173 36.906 36.903 36.931 36.911 36.906 36.911 36.833 36.818 36.808 36.763 36.786 36.773 36.708 36.636 36.566 36.566 36.636 36.703 36.806 37.126 37.603 37.978 38.396 38.833 39.248 39.616 39.906 40.211 40.403 40.621 40.756 40.808 55.921 68.106 68.088 68.081 68.063 50.958 40.856 40.851 40.898 40.731 40.741 40.766 40.806 40.898 41.043 41.208 41.423 41.691 41.773 42.238 42.098 42.258 42.436 42.588 42.686 42.873 43.118 43.326 43.496 43.743 44.051 44.253 44.558 44.801 44.963 45.106 45.206 45.301 45.411 45.546 45.651 45.713 45.753 45.776 45.813 45.793 45.831 45.898 45.923 45.921 45.961 46.028 46.076 46.123 46.176 46.208 46.903 46.953 70.728 74.246 73.386 58.196 47.073 47.108 47.121 47.046 46.973 46.933 46.908 46.871 46.908 46.968 47.013 47.013 47.006 47.008 46.946 46.866 46.698 47.316 46.733 46.701 46.711 46.831 47.261 46.941 46.913 46.711 46.561 46.221 46.763 46.648 46.621 46.466 46.338 46.193 46.116 46.153 46.221 46.068 46.058 57.046 57.358 57.333 57.331 57.308 46.111 46.108 46.046 46.018 46.093 46.081 46.066 46.058 46.043 46.026 45.948 45.913 45.878 45.708 45.523 45.306 45.093 44.913 44.783 44.638 44.588 44.661 44.704 44.669 44.789 45.481 45.429 45.429 45.399 45.434 45.521 45.589 45.619 45.674 45.729 45.831 46.269 48.299 48.246 47.369 47.419 47.464 47.521 47.611 47.711 47.819 47.996 48.239 48.501 48.726 48.874 48.956 49.691 50.201 50.186 50.126 50.101 50.101 50.109 50.096 50.104 50.074 50.039 50.036 50.026 50.016 49.996 49.991 49.984 49.959 49.954 49.926 49.924 49.926 49.909 49.901 49.889 49.886 49.866 49.846 49.831 49.829 49.811 49.796 49.806 49.809 49.791 49.746 49.736 50.479 51.244 51.869 51.714 51.589 51.741 51.839 52.119 52.144 52.111 52.084 52.011 51.926 51.939 51.929 51.916 51.866 51.804 51.746 51.716 51.684 51.671 51.701 51.841 51.879 52.331 52.706 52.934 53.066 53.201 53.299 53.366 53.409 53.329 53.261 53.284 53.266 53.186 53.034 52.836 52.509 52.156 51.846 51.751 51.836 51.876 51.956 52.319 56.841 52.621 52.264 53.786 58.044 58.826 59.006 58.221 57.434 52.229 52.189 52.091 51.946 51.866 51.794 52.119 51.761 51.699 51.696 51.789 51.824 51.914 51.941 51.969 51.971 52.106 52.211 52.234 52.131 52.036 52.014 52.136 52.201 52.424 52.334 54.396 58.016 58.876 59.451 59.864 54.916 52.896 52.974 53.03 53.021 53.262 53.46 53.302 53.218 53.266 55.199 59.445 60.073 59.467 57.203 54.194 56.321 56.029 58.957 54.552 53.875 53.983 54.233 54.425 54.699 54.902 55.024 55.25 55.318 55.277 55.474 55.491 55.538 55.746 57.087 60.746 61.278 57.721 62.069 61.448 62.371 62.964 63.286 66.613 64.684 66.877 67.481 66.538 69.294 68.754 67.417 66.414 63.774 63.785 63.841 63.948 64.038 64.102 64.18 64.294 64.392 64.493 64.551 64.657 64.758 64.855 64.928 64.992 65.079 66.008 66.558 65.986 66.625 66.03 65.527 65.582 65.632 65.711 65.753
38.411 34.981 35.033 35.066 35.073 35.083 35.043 35.018 34.973 34.896 35.036 35.181 35.338 35.483 35.608 35.693 35.733 35.753 35.748 35.726 35.676 35.638 35.683 35.758 35.926 36.118 36.238 36.356 36.458 36.798 36.903 36.911 36.923 36.913 36.881 36.841 36.821 36.838 36.836 36.816 36.753 36.753 36.718 36.733 36.641 36.521 36.436 36.416 36.438 36.546 36.691 36.828 37.151 37.556 38.056 38.483 38.868 39.298 39.698 40.041 40.356 40.483 40.653 40.723 40.758 40.841 68.106 68.088 68.071 68.053 65.791 40.891 40.861 40.746 40.768 40.781 40.791 40.803 40.828 40.961 41.096 42.213 42.041 41.693 41.903 42.116 42.276 42.448 42.568 42.633 42.761 42.966 43.081 43.253 43.503 44.213 44.256 44.586 44.813 44.941 45.088 45.206 45.278 45.383 45.486 45.566 45.631 45.621 45.766 45.856 45.926 45.943 45.888 45.903 45.966 45.966 45.966 46.026 46.088 46.451 47.151 46.666 46.933 48.656 51.803 47.041 47.073 47.128 47.156 47.121 47.013 46.903 46.891 46.881 46.931 46.983 46.988 46.968 46.943 46.918 46.886 46.843 46.661 46.611 46.643 46.656 46.676 47.658 46.978 46.936 46.903 46.691 46.181 46.026 45.751 45.783 45.831 46.246 46.601 46.536 46.156 46.061 46.103 46.143 46.131 46.373 57.383 57.333 57.313 57.288 54.008 46.106 46.071 45.983 45.988 46.008 45.961 45.891 45.898 45.891 45.856 45.768 45.681 45.613 45.506 45.261 45.116 44.926 44.773 44.628 44.503 45.023 44.623 44.621 44.671 45.031 45.459 45.331 45.356 45.379 45.414 45.449 45.521 45.589 45.634 45.716 45.949 47.639 47.709 47.666 47.336 47.401 47.436 47.499 47.589 47.694 47.866 48.104 48.376 48.626 48.824 48.921 49.246 50.071 50.191 50.119 50.086 50.076 50.076 50.076 50.066 50.054 50.034 50.019 50.001 49.999 49.984 49.969 49.951 49.951 49.914 49.899 49.899 49.879 49.876 49.884 49.866 49.861 49.841 49.831 49.831 49.816 49.791 49.786 49.774 49.751 49.739 49.749 49.749 50.319 50.974 51.511 51.499 51.326 51.426 51.551 51.674 52.021 52.099 52.384 52.104 52.071 52.009 51.899 51.879 51.884 51.859 51.831 51.776 51.706 51.619 51.574 51.561 51.704 51.731 51.956 52.439 52.656 52.826 52.971 53.104 53.201 53.291 53.261 53.181 53.151 53.106 52.979 52.749 52.379 52.029 51.716 51.636 51.694 51.771 51.844 51.929 51.886 51.839 55.131 55.816 58.031 58.824 58.996 58.214 56.981 52.301 52.206 52.011 51.854 51.751 51.691 51.719 51.679 51.576 51.636 51.711 51.779 51.849 51.844 51.851 51.914 52.016 52.091 52.114 52.116 52.076 51.994 52.016 52.166 52.191 52.254 52.726 57.914 58.494 59.219 59.839 59.274 58.721 55.516 52.971 53.095 53.34 53.292 53.066 53.14 53.2 53.26 53.905 58.076 59.631 60.026 58.797 55.493 57.705 59.636 59.909 59.012 54.922 53.993 54.156 54.387 54.623 54.904 55.06 55.156 55.171 55.274 55.371 55.438 55.893 56.946 59.816 61.206 59.156 61.36 62.21 61.8 63.446 64.131 65.051 67.095 66.725 67.67 64.549 67.556 69.43 68.909 66.975 63.729 63.67 63.747 63.852 63.93 64.007 64.09 64.263 64.29 64.368 64.495 64.551 64.637 64.74 64.787 64.877 64.971 65.086 65.144 65.228 65.285 65.361 65.427 65.476 65.517 65.599 65.642 65.734
35.651 34.943 34.978 34.986 34.996 34.953 34.926 34.923 34.893 34.851 34.866 34.951 34.983 35.123 35.301 35.426 35.478 35.506 35.518 35.441 35.363 35.283 35.321 35.428 35.688 35.921 36.126 36.291 36.438 36.731 36.903 36.916 36.901 36.831 36.786 36.778 36.746 36.756 36.793 36.761 36.673 36.671 36.673 36.636 36.518 36.418 36.406 36.406 36.416 36.521 36.648 36.843 37.148 37.606 38.098 38.536 38.978 39.323 39.473 40.048 40.373 40.521 40.628 40.746 40.756 40.828 62.396 68.088 68.073 68.063 68.033 47.708 40.886 40.853 40.783 40.798 40.791 40.783 40.763 40.861 41.076 41.251 41.476 41.623 41.833 42.068 42.236 42.396 42.556 42.551 42.678 42.778 42.856 44.378 45.713 45.968 44.218 44.503 44.753 44.886 45.043 45.193 45.273 45.326 45.381 45.378 45.316 45.436 45.686 45.821 45.951 46.011 45.988 46.413 46.568 45.981 46.001 45.991 46.023 46.091 46.138 46.336 46.828 46.976 47.026 47.076 47.096 47.133 47.106 47.076 46.938 46.798 46.848 46.916 46.943 46.901 46.923 46.918 46.863 46.806 46.756 46.613 46.548 46.593 46.613 46.621 46.928 46.908 47.141 46.941 46.748 46.383 45.791 45.806 45.693 45.773 45.456 45.601 45.913 46.001 46.081 46.026 47.011 46.261 46.218 51.663 57.391 57.356 57.326 57.286 49.228 46.076 45.991 45.878 45.896 45.881 45.813 45.778 45.741 45.743 45.713 45.621 45.526 45.436 45.298 45.156 44.968 44.736 44.611 44.493 44.488 44.613 44.558 44.536 44.684 45.291 45.261 45.259 45.301 45.349 45.379 45.406 45.466 45.551 45.634 45.766 46.331 46.901 48.381 47.244 47.336 47.376 47.414 47.506 47.576 47.729 47.976 48.244 48.524 48.731 48.886 48.939 49.684 50.106 50.119 50.069 50.066 50.049 50.059 50.036 50.014 50.009 49.996 49.991 49.991 49.966 49.946 49.931 49.919 49.901 49.891 49.874 49.849 49.849 49.851 49.854 49.826 49.819 49.799 49.794 49.786 49.789 49.771 49.756 49.736 49.726 49.689 49.714 49.779 51.364 51.451 51.194 51.896 51.144 51.294 51.391 51.489 51.619 51.799 51.946 52.039 52.099 52.051 52.004 51.906 51.801 51.811 51.801 51.781 51.719 51.654 51.566 51.496 51.589 51.594 51.624 51.949 52.249 52.489 52.696 52.844 52.969 53.096 53.149 53.111 53.019 52.896 52.696 52.304 51.921 51.586 51.511 51.571 51.666 51.739 51.819 51.829 51.869 56.991 57.759 58.059 58.821 59.014 58.209 57.101 52.194 52.121 51.951 51.719 51.634 51.629 51.611 51.589 51.496 51.559 51.641 51.699 51.854 52.024 51.744 51.911 51.936 51.961 52.009 52.006 52.004 51.921 51.921 52.074 52.191 55.189 52.926 57.954 58.536 59.104 59.341 59.044 58.656 57.774 53.076 52.934 53.044 53.249 53.305 53.075 53.138 53.211 53.374 53.562 53.742 57.332 59.752 59.926 59.401 59.612 60.015 59.216 55.842 54.141 54.2 54.237 54.382 54.717 54.836 54.987 55.054 55.141 55.22 55.352 55.955 59.652 58.773 61.334 62.028 62.787 63.119 63.601 63.75 64.251 64.869 64.206 65.247 67.787 67.239 68.747 67.137 67.31 67.265 63.65 63.572 63.643 63.763 63.848 63.903 63.995 64.113 64.195 64.285 64.351 64.462 64.513 64.624 64.734 64.78 64.858 64.932 65.009 65.095 65.128 65.255 65.321 65.387 65.447 65.49 65.567 65.652 65.697
34.853 34.896 34.903 34.901 34.926 34.948 34.901 34.828 34.796 34.786 34.773 34.733 34.708 34.641 34.753 34.998 35.126 35.176 35.181 35.116 34.981 34.843 34.931 35.138 35.588 35.803 36.036 36.248 36.478 36.761 36.833 36.851 36.803 36.756 36.728 36.718 36.701 36.688 36.668 36.616 36.588 36.571 36.598 36.556 36.506 36.468 36.436 36.428 36.433 36.493 36.658 36.891 37.186 37.591 38.096 38.316 38.798 39.311 39.843 40.278 40.458 40.526 40.628 40.733 40.753 40.811 65.311 68.086 68.063 68.056 68.053 58.641 40.918 40.916 40.801 40.808 40.783 40.761 40.761 40.841 41.008 41.201 41.361 41.506 41.726 41.931 43.448 45.591 44.338 42.458 42.588 42.708 42.838 45.271 45.933 45.941 44.373 44.511 44.743 44.876 45.033 45.133 45.208 45.173 45.146 45.091 45.071 45.136 45.448 45.646 45.763 45.831 45.873 45.953 47.211 47.271 45.976 46.003 45.993 46.006 46.083 46.286 46.551 46.841 46.956 47.026 47.076 47.108 47.133 47.021 46.841 46.718 46.808 46.866 46.841 46.836 46.841 46.856 46.773 46.698 46.583 46.508 46.548 46.573 46.586 46.706 46.786 46.848 46.913 46.818 46.561 46.088 45.451 44.966 44.966 45.101 45.311 45.728 45.486 45.088 45.653 45.778 46.206 46.233 46.151 57.353 57.391 57.381 57.356 56.226 46.111 46.081 45.913 45.801 45.798 45.793 45.703 45.648 45.626 45.563 45.531 45.481 45.363 45.281 45.156 45.061 44.773 44.603 44.468 44.398 44.473 44.496 44.476 44.556 45.179 45.221 45.201 45.236 45.284 45.306 45.349 45.399 45.481 45.566 45.661 45.979 46.559 48.089 47.269 47.259 47.316 47.344 47.409 47.496 47.631 47.839 48.114 48.379 48.646 48.809 48.891 49.276 50.019 50.126 50.044 50.046 50.026 50.019 50.006 50.004 49.974 49.974 49.949 49.956 49.944 49.929 49.909 49.909 49.886 49.861 49.854 49.834 49.819 49.821 49.809 49.816 49.799 49.779 49.764 49.754 49.744 49.731 49.716 49.706 49.704 49.684 49.674 49.674 49.816 51.289 50.896 51.794 50.856 51.019 51.146 51.229 50.791 50.399 50.454 51.031 51.726 52.061 52.139 52.041 51.981 51.904 51.771 51.726 51.724 51.696 51.651 51.594 51.506 51.429 51.496 51.469 51.454 51.611 51.981 52.321 52.531 52.696 52.836 52.921 52.921 52.791 52.599 52.256 51.809 51.496 51.376 51.424 51.519 53.781 51.716 51.769 51.864 56.996 57.756 58.559 58.406 58.999 58.209 57.411 52.179 52.031 51.904 51.709 51.539 51.524 51.514 51.469 51.414 51.494 51.564 51.624 51.624 51.624 51.641 51.834 51.831 51.839 51.879 51.914 51.911 51.864 51.811 51.911 52.281 54.301 55.961 58.009 58.564 59.129 59.291 58.716 58.146 57.451 54.874 52.746 52.779 53.036 53.069 53.114 53.115 53.308 53.234 53.311 53.416 53.577 53.781 57.704 59.732 60.064 59.983 59.393 55.946 54.057 54.185 54.357 54.433 54.519 54.684 54.819 54.924 54.991 55.156 55.275 55.557 58.751 59.227 61.52 61.687 62.565 62.947 63.636 65.248 64.198 65.121 64.492 63.603 63.119 66.501 67.999 67.474 66.137 65.348 63.814 63.476 63.524 63.631 63.714 63.788 63.885 63.995 64.079 64.193 64.289 64.376 64.465 64.532 64.606 64.685 64.762 64.826 64.918 64.99 65.017 65.095 65.209 65.272 65.338 65.401 65.457 65.512 65.579 65.653
34.798 34.818 34.816 34.896 34.963 34.963 34.926 34.881 35.658 35.801 34.671 34.683 34.661 34.598 34.558 34.571 34.666 34.756 34.713 34.576 34.486 34.383 34.441 34.378 35.468 35.726 35.936 36.161 36.388 36.636 36.698 36.711 36.691 36.668 36.646 36.633 36.606 36.556 36.526 36.858 39.583 36.486 36.536 36.513 36.481 36.486 36.481 36.478 36.481 36.591 36.746 36.946 37.123 37.471 37.726 38.548 39.228 39.801 40.178 40.351 40.491 40.558 40.651 40.736 40.743 40.771 40.888 65.016 68.086 68.061 68.046 68.013 42.958 40.913 40.821 40.806 40.786 40.796 40.881 40.851 40.881 41.011 41.151 41.303 41.561 41.791 45.568 45.541 45.518 42.403 42.486 42.656 42.773 43.021 45.481 45.258 45.308 44.463 44.728 44.878 44.996 45.063 45.078 45.006 45.011 44.998 45.001 45.033 45.218 45.411 45.433 45.468 45.496 45.663 45.911 46.138 46.008 45.973 46.008 45.983 45.996 46.113 46.321 46.581 46.778 46.926 47.003 47.086 47.078 46.918 46.718 46.656 46.781 46.801 46.811 46.813 46.801 46.721 46.671 46.766 47.338 46.491 46.516 46.538 46.648 46.713 46.798 46.851 46.903 46.653 46.328 45.838 45.241 44.926 44.923 44.941 44.941 45.378 45.143 45.013 45.163 46.571 46.203 46.191 49.848 57.393 57.366 57.366 57.346 52.751 46.066 46.038 45.886 45.688 45.661 45.623 45.578 45.486 45.468 45.416 45.353 45.321 45.251 45.138 44.991 44.813 44.618 44.443 44.301 44.376 44.421 44.423 44.436 44.596 45.229 45.204 45.231 45.236 45.239 45.294 45.351 45.399 45.494 45.591 45.769 46.304 47.239 47.969 47.159 47.221 47.271 47.319 47.406 47.511 47.719 47.969 48.266 48.526 48.734 48.866 48.999 49.879 50.054 50.026 50.014 50.016 49.994 49.991 49.979 49.971 49.951 49.924 49.926 49.901 49.891 49.886 49.876 49.869 49.846 49.821 49.816 49.796 49.799 49.786 49.774 49.769 49.759 49.754 49.734 49.721 49.704 49.694 49.679 49.666 49.671 49.659 49.646 49.704 50.029 51.394 51.241 51.206 50.741 50.891 51.036 50.934 49.939 48.884 48.744 49.466 50.191 51.099 51.794 52.129 52.021 51.951 51.871 51.771 51.636 51.636 51.609 51.566 51.519 51.441 51.359 51.366 51.374 51.336 51.371 51.681 52.026 52.301 52.484 52.584 52.591 52.446 52.186 51.736 51.381 51.249 51.289 51.351 57.331 57.504 52.856 51.724 55.996 57.751 58.534 58.289 57.494 56.241 57.434 52.011 51.934 51.871 51.694 51.539 51.481 51.421 51.364 51.346 51.414 51.466 51.504 51.516 51.509 51.534 51.631 51.794 51.799 51.804 51.776 51.766 51.761 51.744 51.809 51.864 51.851 53.039 57.624 58.559 59.191 59.209 58.689 58.101 56.081 54.106 52.879 52.756 52.794 52.921 53.021 53.034 53.068 53.302 53.176 53.288 53.45 53.503 53.7 54.213 58.492 59.749 59.414 55.817 53.971 54.072 54.348 55.472 54.677 54.6 54.671 54.756 54.909 54.998 55.102 58.489 60.327 60.887 61.754 62.242 63.657 60.378 62.726 63.43 64.674 65.407 64.623 64.115 64.326 62.966 64.068 66.052 67.09 66.017 63.464 63.352 63.437 63.508 63.616 63.669 63.772 63.843 63.944 64.054 64.156 64.221 64.318 64.41 64.491 64.591 64.66 64.753 64.79 64.868 64.955 65.004 65.066 65.112 65.246 65.324 65.347 65.426 65.488 65.544 65.606
34.751 34.933 35.506 34.816 34.911 34.953 35.101 34.973 34.898 34.771 34.948 36.018 34.873 34.563 34.521 34.473 34.431 34.413 34.353 34.301 35.331 35.046 34.363 34.426 34.391 35.628 35.851 36.083 36.298 36.426 36.521 36.561 36.563 36.556 36.538 36.528 36.471 37.531 39.646 39.646 39.671 36.548 36.456 36.451 36.388 36.446 36.431 36.508 36.506 36.598 36.898 37.003 37.231 37.488 38.041 38.718 39.536 40.053 40.221 40.396 40.526 40.618 40.681 40.746 40.788 40.773 40.803 46.013 68.081 68.076 68.063 68.056 55.016 40.928 40.896 40.866 40.911 40.901 42.843 53.331 41.041 40.883 40.968 41.081 41.321 41.663 44.678 45.068 44.736 42.848 42.426 42.591 42.743 42.851 44.948 45.221 45.296 44.438 44.706 44.876 44.963 44.966 44.928 44.888 44.893 44.891 44.933 44.906 44.951 45.236 45.276 45.356 44.576 45.406 45.713 45.941 46.018 45.973 45.948 45.988 45.983 46.001 46.133 46.351 46.578 46.808 46.921 46.983 46.971 46.791 46.593 46.578 46.701 46.731 46.758 46.733 46.693 46.613 46.491 47.021 46.441 46.451 46.418 46.533 46.621 46.678 46.748 46.703 46.643 46.458 46.111 45.686 44.923 44.916 44.911 44.906 44.926 44.928 44.961 44.986 45.006 46.073 46.141 46.181 54.096 57.406 57.373 57.331 57.328 49.183 46.063 45.963 45.778 45.588 45.461 45.313 45.313 45.298 45.266 45.228 45.196 45.103 45.031 44.933 44.793 44.623 44.436 44.306 44.281 44.346 44.366 44.333 44.451 44.541 44.944 45.066 45.159 45.184 45.204 45.276 45.334 45.411 45.516 45.624 46.119 46.674 47.669 47.071 47.141 47.194 47.241 47.316 47.401 47.574 47.831 48.109 48.396 48.646 48.821 48.889 49.429 49.996 50.019 49.981 49.999 49.971 49.964 49.964 49.946 49.929 49.911 49.891 49.881 49.876 49.859 49.849 49.836 49.821 49.804 49.789 49.784 49.776 49.769 49.754 49.729 49.744 49.714 49.714 49.699 49.689 49.679 49.664 49.646 49.644 49.624 49.634 49.661 49.834 51.084 51.366 51.254 50.491 50.636 50.764 51.239 50.674 48.291 48.486 48.201 48.274 48.821 49.664 50.591 51.381 51.991 52.399 51.899 51.834 51.751 51.626 51.544 51.511 51.469 51.434 51.386 51.276 51.224 51.229 51.204 51.189 51.331 51.699 52.041 52.219 52.236 52.066 51.676 51.294 51.119 51.154 51.216 57.126 58.601 58.271 57.491 56.984 57.761 58.544 58.314 57.509 54.986 51.716 51.771 51.876 51.749 51.536 51.411 51.429 51.344 51.291 51.286 51.344 51.371 51.606 51.401 51.389 51.414 51.476 51.634 51.689 51.734 51.751 51.709 51.674 51.709 54.964 52.636 51.836 52.291 57.666 58.244 58.804 59.111 58.639 58.059 55.454 52.636 52.394 52.444 52.839 52.741 52.909 52.991 53.024 53.059 53.11 53.305 53.285 53.422 53.491 54.584 54.029 54.806 58.514 54.729 53.9 54.021 54.165 54.608 54.998 54.635 54.593 54.621 54.768 54.877 55.004 56.128 60.257 60.52 61.23 61.689 63.348 63.906 63.424 63.021 62.687 65.184 64.827 64.891 64.997 65.375 64.988 65.508 66.079 65.787 63.632 63.272 63.339 63.43 63.473 63.584 63.66 63.731 63.782 63.866 64.005 64.085 64.224 64.297 64.348 64.421 64.534 64.606 64.714 64.701 64.811 64.914 64.972 65.06 65.114 65.213 65.264 65.323 65.373 65.411 65.536 65.591
34.668 35.541 34.661 34.771 34.873 34.863 34.828 34.936 34.911 34.741 34.956 34.673 34.681 34.936 34.981 34.481 34.433 34.411 34.371 34.348 34.303 34.953 34.368 34.443 34.453 35.621 35.741 35.958 36.171 36.283 36.388 36.411 36.451 36.431 36.436 36.421 36.371 39.643 39.618 39.653 39.666 39.188 36.371 36.371 36.348 36.371 36.441 36.493 36.626 36.763 38.791 38.523 37.846 37.466 37.921 38.638 39.483 39.973 40.191 40.361 40.516 40.628 40.733 40.753 40.791 40.786 40.803 40.823 63.553 68.066 68.093 68.068 67.386 42.436 40.998 41.003 41.511 52.676 67.393 68.128 50.681 40.821 40.901 40.953 41.086 41.421 41.751 44.851 44.768 44.638 42.393 42.541 42.656 42.801 43.231 45.186 45.258 45.138 44.676 44.816 44.931 44.993 44.933 44.866 44.826 44.816 44.851 44.756 44.676 44.951 44.511 44.973 44.493 45.103 45.463 45.716 45.881 45.941 45.881 45.948 45.996 45.996 46.001 46.126 46.378 46.606 46.781 46.826 46.793 46.636 46.516 46.536 46.608 46.623 46.621 46.606 46.568 46.448 46.393 46.431 46.406 46.376 46.341 46.458 46.548 46.611 46.601 46.551 46.476 46.256 45.881 45.578 44.958 44.908 44.918 44.923 44.926 44.958 44.968 44.991 45.968 46.003 46.173 46.098 57.413 57.388 57.376 57.346 55.441 46.263 46.036 45.893 45.688 45.551 45.416 45.263 45.151 45.031 44.971 44.966 44.936 44.891 44.823 44.661 44.558 44.438 44.281 44.183 44.253 44.296 44.273 44.241 44.386 44.461 45.159 44.929 45.016 45.121 45.179 45.261 45.316 45.439 45.526 46.494 46.524 47.619 47.419 47.034 47.119 47.174 47.241 47.306 47.461 47.694 47.994 48.269 48.531 48.729 48.849 49.116 49.909 49.976 49.971 49.964 49.949 49.946 49.936 49.921 49.901 49.894 49.879 49.866 49.851 49.836 49.824 49.801 49.801 49.791 49.759 49.756 49.746 49.739 49.724 49.714 49.701 49.699 49.691 49.686 49.659 49.649 49.639 49.634 49.611 49.606 49.594 49.599 49.894 50.624 51.026 51.531 50.474 50.374 50.511 50.776 50.919 48.861 48.734 48.744 48.229 48.199 48.194 48.481 49.269 50.166 51.029 51.721 52.074 51.941 51.781 51.714 51.606 51.424 51.389 51.366 51.326 51.269 51.181 51.084 51.099 51.076 51.054 51.064 51.394 51.744 51.819 51.589 51.216 50.991 51.009 51.086 51.249 55.954 57.809 58.614 58.276 57.751 58.516 58.331 57.569 55.229 51.701 51.674 51.546 51.584 51.576 51.429 51.351 51.271 51.194 51.206 51.236 51.274 51.586 51.844 51.284 51.344 51.364 51.406 51.566 51.541 51.616 51.644 51.621 51.646 57.781 58.024 57.406 52.144 51.859 53.266 58.851 58.684 58.141 57.954 55.704 52.281 52.349 52.391 52.474 52.594 52.899 52.831 52.961 53.059 53.019 53.154 53.218 53.289 53.388 55.455 54.438 53.613 53.73 53.839 53.859 53.951 54.073 54.223 54.442 54.474 54.446 54.622 54.6 54.689 54.817 54.95 57.774 60.487 61.913 62.251 62.747 64.137 63.511 64.798 65.026 63.141 64.082 65.81 67.539 67.395 66.781 66.446 66.028 65.84 63.638 63.176 63.264 63.31 63.368 63.474 63.528 63.629 63.712 63.746 63.853 63.92 64.031 64.148 64.243 64.285 64.376 64.463 64.557 64.663 64.726 64.833 64.871 64.963 65.036 65.087 65.156 65.181 65.269 65.373 65.431 -9999 -9999
36.161 34.598 34.661 34.743 34.788 34.813 34.818 34.793 34.671 34.638 34.688 34.723 34.776 34.566 34.511 34.491 34.518 34.456 34.428 34.386 34.628 34.323 34.288 34.443 34.496 34.886 35.673 35.868 36.076 36.183 36.278 36.358 36.388 36.351 36.341 36.328 36.323 36.928 39.656 38.738 36.398 36.371 36.331 36.276 36.231 36.301 36.448 36.501 36.463 36.498 36.783 36.888 37.046 37.288 37.758 38.408 39.261 39.886 40.191 40.346 40.498 40.623 40.753 40.761 40.783 40.798 40.853 40.888 40.953 65.328 68.198 68.088 68.053 53.763 44.293 56.646 66.663 68.146 68.058 68.088 61.808 40.821 40.853 40.913 40.958 41.198 41.626 44.443 44.786 44.706 42.396 42.448 42.616 42.753 42.871 45.183 45.231 45.338 44.591 44.801 44.918 44.943 44.883 44.903 44.791 44.766 44.771 44.666 44.613 44.593 44.573 44.818 45.663 44.576 45.223 45.471 45.706 45.801 45.778 45.871 45.946 46.003 46.018 46.041 46.161 46.341 46.463 46.513 46.506 46.488 46.433 46.511 46.521 46.531 46.516 46.496 46.411 46.346 46.391 46.376 46.321 46.306 46.238 46.321 46.441 47.943 46.631 46.426 46.261 46.061 45.673 45.221 44.948 44.971 44.978 44.961 44.991 44.986 44.976 44.978 44.991 45.151 46.053 47.366 57.406 57.373 57.338 57.323 52.201 46.071 46.056 45.838 45.653 45.541 45.391 45.256 45.096 44.953 44.846 44.728 44.618 44.586 44.531 44.413 44.373 44.243 44.121 44.176 44.223 44.223 44.191 44.246 44.331 44.466 44.554 44.854 44.974 45.084 45.189 45.256 45.376 45.466 45.639 46.751 46.764 47.979 46.996 47.044 47.099 47.169 47.241 47.359 47.566 47.846 48.154 48.431 48.649 48.809 48.904 49.644 49.946 49.944 49.939 49.929 49.919 49.901 49.896 49.884 49.866 49.861 49.836 49.826 49.814 49.804 49.786 49.774 49.761 49.739 49.724 49.719 49.709 49.709 49.696 49.696 49.669 49.666 49.656 49.646 49.631 49.614 49.611 49.599 49.589 49.564 49.566 49.594 49.941 50.566 51.286 50.929 50.114 50.256 50.391 50.899 50.734 49.521 52.281 52.241 51.844 48.336 48.276 48.196 48.314 48.784 49.619 50.496 51.176 51.846 52.049 51.766 51.636 51.534 51.406 51.274 51.666 51.209 51.149 51.079 50.981 50.911 50.926 50.929 50.909 51.059 51.304 51.144 50.889 50.881 50.891 51.096 51.441 51.599 56.374 57.826 58.616 58.556 58.309 57.556 55.524 51.661 51.634 51.541 51.414 51.376 51.391 51.794 51.199 51.084 51.116 51.136 51.151 51.734 51.189 51.201 51.261 51.294 51.324 51.344 51.469 51.409 51.494 51.501 51.551 57.499 58.164 58.574 57.974 57.356 52.719 51.854 54.306 58.106 57.499 55.019 52.991 52.246 52.366 52.461 52.989 52.619 52.674 52.799 52.914 53.016 53.019 53.134 53.211 53.202 53.349 55.211 54.222 53.637 53.738 53.799 53.879 54.01 54.13 54.329 54.599 54.408 54.397 54.501 54.615 54.702 54.858 57.18 59.236 59.519 59.545 62.168 62.283 63.458 64.412 66.445 66.042 64.151 66.097 64.365 67.912 68.067 66.885 66.18 66.083 63.945 63.081 63.186 63.248 63.29 63.36 63.44 63.493 63.568 63.638 63.709 63.835 63.892 63.971 64.026 64.117 64.277 64.339 64.408 64.544 64.592 64.672 64.758 64.842 64.909 64.96 65.022 65.096 65.142 65.229 65.3 -9999 -9999 -9999
34.768 34.601 34.671 36.801 34.743 34.751 34.781 34.733 34.578 34.571 34.596 49.446 41.011 34.618 34.621 35.416 34.721 34.491 34.476 34.441 34.401 34.358 34.728 34.393 34.501 34.503 35.613 35.818 36.001 36.133 36.178 36.236 36.231 36.251 36.248 36.276 36.326 36.316 36.356 36.348 36.296 36.221 36.223 36.231 36.241 36.238 36.351 36.466 36.463 36.453 36.583 36.723 36.948 37.088 37.686 38.223 38.991 39.778 40.216 40.396 40.516 40.673 40.781 40.803 40.831 40.858 40.883 44.388 60.463 67.561 69.618 69.808 71.416 68.131 68.026 68.048 68.058 68.066 68.063 68.076 68.186 45.668 40.811 40.878 40.913 41.078 41.478 42.176 44.823 44.736 43.736 42.388 42.543 42.683 42.823 44.181 45.973 45.946 45.328 44.751 44.863 44.866 44.856 44.848 44.836 44.808 45.743 45.606 44.673 44.651 44.646 44.623 45.878 45.313 45.151 45.211 46.048 45.581 45.628 45.808 46.206 46.206 46.028 46.026 46.051 46.181 46.668 47.291 47.258 46.608 46.366 46.663 47.231 46.768 46.756 46.378 46.291 46.368 46.381 46.351 46.278 46.208 46.136 46.043 46.101 46.121 46.106 46.086 46.071 45.941 45.608 45.173 45.026 45.036 45.058 45.471 45.008 45.001 45.068 45.036 45.026 45.011 45.038 46.413 47.738 56.333 57.356 57.326 48.678 46.043 45.961 45.703 45.548 45.416 45.271 45.153 45.023 44.903 44.808 44.668 44.546 44.423 44.316 44.183 44.193 44.123 44.338 44.131 44.161 44.148 44.248 44.336 44.358 44.486 44.686 44.881 44.991 45.096 45.216 45.291 45.371 45.481 45.994 46.509 48.266 47.031 46.986 47.029 47.086 47.171 47.244 47.431 47.706 48.004 48.304 48.569 48.751 48.834 49.284 49.839 49.909 49.911 49.896 49.899 49.889 49.869 49.851 49.849 49.829 49.824 49.804 49.786 49.771 49.769 49.754 49.744 49.729 49.714 49.691 49.681 49.679 49.666 49.659 49.651 49.631 49.636 49.614 49.611 49.586 49.596 49.584 49.569 49.549 49.529 49.524 49.846 50.069 51.484 51.451 49.871 50.001 50.136 50.394 48.301 48.286 54.034 53.836 51.809 52.296 52.336 48.841 48.214 48.206 50.641 48.481 49.011 49.951 50.726 51.339 51.916 51.764 51.556 51.476 51.356 51.431 51.201 51.079 51.031 50.966 50.881 50.776 50.789 50.806 50.774 50.751 50.761 50.754 50.766 50.864 51.144 51.299 51.454 51.591 56.676 57.816 58.591 58.279 57.481 54.291 51.549 51.369 51.289 51.256 51.261 51.189 51.121 50.996 51.014 51.049 51.056 51.576 51.071 51.114 51.179 51.221 51.261 51.286 51.299 51.349 51.386 51.401 51.446 51.756 53.859 57.596 58.204 58.556 57.931 57.321 52.006 51.854 53.869 52.344 51.904 51.921 52.499 52.289 52.356 52.456 52.516 52.651 52.789 52.889 52.994 52.994 53.074 53.076 53.136 53.187 53.45 55.076 54.234 53.692 53.85 53.888 54.014 54.751 54.146 54.175 54.344 54.359 54.457 54.654 54.862 58.036 59.038 59.824 60.218 61.139 58.81 61.684 63.861 63.626 65.183 66.35 66.504 67.813 67.053 65.209 68.192 66.87 66.133 65.306 63.034 63.036 63.126 63.207 63.283 63.347 63.434 63.502 63.571 63.653 63.694 63.777 63.828 63.9 63.982 64.126 64.194 64.266 64.378 64.459 64.542 64.619 64.689 64.785 64.829 64.935 64.993 65.047 65.109 65.167 -9999 -9999 -9999 -9999
34.518 34.563 34.621 38.033 34.911 34.736 34.713 34.666 34.538 47.928 61.893 61.871 59.423 34.668 34.608 35.751 35.283 34.533 34.518 34.481 34.438 34.671 34.423 34.493 34.508 34.558 35.371 35.758 35.948 36.063 36.073 36.166 36.198 36.233 36.271 36.261 36.313 36.276 36.231 36.216 36.228 36.226 36.221 36.228 36.233 36.256 36.343 37.053 36.456 37.483 36.468 36.503 36.613 36.778 37.278 37.991 38.726 39.541 40.201 40.391 40.521 40.676 40.798 40.853 42.851 49.881 61.238 68.008 68.058 68.061 68.321 71.623 71.583 68.596 68.058 68.051 68.061 68.071 68.088 68.086 68.101 51.833 40.801 40.836 40.891 40.988 41.321 41.618 44.863 44.761 44.651 42.371 42.443 42.648 42.793 42.911 45.933 45.958 45.673 44.841 44.843 44.868 52.596 57.306 44.896 44.851 44.703 44.723 44.708 44.683 44.696 44.693 45.006 45.923 44.706 44.978 45.238 45.331 45.483 45.603 45.731 45.861 45.953 46.011 46.021 46.066 46.191 47.101 46.693 46.316 46.288 46.781 46.733 46.721 46.338 46.263 46.351 46.363 46.338 46.376 46.243 46.131 46.068 45.948 45.886 46.101 46.228 46.401 46.021 45.628 47.168 48.138 48.113 46.286 45.046 44.978 44.988 45.011 44.998 45.016 45.018 45.023 45.021 46.226 46.193 46.343 46.166 50.203 46.046 46.043 45.793 45.551 45.393 45.243 45.118 44.996 44.918 44.843 44.748 44.611 44.531 44.348 44.181 44.106 44.083 43.983 44.428 44.096 44.083 44.113 44.236 44.341 44.443 44.571 44.769 44.921 45.041 45.134 45.199 45.274 45.364 45.659 46.289 47.111 47.554 46.931 46.991 47.044 47.126 47.199 47.321 47.584 47.859 48.171 48.466 48.669 48.794 48.976 49.789 49.804 49.889 49.876 49.874 49.861 49.854 49.829 49.824 49.796 49.784 49.776 49.766 49.754 49.744 49.729 49.721 49.701 49.686 49.671 49.659 49.651 49.649 49.626 49.611 49.601 49.599 49.596 49.589 49.579 49.564 49.549 49.539 49.531 49.516 49.496 49.971 50.644 51.099 51.196 50.304 49.749 49.914 50.089 49.354 48.264 52.601 53.914 54.036 53.869 52.311 52.336 52.361 51.249 48.221 52.666 52.104 51.724 48.621 49.264 50.126 50.889 51.571 51.766 51.639 51.381 51.271 51.151 51.139 51.476 50.914 50.856 50.781 50.701 50.624 50.659 50.644 50.621 50.621 50.651 50.769 50.951 51.116 51.281 51.449 51.536 56.846 57.814 58.579 58.276 57.499 51.309 51.096 51.039 51.086 51.021 50.951 50.899 50.916 50.949 50.951 50.959 50.964 51.006 51.084 51.149 51.174 51.236 51.274 51.271 51.264 51.294 51.339 51.649 51.749 51.794 54.339 57.641 58.241 58.504 57.846 57.206 52.914 51.866 52.319 51.926 52.006 52.006 52.186 52.341 52.356 52.479 52.654 52.781 52.871 52.944 52.989 52.936 53.039 53.083 53.168 53.356 53.453 55.187 54.53 53.991 54.116 54.711 54.028 54.347 54.154 54.24 54.303 54.643 56.148 57.619 58.655 59.506 59.752 61.014 59.972 62.53 61.861 62.741 62.823 65.19 65.408 67.587 68.699 68.693 67.031 67.71 66.859 65.475 62.923 62.954 63.034 63.074 63.208 63.271 63.315 63.374 63.439 63.527 63.608 63.652 63.749 63.803 63.871 63.902 64.017 64.111 64.204 64.284 64.387 64.516 64.572 64.635 64.726 64.755 64.845 64.939 65.017 -9999 -9999 -9999 -9999 -9999 -9999
34.501 34.538 34.558 34.581 34.668 34.708 34.706 34.721 58.148 61.883 61.871 61.841 61.793 34.706 34.648 34.773 35.941 35.243 34.526 34.521 34.493 34.453 34.678 34.386 34.513 34.586 34.556 35.676 35.891 35.993 36.023 36.088 36.158 36.236 36.571 36.218 36.178 36.206 36.211 36.223 36.233 36.241 36.236 36.228 36.231 36.396 36.658 36.473 36.451 39.698 39.468 38.498 37.016 36.528 36.883 37.763 38.643 39.413 40.096 40.343 40.453 40.738 40.838 48.703 67.581 68.156 68.093 68.058 68.063 68.066 68.091 68.223 67.991 65.116 67.488 68.071 68.083 68.081 67.368 58.416 65.088 46.321 40.796 40.818 40.873 40.988 41.158 41.481 42.251 44.808 44.726 43.388 42.371 42.583 42.766 42.883 44.556 44.023 44.793 45.308 61.711 72.111 72.076 72.106 44.936 44.868 44.908 45.068 45.223 44.721 44.728 44.716 44.693 45.546 46.133 44.841 45.041 45.226 45.343 45.493 45.701 45.866 45.956 45.973 46.036 46.033 46.086 46.161 46.176 46.196 46.236 46.276 46.298 46.298 46.226 46.313 46.318 46.338 46.393 46.408 46.308 46.153 45.936 45.866 45.741 45.731 45.971 46.506 45.738 45.308 48.113 48.103 47.448 47.411 47.443 47.483 46.063 45.033 45.003 45.016 45.033 45.011 45.598 46.191 46.193 46.171 46.173 46.391 46.031 45.958 45.658 45.438 45.258 45.106 44.991 44.903 44.823 44.731 44.643 44.526 46.268 44.236 44.168 44.026 43.951 43.976 44.018 44.026 44.006 44.131 44.763 44.691 44.716 44.704 44.796 44.929 45.051 45.144 45.176 45.249 45.419 46.071 46.641 48.259 46.889 46.944 46.976 47.051 47.121 47.254 47.461 47.734 48.014 48.336 48.591 48.766 48.839 49.511 49.841 49.881 49.854 49.846 49.841 49.831 49.816 49.804 49.784 49.771 49.754 49.744 49.731 49.721 49.709 49.689 49.684 49.671 49.646 49.631 49.634 49.609 49.604 49.596 49.579 49.561 49.561 49.566 49.571 49.544 49.531 49.516 49.506 49.481 49.476 49.466 50.459 50.509 51.101 50.706 49.491 49.771 50.564 49.289 50.679 49.481 53.669 53.796 53.921 54.049 53.641 52.361 52.386 52.406 52.416 48.694 48.636 51.874 51.254 48.474 48.769 49.586 50.561 51.164 51.639 51.706 51.304 51.189 51.081 51.249 52.009 50.789 50.746 50.679 50.609 50.509 50.491 50.509 50.501 50.474 50.526 50.674 50.854 51.064 51.244 51.351 51.419 55.991 57.806 57.829 51.166 51.101 50.944 50.919 50.934 50.931 50.811 50.816 50.849 50.839 50.844 50.851 50.976 51.084 51.141 51.246 51.299 51.244 51.244 51.249 51.249 51.211 51.296 51.491 51.674 51.716 51.726 54.634 57.689 58.299 58.454 57.844 57.221 52.594 51.876 52.059 52.046 51.996 52.116 52.541 52.321 52.461 52.604 52.734 52.831 52.826 52.789 52.864 52.944 53.046 53.141 53.288 53.351 53.496 55.406 55.926 54.661 53.894 54.345 54.022 54.12 54.207 54.453 56.91 57.874 58.753 59.332 59.513 59.057 59.051 58.913 63.742 66.24 64.455 65.485 66.865 67.874 68.957 69.052 68.824 68.133 67.511 66.092 63.292 62.854 62.927 63.022 63.072 63.182 63.248 63.322 63.348 63.402 63.479 63.534 63.657 63.689 63.776 63.828 63.867 63.941 64.029 64.14 64.231 64.319 64.394 64.491 64.584 64.644 64.709 64.818 64.881 -9999 -9999 -9999 -9999 -9999 -9999 -9999
34.496 34.511 34.531 34.553 35.313 34.711 34.708 34.703 39.353 61.866 61.848 61.836 61.821 40.226 34.681 34.656 35.243 35.563 34.536 34.531 34.526 34.496 35.063 34.801 34.463 34.548 34.691 35.901 35.866 35.951 35.993 36.081 36.111 36.211 36.146 36.156 36.188 36.211 36.223 36.238 36.233 36.233 36.233 36.216 36.276 36.763 36.401 36.418 38.378 40.213 40.731 40.286 39.776 37.191 36.693 37.643 38.396 39.228 39.851 40.243 40.328 40.496 40.816 40.923 68.096 68.063 68.071 68.076 68.066 68.078 68.101 66.756 41.251 41.018 49.168 68.101 68.126 48.041 40.861 40.828 40.781 40.776 40.796 40.858 41.031 41.103 41.158 41.333 41.613 44.833 44.758 44.683 42.368 42.548 42.696 42.863 42.988 43.998 45.016 48.091 72.093 72.073 72.056 72.038 49.283 44.893 44.878 45.256 46.143 44.768 44.746 44.733 44.726 44.731 44.756 44.866 44.998 45.106 45.246 45.478 45.778 45.993 46.091 46.061 46.018 46.046 46.041 46.051 46.143 46.173 46.198 46.213 46.238 46.206 46.263 46.253 46.311 46.391 46.428 46.456 46.341 46.128 45.896 45.706 45.628 45.473 45.518 45.671 45.493 45.088 45.476 47.531 47.256 47.293 47.333 47.356 47.398 47.433 47.416 45.831 44.993 45.026 46.288 46.176 46.176 46.168 46.166 45.968 45.996 45.733 45.508 45.361 45.208 44.993 44.858 44.791 44.696 44.593 44.478 44.358 44.228 44.128 44.056 43.938 43.871 43.938 43.958 43.938 44.026 44.606 45.216 44.666 44.653 44.736 44.821 44.934 45.059 45.146 45.181 45.306 45.674 46.329 47.689 46.886 46.886 46.909 46.949 47.019 47.114 47.306 47.581 47.871 48.189 48.481 48.676 48.781 49.196 49.811 49.836 49.844 49.819 49.819 49.806 49.796 49.786 49.766 49.751 49.724 49.721 49.711 49.699 49.684 49.666 49.659 49.639 49.634 49.616 49.614 49.591 49.574 49.561 49.569 49.556 49.536 49.526 49.526 49.526 49.509 49.509 49.484 49.464 49.441 49.426 49.976 50.579 50.259 50.611 49.391 49.374 50.151 49.829 50.671 49.604 53.414 53.546 53.684 53.801 53.926 54.059 53.576 52.399 52.436 52.456 52.471 48.641 51.854 52.744 52.254 50.454 48.461 49.211 50.106 50.629 51.254 51.574 51.316 51.106 50.996 50.876 50.724 50.659 50.616 50.549 50.499 50.406 50.321 50.359 50.354 50.339 50.364 50.534 50.756 50.951 51.131 51.221 51.179 54.406 51.094 50.951 50.911 50.814 50.839 50.789 50.711 50.709 50.729 51.089 50.826 50.754 50.934 50.954 51.009 51.084 51.204 51.266 51.316 51.294 51.259 51.269 51.249 51.234 51.339 51.496 51.619 51.701 51.771 55.036 57.736 58.344 58.401 57.791 56.939 52.209 51.901 52.039 52.014 52.091 52.211 52.306 52.394 52.559 52.641 52.689 52.671 52.751 52.821 52.894 52.974 53.109 53.231 53.258 53.339 53.533 53.704 53.722 53.78 53.892 53.97 54.043 55.899 57.286 58.013 58.054 59.159 60.297 60.154 61.002 59.311 61.422 63.977 65.713 66.596 66.756 67.516 68.622 68.557 69.45 68.817 66.832 65.546 63.207 62.76 62.843 62.885 62.955 63.028 63.127 63.166 63.275 63.32 63.36 63.435 63.478 63.569 63.654 63.724 63.776 63.856 63.865 63.967 64.055 64.143 64.183 64.315 64.406 64.486 64.602 64.676 64.76 -9999 -9999 -9999 -9999 -9999 -9999 -9999 -9999
34.436 34.501 34.551 34.553 34.673 34.671 34.693 34.681 34.648 59.418 61.853 61.841 61.831 59.951 34.713 34.646 34.591 34.578 34.573 34.546 34.538 34.503 34.471 35.808 34.783 34.928 35.441 35.601 35.848 36.026 36.103 36.156 36.216 36.126 36.151 36.156 36.201 36.231 36.348 36.363 36.333 36.228 36.226 36.211 36.273 36.838 36.443 36.433 39.366 40.678 41.871 40.846 39.518 36.471 36.548 37.463 38.186 38.996 39.653 40.113 40.258 40.353 40.651 40.863 68.138 68.068 68.086 68.081 68.091 68.138 49.338 40.966 40.903 40.881 41.228 50.968 40.858 40.813 40.773 40.773 40.773 40.821 40.933 41.056 41.138 41.238 41.278 41.323 41.703 43.568 44.771 44.703 42.646 42.496 42.656 43.303 44.903 44.728 44.771 44.903 70.183 72.071 72.056 72.036 61.213 44.946 44.871 45.333 45.123 44.811 44.793 44.781 44.758 44.751 44.793 44.838 44.888 45.028 45.223 45.578 45.853 46.036 46.133 46.168 46.111 46.018 46.046 46.058 46.096 46.096 46.103 46.148 46.196 46.221 46.201 46.838 46.381 46.401 46.421 46.383 46.206 46.021 45.851 45.641 45.458 45.391 45.231 45.198 45.298 44.923 44.868 45.441 44.836 45.806 47.156 47.256 47.291 47.331 47.361 47.396 47.428 47.188 46.663 46.163 46.151 46.156 46.138 45.506 45.688 45.481 45.323 45.246 45.101 44.913 44.808 44.688 44.576 44.496 44.358 44.191 44.083 44.008 43.878 43.796 43.843 43.901 43.886 43.888 44.168 44.598 44.596 44.586 44.641 44.726 44.826 44.934 45.069 45.149 45.216 45.396 45.879 46.974 47.404 46.804 46.834 46.871 46.919 46.981 47.139 47.416 47.701 48.016 48.339 48.571 48.749 48.931 49.716 49.849 49.794 49.801 49.794 49.789 49.779 49.761 49.754 49.731 49.709 49.699 49.686 49.686 49.664 49.656 49.631 49.621 49.599 49.581 49.579 49.569 49.554 49.554 49.531 49.524 49.516 49.501 49.489 49.506 49.481 49.469 49.456 49.454 49.424 49.431 49.391 49.679 49.966 50.834 50.079 49.121 49.264 50.026 48.539 48.446 48.224 53.291 53.424 53.554 53.681 53.809 53.929 54.066 53.626 52.466 52.451 52.419 52.409 49.179 52.201 51.416 52.139 50.074 50.509 49.049 49.706 50.254 50.826 51.366 51.779 51.009 50.926 50.809 50.649 50.556 50.716 50.444 50.379 50.301 50.216 50.181 50.194 50.181 50.179 50.306 50.574 50.791 50.911 50.951 50.884 50.849 50.846 50.834 50.761 50.666 50.624 50.616 50.634 50.721 50.981 50.641 50.791 50.931 50.961 51.001 51.096 51.194 51.224 51.321 51.339 51.266 51.279 51.286 51.256 51.256 51.349 51.494 51.591 51.666 51.716 56.336 57.794 58.384 58.381 57.766 56.926 52.459 51.916 51.974 52.091 52.206 52.386 52.566 52.506 52.521 53.984 52.694 52.699 52.776 52.861 52.961 53.046 53.138 53.262 53.37 53.447 53.536 53.657 53.782 53.852 53.938 54.108 55.706 57.885 58.411 58.939 59.381 59.255 59.531 61.741 61.442 65.904 66.209 65.764 66.871 66.818 67.485 68.575 68.751 68.685 66.888 65.273 62.684 62.674 62.717 62.794 62.867 62.97 63.014 63.066 63.162 63.246 63.305 63.344 63.402 63.435 63.528 63.544 63.658 63.666 63.754 63.818 63.87 63.953 64.017 64.17 64.218 64.343 64.442 64.537 -9999 -9999 -9999 -9999 -9999 -9999 -9999 -9999 -9999 -9999
34.398 34.453 34.518 34.486 34.648 34.631 34.638 34.643 35.566 57.416 61.861 61.851 61.836 61.806 34.911 34.693 34.678 34.573 34.596 35.831 34.523 34.508 34.476 34.498 34.518 34.786 35.073 35.413 35.743 36.036 36.156 36.198 36.116 36.143 36.156 36.171 36.313 36.621 36.403 36.438 36.636 36.358 36.213 36.213 37.653 36.361 36.408 36.683 41.341 41.158 41.691 40.381 38.858 36.501 36.556 37.098 37.956 38.758 39.516 39.948 40.243 40.313 40.508 40.833 66.471 68.098 68.101 62.318 52.936 40.911 40.898 40.896 40.856 40.831 40.803 40.806 40.786 40.781 40.778 40.831 40.893 40.993 41.056 41.156 41.281 41.361 41.408 41.501 41.926 42.456 44.823 44.748 44.351 44.573 44.683 44.713 44.778 44.823 44.828 44.881 57.533 72.081 72.058 72.046 72.033 45.006 44.906 44.893 44.833 44.838 44.828 44.788 44.756 44.753 44.733 44.743 44.893 45.068 45.353 45.606 45.818 45.983 46.081 46.166 46.093 46.071 46.023 46.076 46.101 46.126 46.151 46.186 46.213 46.153 46.758 47.208 46.378 46.358 46.273 46.168 46.011 45.831 45.683 45.598 45.418 45.228 45.146 45.011 44.901 44.826 44.766 45.173 44.728 44.746 44.793 44.841 46.013 46.931 47.248 47.281 47.303 47.353 47.388 45.778 44.731 46.121 45.718 45.291 45.336 45.238 45.176 45.038 44.931 44.776 44.678 44.528 44.438 44.341 44.683 44.096 43.976 43.886 43.768 43.838 43.813 43.823 43.813 43.908 44.543 44.518 44.493 44.533 44.633 44.719 44.829 44.946 45.066 45.164 45.276 46.881 46.886 47.774 46.696 46.741 46.809 46.841 46.911 47.016 47.269 47.554 47.851 48.174 48.461 48.684 48.741 49.409 49.781 49.786 49.776 49.769 49.761 49.754 49.739 49.729 49.701 49.684 49.684 49.669 49.649 49.649 49.634 49.609 49.611 49.584 49.566 49.559 49.536 49.531 49.526 49.514 49.509 49.501 49.486 49.466 49.464 49.454 49.444 49.439 49.434 49.411 49.401 49.396 49.759 49.569 50.444 50.371 49.004 49.099 50.246 49.369 48.529 48.226 53.099 53.174 53.304 53.429 53.559 53.684 53.811 53.941 54.081 53.116 52.419 52.396 52.374 52.371 48.339 48.249 51.569 50.616 52.184 50.314 48.879 49.441 49.924 50.514 51.014 51.301 50.984 50.821 50.724 50.596 50.961 50.366 50.306 50.266 50.204 50.126 50.041 50.061 50.056 50.056 50.109 50.329 50.451 50.546 50.634 50.696 51.019 50.661 50.574 50.526 50.521 50.531 50.536 50.541 50.571 50.694 50.804 50.914 50.979 51.044 51.129 51.229 51.246 51.309 51.369 51.344 51.311 51.296 51.294 51.706 51.519 51.364 51.439 51.576 51.644 51.726 55.299 57.819 58.434 58.311 57.721 56.201 52.106 52.041 52.264 52.329 54.331 53.706 52.609 52.866 52.626 52.584 52.679 52.736 52.849 52.911 53.006 53.129 53.229 53.321 53.429 53.542 53.64 53.736 53.8 53.968 55.377 56.945 58.062 58.649 58.432 60.344 59.738 59.891 59.697 62.39 64.87 65.947 67.271 67.871 66.988 66.715 65.588 69.958 67.863 65.043 62.797 62.491 62.593 62.684 62.729 62.853 62.85 62.971 63.028 63.09 63.142 63.243 63.31 63.322 63.404 63.455 63.529 63.555 63.637 63.681 63.721 63.805 63.867 63.938 64.067 64.18 64.249 -9999 -9999 -9999 -9999 -9999 -9999 -9999 -9999 -9999 -9999 -9999 -9999
34.331 34.381 34.471 34.731 34.588 34.596 34.616 34.623 34.616 34.673 61.861 61.853 61.841 61.826 50.931 34.698 34.666 34.551 34.563 34.686 34.941 34.568 34.538 34.536 34.598 34.746 34.956 35.306 35.708 36.081 36.158 36.101 36.118 36.136 36.176 36.346 36.876 36.373 36.326 36.351 36.388 36.718 36.226 36.206 37.858 36.321 36.456 37.266 42.748 44.048 42.193 39.908 36.796 37.051 36.593 36.631 37.636 38.491 39.486 39.841 40.216 40.306 40.431 40.766 55.991 54.886 40.916 40.886 40.893 40.868 40.831 40.788 40.826 40.776 40.778 40.796 40.781 40.838 40.931 41.001 41.038 41.113 41.146 41.311 41.348 41.468 41.543 41.786 42.216 42.766 44.768 44.386 44.251 44.621 44.718 44.776 44.808 44.816 44.818 44.873 55.881 72.101 72.081 72.053 72.051 60.573 44.948 44.916 44.866 44.856 44.843 44.801 44.728 44.773 44.793 44.818 44.991 45.168 45.371 45.591 45.791 45.893 46.026 46.086 46.046 46.068 45.981 46.028 46.081 46.108 46.143 46.163 46.128 47.178 47.471 46.338 46.338 46.233 46.103 45.973 45.761 45.548 45.468 45.446 45.313 45.183 45.038 44.938 44.781 44.703 44.651 44.623 44.628 44.628 44.643 44.666 44.703 45.758 44.841 46.251 47.201 47.223 47.266 44.526 45.871 44.478 44.778 44.923 44.936 44.981 44.956 44.831 44.671 44.581 44.453 44.371 44.256 44.156 44.036 43.923 43.846 43.738 43.928 44.056 43.763 43.756 43.816 44.316 44.426 44.406 44.446 44.531 44.628 44.724 44.836 44.946 45.074 45.189 45.421 46.474 47.051 46.661 46.646 46.714 46.781 46.841 46.954 47.119 47.414 47.689 48.011 48.319 48.594 48.716 49.104 49.721 49.746 49.741 49.736 49.739 49.724 49.706 49.701 49.681 49.674 49.649 49.644 49.631 49.619 49.611 49.589 49.586 49.576 49.551 49.539 49.526 49.506 49.504 49.479 49.471 49.461 49.464 49.454 49.424 49.436 49.414 49.414 49.406 49.389 49.369 49.376 49.509 50.376 51.044 50.101 49.046 49.021 49.324 49.161 48.816 48.549 48.221 50.459 53.064 53.186 53.314 53.434 53.561 53.686 53.824 53.949 54.074 53.081 52.369 52.344 52.321 51.951 48.256 48.251 48.244 51.246 51.639 48.419 48.636 48.946 49.431 49.981 50.566 51.234 51.781 50.759 50.626 50.511 50.366 50.244 50.349 50.156 50.089 50.029 49.931 49.884 49.909 50.004 50.144 50.266 50.359 50.444 50.539 50.584 50.484 50.449 50.429 50.429 50.441 50.444 50.501 50.674 50.824 50.886 50.956 51.054 51.066 51.164 51.271 51.299 51.366 51.364 51.401 51.324 51.314 51.321 51.306 51.281 51.306 51.389 51.501 51.579 51.826 51.834 57.026 57.876 58.489 58.256 57.649 55.246 51.929 52.469 52.714 53.011 52.534 52.579 52.594 52.506 52.546 52.646 52.754 52.796 52.891 52.986 53.109 53.204 53.314 53.416 53.519 53.607 53.702 53.861 55.127 56.824 55.807 57.784 59.027 58.343 60.243 60.645 58.956 62.373 64.946 65.165 62.052 67.072 67.875 68.768 68.698 69.454 70.158 68.793 65.96 65.363 62.731 62.546 62.606 62.709 62.772 62.846 62.948 62.982 63.079 63.127 63.22 63.259 63.305 63.352 63.381 63.47 63.5 63.567 63.644 63.685 63.741 63.807 63.915 63.982 64.083 -9999 -9999 -9999 -9999 -9999 -9999 -9999 -9999 -9999 -9999 -9999 -9999 -9999
34.261 34.326 34.441 34.446 34.518 34.573 34.616 34.588 34.591 34.621 50.723 61.838 61.841 61.846 61.803 34.713 34.686 34.606 34.631 34.656 34.643 34.626 34.616 34.541 34.611 34.756 35.003 35.328 35.711 36.118 36.076 36.113 36.131 36.168 36.331 36.503 36.373 36.341 39.346 40.383 38.298 36.388 36.326 36.206 36.308 36.321 36.508 40.468 43.436 43.361 40.343 36.716 36.498 39.576 36.598 36.691 37.256 38.388 39.031 39.828 40.203 40.308 40.353 40.618 40.808 40.816 40.791 40.811 40.806 40.741 40.706 40.708 40.701 40.711 40.778 40.773 40.891 40.931 41.026 41.068 41.143 41.181 41.253 41.386 41.463 41.581 41.681 42.058 42.506 43.056 43.606 43.693 43.823 44.593 44.751 44.771 44.826 44.841 44.848 44.883 44.938 62.123 72.083 72.061 72.058 69.428 46.386 44.931 44.903 44.853 44.818 44.893 44.858 44.828 44.771 44.841 45.031 45.191 45.368 45.541 45.726 45.873 45.961 46.023 45.998 46.036 45.943 46.003 46.051 46.101 46.106 46.078 46.146 46.233 46.293 46.303 46.218 46.028 45.873 45.666 45.431 45.176 45.158 45.101 45.058 44.991 44.986 44.823 44.753 44.611 44.526 44.513 44.513 44.518 44.521 44.536 44.561 45.546 44.636 44.713 44.743 44.996 46.691 44.936 45.156 44.671 44.426 44.586 44.688 44.736 44.681 44.571 44.496 44.371 44.243 44.123 44.063 43.981 43.858 43.766 43.728 43.631 44.321 43.688 44.311 43.681 43.828 44.338 44.333 44.353 44.413 44.513 44.601 44.719 44.821 44.971 45.081 45.176 45.716 46.319 46.774 46.599 46.644 46.704 46.764 46.839 47.011 47.249 47.541 47.866 48.184 48.481 48.694 48.769 49.571 49.744 49.719 49.716 49.711 49.709 49.686 49.671 49.671 49.646 49.634 49.619 49.611 49.584 49.576 49.569 49.561 49.541 49.534 49.511 49.499 49.471 49.469 49.459 49.454 49.441 49.421 49.426 49.416 49.411 49.399 49.394 49.376 49.366 49.356 49.356 49.421 51.036 50.929 50.406 49.396 48.964 49.021 50.436 49.101 49.001 48.276 48.246 48.854 51.401 53.066 53.184 53.311 53.439 53.579 53.701 53.829 53.949 54.081 52.999 52.321 52.294 52.274 51.916 48.244 48.241 48.936 51.944 48.286 48.374 48.484 48.704 48.896 49.554 50.259 50.911 51.126 50.721 50.539 50.419 50.301 50.414 50.876 50.029 49.979 49.916 49.874 49.829 49.959 50.079 50.189 50.301 50.401 50.474 50.391 50.371 50.344 50.334 50.344 50.354 50.401 50.574 50.759 50.891 50.969 51.019 51.079 51.124 51.174 51.251 51.354 51.476 51.491 51.419 51.344 51.344 51.326 51.329 51.321 51.334 51.371 51.399 51.466 51.669 51.734 51.764 56.934 57.931 58.529 58.181 57.599 56.069 52.394 52.336 52.366 52.476 52.544 52.736 52.621 52.571 52.686 52.714 52.801 52.856 52.976 53.079 53.166 53.281 53.386 53.475 53.624 53.718 53.938 55.691 56.273 56.999 57.624 58.211 56.635 59.933 59.409 59.727 63.109 65.294 65.701 65.774 64.856 69.24 69.766 70.16 70.352 68.946 68.138 67.414 68.786 66.491 62.797 62.577 62.682 62.741 62.829 62.894 62.927 63.048 63.061 63.148 63.185 63.307 63.309 63.351 63.424 63.515 63.539 63.593 63.625 63.711 63.751 63.833 63.93 -9999 -9999 -9999 -9999 -9999 -9999 -9999 -9999 -9999 -9999 -9999 -9999 -9999 -9999
34.218 34.298 34.378 34.423 34.518 34.586 34.611 34.601 34.611 34.616 35.881 52.153 61.838 61.876 61.861 44.081 34.738 34.718 34.756 35.046 54.158 61.898 54.873 34.563 34.576 34.753 35.078 35.403 35.853 36.123 36.088 36.108 36.146 36.296 36.503 36.343 36.336 41.691 41.786 40.588 37.851 36.316 36.408 36.361 36.403 36.651 36.443 42.233 44.038 42.681 36.781 36.498 36.713 37.441 36.683 36.783 36.928 38.028 38.663 39.511 39.733 39.926 40.201 40.416 40.653 40.658 40.673 40.708 40.671 40.611 40.493 40.613 40.621 40.663 40.668 40.838 40.916 41.038 41.153 41.183 41.208 41.246 41.326 41.441 41.526 41.651 41.921 42.298 42.686 43.231 43.646 43.656 43.711 44.296 44.766 44.796 44.843 44.871 44.881 44.876 44.946 44.933 72.093 72.078 72.078 72.051 52.693 44.951 44.911 44.923 44.923 44.908 45.506 48.386 44.838 44.813 44.971 45.151 45.293 45.483 45.668 45.808 45.896 45.986 45.953 46.006 45.928 45.993 46.038 46.048 46.026 46.096 46.201 46.246 46.261 46.133 46.001 45.776 45.616 45.361 45.073 44.823 44.846 44.891 44.851 44.853 44.851 44.823 45.818 44.853 44.491 44.393 44.361 44.381 44.401 44.418 44.573 44.668 44.501 44.523 44.498 46.353 44.408 44.428 44.378 46.406 46.758 45.328 44.521 44.506 44.376 44.311 44.238 44.141 43.998 43.903 43.841 43.793 43.698 43.946 44.153 43.543 43.596 44.251 43.608 43.718 44.336 44.273 44.288 44.328 44.416 44.496 44.593 44.719 44.831 44.986 45.071 45.409 46.211 47.546 46.501 46.579 46.621 46.664 46.751 46.876 47.091 47.384 47.689 48.039 48.336 48.599 48.694 49.176 49.694 49.734 49.689 49.686 49.689 49.664 49.654 49.639 49.624 49.606 49.599 49.591 49.564 49.551 49.549 49.536 49.534 49.514 49.496 49.474 49.466 49.451 49.441 49.421 49.424 49.406 49.394 49.394 49.381 49.379 49.374 49.356 49.344 49.326 49.311 49.319 50.184 50.654 50.691 50.054 48.954 48.989 49.041 49.246 49.521 48.659 48.271 48.246 48.226 50.506 51.426 53.069 53.199 53.324 53.451 53.581 53.704 53.834 53.964 54.091 52.776 52.281 52.259 52.229 51.546 50.396 53.021 48.241 48.281 48.349 48.434 48.521 48.599 48.776 49.199 49.951 50.431 50.851 51.099 50.564 50.339 50.221 50.094 49.939 49.899 49.871 49.874 49.869 49.866 49.914 50.016 50.119 50.214 50.291 50.301 50.271 50.256 50.426 50.794 50.286 50.474 50.679 50.794 50.919 51.051 51.051 51.129 51.209 51.254 51.326 51.399 51.491 51.576 51.536 51.441 51.949 51.361 51.331 51.331 51.339 52.526 51.346 51.419 51.554 51.691 51.739 51.931 57.084 57.981 58.584 58.596 57.984 55.519 52.784 52.334 52.391 52.504 52.539 52.644 52.661 52.589 52.696 52.791 52.861 52.951 53.056 53.149 53.251 53.354 53.511 53.62 54.242 54.659 55.439 56.202 56.89 55.931 56.961 55.801 58.771 58.246 61.075 62.926 64.776 65.838 65.777 66.791 68.725 70.423 69.678 69.357 69.617 69.321 68.979 71.163 68.773 64.664 62.89 62.625 62.683 62.737 62.844 62.904 62.984 63.059 63.107 63.134 63.235 63.274 63.328 63.392 63.427 63.512 63.571 63.598 63.659 63.701 -9999 -9999 -9999 -9999 -9999 -9999 -9999 -9999 -9999 -9999 -9999 -9999 -9999 -9999 -9999 -9999
34.211 34.261 34.331 34.413 34.513 34.561 34.598 34.596 34.613 34.658 34.676 34.621 61.811 61.963 61.856 61.798 35.236 39.736 56.346 61.786 61.883 61.851 61.883 34.588 34.551 34.696 35.043 35.528 35.993 36.071 36.081 36.101 36.218 36.741 36.348 36.336 36.308 43.971 43.646 43.011 42.301 41.163 36.498 36.503 36.438 36.443 36.521 42.913 43.841 41.983 36.571 36.648 36.686 36.723 38.138 39.546 36.931 37.688 38.446 38.633 38.943 39.233 39.618 39.883 40.168 40.336 40.448 40.473 40.518 40.551 40.476 40.603 40.651 40.643 40.598 40.563 40.831 41.136 41.151 41.283 41.433 41.441 41.456 41.548 41.678 41.813 42.068 42.458 42.856 43.281 43.646 43.656 43.693 43.921 44.716 44.833 44.818 44.856 44.901 44.868 44.926 44.943 54.553 72.053 72.071 72.068 69.751 45.051 45.031 45.011 45.006 59.376 72.073 68.383 44.878 44.773 44.883 45.098 45.266 45.431 45.611 45.713 45.806 45.878 45.908 45.911 45.903 45.973 45.978 45.966 46.061 46.138 46.203 46.258 46.123 45.916 45.731 45.541 45.318 45.096 44.806 44.621 44.643 44.663 44.703 44.713 44.718 44.708 44.731 44.696 44.468 44.421 44.363 44.283 44.283 44.291 44.298 44.341 44.356 44.371 44.338 45.291 44.338 44.321 44.306 44.316 44.346 46.523 44.393 44.341 44.198 44.083 43.978 43.886 43.831 43.731 43.673 43.638 43.571 44.771 43.463 43.516 43.553 43.546 43.601 45.306 44.516 44.258 44.256 44.328 44.413 44.498 44.626 44.721 44.859 45.009 45.186 45.824 46.666 46.459 46.509 46.561 46.601 46.654 46.726 46.924 47.214 47.521 47.856 48.186 48.491 48.656 48.836 49.609 49.676 49.664 49.664 49.656 49.649 49.639 49.609 49.606 49.586 49.579 49.569 49.551 49.526 49.519 49.516 49.509 49.484 49.474 49.454 49.449 49.434 49.421 49.404 49.391 49.381 49.379 49.359 49.351 49.344 49.329 49.336 49.329 49.311 49.294 49.289 49.549 50.284 50.564 50.576 49.641 48.946 48.999 49.776 49.101 49.221 48.534 48.279 48.236 48.249 48.266 50.524 51.406 53.076 53.201 53.329 53.454 53.591 53.716 53.844 53.976 54.104 52.514 52.279 52.246 52.236 56.451 54.721 54.279 51.319 48.349 48.374 48.496 48.606 48.701 48.791 49.074 49.461 49.954 50.479 50.789 50.869 50.239 50.124 50.024 49.854 49.816 49.839 49.864 49.889 49.931 50.001 50.091 50.174 50.244 50.211 50.179 50.169 50.564 50.169 50.346 50.564 50.704 50.824 50.924 51.059 51.139 51.181 51.214 51.309 51.334 51.431 51.471 51.504 51.546 51.514 51.454 51.359 51.376 51.339 51.356 51.356 51.471 51.369 51.449 51.596 51.674 51.791 51.866 57.419 58.454 59.004 58.521 57.916 55.144 52.304 52.494 52.329 52.434 52.539 52.716 52.714 52.671 52.766 52.836 52.939 53.014 53.119 53.226 53.406 53.513 53.914 54.755 54.877 55.517 56.293 56.019 57.563 57.254 56.542 56.96 59.045 60.299 62.52 64.451 65.172 65.664 66.327 67.868 69.136 69.462 70.193 70.07 70.751 69.219 70.849 69.2 70.241 64.196 62.842 62.621 62.707 62.79 62.847 62.907 62.979 63.035 63.108 63.17 63.252 63.318 63.378 63.427 63.475 63.531 63.585 63.656 -9999 -9999 -9999 -9999 -9999 -9999 -9999 -9999 -9999 -9999 -9999 -9999 -9999 -9999 -9999 -9999 -9999
34.226 34.281 34.356 34.411 34.523 34.568 34.593 34.608 34.646 34.973 41.346 60.571 61.808 65.331 65.126 65.438 61.758 61.808 61.831 61.838 61.853 61.851 61.866 43.688 34.571 34.656 35.128 35.648 36.073 36.043 36.068 36.106 36.303 36.363 36.593 37.221 37.288 42.343 43.411 43.768 43.971 40.601 36.406 36.438 36.488 36.466 36.471 36.456 36.791 37.718 36.636 36.816 37.463 36.926 37.093 37.521 37.093 37.098 37.216 37.911 38.721 38.838 38.821 39.111 39.373 39.538 39.798 39.933 40.158 40.416 40.586 40.618 40.591 40.546 40.471 40.466 40.618 40.983 41.293 41.383 41.438 41.568 41.688 41.796 41.858 41.988 42.218 42.508 42.833 43.181 43.513 43.656 43.668 43.778 44.458 44.836 44.871 44.901 44.913 44.923 44.953 44.943 44.931 64.371 72.118 72.061 72.363 56.741 47.901 55.203 72.043 72.116 70.541 72.061 59.776 44.816 44.841 45.003 45.176 45.341 45.461 45.528 45.636 45.768 45.856 45.813 45.883 45.911 45.901 45.988 46.083 46.156 46.186 46.111 45.933 45.733 45.498 45.286 45.061 44.823 44.661 44.636 44.631 44.613 44.601 44.603 44.628 44.628 44.651 44.616 44.861 44.406 44.363 44.358 44.298 44.251 44.221 44.198 44.236 44.268 44.283 44.308 44.273 44.261 44.241 44.298 45.478 45.058 44.343 44.236 44.106 43.956 43.843 43.761 43.701 43.606 43.538 43.483 43.501 43.441 44.233 43.481 43.493 43.473 43.571 44.176 44.543 44.216 44.243 44.323 44.413 44.531 44.631 44.749 44.884 45.189 45.534 46.164 46.984 46.436 46.489 46.539 46.581 46.644 46.746 46.989 47.349 47.671 48.001 48.329 48.604 48.664 49.346 49.639 49.641 49.636 49.629 49.626 49.614 49.596 49.586 49.566 49.556 49.536 49.544 49.516 49.501 49.484 49.474 49.461 49.461 49.436 49.421 49.411 49.389 49.386 49.366 49.361 49.349 49.339 49.331 49.319 49.316 49.304 49.316 49.294 49.261 49.264 49.259 49.936 49.969 50.481 49.899 48.896 48.964 49.021 49.189 49.594 48.496 50.324 48.344 48.274 48.284 48.461 48.339 51.129 51.696 53.081 53.211 53.344 53.484 53.601 53.726 53.856 53.984 54.111 52.551 52.291 53.774 56.411 56.296 56.201 55.444 51.741 48.426 48.336 48.479 48.686 48.804 48.889 49.011 49.266 49.756 50.256 50.794 50.766 50.314 50.046 49.929 49.844 49.789 49.801 49.851 49.924 49.996 50.061 50.144 50.144 50.111 50.091 50.081 50.084 50.221 50.416 50.594 50.711 50.819 50.929 51.054 51.091 51.131 51.211 51.339 51.381 51.341 51.469 51.434 51.456 51.536 51.506 51.431 51.366 51.654 51.339 51.349 51.366 51.334 51.381 51.471 51.611 51.689 51.849 52.631 57.864 58.489 59.011 58.464 57.849 56.781 52.704 52.584 52.374 52.429 52.616 52.836 52.786 52.734 52.806 52.929 53.021 53.106 53.291 53.409 54.616 54.421 54.69 55.027 55.482 55.054 55.526 56.647 56.239 57.616 58.386 59.661 60.679 61.736 63.219 64.005 64.32 66.484 67.735 68.337 63.926 68.561 69.519 66.249 71.343 72.439 71.585 71.148 69.302 64.4 62.693 62.654 62.739 62.821 62.872 62.922 62.978 63.056 63.078 63.183 63.287 63.343 63.352 63.443 63.481 -9999 -9999 -9999 -9999 -9999 -9999 -9999 -9999 -9999 -9999 -9999 -9999 -9999 -9999 -9999 -9999 -9999 -9999 -9999
34.241 34.306 34.353 34.418 34.563 34.633 34.606 35.903 53.426 61.716 61.816 61.843 61.841 63.548 65.433 64.031 61.806 61.851 61.846 61.846 61.868 61.871 61.868 61.926 34.596 34.898 35.346 35.826 35.993 36.023 36.071 36.156 36.768 36.308 36.311 36.303 38.568 42.538 43.898 43.158 42.378 36.626 36.451 36.543 36.598 36.638 36.583 36.463 36.468 36.696 36.768 37.046 37.041 37.083 37.103 37.098 37.083 37.148 37.261 40.423 38.991 37.978 38.638 38.703 38.568 38.791 39.083 39.348 39.631 39.793 40.083 40.303 40.408 40.328 40.243 40.248 40.491 40.946 41.276 41.483 41.643 41.621 41.721 41.973 42.056 42.136 42.276 42.436 42.693 42.981 43.296 43.571 43.671 43.736 44.103 44.811 44.901 44.933 44.943 44.973 44.958 52.306 68.543 72.058 72.066 75.668 75.658 71.473 72.043 72.041 72.041 72.061 72.058 72.053 72.088 44.868 44.776 44.901 45.061 45.156 45.303 45.451 45.591 45.706 45.758 45.778 45.828 45.843 45.931 45.978 46.083 46.121 46.073 45.891 45.716 45.521 45.283 45.051 44.836 44.628 44.613 46.808 70.593 61.938 44.623 44.611 44.596 44.601 44.596 44.591 44.568 44.508 44.411 44.783 45.361 44.263 44.246 44.221 44.233 44.241 44.253 44.251 44.226 44.203 44.173 44.708 44.186 44.258 44.276 44.168 44.028 43.883 43.763 43.681 43.591 43.501 43.426 43.453 43.421 43.338 43.706 43.436 43.396 43.473 44.091 44.086 44.643 44.166 44.246 44.321 44.441 44.551 44.656 44.781 44.896 45.684 46.011 47.759 46.354 46.416 46.479 46.541 46.586 46.631 46.816 47.126 47.474 47.819 48.151 48.469 48.634 48.981 49.616 49.629 49.619 49.609 49.594 49.596 49.569 49.554 49.544 49.539 49.516 49.501 49.494 49.484 49.474 49.459 49.446 49.419 49.414 49.401 49.379 49.359 49.361 49.339 49.336 49.321 49.316 49.311 49.296 49.284 49.279 49.269 49.279 49.256 49.229 49.224 49.459 50.121 50.209 50.071 49.229 48.921 49.516 49.689 49.214 48.971 48.724 49.041 48.401 48.466 48.331 48.349 48.356 48.424 50.619 50.849 53.091 53.229 53.354 53.486 53.606 53.736 53.866 53.989 54.126 51.931 54.114 55.669 56.271 56.171 56.064 55.969 52.951 48.206 48.406 48.486 48.754 48.916 48.994 49.071 49.209 49.656 50.241 50.561 50.419 50.341 50.201 49.976 49.929 49.846 49.829 49.884 49.956 50.026 50.081 50.059 50.026 50.006 49.999 50.094 50.229 50.459 50.561 50.691 50.791 50.871 50.949 51.009 51.091 51.249 51.351 53.776 52.201 51.386 51.379 51.459 51.449 51.386 53.041 52.181 56.539 51.869 51.331 51.366 51.376 51.329 51.409 51.526 51.641 51.849 51.964 52.569 57.749 58.554 58.994 58.801 58.221 57.156 55.579 54.341 52.354 52.514 52.701 52.851 52.834 52.789 52.889 52.996 53.176 53.289 56.316 57.541 55.699 56.381 54.833 55.178 55.134 56.122 56.637 56.042 56.313 57.556 59.408 60.79 61.905 62.545 60.326 59.729 65.455 67.069 68.258 69.032 69.215 69.129 68.105 72.107 71.285 71.37 70.883 67.888 66.1 63.731 62.632 62.652 62.699 62.792 62.864 62.951 62.965 63.068 63.103 63.202 63.257 63.352 63.396 -9999 -9999 -9999 -9999 -9999 -9999 -9999 -9999 -9999 -9999 -9999 -9999 -9999 -9999 -9999 -9999 -9999 -9999 -9999 -9999
34.238 34.318 34.393 34.431 34.596 34.638 59.053 61.856 61.866 61.828 61.828 61.841 61.853 61.856 61.766 61.733 57.998 61.866 61.863 61.873 61.883 61.896 51.936 59.403 34.606 34.571 35.551 35.976 35.951 35.998 36.048 36.211 36.288 36.316 36.306 36.308 41.638 42.998 43.981 42.701 39.011 37.191 36.643 36.758 38.311 36.828 36.736 36.876 36.713 36.793 37.601 40.968 41.941 37.091 37.053 37.076 37.068 37.201 37.263 37.298 38.518 37.423 37.463 37.871 37.943 38.861 38.716 38.648 38.873 39.296 39.508 39.746 39.996 40.083 40.041 40.018 40.226 40.728 41.138 41.438 41.598 41.723 41.853 41.973 42.018 42.233 42.361 42.476 42.593 42.786 43.076 43.403 43.643 43.748 43.866 44.706 44.961 44.941 45.391 52.536 70.488 72.041 72.043 72.026 72.046 75.653 73.928 72.018 72.043 72.048 72.063 72.058 72.071 69.386 72.093 52.168 44.786 44.803 44.946 45.096 45.238 45.476 45.621 45.636 45.673 45.728 45.753 46.198 45.891 45.988 46.051 46.036 45.888 45.716 45.516 45.291 45.063 44.873 44.781 44.646 44.636 70.393 71.158 44.963 44.631 44.631 44.628 44.626 44.621 44.601 44.581 44.551 44.488 44.436 44.366 44.271 44.221 44.196 44.331 44.216 44.216 44.211 44.183 44.156 44.148 45.293 44.268 44.276 44.176 44.036 43.893 43.721 43.646 43.558 43.501 43.426 43.418 43.341 43.238 43.318 43.356 43.353 43.351 43.558 44.038 44.018 44.066 44.146 44.243 44.353 44.443 44.561 44.666 44.786 44.916 45.579 47.154 46.556 46.361 46.419 46.474 46.531 46.599 46.689 46.939 47.276 47.604 47.961 48.324 48.584 48.694 49.459 49.591 49.589 49.589 49.576 49.566 49.559 49.539 49.526 49.504 49.494 49.479 49.456 49.456 49.434 49.436 49.421 49.401 49.386 49.376 49.366 49.351 49.329 49.319 49.314 49.296 49.279 49.274 49.269 49.251 49.249 49.239 49.231 49.236 49.204 49.189 49.146 49.289 49.609 50.531 49.851 48.881 48.931 49.356 49.139 49.526 48.574 49.336 48.579 48.501 48.506 48.346 48.341 48.346 48.356 48.366 51.289 51.561 53.099 53.236 53.364 53.491 53.611 53.726 53.869 52.301 51.826 55.449 55.959 56.229 56.136 56.044 55.926 50.276 48.209 48.189 48.494 48.461 48.771 49.019 49.111 49.171 49.266 49.791 50.326 50.361 50.191 50.636 50.026 49.996 49.919 49.871 49.824 49.896 49.999 49.991 49.959 49.934 49.906 49.916 50.079 50.306 50.416 50.516 50.634 50.736 50.806 50.854 50.909 51.174 51.354 51.429 55.201 54.886 54.331 51.404 51.356 51.361 53.871 52.409 51.554 51.474 54.344 51.411 51.331 51.379 51.396 51.356 51.444 51.611 51.634 51.839 52.094 53.511 57.981 58.601 59.186 58.784 58.171 57.189 52.606 52.279 52.446 52.609 52.776 52.919 52.901 52.886 53.069 53.216 53.331 55.259 57.544 54.664 55.206 54.471 55.085 54.844 56.04 55.663 56.689 56.129 56.569 58.808 60.017 61.499 61.563 62.525 61.999 65.404 66.98 67.901 68.296 67.384 69.285 70.85 70.334 71 69.421 67.799 66.434 66.279 65.751 63.931 62.638 62.64 62.7 62.792 62.851 62.956 62.999 63.087 63.135 63.205 63.248 -9999 -9999 -9999 -9999 -9999 -9999 -9999 -9999 -9999 -9999 -9999 -9999 -9999 -9999 -9999 -9999 -9999 -9999 -9999 -9999 -9999
34.158 34.258 34.356 34.406 34.538 34.593 54.226 61.861 61.838 61.848 61.861 61.866 61.861 61.871 45.033 34.728 34.726 61.111 61.891 57.966 38.031 34.611 34.588 34.561 34.576 35.036 35.803 35.931 35.926 35.971 36.098 36.581 36.278 36.308 36.303 37.988 42.133 43.478 43.543 42.156 36.446 36.763 36.638 36.846 39.913 36.958 37.138 38.653 36.988 38.253 37.098 42.831 44.616 43.353 41.118 37.996 37.206 37.076 37.178 37.228 37.251 37.311 37.401 37.403 37.396 39.898 38.586 38.583 38.768 38.558 38.668 38.938 40.148 40.053 39.833 39.858 39.976 40.348 40.758 41.091 41.308 41.546 41.743 41.936 42.153 42.241 42.416 42.558 42.653 42.791 42.961 43.263 43.626 43.723 43.816 44.431 44.931 55.081 72.061 72.033 72.051 72.043 72.051 72.041 72.058 72.036 72.003 57.333 69.816 72.071 72.081 72.093 69.253 49.236 58.818 45.251 44.773 44.768 44.926 45.178 45.401 45.536 45.553 45.573 45.621 45.638 46.018 46.828 45.883 45.941 45.903 45.806 45.656 45.488 45.296 45.173 45.023 44.831 44.713 44.643 44.631 71.373 71.353 71.353 70.646 62.106 47.431 44.636 44.633 44.628 44.603 44.563 44.551 44.516 44.468 44.361 44.373 44.296 44.306 45.381 44.881 44.508 44.163 44.113 44.401 44.546 44.591 44.173 44.056 43.946 43.818 43.663 43.563 43.483 43.403 43.381 43.321 43.196 43.223 43.278 43.303 43.278 43.366 44.023 43.971 44.003 44.056 44.148 44.263 44.368 44.456 44.568 44.681 44.816 45.239 46.014 47.959 46.291 46.351 46.391 46.456 46.524 46.621 46.806 47.099 47.449 47.766 48.126 48.471 48.579 49.271 49.569 49.574 49.569 49.551 49.539 49.526 49.514 49.509 49.481 49.469 49.464 49.436 49.426 49.419 49.411 49.401 49.394 49.381 49.346 49.346 49.326 49.311 49.301 49.289 49.276 49.264 49.246 49.241 49.231 49.219 49.216 49.206 49.186 49.181 49.154 49.159 49.199 49.576 50.144 49.939 48.849 48.891 49.771 49.106 49.476 48.756 49.741 48.799 48.614 48.521 48.509 48.316 48.269 48.319 48.319 48.284 48.339 51.284 51.651 53.111 53.239 53.361 53.489 53.621 52.009 51.819 52.489 55.421 56.266 56.186 56.096 55.989 55.814 48.239 48.189 49.754 52.139 49.609 48.446 48.799 49.101 49.211 49.369 49.646 50.064 50.224 50.166 49.954 49.954 50.096 49.924 49.869 49.799 49.841 49.921 49.906 49.871 49.846 49.831 49.946 50.104 50.271 50.389 50.466 50.569 50.661 50.711 50.751 50.984 51.321 51.406 56.066 55.761 55.416 55.081 54.769 53.361 51.496 51.371 51.411 51.636 51.781 51.459 51.431 51.421 51.374 51.414 51.421 51.376 51.484 51.644 51.734 51.911 52.109 53.714 58.041 58.649 59.221 58.751 58.119 57.104 52.406 52.441 52.416 52.606 52.844 52.976 52.984 53.109 53.149 53.181 53.244 53.674 54.116 54.206 54.591 54.939 54.938 55.777 55.798 56.115 56.451 57.179 59.758 59.969 60.877 63.08 62.49 62.515 61 64.738 65.972 66.104 67.958 69.507 69.466 68.875 69.047 68.866 68.008 68.615 67.809 65.735 64.617 63.28 62.847 62.645 62.712 62.83 62.899 62.953 63.021 63.089 -9999 -9999 -9999 -9999 -9999 -9999 -9999 -9999 -9999 -9999 -9999 -9999 -9999 -9999 -9999 -9999 -9999 -9999 -9999 -9999 -9999 -9999 -9999
34.088 34.241 34.298 34.358 34.438 34.533 34.648 61.876 61.853 61.866 61.866 61.781 49.843 34.631 34.676 34.658 34.648 41.213 34.631 34.608 34.563 34.548 34.581 34.636 34.676 35.366 35.891 35.848 35.898 35.956 36.081 36.726 37.006 36.476 36.338 39.361 42.633 43.951 43.041 41.676 36.376 36.568 36.778 36.861 37.666 36.871 37.031 36.933 36.933 38.351 38.211 43.496 44.593 43.871 43.416 42.881 42.383 40.301 37.203 37.091 37.078 37.176 37.353 37.388 37.383 37.683 39.943 37.478 37.593 37.728 38.368 39.218 41.568 39.198 39.391 39.658 39.741 40.018 40.306 40.613 40.871 41.168 41.428 41.733 42.026 42.301 42.516 42.526 42.706 42.896 42.973 43.166 43.513 43.766 43.788 44.061 44.838 44.931 72.083 72.031 72.018 72.063 72.066 72.076 72.091 61.753 44.946 44.926 45.148 72.108 65.846 44.878 44.836 44.796 44.756 44.733 44.796 44.856 45.081 45.331 45.428 45.431 45.478 45.518 45.513 45.686 45.701 45.806 45.866 45.826 45.753 45.653 45.488 45.341 45.226 45.143 44.981 44.838 44.753 44.646 61.853 71.381 71.373 71.346 71.338 71.341 71.348 70.523 62.728 44.826 44.613 46.233 72.843 56.516 46.683 44.506 44.438 44.383 44.348 44.298 44.296 44.426 45.246 44.088 44.058 44.038 44.143 44.076 43.943 43.848 43.728 43.598 43.508 43.436 43.326 43.293 43.198 43.101 43.278 43.221 43.196 43.251 44.008 43.931 43.933 43.986 44.066 44.161 44.278 44.358 44.476 44.606 44.698 45.076 45.676 47.604 46.244 46.276 46.316 46.356 46.424 46.516 46.686 46.931 47.276 47.609 47.936 48.299 48.529 48.906 49.476 49.514 49.539 49.534 49.516 49.501 49.494 49.491 49.476 49.451 49.434 49.434 49.414 49.386 49.381 49.376 49.376 49.354 49.329 49.319 49.311 49.289 49.284 49.259 49.249 49.246 49.229 49.206 49.201 49.201 49.196 49.171 49.161 49.156 49.144 49.136 49.104 50.244 49.431 49.621 49.334 48.856 48.894 49.311 49.104 49.509 48.729 49.119 48.656 48.616 48.539 48.469 48.281 48.216 48.251 48.261 48.251 48.261 48.314 50.214 51.796 53.111 53.231 53.379 51.846 51.819 50.641 55.521 55.714 56.246 56.146 56.051 55.961 53.431 48.201 48.164 48.134 51.519 52.131 51.056 48.461 48.879 49.269 49.364 49.541 49.829 49.889 50.314 49.854 49.879 49.894 49.894 49.881 49.851 49.794 49.849 49.811 49.774 49.746 49.754 49.909 50.134 50.274 50.326 50.391 50.519 50.561 50.614 50.681 50.794 51.364 53.946 56.634 56.276 55.966 55.659 55.299 54.979 54.616 52.601 51.389 51.439 51.539 51.481 51.484 51.441 51.446 51.424 51.449 51.444 51.404 51.509 51.689 51.816 51.904 52.074 53.989 58.081 58.694 59.196 58.714 58.079 56.406 52.964 52.814 52.499 52.589 53.406 53.181 53.041 53.091 53.141 53.176 53.221 53.459 54.281 54.196 54.371 54.922 55.232 55.909 56.34 56.56 57.234 58.71 60.197 60.537 60.445 62.565 59.18 62.08 63.199 64.071 66.054 67.164 66.863 66.164 67.863 69.256 68.23 66.845 69.259 68.501 66.689 66.267 66.151 63.589 62.852 62.679 62.766 62.825 62.929 62.975 -9999 -9999 -9999 -9999 -9999 -9999 -9999 -9999 -9999 -9999 -9999 -9999 -9999 -9999 -9999 -9999 -9999 -9999 -9999 -9999 -9999 -9999 -9999 -9999
33.986 34.141 34.273 34.366 34.338 34.461 38.683 61.358 61.866 58.941 37.378 34.651 34.623 34.613 34.581 34.626 34.598 34.591 34.556 34.561 34.558 34.578 34.688 34.761 34.846 35.081 35.916 35.801 35.841 35.913 36.121 36.216 37.258 36.726 36.678 41.856 43.148 43.903 42.538 38.671 36.336 36.463 36.641 37.163 36.848 36.748 38.066 36.811 36.826 36.888 41.891 44.176 44.178 44.646 44.743 44.283 43.748 43.273 42.796 43.931 43.226 37.556 37.348 37.361 37.361 37.921 37.396 37.478 37.538 37.563 40.526 40.708 38.371 38.756 39.028 39.013 39.376 39.588 39.868 40.148 40.406 40.623 40.948 41.261 41.688 42.006 42.273 42.518 42.783 42.858 43.006 43.168 43.463 43.756 43.788 43.866 44.671 44.906 66.161 72.031 72.036 72.076 72.106 59.431 45.366 44.898 44.891 44.848 44.866 45.153 44.811 44.761 44.721 44.731 44.838 44.913 45.018 45.048 45.191 45.303 45.298 45.366 45.431 45.426 46.223 46.428 45.698 45.753 45.773 45.681 45.626 45.546 45.453 45.288 45.186 45.093 44.948 44.848 44.701 44.648 71.518 71.436 71.388 71.371 71.366 71.363 71.351 71.361 71.351 71.348 68.373 58.858 74.958 74.936 63.733 44.643 44.541 44.483 44.441 44.393 44.346 44.291 44.216 44.168 44.046 44.026 44.091 44.028 43.878 43.746 43.631 43.506 43.443 43.306 43.228 43.153 43.036 44.333 43.161 43.146 43.141 43.311 43.886 43.896 43.918 43.971 44.071 44.176 44.273 44.368 44.488 44.591 44.728 49.874 46.791 47.016 46.229 46.264 46.281 46.329 46.421 46.536 46.776 47.089 47.464 47.786 48.129 48.466 48.536 49.361 49.456 49.499 49.509 49.486 49.466 49.461 49.466 49.451 49.431 49.409 49.401 49.389 49.376 49.376 49.349 49.341 49.334 49.304 49.286 49.286 49.274 49.254 49.249 49.231 49.221 49.204 49.204 49.179 49.166 49.169 49.156 49.144 49.139 49.119 49.111 49.104 49.116 49.141 49.061 50.184 48.829 48.864 50.136 49.346 49.299 48.869 50.591 48.716 48.691 48.661 48.574 48.394 48.281 48.281 48.806 49.836 48.309 48.246 48.269 48.291 51.309 51.974 53.121 51.814 51.811 51.796 52.336 55.439 56.371 56.209 56.101 56.009 55.876 49.944 48.186 48.151 48.106 48.081 52.004 51.659 48.164 48.596 49.161 49.384 49.486 49.606 49.704 49.754 49.809 49.826 49.824 49.829 49.834 49.826 49.739 49.744 49.716 49.689 49.644 49.719 49.896 50.146 50.226 50.244 50.326 50.414 50.456 50.504 50.486 50.581 50.614 57.496 57.139 56.841 56.514 56.166 55.854 55.506 55.209 54.861 54.374 51.604 51.379 51.439 51.449 51.481 51.486 51.476 51.439 51.459 51.469 51.419 51.524 51.731 51.764 51.829 52.134 54.734 58.144 58.754 59.194 58.666 58.036 56.449 55.531 52.436 52.524 52.861 53.181 53.026 53.029 53.101 53.194 54.409 53.214 53.426 53.779 54.134 54.638 54.559 55.393 55.849 56.376 56.428 58.056 59.348 59.784 60.342 61.11 61.065 60.458 60.436 63.036 64.096 65.646 68.517 67.326 66.703 67.395 68.667 68.24 69.191 68.495 67.395 68.002 67.354 64.363 63.781 62.933 62.711 62.808 62.874 -9999 -9999 -9999 -9999 -9999 -9999 -9999 -9999 -9999 -9999 -9999 -9999 -9999 -9999 -9999 -9999 -9999 -9999 -9999 -9999 -9999 -9999 -9999 -9999 -9999
33.791 33.946 34.163 34.271 34.303 34.246 34.466 43.496 34.638 34.591 34.551 34.526 34.491 34.513 34.518 34.566 34.556 34.563 34.536 34.556 34.581 34.663 34.741 34.808 35.046 35.373 35.781 35.748 35.791 35.948 36.826 36.196 36.248 36.546 40.656 43.551 43.643 43.406 42.046 36.336 36.413 36.526 36.613 36.681 36.736 36.711 36.741 36.778 36.803 37.006 41.576 44.681 43.221 43.248 43.771 44.263 44.711 44.666 44.201 44.548 43.436 37.973 42.621 41.911 37.438 37.518 37.378 37.433 37.483 37.523 37.601 38.688 37.781 38.181 38.438 38.578 38.718 38.971 39.218 39.441 39.781 40.058 40.316 40.618 41.021 41.561 41.891 42.196 42.491 42.821 43.066 43.201 43.381 43.681 43.788 43.811 44.276 44.873 69.133 72.071 70.798 52.391 44.911 44.893 44.898 44.888 44.828 44.763 44.758 44.736 44.693 44.728 44.813 44.893 44.976 45.028 45.098 45.166 45.161 45.151 45.231 45.323 45.341 45.528 45.581 45.611 45.678 45.646 45.606 45.543 45.518 45.423 45.336 45.208 45.071 45.038 44.943 44.856 44.756 44.671 44.613 51.168 68.058 71.416 71.401 71.396 71.393 71.368 71.348 71.338 71.351 71.828 74.658 74.896 58.793 44.583 44.573 44.553 44.528 44.506 44.448 44.401 44.341 44.291 44.211 44.161 44.141 43.906 43.738 43.636 43.526 43.376 43.291 43.211 43.128 43.031 43.041 43.271 43.281 43.181 43.146 43.923 43.848 43.853 43.908 43.991 44.086 44.168 44.273 44.376 44.493 44.586 44.923 45.736 47.474 46.179 46.226 46.239 46.261 46.346 46.416 46.611 46.896 47.244 47.604 47.964 48.334 48.496 49.044 49.469 49.459 49.484 49.469 49.441 49.421 49.431 49.424 49.421 49.401 49.379 49.369 49.359 49.346 49.341 49.329 49.311 49.294 49.266 49.261 49.246 49.236 49.226 49.206 49.211 49.181 49.179 49.166 49.154 49.144 49.131 49.126 49.119 49.104 49.091 49.081 49.109 49.074 49.096 49.721 48.956 48.831 48.969 49.669 49.241 49.036 49.149 49.254 48.821 48.889 48.696 48.819 48.429 48.309 48.261 48.884 48.684 48.211 48.236 48.264 48.294 48.326 51.321 51.971 51.796 51.799 51.659 55.444 55.481 56.269 56.166 56.071 55.976 54.271 48.214 48.174 48.131 48.079 48.041 48.014 48.094 48.161 48.496 49.211 49.321 49.476 49.584 49.681 50.799 49.776 49.779 49.769 49.764 49.771 49.771 49.661 49.636 49.796 49.934 50.159 49.701 49.964 50.099 50.119 50.219 50.261 50.276 50.294 50.224 50.294 50.511 53.431 54.246 57.431 57.379 57.036 56.721 56.396 56.084 55.739 55.401 55.046 54.739 53.254 51.389 51.369 51.431 51.526 51.526 51.486 51.454 51.479 51.479 51.439 51.549 51.666 51.704 51.779 52.176 54.849 58.204 58.804 59.199 58.639 58.011 55.514 52.451 52.641 52.839 52.956 52.921 52.979 53.091 53.406 53.274 53.349 53.264 53.366 53.753 54.291 54.562 55.048 55.257 55.552 55.909 57.209 57.553 58.383 58.676 60.756 61.279 60.223 61.391 62.065 64.825 66.648 66.805 66.631 67.436 66.928 65.208 67.191 64.313 66.785 65.861 68.251 69.671 66.67 65.205 63.521 62.771 -9999 -9999 -9999 -9999 -9999 -9999 -9999 -9999 -9999 -9999 -9999 -9999 -9999 -9999 -9999 -9999 -9999 -9999 -9999 -9999 -9999 -9999 -9999 -9999 -9999 -9999 -9999
33.458 33.658 33.956 34.091 34.158 34.218 34.051 34.238 34.326 34.301 34.241 34.216 34.213 34.306 34.413 34.506 34.548 34.533 34.513 34.556 34.613 34.706 34.736 34.831 35.203 35.578 35.671 35.691 35.726 35.911 37.551 36.643 36.543 36.343 42.138 43.041 43.698 43.953 43.428 36.336 36.776 37.391 37.756 37.731 36.653 36.671 36.706 36.748 36.773 37.066 37.013 37.048 37.358 39.596 42.383 42.856 43.333 43.826 44.338 44.606 42.783 37.271 43.328 44.971 43.383 41.558 38.138 37.358 37.383 37.433 37.481 37.516 37.631 38.003 38.463 38.438 38.656 38.586 38.598 38.863 38.923 39.276 39.576 39.823 40.261 40.708 41.293 41.641 42.041 42.408 42.671 43.126 43.396 43.508 43.768 43.806 43.946 44.761 46.103 48.383 44.888 44.868 44.853 44.871 44.858 44.843 44.766 44.731 44.691 44.721 44.796 44.868 44.916 44.951 45.011 45.028 45.071 45.068 45.026 45.083 45.188 45.223 45.736 45.956 45.506 45.593 45.526 45.391 45.318 45.306 45.326 45.283 45.226 45.141 45.048 44.958 44.926 44.878 44.801 44.733 44.671 44.603 44.588 58.346 67.341 70.931 71.413 71.396 71.363 71.381 71.363 71.353 71.371 72.611 71.371 71.318 64.593 46.963 44.556 44.561 44.561 44.531 44.471 44.401 44.348 44.303 44.231 44.121 43.681 43.486 43.376 43.231 43.171 43.121 43.031 42.903 42.971 43.011 43.016 43.036 43.441 43.808 43.786 43.828 43.911 44.016 44.083 44.161 44.271 44.378 44.456 44.681 45.383 47.124 46.124 46.139 46.179 46.214 46.274 46.324 46.446 46.721 47.056 47.409 47.764 48.144 48.456 48.619 49.381 49.456 49.419 49.439 49.431 49.414 49.401 49.389 49.386 49.379 49.361 49.346 49.341 49.334 49.309 49.299 49.296 49.276 49.271 49.241 49.226 49.214 49.209 49.194 49.176 49.166 49.151 49.141 49.134 49.116 49.114 49.101 49.094 49.089 49.066 49.066 49.069 49.909 50.166 49.691 48.829 48.821 48.829 48.841 48.859 48.899 48.876 48.761 48.994 48.959 48.771 48.621 48.536 48.506 48.376 48.936 48.276 48.244 48.226 48.249 48.266 48.279 48.334 50.551 55.574 55.256 54.454 49.226 55.446 56.026 56.224 56.134 56.034 55.941 52.964 48.211 48.171 48.121 48.071 48.034 48.041 48.096 48.301 51.196 48.541 49.144 49.411 49.601 49.674 49.704 49.709 49.699 49.694 49.701 49.701 49.699 49.551 49.536 49.541 49.504 49.519 49.666 49.976 50.071 50.091 50.166 50.174 50.146 50.046 50.074 50.114 50.484 51.599 53.531 53.954 54.766 57.481 57.251 56.934 56.604 56.281 55.916 55.614 55.259 54.929 54.624 51.951 51.451 51.516 51.589 51.546 51.504 51.466 51.486 51.491 51.629 51.589 51.684 51.744 52.061 52.196 55.534 58.244 58.854 59.164 58.576 57.966 54.826 52.816 52.806 52.791 52.849 52.966 53.616 54.124 53.226 53.244 53.599 53.736 53.344 53.869 54.555 54.637 55.028 55.546 55.613 55.751 56.333 56.225 57.057 60.108 60.902 58.422 60.548 61.087 61.697 62.964 62.01 66.364 68.412 67.585 67.042 67.993 67.602 67.38 64.251 68.527 68.968 68.352 66.607 64.384 -9999 -9999 -9999 -9999 -9999 -9999 -9999 -9999 -9999 -9999 -9999 -9999 -9999 -9999 -9999 -9999 -9999 -9999 -9999 -9999 -9999 -9999 -9999 -9999 -9999 -9999 -9999 -9999
33.051 33.236 33.516 34.468 34.203 33.918 34.256 33.651 33.806 33.853 33.881 33.988 34.106 34.196 34.316 34.413 34.436 34.473 34.503 34.551 34.643 34.736 34.756 34.921 35.308 35.613 35.591 35.608 35.673 35.886 35.926 35.943 35.963 36.391 36.371 38.053 41.396 42.486 38.806 36.316 36.436 36.591 39.203 36.566 36.586 36.611 36.653 36.693 36.753 37.296 36.923 36.971 36.991 38.336 37.301 38.336 40.221 42.513 44.058 43.986 40.218 39.523 44.006 44.788 44.181 43.696 43.203 42.678 40.318 37.531 37.378 37.396 37.438 37.736 38.213 38.266 38.396 38.493 38.551 39.463 38.636 38.743 38.901 39.081 39.353 39.826 40.308 40.853 41.201 41.646 41.926 42.308 43.031 43.541 43.813 43.796 43.806 44.386 44.893 44.873 44.826 44.786 44.788 44.813 44.816 44.796 44.728 44.601 44.573 44.656 44.721 44.881 44.896 44.921 44.946 44.963 44.926 44.923 44.933 45.033 45.078 45.211 45.363 45.393 45.486 45.418 45.211 44.986 44.958 45.006 45.041 45.053 45.046 44.983 44.923 44.863 44.858 44.873 44.811 44.798 44.748 44.633 44.641 44.556 44.471 46.083 48.148 60.403 69.051 71.401 71.393 71.361 71.333 71.358 71.318 71.318 71.323 71.328 71.318 56.028 46.033 44.583 44.558 51.771 44.478 44.428 44.248 43.901 43.551 43.353 43.238 43.183 43.041 42.981 42.863 42.876 42.938 42.951 42.928 43.028 43.728 43.776 43.761 43.843 43.928 44.008 44.086 44.181 44.303 44.376 44.478 45.108 45.808 47.464 46.064 46.124 46.146 46.191 46.266 46.359 46.561 46.861 47.226 47.561 47.941 48.336 48.446 49.059 49.376 49.399 49.396 49.381 49.389 49.394 49.374 49.364 49.356 49.339 49.336 49.329 49.314 49.299 49.281 49.274 49.254 49.244 49.229 49.209 49.191 49.171 49.164 49.149 49.139 49.136 49.121 49.116 49.104 49.089 49.076 49.066 49.061 49.044 49.034 49.036 49.561 50.199 49.539 48.789 48.824 48.846 48.826 48.819 48.799 48.766 48.844 48.624 48.659 49.149 48.716 48.714 48.541 48.459 48.344 48.256 48.239 48.241 48.229 48.261 48.279 48.279 48.344 55.899 56.014 56.116 56.206 56.336 55.446 56.294 56.179 56.074 55.994 55.564 48.654 48.219 48.166 48.119 48.079 48.059 48.076 48.116 52.074 52.289 48.626 48.919 49.331 49.516 49.601 50.284 50.044 49.624 49.606 49.601 49.604 49.579 49.461 49.451 49.431 50.231 49.489 49.729 49.924 50.016 50.024 50.041 50.066 50.039 50.291 50.179 49.566 49.681 50.631 50.514 52.171 53.689 54.099 56.154 57.466 57.141 56.796 56.486 56.144 55.801 55.481 55.094 51.451 51.474 51.471 51.566 51.621 51.626 51.584 51.484 51.501 51.854 52.601 51.611 51.764 51.861 52.001 52.176 56.126 58.304 58.904 59.139 57.356 52.486 52.584 52.646 52.726 52.871 53.021 53.759 53.179 53.181 53.261 53.271 55.544 54.291 53.331 53.812 54.273 54.691 55.264 55.406 55.363 55.323 55.632 56.247 58.433 58.335 58.933 58.497 60.585 61.34 59.818 61.152 59.797 66.574 65.972 67.067 67.447 67.84 67.775 68.129 68.363 67.671 68.716 -9999 -9999 -9999 -9999 -9999 -9999 -9999 -9999 -9999 -9999 -9999 -9999 -9999 -9999 -9999 -9999 -9999 -9999 -9999 -9999 -9999 -9999 -9999 -9999 -9999 -9999 -9999 -9999 -9999 -9999
32.863 32.938 33.073 34.011 33.426 33.453 34.518 33.796 33.581 33.673 33.788 33.903 34.003 34.086 34.213 34.313 34.383 34.463 34.493 34.548 34.663 34.741 34.786 35.008 35.368 35.511 35.511 35.533 35.686 36.258 38.006 35.846 36.103 35.813 35.803 37.596 37.406 36.396 36.646 36.326 36.401 36.523 39.998 36.551 36.528 36.541 36.586 36.633 36.671 37.321 36.823 36.883 37.318 37.341 37.811 37.196 37.586 37.301 38.518 43.291 37.131 42.806 44.663 44.386 44.821 44.988 44.573 44.101 43.591 43.123 44.448 42.906 38.233 37.498 37.578 37.738 38.091 38.238 38.413 38.556 38.643 38.721 38.718 38.916 39.003 39.278 40.251 39.743 39.986 40.503 40.878 41.533 42.103 42.921 43.758 43.888 43.793 43.938 44.511 44.623 44.638 44.638 44.661 44.693 44.711 44.673 44.611 44.473 44.466 44.533 44.633 44.788 44.818 44.838 44.841 44.801 44.791 44.778 44.878 44.916 45.056 45.181 45.276 45.371 45.356 45.193 44.836 49.546 50.783 46.103 44.768 44.783 44.823 44.836 44.781 44.706 44.656 44.606 44.611 44.588 44.673 44.678 44.681 44.568 44.501 44.426 44.381 44.388 45.783 48.161 70.816 71.388 71.376 71.356 71.353 71.341 71.338 71.341 71.323 71.333 71.323 67.498 58.048 71.228 69.306 44.493 44.193 43.723 43.396 43.233 43.123 43.063 42.983 42.878 42.783 42.836 42.883 42.841 42.911 43.656 43.691 43.731 43.766 43.853 43.938 44.008 44.086 44.196 44.286 44.386 44.768 45.446 47.223 46.031 46.081 46.104 46.129 46.209 46.274 46.426 46.736 47.056 47.389 47.756 48.151 48.374 48.634 49.369 49.381 49.371 49.359 49.324 49.304 49.321 49.336 49.326 49.319 49.306 49.289 49.286 49.276 49.266 49.246 49.236 49.221 49.204 49.186 49.174 49.156 49.156 49.131 49.119 49.104 49.101 49.094 49.069 49.064 49.046 49.039 49.041 49.019 49.011 49.009 49.119 50.236 49.596 48.776 48.819 48.854 48.861 48.816 48.761 48.721 48.681 48.621 48.579 48.574 49.139 48.686 48.644 48.546 48.456 48.351 48.281 48.234 48.256 48.246 48.254 48.281 48.274 51.229 55.964 56.059 56.154 56.256 55.764 55.834 56.236 56.141 56.041 55.951 54.474 48.274 48.206 48.164 48.131 48.104 48.084 48.106 48.134 49.479 51.894 49.514 48.719 49.209 49.426 49.641 49.654 50.994 49.514 49.504 49.499 49.506 49.389 49.354 49.356 49.316 49.546 49.436 49.761 49.804 49.891 49.924 49.896 49.886 49.816 50.044 49.276 49.384 49.554 49.696 49.879 50.519 50.551 53.224 53.861 54.261 57.549 57.359 57.016 56.691 56.361 56.021 52.926 51.461 51.281 51.366 51.516 51.589 51.614 51.631 51.594 51.516 51.531 52.024 51.514 51.644 51.751 51.781 51.929 52.349 56.531 58.359 56.489 52.369 52.449 52.524 52.631 52.789 52.959 54.906 57.339 53.259 53.119 53.201 53.264 53.261 53.859 53.459 53.371 53.601 53.917 54.321 55.247 54.787 56.338 55.386 55.92 57.469 58.13 58.386 58.248 59.627 59.527 59.098 58.103 59.016 59.362 59.225 65.938 67.211 67.61 67.013 68.135 67.885 -9999 -9999 -9999 -9999 -9999 -9999 -9999 -9999 -9999 -9999 -9999 -9999 -9999 -9999 -9999 -9999 -9999 -9999 -9999 -9999 -9999 -9999 -9999 -9999 -9999 -9999 -9999 -9999 -9999 -9999 -9999 -9999
32.813 32.903 32.968 33.018 33.108 34.318 33.383 33.403 33.501 33.613 33.693 33.788 33.906 34.016 34.118 34.211 34.296 34.366 34.471 34.551 34.676 34.713 34.818 35.083 35.363 35.368 35.401 35.471 35.623 35.741 36.043 36.148 38.161 37.151 35.743 35.733 35.716 35.716 36.221 36.368 36.403 37.258 39.556 36.436 36.468 36.496 36.536 36.566 36.611 36.671 36.733 36.796 36.816 36.861 37.513 37.336 37.671 37.051 37.046 37.073 37.308 41.778 44.808 43.291 43.493 43.948 44.443 44.921 44.966 44.461 44.976 43.486 37.401 37.693 37.556 40.208 39.868 37.603 37.613 38.211 38.408 38.508 38.676 38.836 39.591 39.523 40.013 39.451 39.633 39.398 39.716 41.143 41.396 41.986 43.128 43.746 43.798 43.721 43.886 44.166 44.296 44.403 44.436 44.511 44.518 44.493 44.463 44.378 44.371 44.423 44.516 44.613 44.673 44.686 44.658 44.608 44.571 44.676 44.723 44.881 44.993 45.108 45.213 45.248 45.211 44.961 44.693 53.921 56.033 56.051 55.603 49.218 44.706 44.701 44.668 44.546 44.411 44.306 44.156 44.378 44.023 44.243 44.408 44.511 44.531 44.471 44.413 44.378 44.316 44.348 44.393 49.496 60.558 69.451 71.391 71.368 71.363 71.353 71.341 71.336 71.326 71.318 71.326 71.361 60.733 44.358 44.148 43.526 43.241 43.101 42.998 42.938 42.831 42.701 42.943 42.808 42.786 42.796 43.238 43.576 43.638 43.698 43.771 43.871 43.963 44.018 44.116 44.206 44.291 44.383 45.386 46.106 46.778 46.004 46.091 46.111 46.146 46.224 46.329 46.596 46.926 47.239 47.554 47.949 48.261 48.394 49.064 49.356 49.326 49.319 49.309 49.294 49.276 49.251 49.241 49.256 49.281 49.266 49.261 49.256 49.244 49.221 49.216 49.209 49.189 49.171 49.151 49.134 49.134 49.116 49.094 49.086 49.079 49.064 49.051 49.046 49.029 49.019 49.014 49.004 48.996 48.984 48.976 50.289 50.066 48.806 48.789 48.824 48.861 48.849 48.789 48.719 48.644 48.596 48.536 48.514 48.489 48.491 49.484 48.611 48.556 48.499 48.464 48.379 48.244 48.236 48.244 48.254 48.261 48.254 55.894 56.014 56.099 56.201 56.314 54.521 56.341 56.201 56.104 56.006 55.856 49.349 48.236 48.199 48.169 48.139 48.119 48.114 48.134 48.154 48.196 52.211 49.579 48.636 49.161 49.354 49.576 49.594 49.591 50.471 49.554 49.419 49.414 49.274 49.261 49.249 49.701 49.406 49.449 49.689 49.736 49.786 49.766 49.849 49.839 49.481 49.191 49.229 49.369 49.606 49.611 50.196 49.871 50.489 50.539 51.589 53.586 53.974 55.099 57.571 57.229 56.896 55.941 51.451 50.996 51.159 51.241 51.399 51.456 51.574 51.614 51.649 51.621 51.541 51.559 51.559 52.231 51.671 51.751 52.124 52.211 52.316 54.541 52.249 52.319 52.396 52.554 52.641 52.896 54.726 59.846 59.154 57.944 54.109 53.184 53.199 53.231 53.441 53.406 54.884 53.401 53.511 54.144 55.926 56.165 56.887 56.95 54.819 55.937 57.269 57.531 57.867 58.159 58.62 58.186 58.597 58.742 59.23 58.658 58.888 58.788 66.203 64.632 67.434 -9999 -9999 -9999 -9999 -9999 -9999 -9999 -9999 -9999 -9999 -9999 -9999 -9999 -9999 -9999 -9999 -9999 -9999 -9999 -9999 -9999 -9999 -9999 -9999 -9999 -9999 -9999 -9999 -9999 -9999 -9999 -9999 -9999
32.823 32.833 32.923 33.013 33.063 33.138 33.211 33.291 33.388 33.483 33.593 33.698 33.801 33.903 33.988 34.103 34.198 34.268 34.428 34.523 34.623 34.666 34.771 35.063 35.248 35.261 35.311 35.403 36.098 36.526 35.813 37.243 35.753 35.751 36.241 37.516 36.081 35.688 35.701 35.711 35.756 36.088 36.528 36.443 36.433 36.436 36.483 36.516 36.566 36.618 36.651 36.701 36.738 36.816 36.866 36.893 37.268 36.973 37.021 37.071 37.223 37.293 37.341 37.756 39.018 42.583 43.086 43.598 44.101 44.578 44.683 42.658 37.396 37.966 37.586 43.973 43.591 43.178 42.143 38.831 37.661 38.101 38.398 38.588 38.726 38.783 39.053 39.033 39.091 39.888 39.223 41.768 42.538 41.541 43.093 43.391 43.763 43.771 43.751 43.806 43.966 44.116 44.211 44.283 44.326 44.308 44.301 44.283 44.233 44.256 44.381 44.468 44.488 44.498 44.458 44.413 44.533 44.583 44.681 44.808 44.921 45.018 45.038 45.051 44.996 44.808 44.666 56.041 56.021 56.043 56.026 56.011 51.321 44.666 44.538 44.278 44.161 44.076 43.881 45.781 45.831 45.708 44.006 44.001 44.133 44.291 44.333 44.288 44.271 44.233 44.213 44.241 44.291 44.336 44.431 55.086 64.811 71.388 71.373 71.366 71.343 71.326 71.318 71.318 45.188 44.163 45.071 43.328 43.151 42.971 42.901 42.793 42.683 43.391 42.721 42.738 42.698 42.791 43.556 43.556 43.606 43.678 43.768 43.858 43.936 44.021 44.113 44.178 44.286 44.698 45.523 47.323 45.941 46.019 46.091 46.131 46.199 46.286 46.464 46.774 47.084 47.404 47.756 48.091 48.226 48.851 49.241 49.299 49.319 49.301 49.214 49.284 49.246 49.236 49.216 49.194 49.206 49.231 49.231 49.224 49.204 49.189 49.181 49.164 49.146 49.144 49.124 49.119 49.091 49.074 49.064 49.059 49.044 49.026 49.016 49.009 49.001 48.991 48.981 48.969 48.956 48.949 49.136 50.209 49.876 49.524 48.786 48.824 48.866 50.271 50.004 48.696 48.579 48.511 48.446 48.404 48.394 48.401 50.351 48.519 48.511 48.506 48.719 48.421 48.271 48.291 48.259 48.254 48.291 50.204 55.971 56.064 56.154 56.306 55.804 55.649 56.256 56.149 56.061 55.971 55.781 48.249 48.216 48.196 48.171 48.149 48.126 48.149 48.169 48.196 48.231 52.596 51.289 48.616 49.089 49.259 49.484 49.454 49.521 49.521 49.839 49.314 49.269 49.186 49.181 49.144 50.256 49.259 49.474 49.566 49.659 49.664 49.601 49.721 50.009 49.179 51.236 49.306 49.206 49.331 49.689 50.654 50.351 49.919 49.906 50.591 50.534 52.656 53.721 54.141 56.461 57.421 52.609 50.861 50.909 51.071 51.211 51.261 51.856 51.439 51.549 51.646 51.679 51.639 51.576 51.601 52.531 51.941 51.721 51.974 52.106 52.216 52.124 52.194 52.244 52.366 52.534 52.731 52.984 57.889 60.054 60.034 59.356 58.629 55.869 53.291 53.221 53.419 53.394 53.374 53.406 53.468 53.516 54.575 57.124 56.943 56.305 55.631 55.456 55.223 55.578 56.915 57.429 57.28 57.79 58.751 59.203 58.396 58.369 58.339 58.125 57.959 61.826 -9999 -9999 -9999 -9999 -9999 -9999 -9999 -9999 -9999 -9999 -9999 -9999 -9999 -9999 -9999 -9999 -9999 -9999 -9999 -9999 -9999 -9999 -9999 -9999 -9999 -9999 -9999 -9999 -9999 -9999 -9999 -9999 -9999 -9999
32.876 32.926 32.963 32.988 33.011 33.093 33.183 33.248 33.318 33.388 33.478 33.596 33.691 33.801 33.898 34.006 34.106 34.198 34.361 34.446 34.556 34.606 34.756 35.018 35.098 35.146 35.203 35.396 36.561 36.031 35.693 35.731 35.693 35.706 35.708 35.736 35.776 37.161 36.728 35.961 35.711 35.743 36.971 36.353 36.433 36.451 36.513 36.491 36.511 36.546 36.593 36.646 36.688 37.838 37.133 36.821 36.906 36.918 36.968 37.043 37.101 37.186 37.241 37.378 37.313 37.443 38.448 40.423 42.873 44.558 44.023 39.243 37.421 37.513 38.423 45.051 44.673 44.283 43.871 43.451 43.086 38.111 39.051 37.866 38.023 38.351 38.538 38.628 38.948 39.013 39.201 41.048 40.558 42.898 43.861 43.686 43.526 43.703 43.761 43.671 43.651 43.813 43.938 44.033 44.086 44.116 44.068 44.096 44.071 44.123 44.238 44.318 44.338 44.313 44.288 44.321 44.416 44.466 44.611 44.723 44.811 44.811 44.826 44.841 44.816 44.693 49.643 56.028 56.028 56.048 56.038 56.041 49.431 44.543 44.586 43.878 43.868 43.818 44.108 45.791 45.836 44.733 43.361 43.333 43.341 43.918 43.886 43.911 43.993 44.093 44.093 44.098 44.108 44.128 44.158 44.183 44.318 44.548 67.603 71.391 71.376 71.358 71.346 71.366 44.456 44.323 43.671 43.218 43.033 42.858 42.778 42.708 42.586 42.851 42.668 42.651 42.703 44.951 43.508 43.556 43.603 43.671 43.756 43.861 43.938 44.046 44.116 44.193 44.531 45.156 46.843 46.296 45.918 46.016 46.104 46.149 46.214 46.351 46.621 46.934 47.229 47.544 47.906 48.101 48.256 48.934 49.224 49.266 49.269 49.241 49.101 49.041 49.224 49.191 49.174 49.146 49.144 49.159 49.171 49.191 49.159 49.139 49.111 49.114 49.111 49.106 49.091 49.079 49.069 49.049 49.034 49.021 49.009 48.984 48.979 48.979 48.974 48.956 48.941 48.941 48.924 48.891 49.991 50.096 49.506 49.229 48.784 48.821 48.886 50.586 50.841 49.064 48.506 48.436 48.364 49.416 49.596 48.539 50.331 48.449 48.454 48.481 48.439 48.351 49.446 48.519 48.276 48.259 48.344 54.721 56.016 56.111 56.224 56.304 53.949 56.344 56.204 56.104 56.006 55.914 50.596 48.249 48.226 48.191 48.176 48.161 48.166 48.199 48.211 48.231 48.266 52.371 51.984 48.679 49.029 49.159 49.321 49.404 49.464 49.444 49.241 49.221 49.091 49.086 49.089 49.069 49.064 49.234 49.404 49.499 49.514 49.491 49.479 49.454 51.559 53.781 53.629 54.666 51.989 49.341 49.394 49.454 49.604 50.054 50.896 49.881 50.339 50.519 50.976 53.459 53.864 54.129 50.794 50.614 51.286 51.169 51.266 51.221 53.126 54.874 54.999 51.481 51.616 51.709 51.654 51.614 51.636 51.641 51.606 51.751 51.951 51.996 52.059 52.109 52.191 52.361 52.496 52.736 52.989 56.831 59.146 59.844 60.219 59.589 58.876 57.231 53.549 53.356 53.276 53.304 53.444 53.604 53.881 53.535 54.381 57.89 55.416 55.995 56.232 56.137 55.338 55.44 56.236 56.634 57.679 58.518 58.603 58.254 58.72 58.129 57.889 57.479 57.492 -9999 -9999 -9999 -9999 -9999 -9999 -9999 -9999 -9999 -9999 -9999 -9999 -9999 -9999 -9999 -9999 -9999 -9999 -9999 -9999 -9999 -9999 -9999 -9999 -9999 -9999 -9999 -9999 -9999 -9999 -9999 -9999 -9999 -9999
