ncols 430
nrows 32
xllcorner    431044
yllcorner    433694
cellsize     2
NODATA_value -9999
39.818 39.828 39.858 39.89 39.905 39.945 40.048 40.11 39.815 39.208 40.175 39.415 40.03 43.978 39.578 40.918 49.103 50.178 40.45 39.39 39.435 39.505 40.97 39.903 40.268 51.435 53.16 53.83 53.428 52.073 48.373 39.018 46.188 49.793 49.175 48.615 47.963 39.673 39.085 41.473 42.963 43.82 42.81 38.37 39.893 42.813 44.77 44.425 44.075 43.76 43.52 43.625 39.655 39.5 39.51 39.478 39.43 39.37 39.27 39.168 39.145 39.125 39.108 39.075 39.05 39.013 39.015 39.093 39.095 39.078 39.06 39.02 38.995 39.015 38.925 39.258 40.315 41.33 39.135 39.158 39.19 39.158 39.143 39.165 39.173 39.168 39.043 39.075 39.128 39.183 39.303 39.32 39.288 39.255 39.193 39.245 39.403 39.9 40.048 40.23 40.343 40.308 49.863 49.82 50.736 49.743 48.705 40.388 40.41 40.413 40.48 40.598 40.413 40.323 40.378 41.431 40.81 40.655 40.825 40.825 40.918 41.013 41.063 41.123 41.19 41.31 41.403 42.066 41.608 41.633 41.701 41.783 41.848 41.911 41.981 42.056 42.156 42.231 42.298 53.738 55.256 55.283 46.196 43.788 44.051 44.288 44.443 44.663 48.863 51.373 52.381 51.176 49.266 44.643 45.338 45.671 45.718 45.808 45.551 45.571 45.588 45.573 45.621 45.741 45.773 46.201 45.951 45.918 46.038 46.161 46.216 46.253 46.336 51.768 52.643 53.598 48.846 46.578 47.006 47.378 49.933 52.923 53.333 53.606 53.921 54.161 54.476 54.751 55.033 54.758 54.481 54.196 53.913 53.536 50.398 48.108 48.121 48.146 48.138 49.413 48.878 48.203 48.316 48.386 48.398 48.286 48.256 48.236 48.243 48.218 48.201 48.203 48.196 48.188 48.171 48.151 47.986 48.026 48.226 49.106 49.128 50.921 51.396 48.248 48.068 51.188 54.521 54.133 51.863 49.218 48.046 48.031 47.946 48.001 48.096 48.238 48.288 54.021 54.771 54.658 54.473 54.358 54.201 54.098 53.738 55.003 54.838 54.696 54.591 54.213 53.016 52.361 50.878 51.793 50.121 48.923 50.183 48.886 49.071 49.293 49.023 49.013 49.063 49.138 49.246 49.343 49.453 54.323 55.888 56.903 55.833 52.873 49.476 49.428 49.458 49.393 49.398 49.363 53.186 56.466 56.331 56.413 56.533 56.648 56.773 56.868 54.793 53.233 50.323 50.291 50.413 50.448 50.633 50.743 50.758 50.798 50.736 50.688 50.683 50.691 50.766 50.831 50.936 51.036 51.323 56.918 58.071 57.973 56.796 54.111 51.138 51.166 51.351 51.061 51.146 51.248 51.328 51.448 51.568 51.756 51.891 51.998 51.998 52.031 52.431 55.093 56.163 57.133 56.314 55.339 53.399 52.696 53.079 53.199 53.261 53.191 53.116 53.244 53.291 53.296 53.346 53.396 53.394 53.351 53.331 53.341 53.366 53.354 53.309 53.279 53.261 53.276 53.276 53.229 53.201 53.159 53.179 53.256 53.366 53.426 53.511 53.474 53.434 53.486 53.546 53.724 53.881 54.019 54.121 54.161 54.191 54.024 54.094 54.154 54.481 54.536 54.299 54.159 54.154 54.094 54.044 54.041 54.024 54.001 54.004 53.999 54.016 55.031 54.034 54.046 54.124 54.139 54.159 54.196 54.314 54.441 54.544 54.709 54.819 54.931 54.916 55.736 56.049 56.309 56.439 56.516 66.466 66.326 66.161 66.006 65.824 65.709 65.556 65.401 65.239 65.064 64.919 64.511 60.509 59.541 57.951 64.539 66.011 66.776 65.519 60.391 56.581 58.036 58.069 57.576
39.805 39.838 39.868 39.905 39.915 39.938 39.963 39.993 40.07 40.175 40.228 39.333 39.668 39.91 39.83 39.608 39.413 39.1 39.153 39.22 39.278 40.003 39.835 39.518 48.375 52.233 53.493 53.79 53.003 51.235 41.02 39.02 47.738 48.735 49.325 49.883 49.883 49.638 48.763 47.808 41.515 42.168 42.448 42.673 45.96 45.2 45.785 45.5 45.143 44.82 44.51 45.87 43.848 43.46 44.753 40.943 38.69 39.36 39.378 39.34 39.293 39.193 39.098 39.055 39.045 39.018 38.993 38.965 38.948 38.94 38.978 39.013 38.993 38.985 38.96 39.45 40.348 40.4 39.093 39.05 39.008 39.06 39.083 39.113 39.096 39.073 38.978 39.023 39.085 39.133 39.275 39.173 39.111 39.096 39.103 39.263 39.83 40.013 40.093 40.243 40.323 46.818 50.938 50.568 50.175 49.158 46.848 40.368 40.355 40.435 40.508 43.608 42.666 41.71 40.528 41.243 41.655 41.065 41.111 40.828 40.903 41.005 41.081 41.125 41.198 41.293 41.388 41.448 41.543 41.606 41.708 41.776 41.848 41.896 41.978 42.063 42.146 42.228 42.271 46.541 50.593 48.103 43.461 43.816 43.988 44.248 44.413 44.478 49.841 51.528 52.288 51.026 48.256 44.831 45.381 45.638 45.746 45.758 45.571 45.586 45.606 45.598 45.666 45.773 45.813 45.838 46.201 46.593 46.171 46.203 46.253 46.306 48.531 52.388 53.318 54.086 53.218 48.693 46.541 47.306 50.808 54.248 54.556 54.811 54.866 54.643 54.361 54.038 53.816 51.648 50.368 48.471 48.086 48.108 48.196 48.216 48.231 48.273 48.251 49.246 49.011 48.948 48.446 48.481 49.211 48.338 48.318 48.278 48.278 48.276 48.246 48.251 48.238 48.218 48.178 48.168 48.188 48.161 48.123 48.101 48.026 48.041 48.053 48.068 48.088 48.103 49.763 49.953 51.393 48.863 48.063 48.041 47.936 47.998 48.106 48.261 48.278 55.428 55.511 55.651 55.663 55.621 55.528 55.331 55.156 56.213 56.098 55.993 55.821 55.708 55.521 55.376 55.206 55.068 54.931 54.788 54.648 54.468 53.533 52.491 49.486 48.986 49.068 49.116 49.888 49.228 49.291 53.038 56.058 56.781 55.661 54.038 50.491 49.473 49.448 49.373 49.388 49.386 52.753 56.066 56.196 55.268 55.383 55.508 55.633 55.728 52.973 50.301 50.361 50.358 50.441 50.793 50.661 50.778 50.996 50.871 50.796 50.838 51.388 50.748 50.798 50.831 50.936 50.981 51.136 56.878 58.053 57.603 56.843 53.718 51.158 51.213 51.218 51.173 51.243 51.353 51.461 51.576 51.691 51.818 51.991 52.071 52.121 52.118 52.093 52.453 55.161 56.133 55.359 53.181 53.026 53.141 53.181 53.264 53.291 53.161 53.216 53.271 53.259 53.279 53.339 53.396 53.429 53.386 53.364 53.359 53.381 53.369 53.341 53.326 53.301 53.324 53.291 53.266 53.234 53.254 53.304 53.459 53.559 53.609 53.704 53.699 53.741 53.836 53.981 54.151 54.289 54.391 54.441 54.486 54.501 54.251 54.164 54.166 54.194 54.176 54.141 54.086 54.089 54.094 54.096 54.059 54.111 54.171 54.136 54.564 55.514 54.154 54.179 54.191 54.246 54.334 54.459 54.574 54.671 54.811 54.931 54.949 55.059 55.141 55.116 56.026 56.169 56.316 56.441 56.514 66.981 67.099 67.199 67.179 67.126 66.964 66.836 66.646 66.464 66.316 66.149 65.996 65.839 65.679 65.579 65.396 66.181 66.651 65.386 60.061 56.581 56.636 57.894 57.924
39.823 39.858 39.883 39.91 39.945 39.958 39.998 40.01 40.04 40.07 40.108 40.2 40.28 39.753 39.295 38.983 39.853 40.078 39.033 39.078 39.205 39.215 39.475 40.915 51.273 53.053 53.808 53.458 52.183 48.728 39.02 39.008 43.233 47.168 48.073 48.96 48.843 49.593 49.773 41.683 41.678 39.753 42.93 51.515 52.72 52.635 53.288 52.333 47.53 45.898 45.598 45.368 44.91 44.54 45.573 44.285 43.575 43.745 41.993 38.385 39.245 39.295 39.265 39.213 39.138 39.023 38.965 38.953 38.938 38.91 38.888 38.853 38.83 38.875 38.925 38.943 38.908 38.86 38.85 38.875 38.958 38.993 39.003 39.008 39.033 38.91 38.945 38.986 39.04 39.168 39.166 39.025 39.003 39.013 39 39.213 39.558 39.978 40.145 40.256 40.975 49.663 50.32 50.965 50.715 50.01 49.365 48.743 43.81 40.396 40.483 40.506 40.518 40.518 40.59 40.818 40.75 41.745 41.611 41.181 41.465 41 41.08 41.125 41.238 41.293 41.556 41.503 41.541 41.613 41.701 41.786 41.853 41.918 41.978 42.041 42.118 42.193 42.256 42.301 43.058 44.048 43.423 43.758 43.998 44.308 44.468 44.503 50.411 51.686 52.161 50.906 44.658 44.856 45.318 45.571 45.791 45.778 45.653 45.596 45.636 45.643 45.653 45.801 45.871 45.926 45.896 45.938 46.161 46.268 46.393 47.851 52.103 53.031 53.981 53.491 52.543 50.283 46.443 46.586 48.633 54.576 54.296 53.978 53.746 53.431 52.931 51.513 48.076 48.038 48.173 48.141 48.156 48.183 48.273 48.313 48.323 48.383 48.358 48.371 48.403 48.396 48.693 48.451 48.543 48.406 48.368 48.261 48.233 48.271 48.358 48.346 48.343 48.316 48.298 48.306 48.308 48.288 48.263 48.273 48.206 48.206 48.128 48.071 48.066 48.116 48.136 48.091 48.076 48.076 48.088 48.068 48.011 48.036 48.113 48.256 48.291 54.163 54.278 54.431 54.551 54.683 54.841 54.966 55.138 55.276 55.408 55.556 55.696 55.848 55.996 56.163 56.211 56.223 56.181 56.038 55.888 55.763 55.593 55.478 48.848 48.973 49.026 49.046 49.103 49.153 49.191 49.218 49.276 49.281 49.276 49.303 49.293 49.323 49.346 49.336 49.466 49.416 54.051 54.928 55.063 51.953 50.028 50.146 50.363 51.811 50.651 50.261 50.318 50.351 50.483 50.566 50.666 50.753 50.861 50.916 50.853 50.818 50.808 51.488 50.851 50.873 50.906 50.928 50.973 51.131 50.993 51.073 51.088 51.131 51.176 51.231 51.281 51.263 51.343 51.431 51.551 51.668 51.806 51.928 52.056 52.228 52.303 52.236 52.236 52.076 52.481 55.126 53.504 52.784 53.121 53.189 53.286 53.271 53.261 53.179 53.269 53.234 53.254 53.276 53.299 53.371 53.434 53.436 53.416 53.416 53.404 53.399 53.374 53.361 53.354 53.341 53.314 53.301 53.309 53.356 53.389 53.591 53.734 53.819 53.911 53.991 54.096 54.234 54.371 54.491 54.554 54.624 54.609 54.621 54.581 54.301 54.206 54.201 54.126 54.094 54.111 54.121 54.106 54.094 54.076 54.081 54.276 54.259 54.234 54.209 54.206 54.209 54.264 54.454 54.549 54.706 54.911 54.899 54.961 55.104 55.236 55.271 55.266 55.361 55.306 56.144 56.264 56.341 56.461 57.899 65.744 66.729 66.134 66.134 66.304 66.456 66.609 66.764 66.926 67.101 67.154 67.171 67.106 66.981 66.804 66.656 66.561 66.561 66.144 57.816 56.556 56.649 57.019 57.786
40.083 39.993 39.953 39.93 39.965 39.993 40.01 40.045 40.07 40.1 40.118 40.138 40.183 40.235 40.375 40.413 39.735 39 39.068 39.08 39.148 40.285 39.423 45.778 52.148 53.448 53.825 53.1 51.338 44.748 38.988 38.975 45.123 47.473 48.83 49.21 48.54 47.64 47.52 42.023 42.033 42.073 48.885 53.255 55.095 55.143 54.395 53.695 52.873 52.115 51.348 49.29 45.955 45.658 45.913 44.995 44.668 44.725 45.3 43.658 43.41 42.858 38.32 38.76 39.218 39.17 39.135 39.078 38.958 38.878 38.87 38.84 38.828 38.798 38.773 38.75 38.793 38.853 38.858 38.855 38.873 38.905 38.916 38.95 38.89 38.853 38.89 38.955 38.998 39.108 38.978 38.928 38.923 38.931 38.945 39.148 39.6 39.978 40.135 40.228 40.346 47.25 49.236 49.895 50.588 51.033 50.453 49.808 49.138 47.7 41.288 40.418 40.44 40.381 40.403 40.743 40.913 40.783 41.345 42.396 40.925 42.288 41.105 41.146 41.24 41.361 43.433 41.455 41.541 41.628 41.701 41.788 41.866 41.923 41.998 42.051 42.123 42.171 42.223 42.281 43.378 43.761 43.386 43.708 44.051 44.321 46.271 45.366 50.526 51.801 52.001 50.761 44.896 44.906 45.253 45.538 45.746 45.806 45.763 45.578 45.626 45.691 45.693 45.823 45.911 46.008 46.038 45.993 46.028 46.606 46.931 51.736 52.771 53.698 53.763 52.816 51.856 46.456 46.418 47.163 47.453 53.276 52.708 51.023 48.123 47.648 47.523 47.536 47.718 48.076 48.193 48.188 48.223 48.276 48.348 48.403 48.411 48.443 48.446 48.373 48.343 48.313 49.358 49.023 48.278 48.253 48.231 48.228 48.221 48.216 48.208 48.246 48.213 48.206 48.206 48.176 48.158 48.153 48.161 48.193 48.216 48.246 48.238 48.211 48.191 48.166 48.171 48.053 48.068 48.021 48.061 48.088 48.093 48.081 48.116 48.246 48.268 48.268 48.371 49.071 49.851 51.981 52.701 53.588 53.633 50.841 51.881 53.856 54.378 54.596 54.776 54.886 55.038 55.163 55.381 55.483 55.628 55.756 55.926 56.071 49.306 49.588 49.161 49.146 49.396 49.188 49.061 49.066 49.143 49.183 49.338 49.161 49.196 49.171 49.171 49.186 49.948 49.326 50.883 49.491 49.493 49.841 49.871 50.096 51.186 49.936 50.098 50.193 50.306 50.453 50.436 50.601 50.728 50.843 50.938 51.013 50.958 50.888 50.871 50.893 50.946 51.008 51.038 51.033 51.133 51.143 51.011 51.063 51.106 51.161 51.206 51.251 51.291 51.316 51.403 51.498 51.628 51.761 51.878 52.008 52.151 52.281 52.366 52.368 52.401 52.236 52.006 51.928 52.981 53.119 53.196 53.264 53.276 53.251 53.236 53.151 53.276 53.226 53.274 53.291 53.276 53.329 53.444 53.476 53.469 53.464 53.444 53.456 53.441 53.419 53.396 53.361 53.344 53.366 53.419 53.494 53.674 53.849 53.964 54.084 54.161 54.256 54.401 54.516 54.609 54.679 54.686 54.694 54.511 54.224 54.246 54.171 54.106 54.131 54.139 54.131 54.121 54.119 54.124 54.134 54.139 54.236 54.264 54.289 54.294 54.324 54.421 54.526 55.031 54.726 54.806 54.911 55.176 55.129 55.229 55.336 55.439 55.486 55.491 55.496 55.474 56.301 56.351 56.394 56.466 59.514 65.639 66.824 65.901 64.931 65.386 65.199 65.364 65.494 65.626 65.814 65.961 66.124 66.304 66.464 66.629 66.786 66.946 67.131 67.234 56.526 56.531 56.606 57.386 57.849
39.703 40.028 40.05 40.118 40.178 40.065 40.045 40.068 40.098 40.138 40.173 40.193 40.215 40.248 40.285 40.318 40.418 40.51 40.425 39.673 39.718 40.488 39.06 48.08 53.053 53.773 53.565 52.32 50.585 49.578 44.345 38.915 47.25 48.818 48.67 49.15 48.278 48.27 46.018 39.51 41.983 42.443 51.323 53.935 56.425 57.505 56.885 56.128 55.35 54.585 53.765 53.063 52.243 51.578 49.575 46.05 45.718 45.628 45.088 44.733 44.428 45.91 43.838 43.403 43.415 38.868 38.933 39.148 39.02 38.98 38.973 38.878 38.795 38.77 38.755 38.738 38.703 38.668 38.673 38.703 38.736 38.798 38.85 38.81 38.75 38.803 38.846 38.91 39.025 38.925 38.846 38.833 38.825 38.833 38.935 39.053 39.593 39.878 40.038 40.153 40.27 40.328 41.073 48.813 49.493 50.148 50.82 50.888 50.203 49.55 48.895 46.125 40.383 40.363 41.458 40.335 40.548 41.048 40.96 41.183 41.67 41.105 41.163 41.111 41.23 42.37 41.978 41.458 41.526 41.606 41.681 41.786 41.873 41.943 41.996 42.066 42.118 42.161 42.216 42.248 44.336 43.116 43.471 43.816 44.168 44.436 46.793 46.583 49.158 51.958 51.886 50.323 44.751 44.878 45.196 45.443 45.626 45.821 45.831 45.953 45.651 45.701 45.738 45.758 45.928 45.981 46.083 46.146 46.126 46.148 46.681 47.978 52.803 54.008 53.081 52.136 46.608 46.841 46.721 47.403 47.478 47.523 47.633 47.508 47.533 47.571 48.366 47.798 47.956 48.098 48.243 48.231 48.278 48.313 48.348 48.368 48.383 48.343 48.298 48.276 48.283 48.283 48.271 48.288 48.283 48.268 48.268 48.268 48.253 48.251 48.251 48.268 48.246 48.231 48.226 48.211 48.196 48.171 48.181 48.158 48.148 48.131 48.128 48.108 48.128 48.183 48.186 48.171 48.131 48.088 48.073 48.701 48.113 48.111 48.096 48.241 48.216 48.336 48.956 48.376 48.503 48.251 48.268 48.283 48.978 48.671 48.763 48.776 48.826 49.083 48.798 48.828 48.831 50.796 51.798 53.843 53.201 54.548 54.668 54.811 48.851 49.213 49.328 49.126 49.178 52.556 52.531 52.516 49.208 49.166 48.983 48.808 48.886 48.981 49.048 49.141 49.603 49.291 49.416 49.513 49.581 49.736 49.871 49.863 50.186 49.913 50.066 50.148 50.233 50.323 50.533 50.698 50.826 50.918 51.008 51.198 52.406 52.513 51.946 50.973 51.113 51.161 51.178 51.171 51.141 51.171 51.061 51.108 51.161 51.208 51.268 51.296 51.336 51.361 51.451 51.571 51.708 51.843 51.958 52.068 52.178 52.271 52.316 52.336 52.386 52.348 52.508 53.043 54.289 53.254 53.256 53.244 53.196 53.246 53.214 53.231 53.301 53.269 53.304 53.301 53.299 53.301 53.389 53.486 53.524 53.504 53.469 53.474 53.479 53.449 53.416 53.381 53.371 53.449 53.539 53.779 54.031 54.061 54.059 54.144 54.236 54.379 54.509 54.619 54.666 54.656 54.511 54.236 54.239 54.159 54.146 54.149 54.151 54.136 54.144 54.129 54.154 54.186 54.196 54.276 54.316 54.346 54.439 54.589 54.616 54.684 54.766 54.894 54.964 54.956 55.041 55.136 55.241 55.341 55.461 55.549 55.619 55.669 55.654 55.639 55.609 56.536 56.621 56.549 56.724 63.259 65.854 66.889 65.761 61.969 57.926 56.971 56.599 58.374 59.496 62.154 63.151 64.174 65.041 65.471 65.341 65.506 65.684 65.829 65.999 56.504 56.506 56.559 57.766 57.814
35.158 35.408 37.1 39.983 40.153 40.175 40.22 40.238 40.19 40.165 40.198 40.23 40.263 40.295 40.328 40.358 40.388 40.438 40.498 40.6 40.66 40.283 39 38.95 38.923 40.478 49.613 50.488 49.823 49.205 38.858 39.84 45.075 47.225 47.793 48.355 48.818 48.035 42.993 42.01 41.78 42.553 48.688 53.023 54.735 55.493 56.285 57.058 57.573 57.065 56.285 55.5 54.753 54.005 53.183 52.473 51.683 50.235 48.023 45.8 45.465 45.465 44.843 44.513 45.458 44.528 43.535 40.988 38.933 38.855 38.825 38.86 38.835 38.813 38.75 38.68 38.653 38.648 38.618 38.611 38.613 38.618 38.638 38.651 38.718 38.745 38.8 38.861 38.848 38.773 38.73 38.708 38.725 38.733 38.883 38.968 39.353 39.515 39.633 42.303 40.088 40.243 40.308 40.328 43.998 49.083 49.768 50.39 51.025 50.643 50.033 49.328 48.545 44.953 47.445 42.131 40.398 40.543 40.788 41.063 41.093 41.123 41.163 41.095 41.205 43.35 41.94 41.853 41.813 41.661 41.661 41.743 41.826 41.898 41.983 42.033 42.091 42.131 42.211 42.246 43.846 44.381 43.441 43.846 45.053 44.616 48.121 47.081 50.838 52.088 52.943 49.908 46.336 44.946 45.228 45.396 45.571 45.828 45.858 45.868 46.291 45.711 45.781 45.811 45.836 45.993 46.078 46.201 46.253 46.273 46.296 46.393 46.726 49.593 52.418 48.106 46.571 47.311 47.348 47.446 47.536 47.591 48.436 47.626 47.673 47.691 49.018 47.956 48.118 48.128 48.181 48.243 48.198 48.183 48.193 48.231 48.253 48.293 48.291 48.308 48.316 48.318 48.313 48.288 48.288 48.278 48.371 48.416 48.318 48.703 48.513 48.266 48.803 48.881 48.218 48.181 48.188 48.201 48.198 48.196 48.186 48.178 48.156 48.138 48.111 48.078 48.061 48.066 48.111 48.146 48.158 48.123 48.073 48.076 48.043 48.161 48.231 48.501 48.403 48.481 48.308 48.346 48.366 48.428 49.916 48.926 48.736 48.733 49.296 49.436 48.773 48.806 48.896 48.941 48.886 48.838 48.953 48.913 48.901 48.871 48.971 49.083 49.288 49.558 49.248 52.543 52.513 52.581 49.266 49.216 48.993 48.886 48.973 49.043 49.073 49.153 49.213 49.286 49.341 49.451 49.536 49.626 49.848 51.571 50.058 49.891 50.023 50.076 50.203 50.413 50.608 50.731 50.923 53.638 56.333 57.483 58.278 57.183 54.463 51.011 51.133 51.231 51.301 51.306 51.268 51.403 53.131 51.381 51.378 51.336 51.398 51.516 52.228 51.568 51.581 51.623 51.766 51.908 52.018 52.113 52.171 52.263 52.298 52.323 52.378 52.413 52.553 53.423 53.776 53.274 53.246 53.226 53.184 53.186 53.186 53.264 53.329 53.296 53.346 53.336 53.321 53.336 53.369 53.464 53.549 53.549 53.526 53.509 53.516 53.496 53.439 53.379 53.406 53.481 53.644 53.966 54.301 53.706 53.746 53.889 53.959 54.264 54.579 54.634 54.584 54.221 54.231 54.146 54.149 54.149 54.166 54.141 54.129 54.269 54.286 54.234 54.294 54.354 54.366 54.479 54.719 54.859 54.914 54.991 55.044 55.089 55.149 55.219 55.241 55.286 56.676 55.386 55.454 55.551 55.614 55.731 55.749 55.786 55.771 55.819 55.949 56.749 56.771 56.891 57.534 65.919 67.216 66.839 65.614 61.089 56.926 56.769 56.756 56.716 56.709 56.684 56.654 56.611 56.864 57.566 57.169 58.764 59.749 61.076 63.244 56.504 56.509 56.551 58.314 57.726
35.123 35.233 35.35 35.493 35.755 36.763 40.165 40.278 40.29 40.32 40.395 40.308 40.3 40.343 40.378 40.415 40.445 40.495 40.528 40.548 40.59 40.668 40.775 40.858 39.948 38.863 38.875 38.868 43.533 42.62 38.863 38.858 38.81 38.808 39.455 44.418 47.498 47.37 42.04 42.043 42.505 44.255 43.548 50.385 52.4 53.2 53.808 54.623 55.3 56.158 56.883 57.468 57.245 56.423 55.675 54.908 54.143 53.43 52.643 51.938 51.153 48.693 46.095 45.565 45.97 44.92 44.55 43.283 42.49 38.645 38.62 38.668 38.713 38.735 38.738 38.725 38.7 38.67 38.545 38.53 38.526 38.538 38.553 38.605 38.645 38.698 38.765 38.783 38.715 38.675 38.625 38.625 38.618 38.625 38.788 38.873 38.955 39.01 39.38 40.06 39.648 39.993 40.108 40.255 40.238 40.543 48.69 49.338 49.978 50.675 51.048 50.418 49.721 49.105 48.443 40.34 40.55 40.72 40.63 40.793 41.788 42.343 41.16 41.045 41.148 41.236 43.8 44.248 44.216 44.166 44.106 44.073 44.021 41.821 41.901 41.983 42.048 42.106 42.176 42.223 42.923 43.063 43.471 43.846 46.591 44.613 44.956 45.051 50.966 52.208 52.806 51.538 46.893 45.151 45.253 45.371 45.561 45.791 45.951 45.903 45.888 47.038 45.798 45.856 45.888 45.923 46.088 46.203 46.288 46.348 46.396 46.438 46.528 46.878 46.488 46.466 47.296 47.328 47.301 48.786 47.558 47.636 48.711 47.703 47.763 47.796 47.906 48.056 48.128 48.146 48.246 48.131 48.133 48.176 48.218 48.261 48.288 48.301 48.308 48.303 48.296 48.291 48.276 48.266 48.271 48.281 48.961 48.688 48.318 48.453 48.483 48.341 48.411 48.403 48.246 48.156 48.126 48.136 48.143 48.158 48.778 49.123 48.158 48.146 48.136 48.126 48.101 48.088 48.086 48.038 48.021 48.068 48.013 48.016 48.046 48.146 48.161 48.473 48.481 48.318 48.358 48.401 48.473 48.548 49.383 48.781 48.688 48.668 48.796 49.088 48.921 48.841 48.958 48.981 48.923 48.921 49.026 49.063 49.078 48.966 49.016 49.068 49.183 49.156 49.186 51.548 50.978 50.286 49.361 49.296 48.941 49.598 49.586 49.098 49.151 49.208 49.261 49.328 49.391 49.446 49.496 49.558 49.621 49.698 49.991 50.263 49.941 50.101 50.306 50.503 50.628 50.788 50.953 53.436 56.196 57.338 58.341 57.331 55.446 51.078 51.186 51.276 51.393 51.411 51.398 51.863 51.763 51.386 51.443 51.508 51.568 51.611 51.786 51.786 51.871 52.178 52.011 51.968 52.073 52.151 52.218 52.328 52.461 52.561 52.721 55.396 52.468 53.056 53.216 53.316 53.264 53.191 53.209 53.219 53.206 53.351 53.364 53.361 53.419 53.384 53.369 53.381 53.379 53.406 53.571 53.594 53.581 53.551 53.536 53.516 53.461 53.456 53.526 53.636 53.836 54.146 54.064 53.756 53.839 54.021 54.226 54.521 54.656 54.514 54.269 54.201 54.186 54.184 54.154 54.129 54.186 54.344 54.396 54.381 54.396 54.406 54.479 54.721 54.939 55.204 55.369 55.406 55.466 55.621 55.559 55.581 55.599 55.899 55.611 55.636 55.984 57.494 55.661 55.689 55.729 55.819 55.866 55.886 55.889 55.821 56.171 56.769 56.976 57.056 59.326 66.101 67.379 66.679 65.471 60.706 56.951 56.914 56.914 57.006 57.456 56.829 56.779 57.151 56.784 56.694 56.659 56.611 56.566 56.536 56.524 56.501 56.536 56.704 57.744 57.756
35.115 35.215 35.338 35.44 35.555 35.68 35.85 36.065 37.568 40.028 40.393 40.423 40.533 40.493 40.45 40.453 40.498 40.535 40.583 40.603 40.64 40.67 40.7 40.753 40.895 41.003 41.115 39.145 38.738 38.73 38.738 38.788 38.938 38.808 38.763 38.723 39.995 40.948 40.025 41.88 43.338 45.498 45.835 44.198 45.145 49.068 52.993 52.17 52.853 53.665 54.345 55.195 55.903 56.715 57.47 57.605 56.665 55.92 55.123 54.423 53.653 52.888 52.088 51.37 48.903 46.003 45.555 44.598 43.343 38.868 38.443 38.493 38.523 38.568 38.605 38.623 38.653 38.653 38.623 38.486 38.418 38.46 38.495 38.545 38.588 38.653 38.7 38.663 38.598 38.543 38.521 38.503 38.515 38.525 38.678 38.76 38.883 39.008 39.078 39.09 39.133 39.218 39.57 39.998 39.78 40.195 40.375 43.338 48.9 49.518 50.233 50.873 50.843 50.163 49.541 48.85 40.948 40.69 40.655 40.898 40.863 41.228 41.955 41.068 41.063 41.148 44.778 44.815 44.746 44.698 44.651 44.588 44.306 41.801 41.866 41.946 42.013 42.063 42.146 42.428 43.293 44.406 43.533 44.111 45.058 44.601 44.793 45.023 51.113 52.376 52.653 51.391 45.266 45.276 45.311 45.421 45.578 45.741 45.858 45.931 45.966 46.243 45.956 45.896 45.953 45.998 46.041 46.093 46.266 46.351 46.401 46.503 46.578 46.651 46.763 47.188 47.323 47.303 47.261 49.546 49.601 47.788 47.666 47.741 47.971 47.983 47.903 47.948 47.996 49.001 49.343 48.113 48.151 48.188 48.208 48.236 48.246 48.256 48.263 48.301 48.301 48.306 48.343 48.413 48.461 48.453 48.503 48.486 48.481 48.471 48.441 48.423 48.406 48.401 48.398 48.351 48.216 48.236 48.216 48.268 48.301 48.251 48.113 48.101 48.666 48.936 48.091 48.101 48.098 48.068 48.043 48.018 47.993 47.973 48.026 48.118 48.156 48.786 48.376 48.256 48.291 48.588 48.446 48.556 48.558 48.568 48.568 48.613 48.671 48.713 48.786 48.881 49.038 48.981 48.953 48.973 49.063 49.123 49.123 49.033 49.061 49.066 49.176 49.181 49.198 49.951 50.623 51.018 49.488 49.396 48.986 49.001 49.073 49.123 49.178 49.231 49.298 49.371 49.448 49.523 49.591 49.658 49.728 49.806 49.973 50.031 50.041 50.211 50.406 50.551 50.681 50.866 50.938 51.051 54.506 57.196 58.356 57.473 56.203 51.048 51.161 51.308 51.448 51.461 51.456 51.498 51.588 51.573 51.623 51.701 51.706 51.786 51.898 51.956 51.986 52.301 52.118 52.031 52.118 52.196 52.291 52.483 52.518 52.548 52.868 54.613 52.773 54.371 53.231 53.309 53.249 53.229 53.244 53.256 53.269 53.396 53.361 53.399 53.431 53.401 53.384 53.371 53.401 53.499 53.541 53.619 53.626 53.616 53.576 53.554 53.539 53.571 53.689 53.814 54.061 54.259 54.331 54.304 54.111 54.271 54.511 54.669 54.481 54.326 54.199 54.221 54.231 54.211 54.171 54.299 54.406 54.394 54.424 54.444 54.801 54.849 55.051 55.251 55.324 55.369 55.776 55.741 55.684 55.806 55.681 55.664 55.766 56.691 55.809 55.816 55.819 55.824 55.826 55.839 55.866 55.964 55.991 56.021 55.984 55.914 56.434 56.849 57.016 57.104 63.816 66.264 67.484 66.516 64.901 57.264 57.016 57.024 56.999 57.021 57.034 57.046 57.541 56.974 56.784 56.749 57.031 56.746 56.681 57.829 57.409 56.524 56.541 56.591 57.776 57.791
35.098 35.208 35.305 35.425 35.545 35.67 35.78 35.898 36.035 36.235 36.42 37.653 40.128 40.545 40.583 40.645 40.623 40.595 40.62 40.655 40.693 40.738 40.778 40.815 40.863 40.903 40.973 41.13 41.23 40.645 38.888 38.66 38.635 38.62 38.635 38.885 38.785 38.723 38.725 38.825 43.958 46.18 45.843 43.618 45.185 46.73 45.563 45.905 47.56 51.175 51.918 52.705 53.5 54.215 55.01 55.783 56.54 57.215 57.508 56.928 56.095 55.31 54.588 53.8 53.06 52.278 48.138 42.65 42.033 38.21 38.29 38.32 38.368 38.4 38.458 38.54 38.525 38.545 38.556 38.486 38.346 38.385 38.443 38.486 38.548 38.615 38.613 38.545 38.483 38.42 38.678 38.385 38.405 38.448 38.558 38.648 38.825 38.943 39.021 39.108 39.25 39.243 39.258 39.29 39.405 41.603 40.408 40.42 40.388 42.658 49.108 49.825 50.46 51.056 50.608 49.951 49.285 45.385 41.345 41.823 41.123 40.955 41.105 41.083 40.98 41.07 41.553 41.648 42.513 43.288 43.356 44.126 44.078 41.806 41.863 41.936 41.986 42.051 42.358 48.671 45.676 44.563 43.913 47.426 44.628 45.448 47.636 45.658 51.256 52.528 52.543 51.251 46.271 45.298 45.383 45.491 45.608 45.686 45.803 45.933 46.003 46.043 45.941 45.933 46.001 46.076 46.126 46.173 46.276 46.268 46.391 46.493 46.601 46.683 46.773 46.881 47.078 47.133 47.253 47.556 47.441 47.528 47.553 47.611 47.741 47.778 47.896 48.088 47.986 48.023 48.068 48.101 48.156 48.181 48.188 48.206 48.341 48.433 48.498 48.531 48.493 48.471 48.486 48.476 48.496 48.471 48.503 48.501 48.498 48.506 48.493 48.476 48.466 48.456 48.451 48.431 48.373 48.356 48.356 48.358 48.311 48.273 48.226 48.266 48.293 48.263 48.091 48.238 48.158 48.061 48.061 48.061 48.066 48.056 48.011 48.038 48.138 48.168 48.183 48.216 48.261 49.446 48.431 48.631 48.578 48.491 48.538 48.576 48.613 48.653 48.726 48.793 48.953 48.906 48.913 48.946 49.008 49.068 49.171 49.101 49.106 49.106 50.066 49.243 49.271 49.311 49.366 49.593 49.696 49.551 49.518 49.606 49.713 49.798 49.821 49.711 49.586 49.596 49.503 49.566 49.623 49.696 49.771 49.853 49.936 50.011 50.138 50.303 50.468 50.611 50.881 50.883 50.916 50.941 53.853 57.066 58.218 57.603 56.451 51.033 51.161 51.323 51.446 51.541 52.246 51.658 51.728 51.781 51.926 51.913 51.863 51.941 52.006 52.108 52.183 52.193 52.558 52.098 52.206 52.276 52.466 52.643 52.666 52.708 52.833 53.491 52.896 53.838 53.244 53.281 53.241 53.261 53.246 53.251 53.344 53.399 53.376 53.401 53.414 53.389 53.374 53.396 53.459 53.466 53.504 53.594 53.624 53.631 53.594 53.591 53.599 53.646 53.811 53.961 54.154 54.329 54.441 54.436 54.419 54.571 54.704 54.531 54.371 54.264 54.289 54.261 54.244 54.236 54.354 54.421 54.446 54.494 54.624 54.764 54.851 55.194 55.236 59.419 56.466 55.294 57.094 55.879 55.799 55.944 55.859 55.861 55.874 56.531 56.479 56.074 56.064 56.049 56.034 56.059 56.111 56.144 56.149 56.169 56.094 55.976 56.949 56.959 57.086 57.216 61.934 66.351 67.554 66.386 62.949 57.186 57.131 57.079 57.749 57.834 57.639 57.334 57.129 56.981 56.871 56.836 56.829 56.866 56.964 57.186 57.444 56.996 57.186 57.869 57.754 57.809
35.335 35.23 35.288 35.423 35.523 35.65 35.773 35.895 36.018 36.143 36.278 36.423 36.635 36.808 37.838 40.435 40.698 40.793 40.89 40.765 40.76 40.803 40.843 40.885 40.93 40.975 41.023 41.08 41.133 41.223 41.375 41.473 40 38.503 38.485 38.478 38.453 38.483 38.673 38.808 44.305 44.905 45.128 43.668 45.928 45.98 44.463 44.808 45.238 45.475 45.81 48.133 50.433 51.765 52.513 53.275 54.008 54.688 55.468 56.295 57.04 57.525 57.133 56.335 55.52 54.788 42.903 40.748 38.163 38.105 38.145 38.173 38.198 38.25 38.313 38.473 38.413 38.95 38.473 38.428 38.315 38.331 38.385 38.428 38.503 38.623 38.51 38.416 38.358 38.293 39.713 38.29 38.293 38.33 38.433 38.518 38.73 38.885 39.028 39.175 39.278 39.32 39.368 39.46 39.853 40.753 40.44 40.443 40.431 40.423 40.475 48.785 49.388 50.003 50.681 51 50.398 49.665 49.025 47.146 40.41 41.535 41.003 41.058 40.931 41.03 41.438 41.483 41.531 41.536 41.543 41.573 41.976 41.866 41.883 41.951 42.001 43.406 42.766 49.856 48.123 47.406 47.578 44.863 44.481 44.641 45.043 45.786 51.416 52.666 52.373 51.131 45.253 45.296 45.413 45.501 45.556 45.648 45.736 45.896 45.971 46.073 46.113 46.123 46.196 46.221 46.211 46.323 46.338 46.381 46.426 46.483 46.551 46.641 46.733 46.848 46.986 47.218 48.126 48.543 47.291 47.388 47.481 47.573 47.651 47.746 47.823 47.886 47.956 47.998 48.046 48.081 48.168 48.308 48.276 48.356 48.428 48.468 48.491 48.516 48.541 48.526 48.511 48.491 48.511 48.546 48.581 48.601 48.601 48.621 48.631 48.628 48.613 48.618 48.618 48.613 48.518 48.433 48.436 48.436 48.383 48.396 48.348 48.286 48.283 48.283 48.296 48.293 48.206 48.053 49.316 48.728 48.053 48.086 48.086 48.068 48.038 48.031 48.401 48.198 48.243 48.341 48.411 48.616 48.603 48.533 48.588 48.621 48.671 48.721 48.773 48.788 49.146 49.783 48.878 48.908 48.946 48.973 48.996 49.033 49.076 49.153 51.288 49.281 49.318 49.391 49.473 49.493 49.511 49.641 49.638 49.681 49.688 49.746 49.806 49.846 49.956 50.106 49.791 49.818 50.048 49.913 49.993 50.073 50.146 50.271 50.206 50.393 50.546 50.663 50.833 50.908 50.968 51.376 54.716 56.911 58.076 57.753 56.603 51.143 51.233 51.421 51.551 51.613 51.728 51.873 51.961 51.976 52.028 52.116 52.056 52.181 52.201 52.288 52.376 52.656 52.431 52.216 52.311 52.393 52.808 52.931 52.863 52.973 52.978 52.996 52.896 53.066 53.231 53.279 53.336 53.384 53.344 53.236 53.369 53.401 53.399 53.431 53.406 53.404 53.419 53.431 53.456 53.481 53.514 53.526 53.631 53.646 53.624 53.599 53.631 53.746 53.964 54.136 54.241 54.411 54.536 54.616 54.634 54.674 54.431 54.409 54.301 54.319 54.299 54.281 54.279 54.294 54.481 54.541 54.661 54.804 54.894 54.914 55.224 55.224 61.941 63.911 63.761 62.026 64.076 63.589 59.646 59.531 61.619 55.849 56.024 56.626 56.614 56.284 56.226 56.244 56.219 56.226 56.279 56.279 56.264 56.264 56.149 56.061 57.326 57.029 57.141 57.219 63.294 66.526 67.484 66.241 62.841 60.176 57.176 57.141 58.061 58.071 58.051 58.039 58.009 57.969 57.679 57.409 56.916 56.921 57.149 57.224 57.324 57.401 57.529 57.686 57.809 57.896
35.578 35.623 35.625 35.495 35.513 35.628 35.758 35.888 36.003 36.138 36.258 36.408 36.52 36.65 36.823 37.033 37.18 38.245 40.398 40.863 40.968 40.96 40.925 40.938 40.988 41.033 41.09 41.138 41.183 41.245 41.3 41.363 41.493 41.638 41.743 39.888 38.358 38.353 38.348 38.33 38.645 40.168 41.798 44.383 46.68 45.348 43.425 43.71 45.678 44.443 44.693 45.04 45.773 45.728 46.485 49.548 51.538 52.303 53.055 53.778 54.533 55.295 56.115 56.85 57.445 55.855 43.293 39.828 38.193 38.588 38.08 38.085 38.103 38.148 38.215 38.96 39.24 38.405 38.375 38.32 38.218 38.271 38.323 38.388 38.473 38.573 38.486 38.288 38.228 38.168 38.923 38.178 38.185 38.238 38.355 38.453 38.628 38.808 38.958 39.113 39.213 39.29 39.4 39.48 39.736 40.218 40.4 40.443 40.395 40.398 40.408 40.433 42.723 48.971 49.56 50.295 50.963 50.798 50.07 50.096 50.928 43.613 41.013 41.185 40.948 41.003 41.3 41.361 41.446 41.486 41.513 41.556 44.326 44.948 44.898 44.826 42.756 45.463 45.631 50.138 49.856 48.213 48.678 44.111 44.438 44.673 44.931 46.033 51.531 52.831 52.236 50.926 46.933 45.301 45.366 45.431 45.473 45.588 46.438 45.718 45.928 46.048 46.176 46.231 46.358 46.446 46.466 46.391 46.436 46.501 46.526 46.588 46.638 46.701 46.786 46.871 47.041 47.541 47.856 47.576 47.311 47.388 47.481 47.578 47.651 47.738 47.796 47.863 47.903 47.963 48.096 48.283 48.336 48.406 48.388 48.411 48.443 48.558 48.618 48.646 48.661 48.626 48.501 48.461 48.543 48.563 48.596 48.621 48.671 49.018 50.836 50.806 50.101 48.661 48.643 48.643 48.528 48.433 48.461 48.528 48.598 48.596 48.558 48.523 48.448 48.328 48.246 48.246 48.268 48.273 48.246 48.133 48.003 48.036 48.068 48.091 48.106 48.106 48.083 48.128 48.211 48.268 48.381 48.641 48.618 48.593 48.631 48.686 48.728 48.766 48.808 48.841 48.873 48.908 48.931 48.948 48.976 48.998 49.026 49.028 49.118 49.203 51.816 49.303 49.378 49.471 49.558 49.623 49.653 49.701 49.781 49.811 49.836 49.886 49.843 49.893 49.963 50.043 49.943 50.016 50.078 50.136 50.181 50.263 50.403 51.618 50.401 50.481 50.611 50.703 50.848 50.906 50.961 51.071 54.286 56.796 57.918 57.878 56.743 51.108 51.203 51.448 51.608 51.713 51.788 52.026 52.651 52.853 52.223 52.496 52.428 52.516 52.378 52.533 52.796 52.856 52.816 52.351 52.443 52.516 52.968 52.968 53.116 53.163 53.501 53.116 53.311 53.213 53.174 53.284 53.351 53.414 53.306 53.289 53.416 53.421 53.399 53.431 53.471 53.489 53.459 53.431 53.436 53.466 53.506 53.551 53.614 53.659 53.646 53.671 53.731 53.929 54.126 54.266 54.389 54.509 54.631 54.719 54.684 54.404 54.386 54.306 54.341 54.319 54.301 54.324 54.346 54.391 54.571 54.729 54.836 54.939 54.979 55.056 55.111 55.224 62.844 65.169 64.996 64.919 65.301 65.144 65.009 64.856 64.681 64.559 64.469 64.876 62.421 63.539 61.169 60.514 57.561 56.364 56.399 56.381 56.354 56.311 56.206 56.134 57.324 57.106 57.194 57.231 65.461 66.681 67.351 66.066 61.326 58.336 57.271 57.221 58.281 58.391 58.411 58.421 58.466 58.431 58.371 58.291 58.184 58.076 57.811 57.814 57.824 57.861 57.869 57.954 58.006 58.104
36.175 35.815 35.795 35.8 35.83 35.668 35.74 35.878 35.998 36.125 36.278 36.385 36.51 36.638 36.778 36.898 37.035 37.25 37.43 37.568 38.795 40.748 41.083 41.19 41.125 41.098 41.148 41.198 41.26 41.31 41.375 41.43 41.488 41.55 41.628 41.79 41.91 41.335 39.593 38.235 38.505 38.203 38.2 38.198 38.158 41.198 38.09 38.965 42.725 43.448 43.618 44.795 44.913 44.605 44.95 45.713 45.663 45.96 48.338 51.355 52.098 52.848 53.6 54.385 55.1 46.948 43.43 38.083 37.988 38.125 38.208 38.003 38.023 38.075 38.308 39.563 38.883 38.3 38.258 38.225 38.15 38.2 38.256 38.35 38.49 38.443 38.355 38.253 38.096 38.06 38.06 38.063 38.073 38.108 38.23 38.325 38.51 38.66 38.858 39.053 39.143 39.25 39.38 39.55 39.868 40.206 40.388 40.408 40.368 40.39 40.355 40.378 40.4 40.46 46.23 49.193 49.875 50.51 51.013 50.795 50.53 49.435 46.195 41.753 41.01 41.003 41.238 41.268 41.378 41.446 41.498 41.551 45.573 45.491 45.421 45.361 42.808 45.428 45.478 50.081 48.833 50.113 44.276 43.996 44.461 44.728 45.003 45.468 50.176 52.656 51.953 50.061 45.178 45.231 45.263 45.353 45.306 45.411 45.498 45.651 45.788 45.978 46.253 46.518 46.383 46.473 46.583 46.593 46.588 46.558 46.611 46.646 46.688 46.751 46.806 46.871 46.978 47.048 47.113 47.201 47.278 47.361 47.433 47.516 47.611 47.681 47.783 47.871 47.966 48.103 48.226 48.293 48.316 48.413 48.468 48.373 48.433 48.521 48.621 48.681 48.633 48.578 48.476 48.438 48.621 48.681 48.718 48.723 48.721 51.453 55.438 55.906 53.671 48.743 48.971 48.826 48.598 48.441 48.463 48.593 48.668 48.658 48.643 48.621 48.583 48.553 48.476 48.391 48.268 48.266 48.241 48.233 48.138 48.166 48.058 48.068 48.098 48.128 48.141 48.146 48.146 48.223 48.331 48.551 48.668 48.751 48.803 48.823 48.868 48.888 48.896 48.911 48.936 48.963 48.953 48.961 48.993 49.016 49.028 49.056 49.166 49.218 51.843 49.348 49.441 49.548 49.646 49.751 49.758 49.788 49.851 49.903 49.946 49.943 49.928 49.973 49.996 50.088 50.031 50.176 50.238 50.273 50.341 50.436 50.596 51.126 50.556 50.576 50.653 50.738 50.871 50.916 51.428 51.441 53.946 56.656 57.783 58.018 56.871 52.428 51.216 51.486 51.691 51.798 51.971 55.138 57.958 57.973 56.856 56.928 56.928 56.353 57.191 52.888 52.976 52.808 53.128 52.476 52.576 52.636 53.736 53.051 56.666 56.118 57.076 57.301 57.438 53.086 53.141 53.251 53.354 53.394 53.289 53.354 53.434 53.429 53.439 53.491 53.536 53.526 53.496 53.461 53.471 53.516 53.576 53.576 53.619 53.674 53.671 53.706 53.811 54.046 54.269 54.396 54.516 54.604 54.701 54.751 54.526 54.366 54.306 54.344 54.354 54.316 54.321 54.366 54.406 54.449 54.619 54.796 54.859 54.944 55.001 55.056 55.171 55.219 64.749 64.981 65.136 65.519 66.069 66.191 66.184 66.104 65.971 65.826 65.939 66.099 65.944 65.991 67.064 66.029 64.791 56.431 56.469 56.496 56.439 56.356 56.291 56.224 57.234 57.256 57.376 58.476 65.679 66.821 67.184 65.941 57.206 57.299 57.339 57.771 58.499 58.646 58.751 58.859 58.931 58.969 58.936 58.909 58.836 58.764 58.631 58.611 58.631 58.609 58.554 58.474 58.476 58.519
37.23 36.66 36.95 36.048 36.025 36.038 35.968 35.878 36.008 36.13 36.255 36.375 36.513 36.635 36.76 36.903 37.268 37.873 37.71 37.443 37.645 37.808 35.82 39.375 40.365 41.285 41.328 41.308 41.323 41.365 41.435 41.503 41.573 41.633 41.678 41.76 41.828 41.92 42.085 42.21 42.073 39.093 38.128 38.12 38.103 38.06 38.028 38 37.985 37.965 37.978 42.253 43.77 43.528 44.023 45.8 44.555 44.88 45.25 45.595 46.088 48.613 51.163 51.925 52.638 43.018 41.325 38.01 37.935 37.925 37.913 37.948 37.978 38.223 39.21 39.648 38.228 38.175 38.135 38.021 38.065 38.123 38.215 38.293 38.393 38.32 38.263 38.178 37.973 37.955 37.955 37.965 37.975 37.995 38.113 38.203 38.346 38.56 38.753 38.965 39.105 39.268 39.51 39.778 39.975 40.181 40.34 40.405 40.4 40.37 40.348 40.365 40.343 40.365 40.428 41.473 48.788 49.528 50.368 50.935 49.853 47.49 40.498 41.128 41.028 40.995 41.138 41.313 41.308 41.396 41.493 41.576 42.351 43.308 43.823 44.306 44.003 45.403 46.951 52.963 52.508 52.563 50.371 44.211 44.326 44.588 44.958 45.161 45.283 45.471 45.301 45.163 45.086 45.116 45.278 45.136 45.128 45.273 45.418 45.528 45.601 45.818 46.218 46.211 46.386 46.646 46.576 46.646 46.693 46.656 46.638 46.671 46.711 46.756 46.818 46.878 46.946 47.023 47.106 47.168 47.241 47.336 47.491 47.616 47.763 47.878 47.928 47.996 48.106 48.161 48.928 48.751 48.208 48.326 48.371 48.286 48.396 48.518 48.543 48.568 48.571 48.491 48.438 48.418 48.588 48.663 48.781 48.718 48.708 54.071 55.541 55.681 54.161 48.716 48.868 48.623 49.891 48.516 48.468 48.631 48.713 48.726 48.713 48.696 48.648 48.631 48.608 48.541 48.341 48.353 48.376 48.306 48.233 48.216 48.246 48.211 48.098 48.121 48.158 48.316 48.183 48.178 48.266 48.361 48.541 48.636 48.763 48.793 48.886 48.941 48.958 49.003 49.018 49.011 49.051 49.086 48.991 49.006 49.053 49.071 49.198 49.291 49.598 49.401 49.508 49.613 49.708 49.908 51.011 51.836 51.708 51.816 51.861 50.776 51.433 50.548 50.018 50.123 50.253 50.288 50.366 50.423 50.526 50.603 50.768 50.616 50.648 50.651 50.696 50.786 50.883 50.941 51.046 50.981 50.898 56.496 57.656 57.766 54.708 51.186 51.818 51.513 51.898 51.841 52.003 55.861 59.133 59.133 58.953 58.968 58.973 58.973 59.003 57.838 58.098 58.336 53.933 52.623 52.703 52.773 54.056 53.108 59.511 59.526 59.566 59.551 59.581 53.256 53.161 53.309 53.359 53.399 53.284 53.441 53.459 53.436 53.491 53.549 53.569 53.579 53.544 53.524 53.529 53.574 53.604 53.629 53.636 53.634 53.691 53.754 53.909 54.181 54.416 54.529 54.591 54.689 54.759 54.736 54.354 54.309 54.339 54.354 54.351 54.339 54.349 54.406 54.421 54.451 54.596 54.836 55.361 54.811 54.894 54.946 55.081 55.226 62.484 63.714 63.891 64.361 64.784 64.956 65.144 65.271 65.416 65.589 66.104 66.464 66.584 66.681 67.044 65.846 64.209 56.474 56.521 56.544 56.499 56.401 56.356 56.676 57.386 57.381 57.569 61.644 66.961 68.079 67.054 65.219 61.014 57.974 58.624 58.546 58.604 58.711 58.816 58.951 59.121 59.189 59.221 59.271 59.339 59.381 59.371 59.384 59.406 59.436 59.346 59.204 59.294 59.334
36.243 36.353 37.108 38.96 36.31 36.248 36.235 36.185 36.015 36.138 36.248 36.38 36.505 36.633 36.775 36.898 37.025 37.16 37.28 37.43 37.56 37.683 37.84 38.045 37.428 37.263 39.025 40.423 41.545 41.543 41.54 41.588 41.643 41.708 41.765 41.83 41.903 41.96 42.03 42.113 42.215 42.395 42.515 41.945 38.248 38.013 37.993 37.963 37.933 37.905 37.903 37.92 37.918 37.928 41.353 44.175 43.45 43.803 45.56 44.533 44.79 45.148 45.828 45.825 49.065 43.605 40.03 37.928 38.325 38.383 37.858 37.885 37.928 38.16 39.103 38.148 38.153 38.03 38.018 37.935 38.013 38.09 38.175 38.283 38.253 38.203 38.118 38.05 37.878 37.865 37.858 37.865 37.88 37.873 38.006 38.098 38.236 38.398 38.638 38.931 39.096 39.335 39.6 39.853 39.973 40.168 40.291 40.363 40.385 40.368 40.348 40.353 40.378 40.378 40.378 40.51 48.855 49.935 51 50.288 49.198 42.08 40.733 41.486 41.048 41.025 41.123 41.25 41.326 41.446 41.548 41.633 42.163 42.198 42.243 42.281 42.318 42.328 42.931 51.703 51.468 51.986 48.308 44.353 44.396 44.996 46.443 46.896 46.183 46.778 46.601 44.951 45.001 45.286 45.043 44.961 44.941 44.931 45.061 45.213 45.341 45.606 45.843 46.136 47.511 46.401 46.511 46.813 46.693 46.706 46.608 46.638 46.671 46.738 46.766 46.848 47.051 47.198 47.386 47.373 47.423 47.543 47.633 47.696 47.783 47.871 47.961 48.006 48.098 48.151 49.726 51.728 49.658 48.213 48.221 48.258 48.286 48.306 48.328 48.311 48.361 48.381 48.383 48.388 48.526 48.598 48.681 48.711 48.756 54.461 55.701 55.541 53.008 49.438 48.701 48.688 49.461 48.478 48.481 48.631 48.733 48.766 48.771 48.746 48.693 48.686 48.658 48.586 48.396 48.438 48.501 48.476 48.416 48.343 48.246 48.256 48.291 48.233 48.143 48.176 49.546 48.383 48.233 48.293 48.401 48.551 48.666 48.793 48.813 48.906 48.978 49.023 49.051 49.021 49.058 49.086 49.108 49.031 49.063 49.083 49.223 49.266 49.348 49.468 49.558 49.666 49.751 50.088 50.526 53.296 53.296 53.288 53.286 53.278 53.263 53.246 50.178 50.168 50.278 50.411 50.381 50.406 50.973 53.088 54.813 55.863 50.736 50.726 50.746 50.841 50.903 51.131 51.223 54.258 55.643 55.268 53.881 51.093 51.101 51.166 51.241 51.478 51.783 51.873 51.983 55.783 58.691 58.658 59.741 59.751 59.703 59.716 59.701 59.631 59.651 59.593 53.151 52.741 52.846 52.896 53.208 53.058 60.368 60.376 60.406 60.373 60.396 53.113 53.189 53.381 53.431 53.436 53.299 53.511 53.511 53.484 53.524 53.584 53.629 53.614 53.596 53.564 53.594 53.639 53.654 53.701 53.669 53.616 53.696 53.739 53.951 54.206 54.466 54.636 54.731 54.784 54.799 54.556 54.341 54.351 54.361 54.364 54.461 54.466 54.484 54.504 54.439 54.491 54.499 54.696 54.836 54.789 54.866 54.944 55.109 55.159 55.269 55.806 58.921 59.204 56.516 59.836 62.804 61.234 63.231 64.354 65.029 64.744 65.336 66.201 66.989 65.711 62.236 56.509 56.544 56.571 56.516 56.436 56.434 56.874 57.446 57.544 57.724 65.384 67.081 68.081 66.861 63.934 60.496 58.264 58.869 58.599 58.546 58.626 59.551 59.924 60.244 59.064 59.141 59.226 59.319 59.419 59.584 59.706 59.801 59.846 59.879 59.876 59.979 60.006
36.713 36.41 36.575 36.538 36.58 36.425 36.458 36.415 36.32 36.16 36.268 36.405 36.538 36.65 36.765 36.895 37.02 37.518 38.083 37.448 37.57 37.685 38.278 38.603 38.058 38.25 38.453 37.473 36.303 39.22 41.6 41.74 41.8 41.798 41.838 41.913 41.975 42.048 42.11 42.183 42.258 42.343 42.41 42.518 42.7 42.825 41.388 37.933 37.893 37.865 37.85 37.84 37.825 37.83 37.833 37.795 37.79 38.565 42.983 43.545 43.68 44.633 45.068 44.723 43.685 42.353 37.95 37.835 37.81 37.798 37.803 37.82 37.86 37.905 37.943 38.033 38.005 37.905 37.798 37.888 37.968 38.045 38.173 38.223 38.13 38.07 37.995 37.923 37.768 37.765 37.773 37.793 37.803 37.778 37.908 37.968 38.1 38.288 38.523 38.758 39.07 39.435 39.698 39.96 40.306 40.245 40.278 40.313 40.338 40.343 40.328 40.328 40.333 40.348 40.431 46.403 49.518 50.598 50.723 49.643 47.008 40.628 41.448 41.06 41.08 41.058 41.153 41.255 41.378 41.488 41.583 41.696 41.998 42.061 42.143 42.188 42.243 42.278 42.511 42.561 43.316 45.586 43.371 43.666 43.941 44.481 44.311 44.403 44.506 44.521 44.706 44.758 45.121 44.971 44.791 44.778 44.763 44.753 44.798 44.888 45.108 45.398 45.616 45.951 45.828 45.881 45.918 46.366 46.651 46.666 46.608 46.598 46.638 46.673 46.716 46.908 47.133 47.271 47.328 47.401 47.458 47.558 47.641 47.748 47.923 47.896 47.976 47.958 48.051 48.101 48.131 48.183 48.571 48.268 48.283 48.263 48.276 48.311 48.313 48.386 48.788 48.341 49.363 48.356 48.441 48.521 48.581 48.648 49.013 54.593 55.848 55.403 51.731 49.261 48.773 49.328 48.468 48.416 48.488 48.623 48.743 48.801 48.796 48.798 48.763 48.741 48.698 48.618 48.463 48.541 48.588 48.578 48.568 48.561 48.488 48.371 48.278 48.308 48.328 48.203 48.208 48.256 48.296 48.296 48.313 48.436 48.611 48.748 48.803 48.866 48.946 49.031 49.071 49.021 49.046 49.066 49.096 49.038 49.058 49.113 49.228 50.116 50.561 49.508 49.608 49.703 49.793 50.253 51.701 53.358 53.361 53.363 53.351 53.323 53.323 53.313 50.238 50.266 52.683 54.201 55.226 55.831 56.001 56.438 56.988 57.156 50.758 50.761 50.786 50.888 50.918 51.056 51.103 54.106 55.486 55.438 54.063 53.671 54.021 52.963 51.268 51.453 51.821 51.978 52.011 55.206 57.291 57.451 58.571 58.573 58.591 58.581 58.546 59.936 59.898 59.878 52.843 52.891 52.961 53.018 53.861 53.063 59.261 59.243 59.241 59.263 59.216 53.143 53.259 53.399 53.449 53.424 53.366 53.546 53.544 53.511 53.541 53.579 53.609 53.644 53.666 53.686 53.686 53.691 53.716 53.741 53.694 53.651 53.691 53.831 53.961 54.274 54.546 54.736 54.831 54.849 54.836 54.466 54.379 54.406 54.379 54.519 54.574 54.644 54.659 54.631 54.604 54.504 54.579 54.619 54.669 54.759 54.869 54.961 55.136 55.179 55.249 55.349 57.471 56.961 55.846 58.966 59.116 55.864 56.926 59.429 56.986 57.624 65.136 66.354 66.829 65.586 58.844 56.511 56.539 56.574 56.526 56.484 56.476 57.214 57.486 57.629 57.814 65.999 67.256 67.971 66.719 62.034 57.809 58.344 58.451 58.779 59.059 59.004 59.114 58.876 58.949 59.031 59.101 59.174 59.236 59.321 59.384 59.519 59.624 59.724 59.829 59.916 60.009 60.084
36.333 36.343 37.195 36.72 36.953 36.85 36.698 36.623 36.65 36.485 36.308 36.413 36.533 36.668 36.765 37.025 37.22 37.253 37.293 37.42 38.128 38.403 37.815 37.98 38.123 38.205 38.348 38.455 38.678 38.845 38 37.088 38.513 41.96 41.93 42.04 42.038 42.115 42.74 42.575 42.34 42.413 42.5 42.568 42.65 42.733 42.845 43.015 43.133 42.343 37.875 37.77 37.76 37.743 37.728 37.713 37.715 37.698 37.673 37.645 38.023 42.638 44.343 43.623 37.9 39.438 37.838 37.77 37.753 37.743 37.755 37.76 37.803 37.853 37.883 37.97 37.805 37.773 37.736 37.84 37.91 37.988 38.118 38.065 38.008 37.933 37.875 37.81 37.653 37.67 37.688 37.723 37.72 37.705 37.798 37.846 37.988 38.151 38.375 38.673 39.09 39.495 39.775 39.963 40.225 40.323 40.288 40.3 40.31 40.285 40.291 40.313 40.328 40.393 40.473 49.133 50.155 51.063 50.083 48.978 40.548 40.748 41.438 41.105 41.113 41.115 41.168 41.283 41.396 41.508 41.768 42.861 42.123 41.953 42.046 42.136 42.208 42.483 43.188 42.798 42.733 42.961 43.261 43.563 43.793 43.988 44.453 44.198 44.238 44.338 44.908 44.801 46.408 50.963 50.818 50.693 50.553 50.368 49.641 44.968 51.176 51.051 49.731 49.918 46.018 45.823 45.413 46.176 46.578 46.608 46.606 46.513 46.561 46.613 46.801 46.971 47.133 47.338 47.448 47.326 48.296 47.563 47.538 47.576 47.603 47.678 47.861 47.908 47.996 48.031 48.023 47.993 48.033 48.203 48.268 48.258 48.286 48.398 48.428 48.433 48.478 49.218 50.613 48.391 48.501 48.551 48.593 48.663 50.068 54.738 56.006 55.286 50.718 48.933 48.778 50.031 48.443 48.391 48.408 48.583 48.676 48.763 48.831 48.858 48.823 48.783 48.743 48.648 48.546 48.606 48.633 48.651 48.696 48.703 48.651 48.558 48.361 48.368 48.333 48.398 48.308 48.246 48.308 48.346 48.353 48.353 48.486 48.688 48.801 48.873 48.963 49.016 49.056 49.018 49.056 49.071 49.103 49.081 49.061 49.103 49.241 51.511 50.991 49.528 49.651 49.768 49.863 50.261 52.046 53.351 53.358 53.361 53.346 53.343 53.338 53.336 50.331 50.303 55.233 56.631 56.803 56.973 57.111 57.431 58.131 58.178 52.116 50.713 50.826 50.916 50.956 51.071 51.101 53.943 55.316 55.608 55.073 55.241 55.258 53.946 51.276 51.611 51.863 52.073 52.456 52.118 52.103 53.871 54.126 53.696 56.396 54.873 54.236 58.768 58.746 58.458 52.951 52.996 53.078 53.131 53.258 53.083 57.531 54.951 54.921 55.526 57.041 53.401 53.404 53.474 53.486 53.394 53.411 53.576 53.536 53.516 53.549 53.594 53.651 53.689 53.741 53.774 53.751 53.761 53.774 53.749 53.721 53.751 53.931 54.059 54.014 54.314 54.654 54.771 54.801 54.781 54.649 54.524 54.444 54.439 54.541 54.684 54.641 54.706 54.729 54.711 54.686 54.639 54.616 54.639 54.674 54.744 54.861 54.954 55.836 55.651 55.246 55.304 56.041 55.996 55.814 55.839 56.254 55.881 56.446 56.894 56.464 56.444 65.259 66.516 67.004 66.149 57.759 56.496 56.539 56.611 56.589 56.581 56.531 57.486 57.481 57.616 57.829 65.379 67.419 67.851 66.591 61.041 57.836 58.136 58.699 59.031 58.946 58.769 58.871 58.936 59.011 59.099 59.174 59.244 59.324 59.381 59.424 59.496 59.559 59.646 59.719 59.819 59.911 59.991
35.795 35.818 35.928 35.893 36.465 36.678 36.875 37.055 36.923 36.805 36.668 36.43 36.548 36.665 36.773 36.873 37.2 37.36 37.568 37.8 37.588 37.675 38.168 38.253 38.073 38.215 38.463 39.293 38.583 38.713 38.863 39.075 39.235 37.688 37.455 39.525 40.813 42.278 42.31 42.34 42.42 42.505 42.573 42.665 42.74 42.8 42.878 42.955 43.015 43.128 43.288 43.39 42.54 38.308 37.648 37.638 37.64 37.633 37.595 37.588 37.593 37.588 37.585 37.573 37.653 37.715 37.688 37.695 37.685 37.695 37.695 37.718 37.755 37.788 37.855 37.79 37.685 37.575 37.678 37.773 37.863 38.023 37.965 37.895 37.878 37.818 37.733 37.708 37.541 37.576 37.605 37.653 37.66 37.643 37.655 37.748 37.863 38.018 38.25 38.613 39.115 39.498 39.8 39.97 40.221 40.681 40.288 40.323 40.308 40.278 40.283 40.288 40.35 40.418 48.015 49.743 50.815 50.475 49.395 46.228 40.638 40.75 40.908 41.015 41.098 42.48 41.193 41.308 41.396 41.511 41.603 41.708 41.776 41.893 41.983 42.123 42.263 42.998 43.106 42.538 42.768 42.956 43.176 43.416 43.628 43.766 43.851 43.926 44.096 44.376 44.631 45.153 48.691 52.216 52.083 51.973 51.793 51.651 51.546 51.398 52.441 52.286 52.156 51.986 51.856 51.681 49.923 46.541 46.506 46.528 46.503 46.456 46.506 46.638 46.771 49.348 48.496 47.211 47.281 47.188 48.058 47.366 47.378 47.373 47.746 47.526 47.776 47.806 47.898 47.928 47.938 47.918 48.293 48.193 48.268 48.263 48.276 48.403 48.428 48.446 48.438 50.143 49.293 48.381 48.493 48.538 48.591 48.646 50.566 54.878 56.066 55.118 49.848 48.753 48.716 50.656 48.441 48.371 48.391 48.483 48.586 48.633 48.841 48.868 48.826 48.796 48.776 48.693 48.618 48.678 48.708 48.713 48.736 48.746 48.706 48.593 48.431 48.523 48.431 48.373 48.431 48.411 49.158 48.486 48.401 48.401 48.393 48.558 48.748 48.893 48.963 49.026 49.051 49.021 49.053 49.081 49.106 49.073 49.098 49.123 49.243 51.736 50.623 49.561 49.686 49.813 49.908 50.208 51.733 53.296 53.283 53.298 53.281 53.261 53.271 53.256 50.238 50.271 54.276 57.608 57.536 57.418 57.241 57.141 57.391 57.231 53.903 51.076 50.863 50.943 50.993 51.058 51.131 53.156 55.188 56.258 56.416 56.496 55.493 54.121 51.273 51.716 51.948 52.028 52.481 52.098 53.246 52.186 52.403 52.536 52.898 52.676 52.698 52.706 52.906 56.048 53.161 52.936 52.983 53.058 53.263 53.306 53.203 53.158 53.396 53.178 53.276 55.098 53.854 53.539 53.494 53.386 53.486 53.661 53.669 53.646 53.686 53.749 53.796 53.806 53.804 53.806 53.826 53.851 53.841 53.839 53.931 54.169 54.399 54.406 54.169 54.249 54.571 54.749 54.534 54.526 54.564 55.554 55.436 54.574 54.721 54.666 54.736 54.819 54.809 54.766 54.711 54.701 54.679 54.719 54.756 54.801 54.891 54.981 55.684 55.366 55.271 55.786 55.514 55.621 55.671 55.831 55.991 55.926 56.141 56.279 56.371 57.629 65.416 66.651 66.509 65.644 57.656 56.481 56.576 56.646 56.669 56.634 56.639 57.561 57.564 57.676 57.814 66.279 67.579 67.666 66.444 61.671 58.294 57.979 58.741 58.671 58.746 58.841 58.951 59.019 59.661 59.806 59.761 59.619 60.394 60.996 59.889 59.544 59.581 59.621 59.709 59.839 59.922 60.008
35.595 35.47 38.005 36.588 36.12 36.743 39.048 39.838 39.015 37.028 37.05 36.723 36.553 36.66 36.788 36.885 36.978 37.395 37.46 37.63 37.755 38.003 38.038 37.98 38.245 38.888 38.9 38.463 38.59 38.71 38.845 38.963 39.098 39.26 39.478 39.615 37.653 37.748 40.913 42.303 42.605 42.638 42.675 42.738 42.818 42.885 42.955 43.025 43.08 43.153 43.22 43.27 43.378 43.525 43.64 42.435 37.788 37.558 37.55 37.533 37.535 37.528 37.513 37.508 37.495 37.503 37.6 37.608 37.628 37.628 37.655 37.68 37.703 37.748 38.253 37.57 37.488 37.52 37.678 38.053 37.82 37.89 37.818 37.758 37.725 37.695 37.623 37.543 37.465 37.483 37.523 37.605 37.69 37.6 37.556 37.638 37.715 37.933 38.188 38.503 39.035 39.475 39.758 39.958 40.155 40.425 40.308 40.333 40.291 40.258 40.275 40.285 40.348 44.39 49.325 50.375 50.893 49.795 48.748 40.573 40.71 40.925 40.931 41.073 41.13 42.166 41.218 41.328 41.421 41.516 41.616 41.718 41.816 41.918 41.991 42.101 42.753 44.241 44.178 42.551 42.701 42.858 43.038 43.211 43.481 43.546 43.613 43.843 44.113 44.846 44.491 44.961 50.351 51.873 52.021 52.176 52.331 52.478 52.578 52.536 52.921 53.086 53.136 53.186 53.103 52.981 49.233 47.073 46.456 46.471 46.436 46.393 46.458 46.583 46.768 46.988 48.043 49.241 47.303 47.051 47.311 47.226 47.328 47.736 47.603 47.463 47.683 47.661 47.958 47.826 47.851 47.761 47.868 48.208 48.293 48.266 48.321 48.373 48.386 48.398 48.383 49.323 49.288 48.943 48.476 48.516 48.556 48.576 49.736 55.018 56.066 54.973 49.163 48.738 49.981 52.021 48.413 48.351 48.396 48.488 48.583 48.641 48.821 48.901 48.836 48.816 48.743 48.698 48.681 48.733 48.791 48.798 48.776 48.753 48.728 48.618 48.513 48.613 48.591 48.498 48.398 48.466 48.493 49.466 48.403 48.451 48.456 48.443 48.628 48.808 48.991 49.046 49.061 48.988 49.031 49.076 49.088 49.031 49.108 49.163 49.263 49.806 49.471 49.573 49.696 49.823 49.951 50.138 50.178 50.821 50.956 51.553 51.993 51.716 51.806 52.571 50.111 50.278 51.641 56.571 56.401 56.263 56.098 55.953 56.346 55.923 54.008 50.771 50.913 50.981 51.033 51.163 51.126 52.316 54.993 55.653 55.478 55.313 55.118 54.278 51.246 51.733 52.051 52.121 52.186 52.238 54.451 52.306 52.463 52.576 53.056 52.726 52.938 52.883 52.948 53.121 53.096 52.898 52.956 53.021 53.178 53.731 53.191 53.221 53.261 53.211 53.243 55.346 53.564 53.541 53.474 53.431 53.671 54.004 54.054 54.104 54.139 54.146 54.224 54.179 54.146 54.081 54.061 54.036 54.016 54.199 54.426 54.646 54.726 54.669 54.474 54.349 54.429 54.444 54.524 54.564 54.594 55.526 55.534 54.906 54.746 54.701 54.846 54.904 54.881 54.796 54.711 54.731 54.754 54.776 54.826 54.851 54.899 54.946 55.074 55.374 55.296 55.434 55.559 55.639 55.689 55.751 55.861 55.984 56.096 56.274 56.704 59.176 65.574 66.829 66.346 65.099 56.516 56.561 56.634 56.699 56.721 56.691 56.731 57.624 57.654 57.734 59.836 66.466 67.751 67.511 66.291 58.536 57.866 57.931 58.836 59.066 58.804 58.921 59.001 59.064 63.089 63.356 63.211 60.459 60.066 60.009 59.896 59.829 59.741 59.744 59.851 60.416 60.039 60.118
35.378 35.325 36.13 38.343 35.883 36.475 36.653 39.793 38.825 39.425 38.04 40.18 36.783 36.673 36.773 36.883 36.988 37.143 37.403 37.555 37.685 37.853 38.035 38.18 38.395 38.305 38.305 38.528 39.558 38.703 38.985 38.975 39.135 39.288 39.358 39.48 39.66 39.908 40.015 37.633 37.588 41.183 41.913 42.908 42.93 42.96 43.025 43.095 43.16 43.22 43.288 43.338 43.745 43.728 43.495 43.595 43.738 43.84 42.983 38.745 37.475 37.478 37.458 37.47 37.468 37.53 37.533 37.535 37.555 37.57 37.595 37.608 37.643 37.703 37.558 37.428 37.338 37.46 38.968 37.651 37.793 37.721 37.628 37.588 37.56 37.538 37.533 37.368 37.713 37.39 37.455 37.59 37.67 37.583 37.53 37.515 37.598 37.808 38.056 38.395 38.983 40.053 39.7 39.905 40.615 40.35 40.378 40.295 40.255 40.271 40.275 40.315 40.8 48.895 49.983 51.048 50.23 49.158 41.715 40.618 40.8 41.578 41.085 41.223 41.153 41.098 41.213 41.308 41.411 41.506 41.603 41.716 41.813 41.911 42.026 42.126 42.228 42.318 42.408 42.516 42.598 44.183 43.883 43.018 43.178 43.298 43.583 43.903 44.081 46.183 44.458 44.831 50.343 50.638 50.758 50.891 51.051 51.181 51.388 51.521 51.666 51.781 51.963 52.096 52.261 52.386 47.628 46.288 46.371 46.421 46.341 46.341 46.383 46.548 46.806 47.873 48.833 52.746 53.406 53.238 53.148 52.948 52.806 51.933 47.571 53.638 53.471 53.336 52.721 50.578 48.523 47.963 51.761 52.508 50.948 49.773 48.561 48.321 48.296 48.308 48.331 48.346 48.296 48.396 48.488 48.566 48.558 48.438 52.943 55.173 56.048 54.796 48.693 48.658 50.921 50.711 48.403 48.333 48.416 48.611 48.618 48.671 49.636 50.201 50.206 48.903 49.608 48.751 48.751 48.883 48.893 48.826 48.823 48.796 48.671 48.606 48.576 48.688 48.703 48.638 48.561 48.458 48.518 48.606 48.406 48.468 48.526 48.531 48.541 48.711 48.806 48.918 48.996 48.966 49.016 49.056 49.001 49.071 49.113 49.256 49.278 49.368 49.481 49.596 49.701 49.843 50.006 50.113 50.156 50.178 50.196 50.236 50.266 50.241 50.186 50.123 50.146 50.283 50.273 54.998 51.858 52.546 51.413 50.433 50.581 52.976 52.451 50.888 50.878 50.926 51.016 51.213 51.123 51.438 54.436 54.273 54.088 53.593 53.596 52.563 51.251 51.816 52.163 52.216 52.216 53.323 52.396 52.413 52.533 52.606 52.793 52.701 52.756 52.841 53.178 52.921 52.896 52.858 52.918 52.988 53.046 53.143 53.188 53.388 55.493 53.238 53.351 55.873 53.746 53.714 53.521 53.446 53.756 54.079 54.141 54.204 54.306 54.394 54.441 54.499 54.534 54.529 54.511 54.406 54.489 54.631 54.714 54.699 54.709 54.621 54.374 54.384 54.436 54.511 54.566 54.589 55.231 55.519 55.526 54.749 54.736 54.771 54.931 54.966 54.964 54.921 54.836 55.346 54.929 54.886 54.866 54.899 54.916 55.191 56.011 56.014 55.356 55.501 55.639 55.706 55.739 55.771 55.941 56.101 56.159 56.359 56.489 61.274 65.709 66.969 66.184 64.759 56.541 57.354 56.686 56.756 56.776 56.776 56.811 57.724 57.956 58.164 64.276 67.409 68.174 67.359 66.144 57.906 57.886 58.236 58.869 59.319 58.869 58.971 59.046 59.094 63.249 64.374 63.431 60.249 60.176 60.096 60.006 59.951 59.951 59.956 60.196 60.228 60.167 60.265
35.375 35.263 35.355 36.808 35.743 36.003 36.785 38.248 39.4 39.31 38.04 37.958 37.07 36.83 36.778 36.895 36.99 37.08 37.373 37.5 37.688 37.825 37.998 38.17 38.32 38.43 38.568 38.745 38.623 38.683 38.818 38.955 39.088 39.24 39.368 39.49 39.61 39.72 39.84 40.025 40.245 40.32 37.475 37.885 40.683 42.795 43.19 43.198 43.228 43.288 43.35 43.408 43.46 43.515 43.565 43.618 43.66 43.7 43.815 43.938 44.015 43.003 38.398 37.43 37.44 37.528 37.515 37.513 37.513 37.53 37.545 37.575 37.618 37.658 37.295 37.21 37.293 37.415 37.978 37.648 37.628 37.521 37.453 37.393 37.361 37.348 37.365 37.273 38.701 37.333 37.38 37.455 37.535 37.548 37.498 37.438 37.558 37.653 37.94 38.313 38.858 39.343 39.66 39.895 40.083 40.32 41.105 40.31 40.245 40.271 40.288 40.335 46.795 49.548 50.638 50.668 49.573 46.828 40.51 40.7 41.728 40.823 40.993 41.34 41.143 41.096 41.208 41.33 41.428 41.528 41.646 41.726 41.813 41.908 42.018 42.116 42.231 42.346 42.463 42.573 42.678 42.778 42.873 42.953 43.098 43.246 43.408 43.698 43.968 44.868 45.726 45.306 44.601 44.651 44.728 44.746 45.321 46.136 47.733 44.811 46.193 46.178 47.483 48.558 49.938 51.041 46.108 46.286 46.361 46.336 46.273 46.283 46.336 46.501 46.768 46.973 47.268 54.801 54.641 54.523 54.333 54.226 54.041 53.936 53.773 54.878 54.693 54.548 54.436 54.268 54.126 54.023 54.921 54.898 54.748 54.606 54.468 54.311 54.213 51.068 50.228 49.763 48.211 48.366 48.433 48.458 48.463 48.268 53.433 55.298 55.038 53.006 48.363 48.413 49.573 50.566 48.391 48.333 48.473 49.293 49.628 48.881 49.123 49.026 48.926 49.481 49.033 48.831 48.836 48.821 48.923 49.601 49.458 49.016 49.136 48.823 48.666 48.696 48.731 48.706 48.691 48.656 48.513 48.571 48.623 48.466 48.528 48.583 48.601 48.626 48.783 48.886 48.936 48.983 49.011 49.013 49.011 49.106 49.218 49.273 49.283 49.418 49.533 49.608 49.698 49.828 49.971 50.036 50.088 50.083 50.143 50.226 50.228 50.238 50.316 50.346 50.328 50.441 50.371 51.028 50.448 50.461 50.516 50.568 50.703 50.841 50.928 51.011 50.936 50.973 51.073 51.193 51.328 51.141 51.138 51.161 51.181 51.191 52.176 51.286 51.738 51.976 52.346 52.503 52.721 53.158 52.426 52.473 52.521 52.558 52.598 52.636 52.683 52.756 52.868 52.826 52.771 52.826 52.873 52.933 52.968 53.033 53.131 53.213 53.233 53.171 53.346 53.338 53.394 53.439 53.459 53.489 53.529 53.586 53.664 53.791 53.944 54.154 54.296 54.411 54.499 54.554 54.631 54.649 54.694 54.671 54.631 54.501 54.304 54.336 54.366 54.414 54.464 54.531 54.596 54.609 55.549 55.536 55.264 54.781 54.731 54.909 55.011 55.049 55.014 54.999 54.974 54.941 54.976 54.956 55.309 54.949 55.489 55.054 55.191 55.284 55.394 55.661 55.684 55.719 55.774 55.779 55.946 56.144 56.189 56.306 56.471 64.371 65.861 67.079 66.059 64.814 56.539 57.414 56.739 56.806 56.839 56.854 56.999 57.809 58.076 58.226 66.729 67.996 68.449 67.204 62.819 60.371 58.381 58.896 58.909 58.826 58.926 59.009 59.071 59.321 63.251 63.439 63.294 60.244 60.186 60.089 60.074 60.019 59.994 59.999 60.026 60.096 60.123 60.194
35.035 35.108 35.185 35.328 35.5 35.703 35.915 36.155 36.678 38.355 38.775 38.003 37.23 37.123 36.81 36.895 36.985 37.083 37.18 37.543 37.648 37.828 38 38.188 38.328 38.425 38.543 38.693 38.803 38.993 39.078 38.985 39.068 39.205 39.348 39.473 39.615 39.745 39.86 39.98 40.093 40.218 40.42 40.635 41.528 37.95 37.97 40.91 42.595 43.45 43.455 43.463 43.52 43.568 43.635 43.683 43.723 43.77 43.805 43.838 43.868 43.94 44.06 44.143 42.823 38.89 37.26 37.33 37.515 37.563 37.53 37.55 37.643 37.253 37.14 37.13 37.22 37.343 37.44 37.553 37.418 37.278 37.173 37.155 37.143 37.148 37.158 37.193 37.513 37.283 37.31 37.398 37.478 37.59 37.488 37.443 37.528 37.578 37.808 38.168 39.113 40.948 39.638 39.89 40.07 40.253 40.943 40.333 40.288 40.295 40.323 41.58 49.16 50.223 51.035 49.998 48.923 40.431 40.548 40.743 41.98 40.815 40.98 41.215 41.12 42.158 41.71 41.318 41.446 41.541 41.713 41.803 41.906 42.011 42.086 42.218 42.318 42.398 42.501 42.581 42.693 42.796 42.921 43.018 43.116 43.186 43.311 43.783 45.956 44.081 44.116 44.536 44.436 44.566 44.593 44.738 44.753 44.701 44.766 45.053 45.266 45.296 45.321 45.338 45.453 46.198 46.431 46.233 46.293 46.268 46.181 46.213 46.288 46.428 46.751 46.948 47.146 53.906 54.046 54.203 54.358 54.488 54.631 54.811 54.871 55.058 55.198 55.341 55.418 55.468 55.408 55.226 56.058 56.068 56.003 55.911 55.746 55.588 54.921 48.493 50.303 48.606 48.163 48.328 48.388 48.418 48.418 48.881 54.196 55.453 54.883 51.913 48.266 48.326 48.353 48.513 48.368 48.328 48.698 48.801 48.791 48.841 48.838 48.841 48.851 48.853 48.851 49.013 48.878 48.816 48.808 48.811 48.786 48.728 48.733 48.711 48.688 48.698 48.751 49.333 49.166 48.786 48.713 48.613 48.651 48.583 48.531 48.598 48.633 48.681 48.701 48.846 48.923 48.916 48.951 48.946 49.048 49.113 49.278 49.298 49.328 49.478 50.571 49.746 49.738 49.843 49.941 49.993 50.023 50.083 50.143 50.236 50.216 50.278 50.301 50.353 50.418 50.671 50.491 50.556 50.581 50.566 50.688 50.741 50.821 50.913 50.991 51.051 50.951 51.031 51.108 51.201 51.316 51.418 51.718 51.626 51.826 51.863 51.931 51.978 52.051 52.086 52.128 52.176 52.206 52.223 52.268 52.308 52.368 52.426 52.491 53.218 54.201 53.016 53.386 52.748 52.793 52.861 52.911 52.956 53.011 53.043 53.083 53.131 53.168 53.193 53.231 53.281 53.296 53.339 53.371 53.419 53.454 53.494 53.531 53.584 53.669 53.769 53.849 53.904 53.969 54.129 54.426 54.559 54.544 54.411 54.239 54.284 54.324 54.349 54.394 54.446 54.511 54.554 54.611 54.794 55.564 55.556 54.779 54.794 54.789 54.994 55.076 55.091 55.059 56.431 57.291 55.179 55.096 55.046 55.014 55.019 55.254 55.141 55.261 55.409 55.526 55.644 55.696 55.766 55.764 55.811 55.949 56.119 56.239 56.694 57.154 63.829 66.051 67.089 65.891 64.649 56.926 56.961 56.741 56.831 56.891 56.936 57.116 57.944 58.191 60.969 66.884 68.134 68.269 67.039 60.921 59.271 58.296 58.786 58.949 59.079 58.969 59.049 59.154 59.484 60.306 60.276 60.264 60.244 60.209 60.156 60.171 60.191 60.164 60.119 60.111 60.132 60.188 60.752
34.84 34.903 35.018 35.168 35.313 35.513 35.775 36.045 36.318 36.553 37.505 37.64 39.16 38.06 37.215 36.898 36.995 37.075 37.148 37.385 37.553 37.753 39.41 38.118 38.275 38.408 38.55 38.688 38.815 38.92 39.068 39.158 39.373 39.39 39.353 39.46 39.58 39.733 39.848 39.983 40.1 40.225 40.355 40.495 40.63 40.8 40.975 41.758 38.028 38.608 42.925 42.878 43.678 43.663 43.703 43.745 43.79 43.83 43.875 43.9 43.93 43.965 43.995 44.03 44.088 44.185 44.248 42.743 38.12 36.808 37.22 37.485 37.225 37.05 36.968 37.078 37.165 37.275 37.46 37.328 37.153 37.103 37.073 37.058 37.048 37.048 37.073 37.118 37.173 37.233 37.265 37.41 37.401 37.52 37.49 37.45 37.418 37.545 37.666 38.048 38.528 39.058 39.556 39.88 40.078 40.258 40.403 40.388 40.353 40.315 40.34 49.008 49.838 50.898 50.443 49.326 43.663 40.453 40.958 41.598 40.673 40.791 41.083 41 41.063 42.188 41.971 41.315 41.433 41.571 41.703 41.783 41.956 42.138 42.121 42.263 42.366 42.466 42.581 42.701 42.798 42.968 42.943 43.026 43.136 43.248 43.333 43.416 43.511 44.896 43.863 44.366 44.363 44.381 45.731 44.606 44.671 44.736 44.793 45.103 45.188 45.211 45.641 45.331 45.371 45.428 46.801 46.601 46.218 46.178 46.136 46.173 46.223 46.373 46.688 46.911 47.058 50.316 52.616 52.936 53.056 53.231 53.368 53.541 53.666 53.773 53.916 54.026 54.231 54.386 54.538 54.661 54.831 54.931 55.101 55.236 55.393 55.518 53.818 48.298 48.921 48.571 48.141 48.161 48.203 48.261 48.291 49.411 54.326 55.593 54.741 49.706 48.256 48.306 48.346 48.641 48.356 48.308 48.561 48.688 48.821 48.848 53.443 57.656 57.481 57.238 56.423 55.053 52.398 51.473 48.998 48.841 48.838 48.843 48.811 55.898 52.183 48.763 48.728 48.741 48.873 49.618 48.858 48.936 48.671 48.666 48.553 48.563 48.661 48.738 48.766 48.776 48.806 48.886 48.943 49.013 49.093 49.163 49.291 49.311 49.388 49.508 49.568 50.556 49.743 49.833 49.911 49.966 49.983 50.033 50.123 50.201 50.236 50.293 50.351 50.366 50.533 50.671 50.576 50.651 50.751 50.838 50.868 50.931 51.168 52.333 51.061 50.961 51.011 51.088 51.158 51.231 51.288 51.373 51.493 51.558 51.623 51.698 51.778 51.858 51.926 51.988 52.061 52.133 52.193 52.256 52.306 52.348 52.411 52.463 52.526 52.563 52.611 52.678 52.726 52.788 52.836 52.896 52.941 52.988 53.036 53.093 53.123 53.168 53.206 53.243 53.283 53.321 53.359 53.389 53.439 53.479 53.529 53.559 53.596 53.621 53.664 53.704 53.739 53.779 53.814 53.909 53.991 54.061 54.091 54.166 54.371 54.281 54.316 54.364 54.421 54.446 54.514 54.601 54.629 54.624 55.464 55.556 54.869 54.781 54.899 55.039 55.129 55.141 55.104 55.971 55.389 55.364 55.501 55.151 55.159 55.156 55.174 55.204 55.271 55.374 55.859 55.679 56.069 55.934 55.829 56.226 56.196 56.186 56.299 56.761 56.459 64.944 66.179 66.981 65.731 61.889 56.624 56.749 56.796 56.874 56.946 57.031 57.446 58.009 58.246 59.364 67.004 68.269 68.146 66.906 58.344 58.319 58.289 58.636 58.991 59.224 58.994 59.206 59.884 60.266 63.401 63.214 63.261 63.146 61.084 60.489 60.254 60.346 61.986 60.346 60.194 60.203 60.209 60.372
34.658 34.753 34.878 34.998 35.148 35.335 35.628 35.95 36.263 36.528 36.735 37.173 37.78 38.05 37.838 36.988 36.99 37.073 37.143 37.225 37.555 37.648 37.885 38.05 38.273 38.938 38.78 38.973 38.933 38.945 39.03 39.133 39.288 39.438 39.53 39.718 39.693 39.713 39.823 39.953 40.173 40.405 40.363 40.505 40.618 40.738 40.84 40.948 41.125 41.285 41.84 38.528 38.305 42.13 41.485 43.908 43.898 43.893 43.93 43.973 44.003 44.03 44.053 44.075 44.093 44.12 44.135 44.2 44.27 44.345 41.473 37.615 36.89 36.815 36.913 37.023 37.123 37.248 37.278 37.103 37.05 37.508 38.638 37.573 36.955 36.975 37.015 37.05 37.105 37.158 37.218 37.271 37.346 37.44 37.578 37.455 37.41 37.49 37.581 37.88 38.495 38.865 39.416 39.798 40.043 40.203 40.333 40.503 40.333 40.335 44.646 49.423 50.475 50.883 49.765 48.403 40.348 40.453 40.858 40.646 40.646 41.21 40.901 40.938 41.028 41.163 41.41 41.418 41.508 41.643 41.721 41.793 42.866 42.033 42.398 42.276 42.368 42.456 42.551 42.653 42.786 42.923 43.033 43.163 43.231 43.608 44.153 43.598 43.548 43.651 43.756 43.923 44.076 44.173 44.331 44.743 44.711 44.813 45.378 45.043 45.091 45.138 45.558 45.303 45.368 45.538 47.791 46.041 46.086 46.068 46.078 46.146 46.188 46.331 46.601 46.801 48.193 47.083 47.026 47.051 47.121 47.468 49.256 47.661 47.136 48.166 49.136 49.351 49.618 51.278 52.691 49.476 51.153 52.451 52.666 53.996 54.136 54.291 53.458 48.301 48.308 49.568 48.113 48.178 48.186 48.193 48.226 49.103 54.511 55.633 54.611 49.746 48.243 48.271 48.291 48.668 48.321 48.308 48.601 48.738 48.841 48.858 56.261 58.893 58.741 58.576 58.418 58.258 58.116 57.936 57.773 57.633 57.461 57.311 57.158 57.046 54.646 49.318 48.843 48.821 48.891 48.873 49.356 49.598 49.436 48.706 48.586 48.618 48.671 48.738 48.823 48.861 48.891 48.906 48.948 49.021 49.111 49.178 49.273 49.331 49.466 49.588 49.598 49.658 49.733 49.793 49.866 49.908 49.938 50.001 50.053 50.156 50.266 50.333 50.363 50.413 50.501 50.873 50.681 50.721 50.808 50.851 50.878 50.911 50.996 51.016 50.968 51.021 51.091 51.146 51.216 51.278 51.343 51.436 51.513 51.593 51.671 51.743 51.813 51.873 51.936 51.996 52.073 52.136 52.196 52.266 52.313 52.353 52.396 52.436 52.516 52.541 52.591 52.631 52.706 52.758 52.811 52.856 52.913 52.963 53.008 53.046 53.101 53.141 53.176 53.211 53.241 53.298 53.321 53.359 53.401 53.459 53.506 53.544 53.589 53.634 53.681 53.736 53.784 53.811 53.871 53.894 53.924 53.969 54.021 54.166 54.204 54.241 54.324 54.371 54.436 54.494 54.554 54.591 54.551 54.569 54.584 54.719 54.869 54.826 54.989 55.084 55.159 55.194 55.164 55.659 55.191 55.234 56.201 56.389 55.244 55.724 55.399 55.266 55.366 55.816 55.754 55.719 55.854 55.841 56.009 55.871 56.511 56.881 56.319 56.401 56.449 65.061 66.361 66.854 65.581 59.689 56.941 56.754 56.889 56.991 57.031 57.131 57.681 58.161 58.329 59.469 67.196 68.436 67.996 66.684 61.019 58.424 58.449 58.656 59.014 58.974 59.036 59.451 60.021 60.634 63.419 63.414 63.406 63.416 63.396 63.399 63.396 63.386 63.389 63.386 62.446 62.189 61.607 61.247
34.48 34.583 34.733 34.855 34.99 35.253 35.96 36.418 36.59 36.593 36.775 36.888 37.105 38.408 38.17 37.423 36.985 37.065 37.16 37.343 37.463 37.585 37.748 37.893 39.075 39.213 39.188 38.758 39.265 39.42 39.635 39.305 39.263 39.363 39.483 39.653 39.795 39.908 39.995 40.055 40.085 40.203 40.335 40.503 40.59 40.718 40.82 40.928 41.045 41.158 41.25 41.423 41.62 42.563 37.755 38.333 43.14 42.848 44.08 44.058 44.055 44.078 44.098 44.138 44.15 44.17 44.193 44.198 44.203 44.193 44.243 44.32 44.36 42.873 37.225 36.97 37.07 37.19 37.128 38.05 37.358 36.99 36.885 36.88 36.87 36.905 36.935 36.995 37.05 37.105 37.158 37.223 37.278 37.378 37.505 37.44 37.435 37.44 37.573 37.648 39.118 38.753 39.513 41.24 39.988 40.14 40.255 41.16 40.33 40.528 48.968 50.041 51.065 50.193 49.113 46.45 40.346 40.48 40.74 40.535 40.56 40.768 40.703 40.898 41.013 41.135 41.28 41.428 41.551 41.693 41.903 42.183 41.896 41.973 42.073 42.256 42.356 42.433 42.491 42.526 42.608 42.743 42.893 43.393 45.331 43.411 43.468 43.848 45.086 43.926 43.803 43.891 43.963 44.061 44.138 44.638 44.613 44.536 44.938 45.186 45.118 45.056 45.178 45.273 45.386 45.696 45.966 45.876 45.928 45.923 46.058 46.131 46.181 46.276 46.438 46.668 49.358 47.753 46.963 47.088 47.233 47.191 49.168 48.416 47.583 47.553 47.628 47.696 47.733 47.676 48.706 48.166 48.121 48.166 48.388 49.448 48.496 48.468 48.511 48.288 48.256 50.836 48.096 48.251 48.326 48.328 48.293 51.753 54.626 55.648 54.463 48.241 48.248 48.581 49.801 48.346 48.301 48.296 48.598 48.748 48.846 48.858 57.058 59.381 59.506 59.618 59.606 59.561 59.398 59.208 59.023 58.883 58.738 58.578 58.418 58.276 58.108 57.926 57.758 48.833 48.976 49.011 48.998 49.538 50.496 48.766 48.633 48.666 48.686 48.728 48.816 48.893 48.941 48.981 49.028 49.068 49.096 49.166 49.246 49.406 49.483 49.598 49.666 49.711 49.713 49.778 49.813 49.893 49.986 50.311 50.111 50.221 50.301 50.331 50.363 50.421 50.468 50.521 50.518 50.553 50.623 50.698 50.753 50.813 50.896 50.953 51.016 51.078 51.128 51.188 51.248 51.316 51.388 51.448 51.518 51.593 51.663 51.731 51.788 51.851 51.921 51.993 52.058 52.121 52.188 52.251 52.308 52.331 52.353 52.418 52.511 52.806 54.468 53.963 52.696 52.748 54.723 55.196 54.843 52.966 53.141 53.128 53.111 54.538 53.763 53.281 54.886 55.191 53.324 53.356 53.406 53.446 53.486 53.516 53.574 53.719 53.681 53.736 53.781 53.844 53.876 53.934 53.981 54.021 54.074 55.254 55.034 55.016 54.524 54.391 54.436 54.509 54.556 54.476 54.566 54.611 54.629 54.764 54.826 54.921 55.021 55.111 55.196 55.221 55.239 55.274 55.236 55.944 58.911 57.741 55.231 58.554 58.429 55.539 55.421 59.156 57.584 55.811 58.086 57.906 55.881 56.466 58.764 57.316 56.414 56.419 57.219 65.251 66.491 66.699 65.459 58.026 57.071 56.714 56.939 57.091 57.149 57.221 58.189 58.269 58.359 62.556 67.351 68.594 67.806 66.624 61.856 58.341 58.846 58.884 60.204 59.021 59.076 59.629 60.889 60.639 63.851 64.206 63.434 63.411 63.396 64.629 63.411 63.409 63.761 63.396 63.416 63.473 63.438 63.371
34.295 34.413 34.545 34.688 34.813 35.418 36.06 37.735 37.748 37.093 36.815 36.863 36.903 37.698 38.2 37.643 37.055 37.065 37.135 38.023 37.283 37.575 37.643 37.79 39.118 39.158 39.32 38.683 38.808 39.13 39.383 39.498 39.503 39.628 39.43 39.57 39.57 39.15 39.118 39.905 40.26 40.423 40.495 40.478 40.588 40.69 40.808 40.928 41.045 41.153 41.245 41.353 41.43 41.53 41.685 41.835 42.655 37.203 38.773 43.49 42.905 43.72 44.193 44.193 44.208 44.235 44.245 44.238 44.255 44.245 44.235 44.233 44.23 44.255 44.35 44.393 41.943 37.973 37.033 36.958 37.338 37.763 36.808 36.776 36.795 36.828 36.875 36.938 36.983 37.038 37.111 37.181 37.245 37.318 37.37 37.423 37.458 37.468 37.478 37.645 38.343 38.403 41.003 39.513 39.861 40.048 40.181 40.393 40.306 47.6 49.628 50.728 50.613 49.521 48.03 47.548 42.008 40.495 40.488 41.14 40.53 40.563 40.715 40.898 41.118 41.323 41.47 41.67 41.781 41.638 43.588 42.333 41.811 41.771 41.768 42.068 42.251 42.308 42.383 42.398 42.443 42.608 42.761 42.948 44.113 43.448 45.141 43.953 43.681 43.928 43.826 43.901 44.001 44.111 44.188 44.271 44.356 44.456 44.533 44.721 44.838 44.943 45.073 45.198 45.348 45.498 45.641 45.718 45.791 45.916 46.028 46.111 46.196 46.206 46.346 46.556 48.826 47.023 46.943 47.073 47.853 47.458 49.318 48.218 47.568 47.571 47.648 47.708 47.766 51.213 55.461 50.358 48.086 48.108 48.871 49.748 48.146 48.191 48.211 48.241 48.633 51.068 48.076 48.241 48.298 48.331 48.308 51.321 54.781 55.563 54.291 48.233 48.248 48.188 48.211 48.331 48.278 48.278 48.641 48.738 48.823 48.836 57.928 58.598 59.086 58.393 58.573 58.718 58.888 59.021 59.211 59.378 59.533 59.606 59.633 59.536 59.363 59.188 59.011 48.818 48.953 49.038 49.023 49.931 48.903 48.693 48.686 48.698 48.756 48.876 48.933 48.916 48.946 49.016 49.076 49.131 49.171 49.208 49.248 49.321 49.463 49.568 49.643 49.698 49.718 49.783 49.841 49.973 50.058 50.123 50.341 50.211 50.221 50.213 50.216 50.273 50.341 50.423 50.496 50.558 50.636 50.741 50.766 50.828 50.886 50.956 51.003 51.058 51.118 51.168 51.226 51.283 51.348 51.411 51.491 51.563 51.643 51.706 51.781 51.851 51.991 52.096 52.141 52.228 52.176 52.238 52.293 52.328 52.416 52.493 52.553 52.666 52.691 52.736 52.793 52.853 52.911 52.961 53.003 53.068 53.101 53.136 53.193 53.238 53.288 53.323 53.368 53.403 53.451 53.506 53.536 53.586 53.616 53.651 53.719 53.731 53.814 53.759 53.804 53.859 53.894 53.919 53.961 54.014 54.149 55.026 55.126 55.224 55.201 54.331 54.344 54.416 54.496 54.549 54.621 54.696 54.654 54.774 54.849 54.969 55.061 55.126 55.199 55.224 55.234 55.534 55.266 57.664 63.814 62.556 61.794 62.284 61.231 56.066 60.399 62.159 58.811 56.649 59.666 59.284 55.874 58.146 60.499 57.641 56.621 56.446 59.209 65.381 66.669 66.986 66.026 56.511 56.459 56.574 56.864 57.126 57.266 57.309 58.274 58.311 58.364 65.601 67.526 68.694 67.661 64.264 58.384 58.366 58.444 59.109 60.019 59.071 59.159 59.754 60.209 63.144 70.449 70.359 70.229 70.076 69.334 66.786 65.694 65.236 64.756 63.554 63.429 63.44 63.405 63.386
34.053 34.19 34.325 34.46 34.628 35.298 36.43 37.355 38.273 37.125 36.793 36.845 36.898 36.968 37.798 37.783 37.395 37.07 37.13 37.245 37.235 37.543 37.553 37.668 37.84 38.17 38.328 38.495 38.73 39.098 39.023 39.033 39.095 39.16 39.29 39.383 39.258 38.955 38.45 37.855 37.158 37.753 40.903 40.638 40.728 40.77 40.81 40.905 41.008 41.128 41.238 41.355 41.435 41.518 41.608 41.69 41.778 41.92 42.113 43.093 37.6 40.448 42.25 41.66 42.513 44.305 44.293 44.3 44.305 44.303 44.295 44.273 44.27 44.26 44.25 44.238 44.27 44.343 44.39 43.695 37.67 36.728 36.693 36.765 36.798 36.763 36.833 36.893 36.945 36.975 37.063 37.14 37.215 37.285 37.34 37.41 37.465 37.5 37.523 37.55 37.74 37.895 38.335 39.056 43.615 40.788 40.125 40.238 41.608 49.193 50.283 51.026 49.938 48.883 40.373 40.361 40.353 40.326 40.393 40.483 40.538 40.46 40.67 40.82 40.99 41.15 41.24 41.365 41.478 42.968 46.858 42.936 41.591 44.963 44.896 41.641 43.513 45.331 42.478 42.253 43.258 42.426 42.328 42.948 43.291 43.163 43.326 43.566 43.963 43.888 43.881 44.343 45.396 44.366 44.211 44.313 44.416 44.518 44.631 44.743 44.846 44.961 45.063 45.166 45.278 45.376 45.506 45.653 45.791 45.901 45.998 46.093 46.183 46.226 46.288 46.471 48.288 48.651 47.016 47.483 47.711 47.393 48.163 47.588 47.486 47.588 47.668 47.743 47.736 48.118 50.346 48.051 48.036 48.076 48.631 48.691 48.153 48.141 48.171 48.181 48.201 50.028 48.516 48.188 48.233 48.251 48.188 51.753 54.933 55.446 54.148 48.253 48.238 48.211 48.286 48.303 48.258 48.263 48.648 48.703 48.746 48.843 57.523 58.743 58.946 57.693 57.228 56.691 57.611 57.773 57.931 58.111 58.263 58.446 58.591 58.766 58.908 59.093 59.248 48.821 48.963 49.023 49.051 49.066 48.813 48.731 48.736 48.826 48.851 48.931 49.001 49.073 49.021 49.113 49.078 49.153 49.216 49.271 49.328 49.383 49.428 49.478 49.538 49.593 49.646 49.713 49.771 49.863 49.931 50.123 50.088 50.113 50.163 50.218 50.271 50.326 50.386 50.448 50.521 50.573 50.616 50.731 50.723 50.786 50.841 50.898 50.948 51.166 51.756 51.133 51.203 51.263 51.353 51.441 51.558 51.678 51.766 51.833 51.908 51.971 52.021 52.076 52.121 52.226 52.268 52.218 52.288 52.328 52.443 52.536 52.588 52.833 52.916 52.908 53.006 53.001 52.981 53.006 53.351 53.491 53.163 53.163 53.286 53.283 53.401 53.518 53.541 53.596 53.614 53.631 53.674 53.684 53.696 53.694 53.744 53.766 53.829 53.826 53.826 53.876 53.894 53.914 53.981 54.001 54.314 55.029 55.141 55.239 55.251 54.349 54.431 54.486 54.559 54.626 54.669 54.694 54.679 54.766 54.901 55.014 55.099 55.184 55.216 55.239 55.261 55.611 55.284 59.944 65.079 64.889 64.751 64.574 64.429 64.246 64.686 65.129 64.969 64.821 64.646 64.511 64.206 64.844 65.236 65.099 64.386 60.594 63.184 65.526 66.786 66.399 65.336 56.496 56.471 56.556 56.851 57.194 57.379 57.414 58.406 58.734 58.851 67.624 68.784 68.786 67.524 62.736 58.461 58.471 58.634 59.171 59.064 59.121 59.231 59.854 60.704 61.799 70.644 71.534 71.364 71.236 71.056 70.929 70.754 70.644 70.489 70.346 70.206 69.2 69.87 68.262
33.835 33.975 34.098 34.23 34.415 35.078 36.113 36.2 37.178 38.343 37.463 38.288 36.89 36.93 36.99 37.848 37.693 37.078 37.123 37.188 37.22 37.375 37.485 37.54 37.698 37.88 38.193 38.375 38.498 38.743 38.82 38.835 38.89 38.925 39.053 39.068 39.188 39.108 38.303 38.578 37.958 36.853 35.815 35.535 37.908 40.838 40.953 41.038 41.09 41.123 41.205 41.323 41.415 41.5 41.608 41.685 41.758 41.835 41.915 42 42.138 42.578 43.44 38.353 39.755 42.975 42.703 44.43 44.38 44.348 44.358 44.343 44.325 44.313 44.295 44.293 44.263 44.23 44.223 44.245 44.32 44.361 43.283 36.943 36.793 36.698 36.771 36.828 36.898 36.95 37.04 37.111 37.185 37.276 37.333 37.398 37.473 37.53 37.568 37.618 37.668 37.865 38 38.38 39.013 41.8 40.003 40.166 40.695 49.693 50.92 50.388 49.303 41.963 40.343 40.326 40.291 40.256 40.236 40.256 40.3 40.488 41.151 41.01 40.953 41.073 41.183 41.32 41.406 43.688 50.551 50.388 50.256 50.123 49.971 47.918 48.936 48.946 44.406 44.796 46.108 44.638 42.183 42.513 42.821 42.868 42.988 43.146 43.321 43.513 43.741 45.626 44.478 44.218 44.398 44.736 44.456 44.546 44.648 44.753 44.858 44.948 45.088 45.188 45.308 45.408 45.533 45.653 45.791 45.878 45.971 46.076 46.161 46.246 46.333 46.418 46.533 46.656 46.821 46.956 47.086 47.156 47.208 47.381 47.481 47.966 47.736 48.071 48.388 47.906 48.091 48.056 48.048 48.148 49.641 48.888 48.136 48.106 48.098 48.411 50.341 49.948 49.056 48.148 48.263 48.128 48.111 53.838 55.101 55.166 53.883 50.508 49.413 48.793 51.201 48.286 48.241 48.246 48.401 48.711 49.176 49.073 57.681 58.928 58.776 57.503 48.866 48.886 49.078 48.898 51.278 51.726 56.031 56.311 54.583 57.411 57.653 57.791 57.583 48.841 48.991 49.036 49.176 48.931 48.788 48.901 48.836 48.913 48.981 49.076 49.486 49.088 49.158 49.211 50.063 49.151 49.351 49.276 49.343 49.416 49.476 49.543 49.593 49.653 49.703 49.766 49.833 49.896 49.971 50.098 50.108 50.141 50.196 50.253 50.301 50.356 50.413 50.471 50.523 50.551 50.573 50.671 50.768 50.773 50.851 50.911 51.008 51.101 51.193 51.273 51.326 51.386 51.468 51.541 51.653 51.723 51.791 51.866 52.118 52.008 52.038 52.128 52.241 52.291 52.336 52.273 52.283 52.326 52.501 52.643 53.558 52.776 52.893 52.971 52.991 53.011 53.046 53.091 53.098 53.091 53.191 53.201 53.233 53.281 53.408 53.616 53.656 53.741 53.771 53.821 53.836 53.839 53.904 53.936 53.989 54.009 53.951 53.974 53.864 53.909 53.934 54.006 54.116 54.139 54.291 54.894 55.131 55.209 54.571 54.369 54.444 54.524 54.596 54.676 54.719 54.746 54.751 54.841 54.976 55.074 55.196 55.264 55.284 55.276 55.319 56.126 57.576 60.536 65.184 65.316 65.506 65.564 65.586 65.516 66.129 66.176 66.171 66.076 65.944 65.786 65.626 66.531 66.534 66.349 66.226 66.011 65.834 65.809 66.946 66.211 64.971 56.644 56.624 56.731 57.041 57.389 58.071 57.559 58.574 58.841 59.536 67.766 69.019 68.611 67.394 62.709 59.071 59.144 59.196 59.221 59.104 59.166 59.326 59.936 60.306 64.626 70.791 71.939 72.459 72.354 72.234 72.056 71.949 71.759 71.641 71.481 71.351 71.207 71.015 70.893
33.64 33.755 33.873 34.043 34.218 34.853 35.478 36.583 36.698 36.96 38.003 37.908 37.47 36.94 36.975 37.113 37.583 37.148 37.123 37.183 37.205 37.255 37.498 37.423 37.553 37.78 38.013 38.26 38.363 38.458 38.738 41.973 44.2 38.828 38.993 38.825 38.75 39.113 39.023 38.47 37.865 37.313 35.918 35.64 35.658 35.595 35.585 38.11 40.083 41.153 41.345 41.405 41.405 41.475 41.58 41.65 41.74 41.835 41.903 41.97 42.053 42.123 42.193 42.328 42.455 43.065 37.763 39.745 44.31 44.493 44.483 44.433 44.38 44.378 44.358 44.338 44.315 44.288 44.263 44.245 44.218 44.193 44.213 44.263 44.306 42.85 38.34 36.783 36.853 37.038 37.018 37.09 37.168 37.25 37.343 37.403 37.47 37.54 37.613 37.668 37.723 37.783 37.998 38.12 38.383 38.873 39.473 39.843 40.138 40.275 43.718 49.75 48.003 40.346 40.308 40.685 40.218 40.173 40.158 40.183 40.263 40.468 40.663 40.773 40.92 41.063 41.206 41.29 41.368 46.248 51.816 51.651 51.513 51.351 51.193 51.053 51.488 51.346 51.193 51.053 50.911 50.763 50.368 50.978 48.241 48.951 48.576 45.728 43.828 42.781 43.201 43.678 44.136 44.078 44.576 44.693 44.668 44.663 44.718 44.816 44.906 44.996 45.098 45.211 45.298 45.406 45.496 45.623 45.756 45.858 45.946 46.066 46.151 46.261 46.356 46.466 46.551 46.671 46.776 46.923 46.996 47.068 47.151 47.238 47.346 47.433 47.523 47.611 47.686 47.721 47.771 47.801 47.833 48.876 48.548 48.866 49.996 50.491 50.048 48.926 48.743 48.821 48.026 48.083 48.041 48.008 48.533 53.928 55.146 54.218 49.716 47.828 48.148 47.871 50.586 48.263 48.211 48.233 48.228 48.238 48.276 48.808 57.216 58.488 58.148 56.976 49.236 48.903 48.933 48.953 48.953 48.918 48.901 48.916 48.898 48.863 48.853 50.221 52.036 48.881 49.048 49.891 49.001 48.831 48.921 49.813 48.961 49.038 49.138 49.236 49.298 49.268 49.273 49.298 49.323 49.343 49.716 50.266 49.438 49.396 49.431 49.511 49.578 49.643 49.711 49.778 49.851 49.916 49.981 50.058 50.083 50.128 50.171 50.233 50.301 50.368 50.436 50.478 50.523 50.656 50.681 50.743 50.808 50.871 50.941 51.011 51.088 51.151 51.236 51.291 51.351 51.411 51.483 51.548 52.551 53.418 53.253 53.883 54.228 52.528 52.536 54.346 54.508 52.591 52.386 52.313 52.301 52.356 52.503 52.646 53.443 52.871 53.048 55.616 56.668 53.071 53.118 55.408 54.368 53.131 53.718 53.328 53.946 53.751 53.441 53.643 53.748 53.851 53.856 53.841 53.871 53.964 53.974 54.064 54.106 54.944 54.221 54.061 53.941 53.971 53.994 54.121 54.176 54.231 54.236 54.281 54.301 54.464 54.426 54.436 54.459 54.539 54.621 54.679 54.751 54.806 54.841 54.846 55.036 55.111 55.231 55.316 55.324 55.346 55.374 57.714 56.749 63.806 63.911 64.081 64.206 64.374 64.494 64.696 64.894 65.039 65.166 65.351 65.471 65.636 65.794 65.984 66.139 66.271 66.451 66.579 66.664 66.754 67.064 66.036 64.376 56.741 56.909 57.079 57.376 57.706 58.019 58.179 58.666 58.941 63.444 67.909 69.169 68.451 66.914 60.726 59.111 59.159 59.839 59.259 59.131 59.224 59.421 60.036 60.334 67.406 70.931 71.336 71.491 71.594 71.784 71.896 72.066 72.254 72.374 72.449 72.456 72.337 72.18 72.013
33.458 33.575 33.693 33.868 34.045 34.18 34.585 35.788 36.585 37.328 38.235 38.365 37.903 36.925 36.973 37.008 37.08 37.173 37.118 37.163 37.19 37.22 37.523 37.448 37.558 37.725 37.88 38.08 38.238 38.288 38.435 38.453 38.518 38.52 41.423 40.648 38.4 38.465 38.91 38.35 37.848 36.77 36.123 35.92 35.818 35.73 35.688 35.673 35.635 35.693 39.035 40.7 41.54 41.608 41.64 41.65 41.708 41.785 41.985 41.958 42.045 42.103 42.173 42.235 42.303 42.378 42.51 42.738 41.42 37.263 40.568 44.068 44.513 44.503 44.445 44.395 44.38 44.353 44.328 44.306 44.263 44.23 44.19 44.14 44.115 44.133 44.185 44.193 41.675 37.31 37.053 37.155 37.223 37.245 37.326 37.398 37.486 37.578 37.645 37.721 37.78 37.861 37.931 38.103 38.273 38.46 38.798 39.25 39.685 40.056 40.245 40.915 40.293 40.303 40.24 40.188 40.123 40.096 40.1 40.128 40.358 41.603 40.66 40.728 40.893 41.038 41.158 41.275 41.311 50.013 51.068 51.226 51.386 51.498 51.661 51.823 52.518 52.498 52.443 52.296 52.138 52.033 51.873 52.326 52.178 52.061 52.263 53.458 52.413 50.551 42.896 43.461 44.546 43.903 44.283 44.513 44.668 47.101 44.716 44.851 44.946 45.068 45.126 45.328 45.351 45.458 45.596 45.676 45.781 45.886 45.981 46.083 46.183 46.271 46.363 46.448 46.553 46.661 46.801 46.978 47.018 47.086 47.211 47.306 47.376 47.441 47.491 47.531 47.583 47.601 47.618 47.673 47.693 48.288 48.371 47.918 47.823 47.851 47.896 47.878 47.836 47.838 50.841 47.981 47.946 47.906 50.803 54.071 55.196 54.081 48.151 47.826 47.871 47.846 50.841 48.236 48.763 48.231 48.238 48.256 49.658 52.158 57.388 58.626 57.808 56.568 48.366 48.858 48.793 48.766 48.878 49.088 49.186 49.016 50.408 50.188 48.923 48.928 48.941 48.966 50.236 49.041 48.861 48.881 48.913 48.988 49.023 49.138 49.226 49.273 49.331 49.361 49.361 49.351 49.388 49.421 49.471 49.493 49.513 49.696 49.501 49.486 49.533 49.616 49.683 49.866 49.908 49.968 50.028 50.111 50.203 50.271 50.301 50.361 50.363 50.351 50.426 50.496 50.598 50.723 50.723 50.763 50.838 50.921 50.973 51.046 51.106 51.173 51.686 52.041 51.303 51.333 51.408 51.418 53.543 51.996 51.911 52.008 52.073 52.146 52.238 52.328 54.361 53.538 52.426 52.366 52.283 52.338 52.511 52.608 53.533 52.878 53.088 60.193 61.471 60.573 59.301 59.533 55.561 53.666 56.473 56.678 53.756 53.371 53.428 53.693 53.956 54.011 54.341 54.489 53.926 55.169 54.291 54.181 54.146 54.236 54.301 54.131 53.996 54.026 54.121 54.214 54.329 54.844 54.494 54.424 54.396 54.436 54.466 54.509 54.581 54.619 54.606 54.679 54.761 54.849 54.916 54.949 54.966 55.154 55.251 55.356 55.419 55.486 55.501 56.011 56.376 55.314 55.501 59.489 60.801 58.596 61.929 63.451 61.574 59.169 63.939 64.094 64.004 64.381 64.534 62.639 64.204 65.039 65.204 65.316 65.471 66.051 67.074 65.896 62.859 56.829 57.156 57.479 57.789 58.036 58.196 58.289 58.739 58.936 62.914 68.056 69.254 68.316 64.754 59.026 59.121 59.149 59.269 59.289 59.176 59.279 59.501 59.906 60.384 66.284 68.524 68.886 69.664 70.459 70.609 70.791 70.996 72.186 71.601 71.374 71.504 71.659 71.83 71.945
33.325 33.43 33.545 33.718 33.87 34.043 34.163 34.463 35.463 36.423 37.115 38.395 38.423 38.003 36.98 36.99 37.048 37.083 37.11 37.143 37.17 37.193 37.375 37.395 37.488 37.633 37.745 37.903 38.063 38.15 38.163 38.188 38.245 38.238 38.168 38.258 37.915 37.75 38.678 38.335 37.425 36.8 36.415 36.185 36.078 35.945 35.858 35.803 35.738 35.71 35.715 35.753 35.79 37.318 41.015 41.14 41.84 41.86 41.855 42.11 42.005 42.083 42.155 42.233 42.28 42.345 42.41 42.47 42.538 42.67 42.75 42.565 37.553 39.603 44.53 44.528 44.5 44.43 44.381 44.343 44.326 44.276 44.233 44.188 44.138 44.103 44.051 44.023 44.026 44.076 44.093 42.318 37.921 37.536 37.408 37.418 37.508 37.586 37.671 37.768 37.836 37.908 38.006 38.101 38.203 38.428 38.573 38.748 39.046 39.433 39.748 40.006 40.173 40.176 40.968 40.108 40.041 40.031 40.071 40.148 40.316 40.441 40.611 40.753 40.91 41.078 41.186 41.278 41.321 46.528 47.898 49.953 50.101 50.218 50.401 50.526 51.301 51.448 51.596 51.786 51.883 52.048 52.166 52.948 53.073 53.118 53.091 53.476 52.283 48.998 42.938 43.368 43.811 43.738 44.076 44.376 45.506 46.603 44.686 44.808 45.918 45.028 45.188 45.203 45.326 45.431 46.048 45.676 45.796 45.881 46.091 46.116 46.313 46.356 46.411 46.456 46.561 46.681 46.811 46.958 47.051 47.126 47.231 47.308 47.393 47.463 47.496 47.553 47.581 47.616 47.663 47.678 47.731 47.756 47.748 47.766 47.776 47.801 47.803 47.786 47.798 47.813 47.913 47.841 47.823 47.798 49.388 54.243 55.191 53.953 47.976 47.831 47.838 49.116 51.036 48.216 48.953 48.496 48.241 48.266 52.186 54.051 57.543 58.701 57.648 52.816 48.383 48.943 48.766 48.703 48.706 48.703 48.723 48.708 49.301 48.716 48.706 48.761 48.946 49.113 49.546 49.031 48.926 48.933 49.001 49.058 49.093 49.158 49.231 49.273 49.313 49.358 49.368 49.498 49.441 49.533 49.536 49.558 49.578 49.628 49.663 49.713 49.763 49.803 49.866 49.956 50.016 50.061 50.133 50.203 50.261 50.293 50.361 50.408 50.463 50.378 50.426 50.498 50.671 50.751 50.836 50.936 51.556 52.701 55.188 51.646 51.178 53.828 52.428 51.241 51.341 51.358 51.318 51.321 53.858 52.433 51.916 52.008 52.081 52.128 52.223 52.373 52.516 52.591 53.768 52.541 52.296 52.358 52.488 52.996 53.308 52.888 53.113 62.838 62.638 62.521 62.363 62.231 62.063 61.913 61.781 61.473 61.396 59.536 53.443 53.713 54.106 54.556 54.601 54.081 54.106 54.103 54.526 54.216 54.241 55.116 54.476 54.183 54.068 54.098 54.243 54.406 54.508 54.636 54.833 54.628 54.611 55.076 54.593 54.583 54.606 54.641 54.693 54.753 54.786 54.858 54.928 55.003 55.073 55.123 55.203 55.371 55.458 55.558 55.631 55.623 55.586 55.653 55.328 55.286 55.338 55.246 55.286 55.888 56.216 55.781 55.866 56.266 55.891 57.474 60.886 56.459 56.456 58.586 57.491 56.536 59.149 62.461 64.344 64.644 61.879 56.951 57.369 57.756 58.061 58.181 58.279 58.331 58.534 58.864 58.984 59.021 59.006 58.999 59.166 59.039 59.144 59.196 59.306 59.329 59.274 59.384 59.566 59.739 60.396 60.829 61.429 61.681 61.499 63.729 63.571 64.886 68.666 69.234 69.589 69.221 70.361 70.516 70.651 70.807
33.258 33.625 33.788 33.765 33.81 33.965 34.11 34.22 34.613 35.34 36.868 37.293 38.435 38.453 37.793 37.008 37.038 37.065 37.095 37.118 37.148 37.153 37.253 37.38 37.453 37.553 37.643 37.718 37.873 37.975 37.943 37.918 37.93 37.898 37.863 37.763 37.64 37.495 37.358 37.173 37.03 36.96 36.485 36.338 36.148 36.05 35.94 35.873 35.815 35.778 35.848 35.883 35.858 35.843 35.828 35.808 37.738 41.63 41.155 42.058 42.048 42.063 42.118 42.183 42.255 42.335 42.393 42.453 42.513 42.563 42.613 42.67 42.795 43.005 42.405 38.45 39.17 44.55 44.508 44.471 44.378 44.328 44.276 44.236 44.183 44.141 44.096 44.028 43.996 43.936 43.903 43.906 43.926 43.878 43.038 38.448 37.661 37.616 37.706 37.793 37.873 37.976 38.063 38.166 38.258 38.358 38.506 38.743 38.871 39.013 39.158 39.323 43.231 39.671 39.798 39.906 39.916 39.958 40.046 40.321 40.503 40.488 40.588 40.761 41.013 41.168 41.298 41.376 41.428 41.446 41.466 42.321 43.428 41.528 44.806 47.473 43.563 48.588 50.201 50.501 50.633 50.758 50.903 51.681 51.846 51.983 52.518 53.396 52.126 49.051 42.953 43.233 43.428 43.563 43.946 44.203 45.111 45.963 44.658 44.773 45.656 44.963 45.053 45.158 45.298 45.366 45.933 46.213 45.696 45.803 45.901 46.006 46.096 46.241 46.386 46.471 46.558 46.701 46.918 47.076 47.188 47.213 47.226 47.863 48.091 48.228 48.193 47.543 47.591 47.618 47.666 47.701 47.743 47.776 47.773 47.786 47.801 47.831 48.368 48.141 47.798 47.803 47.918 47.938 47.921 47.898 51.816 54.396 55.076 53.851 48.246 48.133 47.986 49.983 49.393 48.186 48.153 48.206 48.246 48.283 48.706 54.053 57.703 58.711 57.528 49.816 48.461 48.923 48.778 48.746 48.761 48.746 48.751 48.821 49.198 48.758 48.738 48.801 48.946 49.051 49.103 48.993 48.998 49.006 49.123 49.148 49.176 49.231 49.286 49.308 49.371 49.388 49.451 49.488 49.546 49.681 49.666 49.666 49.763 50.378 49.763 50.058 49.928 49.921 49.986 50.023 50.071 50.138 50.288 50.291 50.326 50.371 50.406 50.448 50.496 50.531 50.458 50.523 50.701 51.036 52.476 50.968 51.036 58.036 59.156 58.241 55.646 56.231 54.356 51.181 54.351 55.018 51.528 51.261 52.561 51.848 51.881 51.926 51.993 52.038 52.116 52.346 52.546 52.618 53.966 52.438 52.311 52.376 52.456 53.358 52.826 52.911 53.161 63.286 63.416 63.531 63.536 63.468 63.338 63.186 63.028 62.873 62.708 59.456 53.526 53.731 54.076 54.031 54.016 54.038 54.081 54.156 54.188 54.491 54.286 54.336 54.361 54.218 54.136 54.178 54.338 54.513 54.876 54.608 55.541 55.021 54.788 54.928 55.676 55.316 54.791 54.723 54.758 54.793 54.871 54.941 54.981 55.018 55.101 55.188 55.246 55.323 55.398 55.556 55.661 55.768 55.831 55.918 55.898 55.703 55.683 55.521 55.501 55.593 56.041 55.876 55.768 57.128 55.934 55.991 56.011 58.164 56.476 56.574 56.694 56.584 56.701 56.756 56.774 56.799 56.924 57.244 57.631 58.006 58.166 58.286 58.369 58.456 58.544 58.704 58.946 58.941 59.896 59.066 59.014 59.011 59.249 59.284 59.351 59.319 59.311 59.429 59.596 60.531 60.646 60.421 60.591 60.609 60.344 60.361 60.351 60.371 60.364 60.671 61.429 61.851 63.269 63.854 64.646 66.479
33.258 33.718 33.973 34.133 34.07 34.023 34.16 34.245 34.405 34.888 35.805 36.988 37.843 38.33 38.54 37.495 37.02 37.053 37.085 37.103 37.113 37.138 37.185 37.398 37.398 37.45 37.51 37.58 37.725 37.758 37.763 37.703 37.708 37.695 37.633 37.5 37.365 37.26 37.128 36.938 36.743 36.518 36.335 36.21 36.105 36.028 35.923 35.895 35.838 35.868 35.865 35.815 35.785 35.775 35.77 35.768 35.85 35.658 35.748 37.598 41.24 40.868 42.25 42.238 42.225 42.288 42.35 42.42 42.48 42.543 42.59 42.648 42.7 42.743 42.805 42.908 43.138 42.883 37.383 39.066 44.493 44.448 44.396 44.283 44.221 44.181 44.123 44.073 44.031 43.981 43.933 43.866 43.763 43.676 43.676 43.698 43.696 42.756 38.536 37.891 37.931 38.021 38.123 38.215 38.333 38.436 38.548 38.671 38.768 38.911 39.073 39.218 39.353 39.481 39.593 39.703 39.816 39.918 40.023 40.201 40.401 40.508 40.598 40.681 40.993 41.558 41.626 41.606 41.541 41.513 41.551 41.606 41.648 41.646 41.691 41.688 42.018 42.058 42.096 42.146 42.131 43.796 46.961 43.626 45.356 51.408 52.643 53.281 51.998 48.208 42.948 43.251 43.243 43.416 43.703 44.083 44.286 44.941 44.596 44.756 44.746 44.838 44.976 45.078 45.198 45.383 46.323 46.043 45.576 45.676 45.766 45.891 45.906 46.011 46.158 46.276 46.396 46.551 47.491 48.113 47.401 47.091 47.036 47.466 48.243 48.796 48.553 47.446 47.511 48.951 47.666 47.678 47.711 47.746 47.768 47.781 47.808 47.843 48.761 48.356 47.791 47.793 47.793 47.798 47.831 47.906 52.833 54.518 54.893 53.636 47.858 47.868 47.863 49.888 49.228 48.176 48.178 48.243 48.266 48.283 48.291 54.496 57.838 58.626 57.341 53.181 48.521 48.868 48.788 48.788 48.791 48.806 48.808 48.828 48.831 48.811 48.818 48.903 49.008 49.121 49.061 49.068 49.043 49.166 49.178 49.258 50.663 51.453 49.386 49.348 49.388 49.431 49.463 49.931 49.638 49.768 49.781 49.811 49.818 50.241 49.873 49.956 50.008 49.978 50.678 50.253 50.751 50.398 50.843 50.596 50.671 50.588 50.671 50.783 50.631 50.588 50.508 50.576 50.716 50.861 51.556 50.981 51.048 59.908 60.596 60.428 60.281 60.126 59.946 59.788 59.648 59.496 58.178 58.768 60.283 60.196 61.146 59.271 56.523 53.748 51.846 52.386 52.598 52.641 54.178 52.473 52.353 52.373 52.431 52.631 52.893 52.958 53.188 62.016 62.163 62.323 62.486 62.603 62.758 62.898 63.086 63.251 63.416 57.843 53.581 53.876 53.928 53.991 54.043 54.043 53.963 54.028 54.113 54.161 54.228 54.271 54.253 54.171 54.198 54.246 54.348 54.493 54.563 54.616 54.673 54.746 54.808 55.533 56.166 55.006 55.298 54.923 54.933 54.868 54.911 54.961 55.043 55.086 55.153 55.211 55.296 55.368 55.448 55.518 55.598 55.701 55.863 55.948 56.043 56.146 56.641 56.208 56.178 56.153 56.248 56.296 56.268 56.278 56.301 56.379 56.324 56.756 56.851 56.854 56.914 56.981 57.146 57.246 57.279 57.361 57.486 57.724 57.986 58.176 58.249 58.334 58.449 58.524 58.611 58.704 58.756 58.861 58.901 59.039 59.101 59.189 59.254 59.334 59.351 59.286 59.396 59.474 59.549 59.761 59.911 60.229 60.246 60.459 60.401 60.566 60.756 60.396 60.776 60.454 60.321 60.329 60.339 60.376 60.389 60.417
