ncols 433
nrows 32
xllcorner    431022
yllcorner    432352
cellsize     2
NODATA_value -9999
26.011 31.696 32.421 33.133 33.848 34.576 35.298 35.761 35.031 34.303 33.563 32.836 32.116 31.426 31.956 32.673 33.413 34.113 34.853 35.573 35.311 34.573 33.836 33.139 32.411 31.673 26.426 25.565 26.132 26.812 29.384 29.462 26.459 26.64 25.656 25.618 25.591 25.604 25.607 26.448 27.052 26.042 26.614 26.494 26.212 26.745 32.969 33.508 33.96 34.617 34.972 35.672 36.4 37.16 43.052 43.391 41.309 39.995 37.913 37.206 36.248 35.047 35.191 35.775 36.293 36.808 37.429 37.868 38.261 40.021 40.493 35.55 40.332 40.782 40.341 39.457 45.266 41.883 36.841 35.052 34.655 33.111 31.299 32.772 29.578 28.034 26.503 26.439 26.395 26.19 26.042 25.994 25.915 25.957 26.244 25.801 25.642 25.503 25.425 25.432 25.524 25.547 25.726 25.668 25.551 25.43 25.391 25.386 25.337 25.37 25.813 26.044 27.159 25.508 25.465 25.442 25.426 25.433 25.338 25.253 25.179 25.194 25.212 25.238 25.374 25.19 25.187 25.269 27.351 27.93 27.945 29.777 29.647 29.486 29.543 30.064 30.415 30.862 31.034 31.548 32.088 32.887 33.321 33.669 34.286 30.892 34.213 35.876 36.432 36.953 36.905 36.459 35.874 35.587 32.07 25.463 24.944 26.564 35.943 38.138 38.74 35.683 37.428 37.959 38.695 38.61 37.915 37.486 38.262 38.839 38.057 28.316 24.681 24.833 27.722 30.748 31.063 32.354 31.417 29.478 29.539 29.756 31.141 33.48 30.293 30.023 29.092 28.753 28.839 22.397 22.433 29.279 29.334 29.339 28.382 29.77 30.217 29.924 29.902 30.778 29.963 29.958 30.013 30.088 30.084 30.066 30.156 30.226 30.237 30.296 30.333 30.531 30.604 30.5 30.444 30.515 30.525 30.566 30.613 30.723 30.689 30.576 30.494 30.552 30.396 30.245 29.123 29.729 30.057 29.731 29.77 29.497 29.475 29.475 29.368 29.374 29.358 29.116 28.835 29.222 34.01 34.44 29.563 27.814 27.8 27.763 27.763 27.75 27.784 27.815 27.817 29.613 34.987 35.567 35.849 36.075 36.37 36.576 36.621 36.367 35.953 35.573 31.422 30.023 28.776 27.966 27.853 27.823 27.733 27.724 27.634 27.672 27.694 27.681 27.655 28.249 28.703 31.19 33.411 34.094 33.888 28.5 27.844 27.885 27.89 27.94 27.961 28.022 28.024 28.062 28.096 28.153 28.146 28.196 28.218 28.263 28.285 28.296 28.315 28.253 28.237 28.207 28.781 34.825 35.883 36.132 35.689 28.597 28.37 28.643 28.939 34.594 35.965 34.976 32.822 32.555 29.878 28.696 28.726 29.1 29.559 32.316 31.219 33.838 35.104 35.79 33.833 32.779 32.166 30.536 29.987 30.134 29.725 30.301 33.223 34.684 34.369 34.06 33.767 31.29 28.588 28.595 28.831 29.326 38.486 40.77 39.849 34.416 33.301 34.132 33.156 33.137 33.159 33.11 33.104 33.083 33.039 33.012 33.011 32.983 33.263 35.087 36.878 35.286 34.048 32.474 32.322 32.356 32.572 32.64 32.646 32.835 32.806 36.901 35.231 35.771 36 35.786 40.551 38.86 40.601 41.323 41.493 37.78 35.382 35.536 35.432 35.614 35.445 35.478 35.342 35.329 35.136 35.1 35.036 34.964 34.994 34.929 34.94 34.938 34.947 34.965 34.982 34.954 34.964 34.956 34.949 34.977 34.905 34.936 35.007 34.973 34.968 34.949 34.947 34.892 34.949 34.953 34.972 34.901 34.86 34.855 34.761 34.8 34.88 34.794 34.7 34.59 34.647 34.651 34.906 35.218 35.308
26.528 31.706 32.418 33.143 33.878 34.588 35.306 35.758 35.023 34.288 33.571 32.838 32.113 31.426 31.966 32.686 33.431 34.153 34.871 35.596 35.288 34.585 33.865 33.134 32.409 31.674 26.535 25.525 25.577 28.817 29.692 29.184 28.141 27.931 25.709 25.681 25.647 25.681 25.954 25.954 26.779 25.982 25.816 26.087 25.894 25.913 31.395 33.385 33.757 34.31 34.914 35.354 36.036 36.765 39.012 38.354 39.345 38.935 38.209 37.395 36.567 35.715 35.076 35.592 36.125 36.51 37.017 37.567 38.034 39.489 40.433 40.256 41.143 41.017 40.389 38.719 39.715 37.68 36.9 35.516 34.922 33.073 31.434 32.49 33.359 29.199 26.496 26.34 26.215 26.113 26.003 25.972 25.896 25.879 26.741 25.814 25.644 25.465 25.472 25.46 25.482 25.605 26.032 25.679 25.525 25.4 25.379 25.382 25.379 25.364 26.049 26.235 25.479 25.441 25.422 25.415 25.399 25.422 25.451 25.407 25.267 25.293 25.217 25.302 25.554 25.315 25.26 25.267 27.918 26.657 26.265 28.442 29.13 30.056 30.615 30.723 31.188 31.772 32.125 31.96 31.944 33.219 34.402 34.807 35.242 34.746 36.479 36.87 36.947 36.459 36.08 35.486 34.887 34.471 32.629 26.255 24.996 26.415 32.987 37.646 38.449 38.749 37.693 37.394 38.008 38.902 38.035 37.291 37.635 38.599 37.563 30.539 26.859 26.637 28.028 29.809 29.641 29.369 30.011 29.336 29.153 29.576 30.895 31.658 30.361 29.516 28.971 28.925 28.87 28.694 29.096 29.413 29.848 29.077 26.889 27.657 29.894 29.962 29.997 29.968 30.025 30.057 30.156 30.148 30.191 30.249 30.273 30.288 30.305 30.472 30.569 30.613 30.451 30.472 30.585 30.559 30.667 30.761 30.781 30.838 29.9 30.175 29.527 28.724 28.384 28.262 31.956 29.187 29.702 29.697 29.702 29.482 29.353 29.285 29.246 29.222 29.22 29.163 28.931 28.653 31.772 33.622 28.6 27.797 27.779 27.733 27.73 27.762 27.765 27.749 27.79 27.807 27.861 33.602 35.44 35.738 36.034 36.294 36.459 36.117 35.759 31.549 28.277 29.51 28.322 27.907 27.811 27.78 27.683 27.648 27.676 27.746 27.664 27.606 27.735 30.557 31.737 30.733 28.789 29.221 29.21 27.832 27.908 27.899 27.945 28.005 28.015 28.04 28.059 28.091 28.14 28.197 28.23 28.244 28.287 28.28 28.319 28.313 28.316 28.237 28.138 28.674 34.958 35.942 36.26 36.408 36.097 30.785 29.826 28.482 28.773 32.418 34.111 34.515 34.494 34.12 32.032 28.768 28.671 28.497 28.741 29.081 33.052 35.138 36.962 33.244 33.603 31.679 30.467 30.343 30.368 29.809 29.359 34.661 35.143 34.87 34.652 34.31 34.038 32.892 29.574 28.452 28.555 30.057 30.824 35.29 38.025 36.012 36.997 34.685 33.207 33.424 33.151 33.096 33.03 33.027 33.128 33.024 32.951 32.941 32.91 33.267 35.203 35.013 32.813 32.433 32.427 32.274 32.485 32.462 32.664 32.769 32.872 33.652 32.904 34.711 40.041 39.797 39.057 41.019 36.756 39.709 37.805 39.755 37.956 36.018 35.498 35.451 37.178 35.222 35.184 35.234 35.101 35.093 34.902 34.91 34.956 34.855 34.883 34.904 34.897 34.954 34.935 34.956 34.987 34.961 34.893 34.922 34.9 34.922 34.927 34.988 34.975 34.988 34.913 34.844 34.866 34.896 34.912 34.897 34.773 34.756 34.754 34.855 34.859 34.939 34.777 34.664 34.6 34.553 34.7 35.026 35.148
26.526 31.718 32.431 33.178 33.868 34.598 35.311 35.741 35.026 34.306 33.603 32.828 32.113 31.433 31.971 32.698 33.431 34.153 34.881 35.611 35.296 34.578 33.847 33.126 32.419 31.668 29.54 29.058 26.117 29.148 29.736 28.734 27.414 26.549 25.741 25.722 25.723 26.23 26.845 26.868 26.344 26.894 25.835 25.938 27.725 28.451 27.766 32.988 33.665 34.146 34.643 35.131 35.7 36.472 37.327 38.193 38.69 39.423 38.629 37.704 37.114 36.132 35.145 35.305 35.831 36.413 36.78 37.345 37.828 38.154 40.225 40.729 41.019 37.634 37.87 40.22 38.564 37.898 37.335 35.814 35.264 34.638 31.827 30.151 27.913 26.728 26.239 26.15 26.079 26.054 25.997 25.914 25.868 25.852 26.68 26.174 25.668 25.471 25.463 25.429 25.487 25.569 25.711 25.635 25.487 25.426 25.374 25.409 25.357 25.31 25.328 28.217 25.588 25.428 25.396 25.397 25.371 25.419 26.774 25.651 25.741 25.288 25.287 25.268 25.33 25.227 25.228 25.38 25.402 25.521 28.287 29.935 30.766 30.977 31.435 31.901 31.939 31.839 31.45 31.095 30.764 30.593 35.172 35.956 36.444 36.723 36.982 36.624 35.997 35.453 34.949 34.505 34.044 33.365 32.791 30.251 26.141 26.193 32.116 37.26 38.293 38.729 38.247 37.631 37.845 38.559 37.163 37.47 37.654 38.219 32.713 31.764 27.606 27.267 27.648 28.674 28.766 28.746 28.935 28.842 28.783 29.011 29.663 29.303 29.259 29.057 29.027 29.043 28.974 29.04 28.738 28.68 28.847 28.111 27.992 28.329 29.466 30.066 30.026 30.029 30.079 30.193 30.237 30.29 30.27 30.341 30.374 30.445 30.49 30.622 30.645 30.587 30.588 30.574 30.615 30.696 30.888 30.896 30.788 30.463 29.542 28.689 28.312 28.192 29.789 33.966 34.261 30.016 28.897 31.352 29.51 29.411 29.28 29.206 29.157 29.065 29.127 29.079 28.932 28.699 30.798 34.32 32.254 28.692 27.79 27.724 27.742 27.716 27.761 27.778 27.761 27.779 27.807 27.844 32.075 35.438 35.619 35.961 36.129 35.849 35.359 29.139 28.642 28.154 27.802 27.792 27.77 27.711 27.657 27.714 27.683 27.642 27.683 27.713 29.986 31.943 30.895 28.024 27.798 27.863 27.861 27.87 27.931 27.979 28.016 28.024 28.028 28.07 28.139 28.156 28.179 28.214 28.25 28.255 28.513 28.431 28.345 28.302 28.237 28.326 33.612 35.741 36.066 36.285 36.62 36.694 36.429 35.893 33.113 28.515 28.554 28.895 31.228 34.321 36.06 35.229 30.419 28.884 28.709 28.738 28.56 28.493 33.656 36.398 36.407 36.881 32.832 30.285 32.012 29.635 30.052 28.748 33.767 35.697 35.37 35.118 34.786 34.558 34.265 34.119 32.727 28.514 28.434 28.723 28.737 35.21 38.841 41.608 42.06 40.317 38.771 35.863 35.692 33.909 33.052 33.001 32.965 33.006 32.947 32.941 32.842 32.904 33.287 35.064 33.437 32.719 32.452 32.318 32.417 32.581 32.58 32.683 32.888 32.989 33.098 33.277 36.185 37.948 39.51 37.98 35.717 42.171 40.927 40.748 39.752 39.966 37.715 38.943 38.026 35.795 35.242 35.121 35.016 34.994 34.939 34.897 34.892 34.881 34.847 34.861 34.851 34.873 34.892 34.891 34.922 34.864 34.89 34.898 34.847 34.876 34.955 34.917 34.878 34.952 34.905 34.817 34.874 34.834 34.91 34.805 34.869 34.947 34.82 34.801 34.923 34.865 34.693 34.578 34.551 34.578 34.722 34.94 35.007
26.206 31.721 32.436 33.151 33.866 34.586 35.333 35.743 35.023 34.283 33.586 32.856 32.088 31.431 31.996 32.711 33.431 34.176 34.891 35.605 35.303 34.565 33.836 33.114 32.42 31.682 29.909 28.622 27.34 28.998 29.738 27.098 27.873 26.165 25.787 25.762 25.949 26.065 26.808 26.617 26.39 26.136 27.818 28.185 28.463 28.407 28.187 32.378 33.253 33.794 34.383 34.845 35.397 36.128 36.863 37.585 38.417 39.427 39.03 38.263 37.364 36.548 35.707 35.109 35.635 36.233 36.477 37.092 37.616 38.096 39.669 40.38 40.724 37.275 40.969 40.429 39.307 38.077 37.571 36.833 35.401 34.927 32.103 28.947 28.26 26.311 26.178 26.146 26.098 26.031 25.987 25.895 25.863 25.794 26.808 25.898 25.673 25.53 25.431 25.414 25.422 25.514 25.662 25.686 25.567 25.475 25.446 25.415 25.364 25.325 25.379 27.183 26.333 25.384 25.397 25.395 25.385 25.807 26.737 26.274 27.157 25.962 26.042 25.716 25.416 25.376 25.42 25.565 28.823 30.016 30.879 30.928 31.572 31.949 31.943 31.706 31.389 31.059 30.704 30.242 30.29 30.479 34.682 36.805 37.107 36.543 36.061 35.431 35.157 34.5 34.032 33.413 32.959 32.711 33.086 29.5 28.416 28.281 27.723 35.091 37.448 38.463 38.653 37.938 37.482 38.238 37.698 37.307 37.439 33.269 33.26 30.107 27.972 27.568 27.59 27.926 28.131 28.354 28.425 28.784 28.84 28.889 28.989 28.946 29.127 29.212 29.326 29.183 29.171 28.808 28.872 29.163 29.681 30.696 30.49 30.279 29.448 29.856 30.043 30.1 30.189 30.321 30.325 30.306 30.409 30.463 30.546 30.568 30.664 30.777 30.634 30.621 30.601 30.63 30.688 30.775 30.903 30.953 29.589 28.634 28.243 28.198 28.563 33.397 35.564 35.797 35.896 34.179 28.98 29.702 29.757 29.366 29.182 29.067 29.007 29.264 30.595 29.019 28.942 28.779 32.025 33.911 33.908 32.267 27.814 27.7 27.722 27.744 27.724 27.731 27.753 27.776 27.766 27.799 27.839 30.004 34.839 35.522 35.746 35.595 31.694 29.226 28.344 27.915 27.724 27.615 27.641 27.691 27.693 27.692 27.643 27.645 27.928 31.606 32.197 31.962 31.639 27.885 27.866 27.889 27.922 27.954 27.992 27.986 28.055 28.06 28.104 28.151 28.164 28.19 28.204 28.242 28.302 28.3 28.602 29.608 28.365 28.272 28.268 33.52 35.803 36.112 36.369 36.733 36.93 36.947 36.556 36.312 35.921 29.91 28.618 28.67 29.502 33.542 35.67 35.416 34.099 31.88 28.749 28.704 28.625 29.344 33.115 34.75 35.729 35.62 34.428 34.073 32.351 29.266 29.578 34.71 35.813 35.894 35.603 35.272 35.114 34.849 34.536 34.255 33.998 31.045 28.703 28.548 28.426 37.112 40.829 41.694 43.071 42.85 35.515 32.334 39.859 38.67 33.053 33.032 32.943 32.948 32.99 32.929 32.845 32.836 32.848 32.834 32.81 32.992 32.688 32.447 32.448 32.482 32.652 32.702 32.906 32.941 33.145 33.27 34.13 35.956 38.612 40.455 38.982 36.113 41.492 40.534 38.744 41.252 36.797 36.253 40.015 37.363 35.501 35.258 35.077 34.966 34.913 34.922 34.859 34.862 34.873 34.812 34.832 34.845 34.856 34.891 34.867 34.86 35.008 34.887 34.826 34.789 34.806 34.857 34.861 34.905 34.83 34.792 34.803 34.816 34.784 34.718 34.775 34.778 34.747 34.777 34.751 34.659 34.599 34.619 34.647 34.714 34.753 34.814 34.855
26.711 31.721 32.438 33.161 33.883 34.598 35.328 35.733 35.008 34.276 33.543 32.826 32.096 31.421 31.998 32.728 33.458 34.166 34.89 35.611 35.301 34.569 33.854 33.118 32.394 31.676 26.917 26.591 28.946 32.789 27.505 27.856 28.269 26.014 25.852 25.84 25.85 26.618 27.099 28.058 28.278 27.763 28.488 28.422 28.473 28.487 28.528 29.349 33.014 33.697 34.047 34.687 35.124 35.604 36.757 37.376 38.27 39.038 39.504 38.521 37.642 36.997 36.138 35.025 35.42 35.86 36.403 36.909 37.386 37.811 38.503 40.155 40.803 41.154 41.115 40.689 40.206 38.779 37.788 37.203 35.852 34.421 33.201 31.687 29.13 27.21 26.204 26.132 26.069 26.042 25.972 25.897 25.833 25.781 26.578 26.557 25.659 25.528 25.42 25.373 25.385 25.453 25.576 25.716 25.593 25.471 25.406 25.452 25.36 25.373 25.355 25.44 27.918 25.533 26.698 27.427 25.399 25.418 26.356 26.577 26.034 25.991 25.652 25.491 25.81 28.005 28.957 30.527 31.064 31.179 32.288 32.711 31.871 31.512 31.213 30.957 30.395 30.28 30.135 30.492 31.079 31.555 31.745 36.521 36.047 35.692 35.126 34.464 33.973 33.488 33.037 32.698 33.08 33.716 33.925 34.26 29.02 26.333 29.106 30.699 36.537 38.085 38.689 38.345 37.387 37.929 35.657 34.629 33.983 30.892 29.783 28.796 28.492 27.611 27.232 27.378 28.03 27.908 28.193 28.363 28.778 28.93 28.963 29.123 29.52 30.555 30.127 29.826 29.758 29.763 29.66 29.8 30.515 30.449 30.411 30.29 29.776 30.03 30.074 30.175 30.286 30.326 30.43 30.536 30.501 30.632 30.7 30.792 30.869 30.73 30.617 30.684 30.728 30.681 30.782 30.914 30.969 29.087 28.741 28.176 28.354 29.073 35.524 35.673 35.96 36.174 36.144 35.729 29.826 30.529 30.272 29.417 29.138 28.988 28.955 28.902 28.815 28.934 28.893 28.796 29.132 33.434 33.015 34.218 28.529 27.703 27.695 27.705 27.717 27.73 27.697 27.779 27.729 27.769 27.787 28.034 28.774 33.963 35.325 31.875 31.125 30.197 30.8 27.882 27.742 27.587 27.651 27.67 27.667 27.68 27.614 28.156 30.051 32.67 31.448 28.489 27.86 27.834 27.914 27.954 27.976 27.965 28.005 28.077 28.101 28.101 28.134 28.137 28.213 28.213 28.264 28.273 28.308 28.31 28.347 28.412 28.439 28.648 33.602 35.904 36.202 36.452 36.77 37.087 37.32 37.201 36.869 36.54 36.177 34.863 30.486 28.528 28.75 31.346 30.992 35.048 34.84 32.341 29.496 28.739 28.784 28.463 28.532 30.095 30.868 33.727 32.216 30.507 30.997 28.845 34.887 35.185 35.556 35.787 35.915 35.599 35.305 35.012 34.753 34.591 34.269 33.918 30.452 28.664 28.69 37.781 39.704 41.05 41.864 36.007 36.935 35.306 40.123 35.762 32.891 32.958 32.964 32.971 32.854 32.897 32.869 32.84 32.781 32.806 32.762 32.797 33.111 32.5 32.562 32.839 32.701 32.768 32.936 33.097 33.17 33.257 33.775 35.812 38.813 41.236 37.236 35.638 40.462 40.987 37.575 40.606 36.337 38.235 41.051 39.349 36.427 35.387 35.101 34.93 34.873 34.853 34.771 34.778 34.727 34.808 34.765 34.788 34.747 34.807 34.804 34.789 34.805 34.822 34.747 34.721 34.738 34.857 34.739 34.723 34.785 34.727 34.788 34.758 34.729 34.743 34.73 34.761 34.774 34.763 34.713 34.613 34.56 34.524 34.528 34.624 34.759 34.796 34.898
26.506 31.721 32.428 33.173 33.883 34.598 35.348 35.721 35.013 34.268 33.546 32.813 32.081 31.433 32.008 32.712 33.457 34.156 34.871 35.6 35.284 34.549 33.885 33.109 32.397 31.659 27.438 25.657 33.251 35.871 32.109 28.164 27.504 25.909 25.901 25.873 25.996 27.028 28.581 29.155 29.038 27.744 28.364 28.349 28.666 28.048 27.304 26.481 30.566 33.291 33.959 34.395 34.986 35.381 36.267 36.947 37.771 38.552 39.48 34.223 33.417 37.187 36.498 35.474 35.214 35.736 36.073 36.593 37.085 37.631 38.099 39.756 40.399 40.902 41.077 40.993 40.342 38.91 38.14 36.068 34.356 33.89 33.505 31.112 29.147 28.81 26.412 26.71 26.871 25.995 25.937 25.86 25.801 25.728 26.737 26.428 25.622 25.498 25.419 25.429 25.414 25.41 25.493 25.647 25.663 25.488 25.42 25.374 25.412 25.378 25.379 25.343 27.599 26.108 26.429 28.181 27.301 26.187 25.516 26.577 26.002 26.314 29.723 28.769 30.389 30.768 31.45 31.702 32.212 32.904 32.257 32.328 31.262 30.787 30.29 30.327 30.338 30.746 31.056 31.46 31.864 32.19 31.906 32.202 34.991 34.673 34.032 33.66 32.998 32.717 32.981 33.527 33.938 34.57 34.924 35.421 34.539 29.621 31.271 31.353 32.412 37.769 38.627 38.668 36.81 35.619 35.856 34.672 30.6 28.582 28.567 28.646 28.63 27.687 27.049 27.127 27.36 27.81 27.885 28.211 28.436 29.204 29.957 30.8 31.803 32.44 31.2 30.737 30.387 30.605 30.328 30.465 30.436 30.405 30.344 30.246 30.238 30.232 30.235 30.265 30.404 30.433 30.529 30.602 30.626 30.741 30.794 30.82 30.736 30.746 30.776 30.727 30.807 31.102 30.965 30.949 29.413 28.154 28.212 28.477 34.209 35.681 35.958 36.144 36.357 36.579 36.39 35.982 34.226 30.045 30.471 29.518 29.082 28.909 28.879 28.852 28.782 28.74 28.825 28.756 28.538 29.413 29.078 32.55 29.226 27.768 27.655 27.685 27.681 27.691 27.711 27.71 27.705 27.728 27.779 28.666 29.906 29.859 30.305 28.435 29.308 29.935 28.487 27.677 27.664 27.697 27.718 27.686 27.644 27.628 28.016 30.98 32.306 31.982 28.152 27.83 27.869 27.871 27.972 27.941 27.996 28.056 28.061 28.079 28.109 28.151 28.183 28.196 28.233 28.286 28.248 28.333 28.313 28.369 28.432 28.443 32.241 35.768 36.076 36.288 36.536 36.824 37.122 37.388 37.685 37.537 37.156 36.756 36.422 36.146 32.132 28.609 28.583 28.922 31.965 34.322 34.437 33.668 31.941 29.189 28.644 28.673 28.448 28.549 29.748 33.001 34.769 28.848 28.934 34.393 34.75 35.004 35.216 35.553 35.795 35.745 35.496 35.281 35.062 34.763 34.465 34.208 33.988 30.86 29.188 35.033 31.676 39.576 40.605 39.09 36.561 33.256 32.829 31.712 32.49 32.887 32.942 32.924 32.89 32.832 32.844 32.876 32.785 32.726 32.695 32.724 32.654 32.686 33.124 33.061 32.993 32.842 32.951 33.081 33.073 33.281 33.33 33.384 33.692 39.972 37.41 36.504 39.251 41.755 35.565 38.283 35.39 41.579 42.064 39.962 36.609 35.224 35.144 34.943 34.93 34.906 34.868 34.836 34.701 34.725 34.752 34.789 34.706 34.738 34.638 34.663 34.674 34.749 34.734 34.684 34.66 34.658 34.662 34.726 34.737 34.756 34.726 34.726 34.684 34.699 34.7 34.705 34.839 34.626 34.608 34.558 34.487 34.404 34.432 34.614 34.847 34.888 34.875
26.031 31.726 32.458 33.171 33.883 34.628 35.343 35.721 35.006 34.273 33.538 32.813 32.081 31.423 32 32.716 33.409 34.145 34.902 35.609 35.251 34.534 33.855 33.116 32.366 31.67 27.347 26.085 27.752 34.927 30.752 26.967 26.491 25.987 25.949 25.938 27.238 29.338 29.653 29.385 29.575 28.222 28.258 28.209 27.209 26.401 26.485 26.498 27.698 33.017 33.6 34.172 34.495 35.138 35.808 36.688 37.442 38.349 38.921 36.005 37.832 37.791 36.855 36.088 35.126 35.347 35.882 36.236 34.461 37.379 37.981 38.661 40.338 40.465 37.468 41.135 39.216 38.649 35.858 35.103 34.995 34.167 33.683 33.117 29.553 28.439 26.794 26.652 27.353 25.999 25.946 25.844 25.754 25.667 25.92 27.124 25.777 25.506 25.385 25.363 25.352 25.439 25.506 25.647 25.665 25.568 25.406 25.4 25.359 25.405 25.404 25.311 25.512 27.441 26.953 28.248 28.191 28.138 27.13 27.756 28.064 32.05 32.379 32.785 31.327 31.895 32.542 32.655 32.204 31.637 30.97 30.694 30.362 30.14 30.537 30.86 31.316 31.758 32.062 32.115 31.782 31.275 31.063 31.456 33.939 33.623 33.007 32.731 33.078 33.437 33.862 34.498 34.906 35.5 36.026 36.432 37.027 33.453 31.362 31.462 31.495 36.185 38.14 38.905 36.971 36.064 34.356 29.247 28.501 28.451 28.446 28.56 28.614 27.628 26.785 26.926 27.124 27.517 27.709 28.127 28.537 30.185 30.694 31.618 32.076 31.359 30.895 31.049 30.659 30.618 30.441 30.403 30.308 30.279 30.285 30.311 30.301 30.371 30.431 30.442 30.507 30.538 30.6 30.783 30.839 30.898 30.829 30.797 30.816 30.774 30.802 30.865 31.032 30.971 30.9 28.816 28.313 28.414 33.358 35.594 35.881 36.087 36.353 36.495 36.741 36.908 36.543 36.134 35.674 33.58 29.889 32.038 29.668 28.906 28.735 28.685 28.701 28.613 28.702 28.641 28.567 28.375 28.187 27.973 27.956 28.946 28.82 29.003 27.646 27.656 27.654 27.693 27.666 27.71 27.776 28.222 28.886 28.381 28.344 27.937 28.324 28.179 27.806 27.634 27.688 27.747 27.687 27.634 27.653 27.66 28.959 32.516 33.07 32.659 28.608 27.878 27.902 27.93 27.975 28.01 28.053 28.086 28.092 28.13 28.17 28.2 28.209 28.254 28.267 28.309 28.351 28.336 28.369 28.414 28.44 32.366 35.906 36.057 36.302 36.62 36.967 37.076 37.407 37.751 37.963 37.77 37.346 37.023 36.711 36.359 36.109 31.141 28.44 29.554 32.616 32.577 32.558 32.205 30.155 28.68 28.713 28.658 28.661 28.377 28.528 32.275 31.089 30.007 33.928 34.188 34.523 34.685 34.997 35.315 35.557 35.971 35.884 35.489 35.221 34.945 34.779 34.474 34.191 33.891 30.524 28.618 28.512 33.233 33.448 34.914 31.515 31.403 30.499 30.777 31.627 32.205 32.703 32.805 32.848 32.838 32.788 32.762 32.754 32.752 32.67 32.635 32.685 32.656 32.889 33.069 33.236 32.963 32.846 32.986 33.163 33.222 33.45 33.48 33.731 34.908 37.247 36.79 40.407 41.203 43.473 41.316 39.324 40.391 41.293 39.336 38.504 35.222 35.172 34.874 34.938 34.859 34.825 34.815 34.712 34.714 34.599 34.686 34.643 34.701 34.611 34.633 34.65 34.584 34.624 34.632 34.599 34.596 34.645 34.649 34.657 34.6 34.616 34.693 34.682 34.624 34.641 34.633 34.636 34.495 34.393 34.42 34.441 34.533 34.517 34.644 34.815 34.992 35.028
26.551 31.721 32.446 33.193 33.906 34.623 35.356 35.741 34.993 34.268 33.541 32.803 32.078 31.439 31.991 32.708 33.446 34.135 34.845 35.6 35.277 34.534 33.798 33.084 32.369 31.646 26.769 26.153 26.096 26.596 27.845 27.452 26.043 26.016 26 25.996 26.073 28.643 29.478 27.762 26.637 26.341 26.376 26.249 26.3 26.703 26.732 30.271 32.437 33.021 33.506 33.956 34.436 34.971 35.537 36.383 36.963 37.95 38.693 39.516 38.94 38.198 37.127 36.444 35.017 35.157 32.879 32.67 32.965 36.545 37.646 38.121 39.964 39.742 39.784 36.911 36.673 36.763 35.811 35.384 34.9 34.393 33.94 33.357 31.162 29.157 28.067 27.99 26.622 26.016 25.92 25.863 25.746 25.634 25.839 28.717 27.514 25.509 25.355 25.362 25.399 25.384 25.444 25.594 25.622 25.602 25.461 25.423 25.359 25.395 25.398 25.396 25.39 27.355 25.642 28.218 28.291 30.604 31.777 33.028 32.967 32.992 33.005 33.036 32.374 32.403 31.937 31.256 30.919 30.532 30.16 30.287 30.685 30.939 31.421 31.932 31.876 31.821 31.628 31.125 30.81 30.455 30.189 27.829 29.558 32.668 33.096 33.467 33.819 34.424 34.846 35.513 35.944 36.502 37.109 36.907 36.73 36.102 31.673 31.577 31.743 32.97 37.752 38.605 37.781 29.215 28.299 28.346 28.392 28.396 28.425 28.519 28.608 28.602 27.064 26.801 26.961 27.116 28.412 28.448 28.755 30.804 29.589 30.804 31.435 31.166 30.917 30.816 30.847 30.627 30.49 30.354 30.301 30.327 30.359 30.391 30.37 30.475 30.491 30.58 30.597 30.702 30.794 30.872 30.916 31.01 30.87 30.831 30.802 30.838 30.912 31.16 31.055 31.508 30.174 28.27 28.282 33.211 35.728 36.059 36.252 36.471 36.642 36.859 37.142 37.077 36.792 36.321 36.01 35.528 32.165 32.991 30.682 28.904 28.65 28.617 28.59 28.513 28.551 28.555 28.556 28.41 28.245 28.068 27.98 30.339 31.807 30.069 27.659 27.571 27.665 27.656 27.638 27.625 27.626 27.683 27.825 27.668 27.754 27.715 27.653 27.631 27.649 27.689 27.723 27.655 27.672 27.638 27.718 27.661 27.841 33.548 34.822 35.88 30.175 27.939 27.957 28.005 28.015 28.038 28.021 28.109 28.139 28.206 28.217 28.172 28.257 28.282 28.308 28.339 28.266 28.263 28.365 28.562 34.818 35.893 36.204 36.413 36.705 36.931 37.278 37.535 37.795 38.051 38.249 38.071 37.646 37.343 36.976 36.631 36.339 36.054 33.528 28.632 28.697 28.968 29.035 30.273 29.307 28.756 28.663 28.697 28.675 28.752 28.429 28.809 28.794 29.986 32.808 34.194 34.26 34.539 34.811 35.067 35.358 35.567 35.929 35.761 35.481 35.253 34.951 34.699 34.504 34.215 33.913 30.133 31.547 33.736 33.729 28.761 29.484 29.681 30.507 30.959 30.554 31.49 32.227 33.041 32.8 32.784 32.788 32.719 32.736 32.709 32.685 32.617 32.588 32.629 32.596 32.782 33.16 33.089 33.111 33.047 33.093 33.263 33.338 33.401 33.439 33.412 35.119 37.072 40.992 42.807 43.209 41.415 39.693 40.14 40.324 40.12 38.639 36.815 35.214 34.833 34.855 34.972 34.857 34.833 34.749 34.677 34.712 34.653 34.616 34.618 34.644 34.565 34.552 34.631 34.497 34.556 34.497 34.493 34.552 34.567 34.571 34.569 34.615 34.635 34.601 34.627 34.588 34.526 34.524 34.4 34.356 34.405 34.439 34.451 34.605 34.927 34.895 35.089 34.997
26.413 31.741 32.486 33.198 33.936 34.636 35.366 35.728 35.003 34.266 33.526 32.814 32.093 31.434 32.011 32.72 33.434 34.179 34.872 35.605 35.276 34.555 33.824 33.099 32.382 31.662 27.739 26.06 26.117 26.18 27.768 26.711 26.046 26.046 26.04 26.048 26.059 26.396 26.106 26.147 26.217 26.268 26.232 26.357 26.397 28.938 34.156 33.854 34.242 32.925 33.231 33.769 34.32 34.628 35.212 35.829 36.813 36.751 38.329 39.077 39.291 38.286 37.397 32.109 32.593 32.271 32.397 32.534 32.79 35.061 37.507 37.852 38.222 36.74 35.468 35.662 36.173 36.635 35.99 35.627 35.13 34.58 34.094 33.57 33.032 29.684 28.586 26.977 26.223 26.12 25.953 25.82 25.765 25.649 25.791 27.817 26.122 25.492 25.388 25.399 25.371 25.365 25.412 25.449 25.629 25.632 25.513 25.385 25.366 25.349 25.414 25.395 25.376 25.508 27.905 30.609 31.541 33.084 32.943 32.991 32.983 32.943 33.024 33.014 32.176 31.137 30.65 30.326 30.224 30.293 30.631 30.966 32.278 32.17 32 31.961 31.569 31.033 30.737 30.27 29.965 27.686 26.253 25.801 26.611 33.079 33.877 34.166 30.212 35.477 35.785 36.491 37.047 36.888 36.592 36.15 35.623 35.008 32.77 31.973 32.309 32.49 36.381 32.034 28.278 28.239 28.228 28.264 28.374 28.373 28.39 28.46 28.657 28.669 28.515 26.917 27.287 27.32 28.774 28.355 28.467 30.039 29.796 30.457 30.823 30.57 30.571 30.605 30.686 30.552 30.425 30.391 30.307 30.328 30.403 30.456 30.471 30.496 30.623 30.771 30.843 30.824 30.887 30.961 31.059 30.952 30.876 30.924 30.915 30.952 30.967 31.089 31.177 29.467 29.03 28.14 28.241 30.549 34.329 35.956 36.375 36.774 37.028 37.2 37.52 37.334 36.897 36.625 36.124 35.86 33.163 31.041 29.798 29.213 28.645 28.559 28.465 28.458 28.376 28.506 28.411 28.399 28.257 28.068 27.867 28.489 29.572 30.229 27.791 27.805 27.595 27.595 27.611 27.63 27.604 27.604 27.608 27.58 27.582 27.593 27.595 27.671 27.692 27.65 27.653 27.629 27.688 27.666 27.732 27.702 27.779 30.878 34.576 30.328 29.722 27.939 27.997 28.003 28.054 28.065 28.098 28.15 28.187 28.182 28.218 28.253 28.283 28.322 28.285 28.246 28.25 28.24 28.52 33.644 35.925 36.236 36.542 36.758 37.043 37.326 37.582 37.894 38.094 38.381 38.559 38.337 37.957 37.562 37.229 36.908 36.588 36.243 34.743 31.145 28.763 28.831 28.919 28.877 29.091 29.033 28.667 28.687 28.695 28.676 28.645 28.617 30.523 32.794 29.727 32.711 33.942 34.226 34.557 34.795 35.04 35.325 35.67 35.891 35.685 35.45 35.247 34.956 34.637 34.358 34.134 33.913 33.801 34.066 34.383 31.396 29.303 29.37 29.421 30.664 31.209 30.763 31.206 31.914 32.522 32.815 32.797 32.769 32.705 32.643 32.654 32.655 32.626 32.552 32.595 32.554 32.517 33.129 33.105 33.066 33.254 33.261 33.301 33.35 33.332 33.357 34.972 36.393 37.773 40.018 41.33 39.176 37.745 38.327 38.835 39.892 40.801 38.78 39.593 37.553 35.221 35.157 34.987 34.841 34.782 34.7 34.647 34.675 34.65 34.557 34.569 34.606 34.573 34.615 34.479 34.505 34.522 34.521 34.56 34.478 34.501 34.518 34.568 34.605 34.576 34.578 34.573 34.47 34.503 34.466 34.402 34.325 34.321 34.373 34.77 34.902 34.855 35.008 36.877
26.181 31.763 32.468 33.211 33.916 34.658 35.391 35.726 34.981 34.24 33.547 32.807 32.102 31.459 32.015 32.736 33.451 34.182 34.864 35.578 35.271 34.55 33.804 33.03 32.393 31.647 28.665 26.35 26.051 26.234 29.244 26.178 26.111 26.112 26.067 26.027 26.088 26.121 26.203 26.156 26.189 26.459 26.947 30.696 32.271 34.272 33.979 34.789 36.159 33.996 33.025 33.444 34.001 34.595 35.026 35.565 36.259 37.105 38.12 38.545 35.056 33.356 32.188 31.725 31.933 32.198 32.898 32.549 32.591 32.863 34.79 33.478 34.033 34.462 34.76 35.398 35.876 36.692 36.263 35.764 35.302 34.813 34.278 33.775 33.283 30.99 29.176 28.214 26.437 26.352 26.095 25.822 25.756 25.627 25.53 28.174 26.69 25.558 25.325 25.379 25.345 25.384 25.396 25.404 25.54 26 25.585 25.434 25.372 25.372 25.403 25.398 25.389 25.403 29.403 33.018 32.978 32.977 32.958 33.068 32.94 32.919 33.067 32.994 32.952 30.522 30.232 30.361 30.802 31.263 32.42 32.492 32.618 32.155 31.261 30.921 30.586 30.372 29.755 27.017 26.149 25.799 25.863 25.983 25.973 29.908 29.405 34.18 35.738 36.497 36.944 36.962 36.785 36.348 35.615 35.071 34.615 34.163 33.349 32.515 30.164 29.346 28.5 28.156 28.16 28.19 28.239 28.304 28.325 28.373 28.399 28.455 28.565 28.91 28.138 27.297 27.885 27.44 25.459 28.133 28.97 30.253 30.545 30.624 30.432 30.384 30.344 30.454 30.532 30.506 30.457 30.426 30.408 30.473 30.467 30.491 30.577 30.679 30.836 30.901 30.947 30.953 30.995 31.008 30.951 30.994 31.035 30.993 30.959 31.081 31.149 31.194 30.585 28.454 28.145 28.119 28.124 28.182 33.781 35.76 36.185 36.5 36.887 37.256 37.612 37.492 37.252 36.837 36.42 36.047 35.553 29.82 29.458 29.602 28.758 28.446 28.397 28.34 28.333 28.314 28.349 28.296 28.272 28.113 27.877 27.975 30.521 31.116 28.855 28.537 28.469 28.069 27.664 27.661 27.592 27.552 27.538 27.555 27.535 27.617 27.634 27.662 27.644 27.667 27.809 28.349 27.684 27.714 27.759 27.785 27.945 27.722 29.164 27.905 27.943 27.98 28.02 28.068 28.114 28.137 28.143 28.191 28.217 28.225 28.307 28.283 28.285 28.267 28.264 28.219 28.21 32.125 35.737 36.045 36.304 36.563 36.772 37.053 37.381 37.742 37.865 38.233 38.425 38.805 38.886 38.576 38.314 37.871 37.561 37.199 36.779 36.573 36.147 34.397 29.256 28.628 28.781 29.203 29.017 29.79 28.768 29.275 28.958 28.707 28.671 28.43 30.79 32.426 31.684 29.886 32.237 34.3 34.35 34.541 34.865 35.067 35.365 35.59 37.257 35.764 35.418 35.136 34.912 34.674 34.386 34.122 33.848 33.869 34.129 34.36 31.491 28.591 29.112 29.111 28.617 29.625 30.298 34.863 32.835 32.888 32.955 32.698 32.729 32.62 32.596 32.57 32.608 32.554 32.469 32.526 32.479 32.544 32.669 33.187 33.082 33.118 33.247 33.317 33.287 33.391 34.911 35.246 36.524 34.838 35.838 35.288 36.279 36.846 38.507 40.025 39.76 40.476 40.441 38.45 36.857 39.741 35.179 34.898 34.906 34.779 34.651 34.527 34.554 34.539 34.552 34.515 34.514 34.438 34.463 34.446 34.449 34.411 34.493 34.47 34.447 34.411 34.486 34.55 34.543 34.49 34.498 34.472 34.486 34.515 34.558 34.497 34.346 34.31 34.68 34.917 35.037 35.026 37.207
27.253 31.756 32.493 33.193 33.931 34.653 35.391 35.711 34.982 34.258 33.763 32.805 32.078 31.415 32.013 32.726 33.389 34.164 34.903 35.595 35.23 34.507 33.806 33.116 32.399 31.606 28.015 26.454 26.114 28.094 26.826 26.134 26.064 26.107 26.132 26.038 26.111 26.252 26.22 26.509 28.419 28.905 33.848 34.912 35.215 34.463 34.1 33.868 36.769 36.199 32.893 33.24 33.797 34.398 34.694 35.183 36.001 36.848 35.026 34.108 33.46 32.927 32.404 31.942 31.87 32.158 32.332 32.396 32.587 32.8 33.021 33.529 33.597 34.217 34.738 35.354 35.671 36.228 36.744 36 35.517 34.974 34.493 34.139 33.63 33.017 29.65 28.915 26.694 26.116 25.973 25.879 25.787 25.667 25.547 25.512 25.654 25.427 25.311 25.348 25.371 25.33 25.36 25.427 25.423 25.561 25.609 25.466 25.389 25.419 25.406 25.426 25.458 25.389 25.645 32.838 32.982 33.023 32.986 32.948 33.063 32.976 32.863 30.523 30.583 30.697 30.905 31.518 32.298 32.658 32.488 32.28 31.275 30.745 30.442 30.087 29.47 26.684 25.815 25.759 25.833 25.923 25.967 25.97 26.115 30.045 35.147 36.299 36.929 36.971 36.928 36.179 35.656 35.193 34.576 34.057 33.709 33.082 32.601 30.335 28.059 27.967 28.028 28.012 28.129 28.159 28.277 28.268 28.325 28.383 28.396 28.874 28.222 27.508 26.776 26.372 27.161 27.221 29.024 29.928 30.137 30.429 30.86 30.738 30.6 30.448 30.42 30.441 30.548 30.534 30.534 30.555 30.582 30.61 30.637 30.654 30.714 30.847 30.956 31.027 31.027 30.978 31.034 30.981 30.997 31.42 31.199 31.063 31.455 31.156 29.612 28.677 28.263 27.999 28.061 28.057 28.088 28.176 31.181 35.387 35.892 36.284 36.706 37.024 37.425 37.688 37.353 37.024 36.7 36.232 35.92 35.392 29.429 29.999 29.194 28.336 28.26 28.277 28.224 28.178 28.227 28.236 28.191 28.103 27.945 27.744 30.063 31.141 30.671 28.759 30.001 29.699 28.005 27.561 27.502 27.578 27.541 27.593 27.597 27.612 27.634 27.639 27.766 28.031 34.126 30.695 28.96 27.823 27.896 27.794 27.777 27.812 27.814 27.9 27.963 28.041 28.068 28.103 28.138 28.19 28.234 28.212 28.255 28.261 28.298 28.319 28.244 28.212 28.181 28.263 33.302 35.885 36.059 36.375 36.656 36.939 37.205 37.433 37.69 38.067 38.246 38.526 38.852 38.892 38.606 38.393 38.158 37.83 37.522 37.275 37.04 36.675 36.423 36.038 31.337 28.711 28.794 32.264 30 28.957 28.906 30.456 30.75 29.319 28.705 28.614 29.221 30.585 31.618 31.37 30.543 33.754 34.061 34.39 34.615 34.85 35.179 35.392 35.719 35.909 35.751 35.39 35.123 34.931 34.661 34.378 34.123 33.826 33.851 34.215 34.451 32.859 28.706 29.019 28.553 28.628 33.469 38.555 37.782 33.461 32.54 32.567 32.625 32.617 32.613 32.56 32.561 32.559 32.498 32.481 32.434 32.492 32.437 32.746 33.333 33.067 33.146 33.319 33.257 33.286 33.567 34.624 35.5 34.742 34.067 33.82 34.852 36.151 38.697 38.829 39.034 37.158 38.947 39.677 39.777 38.948 38.623 34.955 35.069 34.693 34.767 34.586 34.578 34.496 34.484 34.513 34.517 34.462 34.423 34.437 34.444 34.472 34.452 34.556 34.515 34.419 34.461 34.454 34.478 34.482 34.424 34.47 34.517 34.665 34.563 34.467 34.456 34.544 34.812 34.994 35.074 35.129 37.724
26.628 31.778 32.483 33.223 33.938 34.668 35.393 35.719 34.983 34.266 33.528 32.814 32.078 31.408 31.931 32.701 33.413 34.166 34.912 35.547 35.282 34.523 33.812 33.071 32.358 31.535 26.332 26.21 26.112 26.731 26.576 26.1 26.145 26.156 26.097 26.075 26.263 26.233 30.023 30.382 33.375 34.104 34.474 34.876 35.168 34.544 34.258 33.971 36.385 36.746 33.305 33.125 33.497 34.105 34.58 35.039 33.645 32.671 32.841 33.344 33.624 33.796 32.658 32.129 31.703 32.075 32.287 32.418 32.587 32.727 32.823 32.979 33.557 34.006 34.54 34.83 35.388 35.896 36.554 36.284 35.684 35.217 34.761 34.277 33.787 33.263 30.929 29.717 28.649 26.28 26.096 26 25.79 25.65 25.568 25.531 25.455 25.372 25.327 25.313 25.299 25.314 25.383 25.381 25.359 25.452 25.586 25.55 25.39 25.41 25.43 25.374 25.425 25.4 25.449 29.674 32.817 33.047 32.98 32.917 32.902 31.423 30.588 30.56 31.212 31.454 32.125 32.428 32.423 32.06 31.089 30.563 30.325 27.826 27.686 25.898 25.838 25.769 25.844 25.872 25.933 25.914 26.015 26.135 26.303 29.943 35.006 36.902 36.602 36.265 35.816 35.22 34.534 34.29 33.622 33.189 32.585 30.196 27.841 27.929 27.915 27.922 27.995 28.136 28.155 28.123 28.282 28.279 28.369 28.441 28.757 28.068 27.443 26.67 25.6 27.191 29.744 30.378 30.025 30.298 30.826 30.596 30.909 30.842 30.676 30.538 30.504 30.561 30.594 30.605 30.635 30.676 30.698 30.797 30.846 30.893 30.921 31.006 31.08 31.116 31.097 31.115 31.146 31.101 31.098 32.082 31.146 31.043 31.145 31.063 28.753 28.11 28.004 27.988 28.038 28.114 28.115 28.035 28.181 34.036 35.773 36.092 36.462 36.918 37.24 37.618 37.656 37.207 36.818 36.57 36.247 34.491 30.615 29.699 29.292 28.427 28.2 28.184 28.115 28.112 28.014 28.09 28.018 28.055 27.962 27.823 29.647 28.584 28.153 27.888 28.107 27.693 27.495 27.499 27.554 27.584 27.608 27.573 27.547 27.713 27.598 27.903 34.709 35.122 35.279 34.137 29.593 35.196 33.001 27.869 27.852 27.892 27.9 27.924 28.009 27.998 28.087 28.141 28.16 28.212 28.24 28.228 28.274 28.305 28.31 28.29 28.261 28.197 28.615 34.825 35.9 36.144 36.502 36.735 37.097 37.266 37.576 37.751 38.063 38.35 38.567 38.869 38.835 38.543 38.293 37.937 37.81 37.509 37.187 36.871 36.632 36.359 36.138 35.831 35.437 29.273 29.841 29.336 28.625 28.53 28.688 32.149 31.325 29.188 28.609 28.6 30.035 30.048 31.315 34.056 32.323 30.48 33.723 34.308 34.366 34.627 34.939 35.17 35.407 35.714 35.859 35.62 35.365 35.1 34.838 34.551 34.312 34.377 34.907 33.966 34.206 33.744 30.231 28.515 28.681 28.909 33.964 38.235 38.215 33.024 31.464 32.191 32.74 32.62 32.609 32.6 32.476 32.508 32.529 32.478 32.384 32.35 32.356 32.399 32.615 32.916 33.13 33.187 33.292 33.244 33.258 33.274 33.438 33.574 33.617 33.812 33.896 34.046 36.115 38.344 39.207 40.206 39.515 39.935 37.084 34.567 39.785 37.989 35.372 34.883 34.669 34.536 34.474 34.51 34.481 34.46 34.392 34.399 34.391 34.407 34.395 34.333 34.404 34.38 34.399 34.495 34.419 34.442 34.408 34.421 34.414 34.429 34.479 34.519 34.515 34.431 34.52 34.629 35.017 35.139 35.141 36.829 37.718
25.963 31.773 32.498 33.216 33.946 34.656 35.368 35.695 34.981 34.225 33.516 32.774 32.064 31.411 31.928 32.65 33.328 34.062 34.846 35.576 35.178 34.474 33.756 33.106 32.388 31.64 27.313 26.094 26.138 26.151 26.127 26.113 26.112 26.058 26.045 26.085 26.243 30.788 32.381 33.367 33.751 34.064 34.371 34.632 34.922 34.722 34.37 34.043 34.388 36.611 34.569 32.938 33.405 33.766 32.537 31.921 31.604 32.133 32.73 33.15 33.631 33.354 32.963 32.417 31.851 31.663 32.152 32.264 32.422 32.614 32.746 32.933 33.12 33.721 34.235 34.856 35.247 35.794 36.136 36.735 35.976 35.453 34.934 34.463 33.921 33.563 32.801 29.497 28.05 26.378 26.183 26.109 26.789 25.853 25.576 25.489 25.41 25.284 25.232 25.277 25.329 25.339 25.3 25.316 25.348 25.413 25.526 25.586 25.491 25.398 25.399 25.445 25.414 25.414 25.365 25.66 31.999 32.941 32.734 30.856 30.234 30.722 31.186 31.928 32.094 31.926 31.541 31.497 31.463 30.507 30.056 29.134 26.583 25.841 25.816 25.824 25.923 25.96 25.882 25.886 25.958 26.058 26.107 26.246 26.324 26.67 31.391 36.197 35.819 35.357 34.655 34.308 33.77 33.095 32.944 30.324 27.718 27.798 27.838 27.758 27.871 27.946 28.051 28.046 28.147 28.169 28.184 28.302 28.468 28.694 28.718 28.757 27.714 30.388 29.721 30.663 30.437 30.853 30.557 30.256 30.747 30.722 30.788 30.841 30.719 30.635 30.618 30.639 30.653 30.651 30.738 30.887 30.901 31.013 31.039 31.058 31.015 31.059 31.104 31.179 31.175 31.106 31.079 31.116 31.368 31.184 30.963 31.175 31.905 28.68 28.048 27.976 28.012 28.019 28.067 28.094 28.05 28.101 28.118 29.108 35.315 35.901 36.331 36.545 36.968 37.385 37.693 37.46 37.152 36.711 36.297 35.771 31.106 29.129 29.164 28.454 28.233 28.106 28.137 28.024 27.991 27.911 27.89 27.938 27.867 27.844 27.728 27.681 27.611 27.517 27.46 27.42 27.517 27.555 27.568 27.509 27.519 27.556 28.649 35.338 35.386 32.135 34.617 35.138 34.573 31.743 31.692 36.28 35.741 27.912 27.902 27.987 27.977 27.987 28.006 28.077 28.129 28.18 28.209 28.225 28.27 28.325 28.318 28.349 28.292 28.226 28.37 29.789 35.652 35.968 36.283 36.608 36.926 37.079 37.426 37.651 37.921 38.255 38.433 38.68 38.898 38.736 38.439 38.231 37.916 37.649 37.381 37.087 36.852 36.515 36.329 36.081 35.786 31.682 29.273 28.758 28.7 28.601 28.616 28.595 28.553 31.22 34.822 29.338 28.598 28.628 28.765 29.379 30.95 33.225 33.752 29.048 29.453 33.877 34.108 34.416 34.657 34.969 35.185 35.5 35.719 35.918 35.584 35.361 35.04 34.791 34.633 34.146 34.652 34.194 31.077 29.129 28.541 28.467 28.848 29.776 30.351 35.748 35.073 32.205 30.693 31.636 36.432 32.561 32.884 32.552 32.65 32.438 32.448 32.458 32.427 32.398 32.329 32.404 32.364 33.089 33.417 33.157 33.233 33.296 33.345 33.401 33.37 33.517 33.586 33.723 33.793 33.939 34.09 34.012 38.222 38.893 38.791 40.3 40.319 35.845 39.826 38.687 35.522 34.931 34.737 34.611 34.585 34.546 34.394 34.39 34.441 34.411 34.375 34.322 34.275 34.316 34.281 34.274 34.229 34.323 34.338 34.365 34.374 34.372 34.352 34.399 34.364 34.373 34.407 34.448 34.553 34.885 35.072 35.166 35.497 37.576 39.655
26.608 31.748 32.483 33.196 33.903 34.628 35.332 35.655 34.939 34.203 33.476 32.736 32.059 31.432 31.973 32.621 33.375 34.052 34.882 35.567 35.243 34.545 33.791 33.018 32.301 31.578 26.248 26.086 26.131 26.146 26.089 26.053 26.104 26.14 26.148 26.125 26.083 27.3 32.887 33.273 33.611 33.895 34.182 34.611 34.922 34.771 34.577 34.211 33.97 34.127 34.679 33.186 32.678 32.338 31.931 31.703 31.571 32.099 32.457 32.937 33.399 33.563 33.08 32.557 32.149 31.682 31.982 32.269 32.368 32.526 32.652 32.775 33.104 33.552 34.087 34.541 34.963 35.514 36.046 36.654 36.168 35.702 35.168 34.735 34.216 33.847 33.818 30.811 27.395 26.322 26.336 26.374 27.342 26.779 26.339 25.513 25.37 25.293 25.252 25.268 25.256 25.322 25.379 25.344 25.318 25.358 25.47 25.574 25.476 25.429 25.441 25.403 25.378 25.409 25.428 25.445 30.119 30.687 30.624 30.977 31.238 31.733 31.792 31.812 31.311 31.092 30.797 30.402 30.19 29.215 26.257 25.89 25.866 25.796 25.886 25.939 25.952 25.919 25.93 26.029 26.085 26.074 26.25 26.387 26.437 26.6 31.31 33.504 34.936 34.293 33.811 33.124 33.321 30.077 28.493 27.654 27.661 27.637 27.708 27.827 27.861 27.913 27.983 28.086 28.054 28.085 28.361 28.424 28.58 28.862 30.094 31.054 31.101 30.81 30.625 30.611 30.686 30.754 30.648 30.642 30.613 30.679 30.643 30.677 30.658 30.696 30.68 30.618 30.766 30.823 30.922 31.098 31.108 31.106 31.112 31.104 31.102 31.127 31.162 31.126 31.07 31.146 31.138 31.08 30.888 30.937 31.03 31.247 29.511 27.971 27.97 28.014 28.01 28.002 28.035 28.098 28.07 28.037 28.049 28.1 29.553 35.529 36.083 36.41 36.841 37.114 37.561 37.711 37.283 36.893 36.534 36.212 34.437 30.59 29.491 29.474 28.512 28.042 28.009 27.992 27.915 27.803 27.756 27.766 27.703 27.615 27.637 27.546 27.512 27.491 27.52 27.507 27.544 27.492 27.522 27.584 27.633 28.69 31.945 37.432 37.435 32.361 34.02 32.492 28.405 30.501 30.692 31.619 31.219 27.91 27.941 28.015 28.022 28.088 28.097 28.128 28.185 28.199 28.257 28.306 28.324 28.332 28.338 28.373 28.38 28.338 32.267 35.79 36.103 36.409 36.582 36.909 37.144 37.449 37.701 37.897 38.27 38.533 38.797 38.826 38.614 38.375 38.122 37.855 37.549 37.311 36.935 36.796 36.514 36.224 35.944 35.685 31.749 28.622 29.507 28.719 28.96 29.095 29.036 29.182 28.839 28.621 31.011 29.016 28.773 28.629 28.528 28.823 29.173 30.04 33.163 29.373 28.512 29.232 33.847 34.139 34.501 34.736 34.931 35.261 35.523 35.753 35.845 35.609 35.324 35.011 34.884 34.177 34.248 34.948 33.517 28.576 28.53 28.544 28.534 28.527 30.604 31.179 32.216 31.563 33.48 38.877 38.756 32.985 32.503 32.553 32.468 32.483 32.392 32.376 32.407 32.42 32.349 32.282 32.351 32.318 32.503 32.905 33.083 33.196 33.221 33.279 33.353 33.405 33.578 33.689 33.752 33.761 34.008 33.956 34.899 37.148 37.046 39.02 38.819 39.427 39.604 39.709 38.792 36.048 35.267 35.321 34.799 34.387 34.418 34.365 34.373 34.378 34.309 34.271 34.306 34.207 34.18 34.22 34.208 34.176 34.191 34.323 34.295 34.271 34.293 34.318 34.318 34.413 34.478 34.536 34.715 35.065 35.048 35.19 35.151 37.023 36.703
26.691 31.706 32.428 33.128 33.848 34.547 35.285 35.562 34.891 34.136 33.408 32.682 31.991 31.377 31.873 32.613 32.731 34.109 34.715 35.483 35.134 34.478 33.775 33.122 32.393 31.589 27.476 26.133 26.069 26.193 26.096 26.15 26.089 26.113 29.042 27.69 26.132 26.058 31.333 33.159 33.365 33.73 34.133 34.488 34.707 35.133 34.871 34.286 33.984 35.726 36.575 34.232 32.771 32.443 32.105 31.77 31.317 31.749 32.228 32.672 33.183 33.547 33.284 32.878 32.293 31.85 31.918 32.126 32.264 32.425 32.614 32.731 32.972 33.228 33.738 34.297 34.828 35.298 35.786 36.317 36.352 35.944 35.416 34.921 34.475 34.037 33.52 32.7 29.312 26.684 26.542 28.95 30.157 31.338 29.575 26.715 25.404 25.336 25.226 25.23 25.255 25.292 25.301 25.276 25.281 25.334 25.462 25.482 25.54 25.576 25.558 25.543 25.407 25.44 25.391 25.478 25.792 30.636 31.369 31.901 32.09 31.665 31.364 31.04 30.567 30.124 28.197 29.144 25.886 25.824 25.782 25.832 25.908 25.981 26.031 25.905 26.019 26.07 26.067 26.033 26.101 26.258 26.358 26.38 26.558 26.747 26.837 26.977 33.537 33.22 33.317 30.045 28.534 27.491 27.428 27.524 27.659 27.741 27.722 27.773 27.867 27.975 27.95 27.943 28.095 28.241 28.305 29.539 30.69 30.726 30.861 30.882 30.953 30.903 30.802 30.754 30.746 30.755 30.681 30.655 30.683 30.661 30.659 30.727 30.762 30.773 30.815 30.867 30.961 30.98 31.039 31.134 31.152 31.134 31.091 31.146 31.169 31.166 31.143 31.138 31.136 31.047 31.025 31.082 30.835 30.693 30.895 29.097 28.087 27.96 27.926 27.994 28 28.028 28.05 28.059 28.02 28.053 28.087 28.059 28.071 34.03 35.891 36.132 36.58 37.028 37.394 37.626 37.519 37.103 36.768 36.428 36.046 34.25 31.161 29.448 28.883 28.133 27.964 27.941 27.937 27.825 27.751 27.726 27.605 27.637 27.551 27.55 27.467 27.497 27.495 27.485 27.448 27.529 27.604 28.471 30.051 32.669 33.844 36.187 32.423 36.42 28.591 27.822 27.836 27.859 27.908 27.938 27.938 27.984 27.974 28.07 28.1 28.11 28.108 28.165 28.181 28.261 28.317 28.295 28.34 28.366 28.375 28.406 28.559 34.757 35.87 36.235 36.383 36.712 36.986 37.209 37.546 37.798 38.094 38.21 38.584 38.872 38.753 38.587 38.219 38.009 37.743 37.452 37.271 36.986 36.757 36.427 36.113 35.845 35.523 30.475 28.742 28.738 28.873 29.471 29.761 29.99 29.848 29.521 29.527 28.785 28.528 29.347 28.874 28.681 28.709 28.628 28.671 29.586 28.814 28.554 28.685 28.986 32.101 34.001 34.194 34.524 34.736 34.995 35.311 35.55 35.794 35.801 34.857 34.049 34.46 34.686 33.984 34.354 34.916 30.477 28.911 28.557 28.532 28.568 28.48 29.059 31.099 28.792 34.37 37.355 37.58 31.467 31.971 32.344 32.506 32.488 32.446 32.408 32.346 32.334 32.366 32.295 32.229 32.254 32.296 32.25 32.938 33.145 33.263 33.331 33.354 33.407 33.511 33.562 33.643 33.709 33.857 33.959 34.071 34.045 35.994 37.342 38.339 38.54 39.607 36.985 40.076 39.201 37.009 35.374 35.123 34.7 34.343 34.302 34.195 34.254 34.22 34.207 34.2 34.209 34.06 34.075 34.058 33.988 34.1 34.134 34.24 34.283 34.253 34.225 34.28 34.335 34.449 34.575 35.064 35.179 35.288 35.277 35.137 35.023 34.882
26.593 31.702 32.427 33.128 33.839 34.57 35.279 35.576 34.873 34.139 33.429 32.689 31.959 31.349 31.89 32.657 33.066 34.003 34.767 35.437 35.177 34.477 33.765 33.079 32.2 31.667 27.045 26.058 27.613 26.909 26.093 26.101 26.093 26.206 29.634 27.334 26.086 26.077 27.437 32.977 33.469 33.665 33.907 34.205 34.593 34.934 34.821 34.451 34.141 34.157 36.758 36.328 33.161 32.595 32.244 31.963 31.6 31.574 32.051 32.581 32.968 33.434 33.467 33.08 32.569 31.997 31.667 32.109 32.262 32.39 32.542 32.661 32.842 33.036 33.637 34.088 34.483 35.099 35.508 36.054 36.494 36.164 35.649 35.173 34.684 34.261 33.642 33.099 31.614 30.307 31.185 31.262 30.104 30.301 30.45 27.272 25.46 25.427 25.196 25.219 25.265 25.216 25.306 25.335 25.344 25.308 25.322 25.341 25.808 25.55 25.59 25.568 25.467 25.375 25.378 25.386 25.657 30.858 31.762 31.672 31.18 30.953 30.451 29.985 27.661 26.824 25.817 25.819 25.807 25.821 25.811 25.945 25.995 25.944 26.045 26.105 26.126 26.041 26.103 26.193 26.168 26.259 26.417 26.594 26.667 26.867 26.844 27.053 31.572 33.108 28.922 27.405 27.322 27.399 27.431 27.65 27.647 27.716 27.713 27.844 27.843 27.908 27.96 28.17 28.24 29.841 30.37 30.546 30.958 30.832 30.918 31.065 30.807 30.773 30.785 30.828 30.798 30.805 30.716 30.779 30.767 30.8 30.811 30.868 30.889 30.993 31.027 31.044 31.049 31.083 31.146 31.091 31.148 31.183 31.176 31.266 31.33 31.16 31.132 31.166 31.362 31.365 30.499 30.407 30.238 30.424 28.956 28.367 27.959 27.804 27.926 28 28.016 28.007 27.996 28.062 28.064 28.037 28.051 28.086 28.104 29.477 35.491 36.008 36.457 36.759 37.123 37.543 37.633 37.335 37.036 36.605 36.251 35.828 34.727 29.842 29.196 28.331 27.861 27.871 27.845 27.812 27.733 27.696 27.623 27.628 27.521 27.541 27.516 27.471 27.497 27.542 27.602 28.417 30.266 30.425 31.166 32.464 34.359 33.989 34.518 29.122 28.18 27.906 27.919 27.967 27.981 27.992 27.975 28.022 28.065 28.09 28.1 28.156 28.212 28.199 28.194 28.24 28.303 28.336 28.369 28.408 28.497 28.626 34.981 35.928 36.251 36.484 36.822 37.071 37.293 37.561 37.732 38.108 38.396 38.702 38.889 38.797 38.584 38.245 37.942 37.709 37.477 37.179 36.908 36.636 36.364 36.13 35.843 31.892 29.246 30.139 29.13 28.944 29.686 30.204 30.936 31.151 30.912 30.148 30.052 29.106 28.609 29.169 29.025 29.811 29.782 28.664 28.653 28.713 29.141 28.601 28.688 28.726 28.508 29.928 33.951 34.225 34.53 34.778 35.004 35.257 35.605 35.07 34.962 34.848 34.069 34.684 34.754 33.931 34.378 34.237 31.108 28.841 28.574 28.535 28.538 28.536 28.532 28.514 28.547 28.724 30.745 30.204 30.913 31.644 32.31 33.643 32.39 32.35 32.353 32.259 32.213 32.302 32.284 32.16 32.187 32.196 32.183 32.835 33.081 33.252 33.291 33.372 33.502 33.471 33.562 33.64 33.688 33.867 33.973 34.018 34.037 34.094 36.742 38.199 40.007 38.374 40.628 39.91 39.626 38.115 37.359 34.677 34.626 34.5 34.298 34.217 34.241 34.2 34.166 34.174 34.052 33.944 33.97 33.922 33.976 34.003 34.11 34.156 34.133 34.205 34.301 34.578 34.7 35.144 35.268 35.47 35.671 35.084 35.262 35.279 34.855
26.426 31.664 32.412 33.14 33.84 34.514 35.257 35.554 34.876 34.089 33.374 32.643 31.948 31.372 31.897 32.528 33.157 33.942 34.78 35.427 35.225 34.436 33.707 33.068 32.407 31.633 27.525 26.05 27.97 29.637 28.913 26.168 26.138 28.526 30.563 27.003 26.066 26.138 26.404 30.794 33.17 33.512 33.845 34.151 34.347 34.718 34.932 34.584 34.324 33.916 34.982 36.367 34.271 32.763 32.354 32.044 31.742 31.367 31.785 32.258 32.854 33.277 33.635 33.238 32.792 32.281 31.783 31.982 32.115 32.282 32.479 32.661 33.792 32.991 33.312 33.873 34.385 34.956 35.288 35.69 36.302 36.396 35.884 35.338 34.935 34.426 33.968 33.479 32.888 32.387 31.963 31.494 29.946 30.859 29.689 26.668 25.977 25.372 25.254 25.186 25.234 25.215 25.267 25.231 25.353 25.248 25.299 25.329 25.398 25.544 25.54 25.537 25.456 25.44 25.42 25.365 25.38 26.752 30.917 30.595 30.277 29.691 29.545 25.808 25.76 25.759 25.774 25.808 25.854 25.924 25.918 26.005 26.022 26.118 26.104 26.076 26.157 26.203 26.237 26.266 26.231 26.475 26.467 26.705 26.715 26.866 27.004 27.051 27.149 27.163 27.245 27.319 27.295 27.406 27.536 27.516 27.587 27.658 27.759 27.777 27.832 28.018 28.115 29.446 30.732 30.808 30.708 30.736 30.831 30.965 30.858 30.779 30.835 30.853 30.842 30.92 30.911 30.907 30.888 30.851 30.878 30.898 30.981 31.065 31.154 31.184 31.234 31.201 31.189 31.126 31.169 31.199 31.226 31.355 31.37 31.453 31.361 31.338 31.32 31.432 31.413 31.444 29.45 29.584 29.825 28.239 29.184 28.085 27.943 27.855 27.886 27.956 27.936 28.036 28.038 28.06 28.038 28.061 28.104 28.054 28.064 28.077 33.905 35.748 36.14 36.508 36.973 37.238 37.616 37.578 37.163 36.821 36.408 36.053 34.442 30.285 29.683 28.505 27.846 27.815 27.787 27.817 27.722 27.633 27.641 27.617 27.553 27.472 27.462 27.482 27.54 28.016 29.109 32.231 33.982 34.017 33.421 33.083 33.899 31.191 30.227 31.224 27.934 27.949 27.96 28.005 27.974 28.041 28.029 28.073 28.075 28.101 28.199 28.217 28.241 28.266 28.303 28.308 28.359 28.364 28.372 28.666 32.36 35.043 36.067 36.317 36.49 36.857 37.14 37.379 37.606 37.923 38.164 38.528 38.735 38.847 38.727 38.434 38.115 37.898 37.643 37.31 37.078 36.835 36.514 36.27 36.02 35.685 30.421 30.534 29.259 29.08 29.286 30.116 30.992 31.117 31.532 31.488 31.636 30.682 30.218 29.606 28.733 28.606 28.775 28.867 29.044 28.674 28.691 28.559 28.515 28.521 28.792 28.839 28.719 28.915 33.422 33.956 34.221 34.513 34.816 35.086 35.137 33.892 34.299 34.934 34.033 34.058 34.596 34.903 34.254 34.547 34.469 29.313 29.943 28.618 28.591 28.563 28.518 28.508 28.524 28.724 29.224 29.302 30.107 30.858 31.528 32.255 32.449 35.914 33.058 32.312 32.276 32.225 32.23 32.235 32.178 32.123 32.161 32.339 32.393 32.927 33.311 33.323 33.368 33.403 33.497 33.528 33.624 33.738 33.795 33.898 33.983 34.044 34.031 36.435 36.539 40.493 42.111 41.117 39.848 39.237 38.842 37.211 35.22 34.76 34.363 34.191 34.217 34.095 34.074 34.106 34.033 33.975 33.977 33.95 33.85 33.936 33.99 34.045 34.039 34.176 34.466 34.616 34.847 35.229 35.638 35.571 35.659 35.431 35.23 35.057 34.836
26.351 31.638 32.438 33.14 33.85 34.576 35.269 35.595 34.827 34.117 33.42 32.654 32.019 31.403 31.903 32.557 33.011 34.037 34.77 35.435 35.072 34.488 33.658 33.006 32.185 31.561 27.312 26.004 27.037 28.435 26.539 26.083 26.137 29.32 30.656 27.392 26.128 26.085 26.164 30.832 33.045 33.391 33.594 33.894 34.287 34.594 34.93 34.987 34.427 34.127 33.954 34.259 34.774 33.216 32.599 32.232 31.86 31.569 31.568 32.139 32.37 32.902 33.558 33.463 32.967 32.479 31.98 31.687 32.136 32.247 32.391 32.487 33.024 32.823 33.122 33.684 34.221 34.683 35.156 35.589 36.079 36.456 36.115 35.538 35.095 34.664 34.091 33.663 33.134 32.637 32.202 31.743 31.219 29.688 30.111 27.477 25.378 25.376 25.263 25.193 25.189 25.238 25.232 25.261 25.271 25.268 25.272 25.301 25.301 25.669 25.508 25.571 25.458 25.43 25.469 25.393 25.373 25.458 29.642 27.675 27.482 25.831 25.745 25.775 25.784 26.032 25.82 25.901 25.932 25.888 26.006 26.087 26.039 26.044 26.095 26.25 26.188 26.243 26.298 26.47 26.383 26.394 26.542 26.726 26.851 26.919 27.025 27.053 27.07 27.173 27.153 27.305 27.389 27.46 27.495 27.627 27.65 27.614 27.673 27.85 29.043 30.405 30.735 30.546 30.571 30.611 30.73 30.916 30.696 30.705 30.831 30.812 30.884 30.872 30.897 30.951 30.957 30.983 31.061 31.002 31.035 31.108 31.219 31.202 31.278 31.333 31.37 31.279 31.205 31.234 31.223 31.249 31.284 31.492 31.477 31.365 31.393 31.389 31.415 31.44 29.583 29.489 29.009 27.047 27.512 27.521 28.763 27.727 27.708 27.764 27.853 27.903 27.918 27.956 27.992 28.043 28.033 28.044 28.023 28.094 28.121 28.173 28.316 35.347 35.924 36.243 36.739 37.092 37.467 37.688 37.392 36.938 36.624 36.261 35.779 32.414 30.041 29.413 28.138 27.798 27.781 27.731 27.631 27.605 27.61 27.576 27.54 27.516 27.453 27.638 27.638 28.243 29.222 34.133 31.792 33.355 32.811 33.281 33.164 33.968 33.815 30.849 27.991 27.939 27.998 28.03 28.054 28.071 28.073 28.134 28.165 28.141 28.229 28.222 28.29 28.297 28.342 28.369 28.36 28.39 28.45 32.372 35.746 36.077 36.374 36.604 36.892 37.233 37.446 37.728 38.014 38.2 38.518 38.75 38.813 38.59 38.34 38.058 37.712 37.553 37.266 36.984 36.773 36.459 36.248 35.882 35.496 32.615 30.336 29.184 28.82 28.673 29.675 30.012 30.664 31.613 31.712 31.281 30.856 30.294 30.023 29.027 28.666 28.652 28.633 28.683 28.994 29.42 29.284 28.639 28.626 28.476 28.566 28.772 28.646 28.686 29.432 32.665 33.982 34.214 34.609 34.144 34.567 34.866 33.996 34.31 34.9 34.153 34.159 34.799 34.296 34.102 34.616 35.017 31.88 28.711 28.605 28.564 28.538 28.542 28.53 28.579 28.88 28.949 29.128 29.836 30.637 31.392 35.345 36.384 34.862 32.325 32.29 32.175 32.183 32.145 32.21 32.075 32.074 32.137 32.089 32.268 32.656 33.318 33.32 33.336 33.489 33.411 33.487 33.565 33.658 33.756 33.825 33.96 34.017 34.291 38.426 39.784 42.911 41.071 38.906 39.136 38.76 39.137 37.71 34.88 34.49 34.721 34.304 34.528 34.341 34.266 34.225 34.064 33.955 33.926 33.987 33.912 33.949 34.012 34.013 34.257 34.564 34.851 35.031 35.438 35.58 36.089 36.227 35.749 35.583 34.959 35.143
26.097 31.677 32.387 33.112 33.804 34.546 35.263 35.583 34.872 34.098 33.344 32.607 31.932 31.345 31.884 32.512 33.24 33.955 34.701 35.43 35.09 34.472 33.635 33.118 32.171 31.652 29.06 25.958 27.636 27.082 26.067 26.135 26.143 29.312 28.894 26.082 26.096 26.163 26.209 26.36 32.692 33.204 33.56 33.888 34.235 34.401 34.798 34.911 34.619 34.267 33.939 36.074 36.594 34.457 33.827 32.46 32.025 31.719 31.405 31.812 32.327 32.915 33.251 33.575 33.143 32.695 32.247 31.714 32.009 32.209 32.326 32.462 32.661 32.798 32.924 33.433 33.905 34.434 34.896 35.459 35.958 36.336 36.379 35.892 35.278 34.764 34.28 33.907 33.448 32.907 32.371 31.932 31.346 29.451 29.705 29.177 26.183 25.327 25.291 25.214 25.169 25.182 25.241 25.262 25.25 25.238 25.221 25.253 25.276 25.296 25.44 25.525 25.557 25.484 25.43 25.462 25.396 25.425 25.528 25.707 28.124 26.504 25.865 25.826 26.061 26.981 26.108 25.918 25.982 25.988 26.024 26.033 26.071 26.179 26.199 26.197 26.27 26.347 26.415 26.403 26.407 26.481 26.604 26.713 26.802 26.861 27.003 26.982 27.021 27.174 27.325 27.304 27.353 27.401 27.561 27.561 27.609 27.731 27.977 30.59 30.345 30.57 30.535 30.481 31.053 30.571 30.634 30.631 30.724 30.81 30.8 30.838 30.928 31.032 31.001 31.052 31.102 31.148 31.124 31.217 31.254 31.25 31.263 31.33 31.315 31.361 31.358 31.349 31.279 31.282 31.273 31.323 31.346 31.283 31.424 31.391 31.468 31.461 31.455 31.504 29.84 30.267 27.858 26.074 26.398 27.273 27.684 27.609 27.616 27.753 27.839 27.872 27.892 27.946 27.965 28.025 28.007 28.039 28.074 28.082 28.13 28.185 28.226 29.62 35.578 36.125 36.447 36.78 37.257 37.647 37.592 37.294 36.917 36.494 36.102 35.623 32.281 29.895 28.351 27.858 27.716 27.746 27.757 27.617 27.6 27.58 27.485 27.51 27.574 27.72 27.732 28.186 29.162 32.192 33.876 31.457 31.325 31.96 31.107 31.914 32.445 30.286 27.973 28.027 28.033 27.999 28.091 28.145 28.175 28.158 28.177 28.233 28.261 28.294 28.312 28.402 28.335 28.404 28.419 28.719 33.601 35.945 36.264 36.41 36.695 36.937 37.247 37.566 37.841 38.065 38.264 38.565 38.811 38.732 38.533 38.207 37.913 37.728 37.481 37.193 36.927 36.698 36.367 36.069 35.829 31.715 31.029 30.004 28.958 28.68 28.691 28.66 29.132 28.93 29.817 30.879 31.224 30.774 30.018 29.738 29.126 29.336 29.5 29.631 28.962 28.653 30.332 32.98 31.099 28.649 28.595 28.578 28.479 28.513 28.79 28.88 28.647 29.013 33.683 34.023 32.252 33.462 34.113 34.673 34.924 34.35 34.55 35.005 33.897 34.227 34.826 33.849 34.253 34.641 34.755 33.267 30.122 28.57 28.558 28.539 28.54 28.527 28.486 28.924 28.685 29.022 29.875 30.342 31.278 32.495 32.384 32.434 32.219 32.292 32.196 32.098 32.097 32.147 32.082 31.989 32.05 32.014 32.102 32.813 33.238 33.309 33.414 33.377 33.349 33.472 33.536 33.622 33.668 33.699 33.764 33.859 35.906 39.355 40.599 37.41 38.489 38.879 39.105 40.001 39.605 37.416 35.481 34.945 34.905 35.191 34.702 34.273 34.114 34.078 33.967 34.055 33.945 33.98 33.881 33.972 34.058 34.491 34.704 34.833 35.232 35.439 35.788 35.973 35.901 36.058 36.122 35.336 34.753
26.085 31.616 32.412 33.146 33.822 34.557 35.245 35.527 34.817 34.109 33.377 32.703 31.934 31.392 31.906 32.55 33.221 33.993 34.728 35.427 35.166 34.407 33.809 33.029 32.359 31.491 27.619 25.775 26.956 28.348 26.356 26.098 26.074 26.386 30.506 26.226 26.122 26.133 26.088 26.141 31.174 33.092 33.421 33.689 34.056 34.323 34.646 35.022 34.874 34.377 34.111 34.734 36.639 35.147 34.438 32.83 32.159 31.875 31.179 31.64 32.158 32.596 33.028 33.515 33.439 32.928 32.419 31.932 31.576 32.101 32.314 32.434 32.616 32.693 32.85 33.172 33.714 34.18 34.621 35.132 35.705 36.251 36.5 35.989 35.538 35.059 34.534 34.055 33.587 33.058 32.589 32.144 31.654 30.431 29.824 29.309 26.733 25.28 25.233 25.241 25.111 25.15 25.24 25.272 25.236 25.23 25.234 25.207 25.233 25.282 25.305 25.534 25.564 25.468 25.512 25.482 25.422 25.39 25.485 25.551 26.386 26.528 25.896 25.872 26.47 26.539 25.925 25.961 25.997 26.058 26.101 26.169 26.164 26.168 26.264 26.35 26.401 26.546 26.564 26.467 26.464 26.541 26.633 26.702 26.847 26.957 26.97 27.051 27.158 27.247 27.188 27.342 27.396 28.201 27.643 27.667 29.309 29.787 30.2 30.217 30.328 30.59 30.789 30.441 30.429 30.542 30.639 30.734 30.721 30.831 30.947 31.021 31.019 31.055 31.133 31.158 31.151 31.34 31.362 31.356 31.34 31.429 31.379 31.368 31.391 31.423 31.415 31.359 31.368 31.393 31.366 31.375 31.353 31.29 31.505 31.485 31.478 31.519 31.619 31.703 29.967 29.766 27.136 25.839 26.125 27.41 28.825 28.898 27.642 27.649 27.735 27.842 27.875 27.918 27.963 28.012 28.018 28.009 28.019 28.059 28.17 28.188 28.219 29.705 35.297 35.865 36.211 36.66 36.979 37.363 37.746 37.491 37.131 36.664 36.376 35.941 31.931 30.251 28.713 27.949 27.773 27.711 27.686 27.651 27.648 27.612 27.549 27.611 27.792 27.75 27.678 27.765 29.034 30.21 32 29.648 28.326 31.26 31.964 32.556 29.031 27.963 28.046 28.081 28.031 28.105 28.108 28.167 28.198 28.232 28.25 28.289 28.311 28.297 28.337 28.415 28.392 28.452 30.176 35.695 35.975 36.263 36.516 36.735 37.083 37.319 37.526 37.869 38.045 38.369 38.684 38.866 38.759 38.387 38.179 37.849 37.596 37.29 37.093 36.872 36.478 36.275 36.032 35.78 31.914 30.125 30.746 29.039 28.666 28.658 28.642 28.588 28.644 28.677 29.212 30.425 30.428 29.603 29.466 29.57 29.78 30.203 30.78 30.43 29.554 28.847 28.485 31.401 29.792 28.618 28.726 28.585 28.556 28.425 28.573 28.786 28.73 29.947 28.882 30.432 31.176 31.849 33.543 34.193 34.682 34.869 34.157 34.671 34.509 34.151 34.431 34.809 34.039 34.177 34.628 35.067 29.879 28.601 28.548 28.541 28.518 28.484 28.467 28.5 28.518 29.615 29.13 29.494 30.445 31.026 31.631 32.077 32.149 32.194 32.15 32.159 32.032 32.07 32.086 32.055 31.954 31.991 32.007 32.109 32.487 33.714 33.5 33.319 33.325 33.397 33.492 33.505 33.528 33.579 33.618 33.717 34.159 35.521 36.847 34.604 36.116 37.238 38.92 39.948 38.557 38.336 37.244 36.674 34.552 35.077 35.116 34.526 34.517 34.483 33.991 33.911 33.97 33.902 33.936 33.878 34.22 34.367 34.687 35.115 35.404 35.661 35.872 35.985 36.075 36.328 36.105 35.265 36.221
25.979 31.503 32.377 33.114 33.794 34.464 35.251 35.534 34.824 34.04 33.342 32.613 31.931 31.332 31.893 32.482 33.349 33.977 34.647 35.368 35.192 34.391 33.811 32.997 32.294 31.476 26.36 25.676 27.815 28.024 26.322 26.086 26.134 30.056 28.292 26.192 26.088 26.081 26.105 26.157 26.67 32.621 33.237 33.616 33.916 34.282 34.585 34.766 34.866 34.536 34.254 34.051 36.115 36.113 33.944 32.768 29.679 29.963 30.953 31.382 31.787 32.386 32.876 33.39 33.509 33.152 32.717 32.163 31.757 31.989 32.179 32.332 32.523 32.678 32.82 33.093 33.34 33.822 34.494 34.932 35.496 35.965 36.428 36.267 35.855 35.277 34.746 34.306 33.787 33.332 32.829 32.354 31.936 31.312 28.412 27.496 27.165 25.641 25.256 25.271 25.122 25.135 25.314 25.589 25.233 25.2 25.252 25.23 25.265 25.241 25.268 25.373 25.872 25.6 25.576 25.512 25.475 25.469 25.407 25.554 25.587 25.648 25.815 27.263 25.877 26.036 25.982 25.975 25.996 26.129 26.162 26.285 26.344 26.406 26.49 26.476 26.549 26.495 26.44 26.44 26.492 26.654 26.777 26.767 26.833 26.973 27.011 27.057 27.133 27.209 27.301 27.474 28.799 31.53 30.112 30.104 30.19 30.104 30.122 30.154 30.29 30.343 30.339 30.364 30.454 30.614 30.713 30.752 30.851 30.924 30.936 31.017 31.116 31.149 31.228 31.334 31.421 31.541 31.588 31.465 31.511 31.46 31.42 31.483 31.463 31.488 31.469 31.487 31.441 31.438 31.425 31.398 31.322 31.49 31.509 31.52 31.465 31.282 30.862 30.119 28.723 27.474 25.795 25.402 25.678 26.596 30.364 30.34 27.882 27.7 27.727 27.798 27.806 27.878 27.915 27.926 27.944 28.019 28.085 28.07 28.126 28.194 28.208 28.193 29.659 35.503 36.026 36.304 36.807 37.27 37.573 37.664 37.366 36.911 36.566 36.103 35.674 32.459 31.482 31.658 28.654 27.692 27.7 27.707 27.628 27.582 27.547 28.635 29.028 28.378 27.838 27.825 28.24 28.159 27.894 27.846 27.874 29.551 31.21 31.535 30.255 28.29 28.038 28.098 28.103 28.147 28.141 28.178 28.212 28.26 28.314 28.29 28.349 28.345 28.293 28.383 28.394 32.369 35.759 36.05 36.348 36.567 36.873 37.177 37.411 37.597 37.904 38.139 38.451 38.714 38.793 38.652 38.34 38.018 37.728 37.514 37.361 37.056 36.777 36.492 36.116 35.939 35.069 30.379 29.227 31.311 31.346 30.835 28.719 28.695 28.667 28.658 28.629 28.665 28.929 29.699 29.773 29.558 29.594 30.194 30.645 31.133 31.427 30.843 29.843 28.721 28.549 28.518 29.145 28.806 28.699 28.653 28.553 28.543 28.515 28.54 29.323 29.489 28.968 28.965 30.452 31.235 31.841 33.666 34.298 34.902 34.102 33.994 34.638 34.863 33.861 34.436 35.06 34.395 34.281 34.663 32.315 29.154 28.58 28.537 28.514 28.517 28.515 28.468 28.522 30.427 28.695 28.898 29.636 30.253 30.85 31.567 32.122 32.39 32.145 32.143 32.078 31.993 31.989 32.061 31.993 31.871 31.904 31.959 31.918 32.865 33.19 33.279 33.361 33.339 33.397 33.39 33.371 33.454 33.456 33.474 33.596 33.769 34.099 33.958 34.049 34.673 38.402 39.437 37.519 38.926 38.307 37.896 36.395 35.301 34.586 34.355 34.659 34.768 34.19 33.929 33.875 33.849 33.917 34.362 34.482 34.751 35.012 35.115 35.456 35.702 35.86 36.081 36.131 36.103 35.752 35.267 35.451
26.868 31.662 32.374 33.115 33.818 34.52 35.279 35.542 34.787 34.129 33.381 32.648 31.947 31.34 31.932 32.631 33.278 34.046 34.818 35.497 35.194 34.52 33.649 32.97 32.266 31.353 26.152 25.657 28.099 27.645 26.253 26.134 26.143 29.636 30.435 26.603 26.118 26.15 26.085 26.098 26.916 32 33.139 33.482 33.644 34.058 34.402 34.722 34.983 35.146 34.431 34.112 34.381 33.803 28.692 26.654 27.756 27.319 30.67 31.257 31.696 32.11 32.666 33.152 33.562 33.37 32.789 32.446 31.987 31.545 32.149 32.303 32.459 32.572 32.733 32.869 33.341 33.767 34.254 34.646 35.125 35.721 36.275 36.428 35.937 35.462 35.013 34.519 34.005 33.576 33.045 32.564 32.126 31.606 30.221 27.301 27.547 25.743 25.214 25.192 25.099 25.138 25.24 25.277 25.286 25.18 25.202 25.216 25.224 25.236 25.243 25.304 25.426 25.505 25.624 25.615 25.551 25.579 25.47 25.459 25.476 25.479 25.645 27.269 26.23 25.999 26.012 26.084 26.118 26.205 26.222 26.283 26.297 27.003 26.35 26.368 26.387 26.417 26.387 26.467 26.6 26.628 26.676 26.794 26.918 26.969 26.944 27.099 27.173 27.385 27.342 27.541 29.922 29.692 29.754 29.865 30.111 29.911 29.949 30.091 30.206 30.185 30.381 30.452 30.594 30.663 30.748 30.827 30.941 31.057 31.067 31.191 31.26 31.461 31.543 31.6 31.65 31.874 31.721 31.564 31.535 31.592 31.531 31.552 31.548 31.553 31.548 31.507 31.513 31.525 31.437 31.388 31.348 31.537 31.564 31.574 31.509 31.444 31.374 30.419 22.774 22.445 25.316 24.925 25.614 27.122 29.16 29.537 28.077 27.759 27.689 27.758 27.797 27.83 27.872 27.936 27.975 28.021 28.022 28.097 28.13 28.17 28.194 28.252 28.241 33.381 35.85 36.313 36.564 36.892 37.301 37.673 37.513 37.11 36.725 36.406 36.013 31.984 31.729 33.171 31.664 28.505 27.647 27.679 27.61 27.581 27.569 28.054 29.167 28.509 28.117 27.847 27.831 27.851 27.876 27.839 29.358 30.102 28.766 31.703 30.893 29.089 28.09 28.126 28.125 28.201 28.235 28.215 28.26 28.277 28.343 28.355 28.309 28.25 28.278 28.576 34.797 35.874 36.056 36.394 36.692 36.861 37.183 37.465 37.734 37.949 38.287 38.506 38.735 38.859 38.551 38.214 37.96 37.788 37.553 37.16 36.865 36.568 36.422 36.112 35.918 35.393 30.438 28.937 29.744 31.317 31.275 28.732 28.714 28.646 28.648 28.629 28.577 28.585 28.787 29.116 29.716 30.27 30.754 31.079 31.513 31.679 31.417 30.383 29.546 28.759 28.53 28.777 28.878 28.964 28.99 28.97 28.64 28.54 28.528 28.471 31.268 31.755 30.529 28.876 28.945 30.952 31.272 32.791 33.835 34.312 34.862 34.232 34.265 34.687 34.78 33.949 34.501 35.074 34.658 34.278 34.784 33.945 28.817 28.523 28.521 28.532 28.503 28.466 28.501 28.581 28.647 28.566 28.874 29.532 30.108 30.662 31.581 32.154 32.52 32.128 32.11 32.011 31.99 31.936 31.955 31.939 31.863 31.808 31.869 31.816 32.052 32.743 33.227 33.253 33.334 33.238 33.217 33.277 33.389 33.419 33.506 33.679 33.683 33.934 33.996 33.967 34.045 35.851 36.948 38.217 38.624 38.915 37.811 37.686 36.453 34.42 34.547 34.897 34.721 34.333 34.116 33.906 34.109 34.232 34.712 34.808 35.452 35.813 35.631 35.792 35.736 36.112 36.038 36.022 35.768 35.27 34.949
26.035 31.61 32.335 33.112 33.741 34.482 35.225 35.522 34.798 34.097 33.316 32.574 31.898 31.261 31.815 32.504 33.137 33.998 34.651 35.61 35.226 34.384 33.747 32.976 32.297 31.546 26.59 25.56 28.361 29.949 27.03 26.072 26.072 26.894 26.109 26.132 26.131 26.101 26.088 26.143 26.153 26.529 32.852 33.295 33.659 33.933 34.296 34.541 34.793 35.013 34.395 28.489 28.049 28.539 26.216 28.999 29.06 27.443 28.925 30.891 31.361 31.899 32.391 32.931 33.28 33.633 33.119 32.578 32.157 31.664 32.014 32.19 32.334 32.568 32.676 32.798 32.925 33.572 33.949 34.469 35.026 35.546 35.965 36.482 36.259 35.748 35.224 34.702 34.243 33.806 33.257 32.847 32.274 31.704 31.257 28.06 27.22 26.907 25.221 25.186 25.078 25.095 25.218 25.308 25.302 25.214 25.194 25.187 25.216 25.27 25.291 25.308 25.325 25.399 25.963 25.689 25.655 25.582 25.52 25.538 25.525 25.565 25.496 25.614 25.727 25.872 25.869 25.937 26.755 25.943 26.03 26.013 26.051 26.115 26.191 26.304 26.258 26.345 26.525 26.543 26.599 26.678 26.794 26.89 26.875 26.961 27.118 27.164 28.107 27.85 29.24 29.553 29.53 29.569 29.734 29.768 29.733 29.856 29.982 30.044 30.192 30.382 30.45 30.498 30.628 30.766 30.764 30.864 31.048 31.269 31.395 31.506 31.66 31.663 31.662 31.728 31.778 31.709 31.794 31.722 31.627 31.653 31.624 31.59 31.599 31.582 31.528 31.534 31.473 31.405 31.356 31.325 31.342 31.379 31.427 31.533 31.517 31.286 31.149 30.114 22.474 22.502 22.829 24.178 24.594 26.816 29.743 30.308 29.252 27.844 27.655 27.744 27.746 27.814 27.846 27.884 27.973 27.971 28.041 28.057 28.075 28.095 28.216 28.224 28.247 30.545 34.431 36.037 36.35 36.811 37.159 37.521 37.631 37.391 36.912 36.632 36.201 35.861 33.155 32.019 31.83 27.784 27.641 27.594 27.675 27.622 27.614 27.803 28.183 28.051 27.861 27.82 27.802 27.836 27.99 28.659 30.945 28.273 27.918 30.331 30.88 29.727 28.481 28.179 28.221 28.205 28.203 28.283 28.305 28.335 28.338 28.288 28.248 28.236 28.531 35.532 35.884 36.215 36.405 36.718 37.049 37.264 37.514 37.852 38.038 38.376 38.464 38.809 38.616 38.393 38.187 37.934 37.702 37.374 37.127 36.799 36.609 36.257 36.065 35.638 30.62 31.729 29.639 29.573 30.935 31.279 29.445 28.695 28.679 28.647 28.596 28.563 28.543 28.649 29.209 29.453 30.316 30.981 31.54 31.639 31.461 31.37 31.026 29.923 28.972 28.594 28.699 28.851 28.939 28.912 29.107 28.89 28.789 28.694 28.559 28.645 31.423 32.044 30.349 29.991 28.969 29.213 31.076 32.618 29.736 33.102 34.532 34.911 34.041 34.211 34.765 34.366 34.024 34.448 34.763 33.934 34.201 34.907 33.411 28.796 28.51 28.502 28.505 28.513 28.443 28.5 29.127 28.575 28.573 28.767 29.48 30.029 34.867 34.887 37.978 38.196 32.612 32.919 31.991 31.911 31.86 31.862 31.924 31.847 31.721 31.924 31.773 32.012 32.688 33.166 33.312 33.074 33.086 33.179 33.253 33.318 33.351 33.456 33.607 33.717 33.941 34.006 33.967 33.937 34.389 37.362 38.23 38.789 38.307 37.744 38.388 37.367 34.079 34.885 34.82 34.687 34.183 34.049 33.783 34.231 34.625 35.025 35.286 35.954 35.71 36.076 35.822 36.054 36.227 36.062 35.875 35.293 35.416
27.498 31.371 32.38 33.06 33.778 34.414 35.249 35.49 34.743 34.069 33.381 32.671 31.839 31.248 31.955 32.565 33.326 34.031 34.795 35.544 35.229 34.374 33.752 33.083 32.33 31.466 26.003 25.396 28.26 30.23 30.184 26.986 26.085 26.148 26.105 26.128 26.121 26.152 26.104 26.064 26.057 26.147 32.064 33.148 33.35 33.726 34.041 34.415 34.701 31.721 29.292 29.577 29.884 28.339 27.158 28.967 29.118 29.139 27.473 30.724 31.279 31.706 32.123 32.641 33.196 33.563 33.363 32.821 32.399 31.944 31.908 32.161 32.332 32.447 32.57 32.686 32.92 33.279 33.872 34.33 34.738 35.175 35.825 36.264 36.351 35.947 35.483 34.938 34.456 33.991 33.465 33.032 32.608 32.025 31.527 29.529 27.066 27.551 25.239 25.329 25.034 25.071 25.114 25.281 25.251 25.26 25.195 25.209 25.173 25.237 25.299 25.261 25.33 25.374 25.433 25.501 25.626 25.714 25.641 25.595 25.599 25.615 25.591 25.641 25.653 25.659 25.647 25.732 25.859 25.86 25.861 25.927 26.029 26.166 26.173 26.308 26.365 26.412 26.504 26.627 26.696 26.686 26.784 26.841 27.032 27.199 28.891 28.725 28.847 29.46 29.699 29.572 29.433 29.479 29.514 29.709 29.795 29.829 29.986 30.141 30.269 30.308 30.447 30.595 30.701 30.761 30.976 31.256 31.343 31.509 31.687 31.72 31.736 31.77 31.84 31.873 31.828 31.827 31.875 31.773 31.672 31.748 31.72 31.645 31.617 31.624 31.517 31.382 31.354 31.358 31.34 31.33 31.335 31.407 31.515 31.619 31.47 31.777 -9999 -9999 22.486 22.449 22.582 23.869 24.422 26.236 29.255 29.254 28.451 27.838 27.656 27.714 27.746 27.755 27.771 27.891 27.962 27.983 27.972 28.048 28.082 28.139 28.126 28.198 28.232 28.334 30.95 35.691 36.16 36.524 36.881 37.287 37.634 37.561 37.118 36.808 36.411 36.091 35.456 28.695 28.329 27.701 27.621 27.619 27.634 27.593 27.55 27.756 28.085 28.743 27.833 27.858 27.874 27.89 27.899 28.519 27.984 27.965 27.962 28.627 29.753 29.988 30.079 28.45 28.211 28.247 28.303 28.305 28.365 28.38 28.299 28.211 28.164 33.29 35.732 36.044 36.256 36.576 36.755 37.102 37.376 37.574 37.835 38.081 38.363 38.685 38.941 38.685 38.326 38.188 37.855 37.57 37.294 37.121 36.783 36.49 36.296 35.987 35.773 31.804 30.582 31.155 28.893 28.669 28.706 29.532 28.658 28.615 28.629 28.575 28.605 28.561 28.548 28.98 28.742 29.358 30.412 31.494 31.767 31.575 31.368 30.94 30.066 29.37 29.442 28.882 28.747 28.883 28.875 28.837 28.817 31.001 29.322 28.712 28.666 28.543 29.102 30.236 29.271 29.303 29.149 28.907 30.852 29.592 28.604 33.289 33.866 34.333 35.002 34.06 34.262 34.794 34.47 34.012 34.726 35.113 33.787 34.379 34.932 30.366 28.531 28.49 28.489 28.501 28.498 29.452 28.802 28.754 28.569 28.575 28.892 29.511 35.556 34.321 37.676 37.627 39.682 32.618 31.953 31.959 31.907 31.803 31.862 31.812 31.784 31.696 31.726 31.714 31.823 32.437 33.1 33.251 33.087 33.085 33.089 33.132 33.254 33.363 33.463 33.464 33.776 33.952 34.006 34.045 34.057 34.524 36.862 38.014 37.588 38.457 38.93 39.009 37.444 34.246 34.912 34.645 34.18 34.074 33.826 34.28 34.745 35.112 35.542 35.952 35.723 35.912 35.947 35.881 36.046 35.794 35.894 35.338 35.171
27.782 31.643 32.353 33.016 33.754 34.515 35.211 35.547 34.72 34 33.256 32.623 31.818 31.249 31.879 32.519 33.189 34.015 34.729 35.464 35.189 34.295 33.793 32.973 32.251 31.441 28.564 25.404 27.502 29.859 31.591 26.202 26.11 26.242 26.149 26.159 26.143 26.149 26.077 26.125 26.056 26.177 29.547 32.96 33.31 33.659 33.872 29.163 27.562 28.116 29.781 29.839 29.583 26.762 26.743 28.903 27.666 28.948 29.898 30.566 30.948 31.495 32.051 32.493 32.934 33.463 33.547 33.075 32.614 32.087 31.638 32.098 32.233 32.352 32.532 32.659 32.866 33.028 33.551 34.02 34.492 35.002 35.497 35.88 36.422 36.154 35.651 35.175 34.648 34.198 33.712 33.277 32.749 32.339 31.792 31.216 27.132 27.73 25.291 25.272 24.995 25.022 25.026 25.247 25.284 25.302 25.296 25.197 25.197 25.214 25.288 25.291 25.306 25.354 25.372 25.459 25.543 25.681 25.801 25.7 25.695 25.729 25.694 25.695 25.666 25.722 25.72 25.756 25.834 25.848 25.955 25.964 26.07 26.125 26.27 26.338 26.377 26.473 26.591 26.658 26.678 26.856 27.622 28.065 28.521 28.867 28.774 28.98 29.193 29.11 29.084 29.26 29.292 29.395 29.557 29.64 29.791 29.955 30.085 30.199 30.272 30.369 30.536 30.67 30.913 31.149 31.336 31.477 31.628 31.686 31.713 31.806 31.839 31.862 31.906 31.962 31.906 31.864 31.81 31.876 31.802 31.772 31.744 31.723 31.66 31.613 31.341 31.327 31.297 31.328 31.549 31.365 31.406 31.382 31.599 31.665 31.262 -9999 -9999 -9999 22.472 22.932 23.097 23.467 23.58 24.705 26.769 27.421 27.42 27.84 27.609 27.721 27.73 27.728 27.747 27.824 27.863 27.958 28 27.982 28.017 28.098 28.146 28.176 28.198 28.271 29.175 35.39 35.886 36.342 36.72 37.095 37.446 37.724 37.374 37.034 36.698 36.303 35.832 31.883 31.089 27.794 27.696 27.641 27.616 27.655 27.615 27.742 27.846 29.186 28.125 27.923 27.901 27.888 27.933 27.955 27.93 27.952 31.188 32.037 32.502 31.564 29.901 29.243 28.342 28.403 28.285 28.352 28.333 28.298 28.214 28.462 33.482 35.813 36.078 36.374 36.612 36.856 37.177 37.405 37.701 37.898 38.203 38.367 38.678 38.798 38.603 38.347 37.983 37.745 37.437 37.269 36.92 36.741 36.455 36.135 35.999 35.349 31.724 28.587 31.511 31.203 30.901 28.704 28.764 28.651 28.674 28.571 28.624 28.616 28.599 28.637 28.597 28.52 28.542 28.787 29.989 30.706 31.295 31.287 30.872 30.177 29.083 28.699 29.487 28.953 28.891 28.964 28.983 28.934 28.844 30.755 29.435 28.74 28.68 28.571 28.543 28.448 28.51 30.983 29.811 29.249 28.953 28.494 28.503 28.511 32.546 34.021 34.487 35.146 34.071 34.396 34.939 34.8 34.136 34.69 34.754 33.884 34.466 34.872 31.838 28.994 28.519 28.511 28.527 28.751 28.858 29.039 28.627 28.591 28.532 28.919 29.526 35.769 36.571 37.02 35.79 32.416 32.804 31.907 31.904 31.854 31.771 31.797 31.771 31.715 31.653 31.691 31.649 31.676 32.501 32.904 33.177 33.095 33.11 33.082 33.046 33.241 33.367 33.425 33.597 33.824 33.858 33.939 34.033 34.054 34.356 35.699 35.823 36.937 38.472 38.951 38.069 37.519 37.641 35.844 34.037 34.189 34.05 34.623 34.924 34.929 35.149 35.588 35.785 35.81 35.975 35.773 35.813 35.451 35.391 35.298 34.933
25.742 31.645 32.362 33.097 33.84 34.438 35.152 35.446 34.776 34.07 33.324 32.684 31.866 31.364 31.936 32.707 33.302 34.149 34.798 35.522 35.091 34.387 33.698 33.001 32.217 31.419 29.258 26.822 27.797 30.592 31.397 31.397 27.994 27.639 32.356 26.426 30.832 30.091 26.536 26.07 25.988 25.995 26.209 32.651 28.869 26.726 25.882 28.285 26.072 26.625 28.818 27.143 26.069 26.458 26.28 26.701 26.633 26.365 26.352 27.534 30.817 31.284 31.787 32.796 32.784 33.243 33.621 33.2 32.803 32.26 31.793 31.889 32.242 32.326 32.497 32.546 32.716 32.951 33.257 33.864 34.353 34.823 35.21 35.78 36.287 36.347 35.885 35.38 34.948 34.468 33.916 33.42 32.951 32.499 32.015 31.506 29.469 28.043 25.906 25.019 24.973 24.994 25.053 25.137 25.283 25.272 25.299 25.344 25.25 25.214 25.231 25.246 25.279 25.332 25.405 25.448 25.499 25.504 25.698 26.061 26.375 26.268 25.89 25.914 25.826 25.82 25.829 25.83 25.879 25.96 25.981 26.108 26.132 26.274 26.413 26.507 26.591 26.604 27.229 27.509 28.151 27.961 28.332 28.315 28.818 28.71 28.49 28.687 28.818 29.002 29.059 29.18 29.348 29.501 29.526 29.731 29.883 29.914 30.057 30.273 30.452 30.562 30.86 31.087 31.374 31.417 31.636 31.689 31.806 31.891 31.906 31.881 31.887 31.863 31.94 31.906 31.799 31.861 31.944 31.887 31.837 31.815 31.798 31.615 31.509 31.352 31.301 31.238 31.164 31.057 31.071 31.284 31.389 31.409 31.494 31.403 -9999 -9999 -9999 -9999 23.524 22.775 22.787 23.13 23.471 24.114 24.795 25.639 26.767 27.371 27.682 28.281 27.912 27.662 27.735 27.788 27.877 27.891 27.915 27.948 28.035 28.064 28.078 28.151 28.207 28.247 28.234 29.573 35.717 36.053 36.425 36.919 37.234 37.496 37.439 37.201 36.874 36.541 36.109 35.728 30.008 28.009 27.713 27.614 27.644 27.649 27.632 27.645 27.82 27.963 28.084 29.52 27.971 27.948 27.924 27.957 27.924 30.907 32.223 32.893 32.83 32.262 31.6 29.929 36.436 33.938 28.428 28.34 28.309 28.234 28.519 34.74 35.845 36.194 36.392 36.696 37.042 37.218 37.549 37.727 38.045 38.204 38.6 38.772 38.765 38.52 38.362 38.086 37.737 37.457 37.221 36.843 36.628 36.283 36.138 35.942 35.504 29.029 28.758 30.696 30.591 30.021 31.119 29.216 28.687 28.599 28.641 28.582 28.597 28.575 28.548 28.9 28.537 28.481 28.519 28.476 28.923 29.582 30.311 30.204 29.865 29.625 28.626 28.575 28.87 28.951 28.947 28.98 29 28.962 28.938 28.904 28.867 28.85 29.182 28.651 28.68 28.5 28.523 28.693 28.745 28.718 28.874 28.518 28.462 30.515 31.398 33.479 33.968 34.592 34.805 33.977 34.47 34.799 34.219 34.268 34.782 34.927 33.947 34.503 35.116 31.984 28.897 28.552 28.546 28.516 28.824 30.797 28.839 28.562 28.573 28.546 28.737 30.41 30.796 31.327 31.433 31.341 33.099 32.075 32.216 31.877 31.797 31.729 31.698 31.681 31.686 31.608 31.581 31.574 31.664 32.561 32.892 33.289 33.201 33.035 33.083 33.178 33.221 33.388 33.451 33.563 33.687 33.809 33.869 33.902 33.998 33.947 33.822 35.014 36.659 37.776 38.268 38.911 38.84 38.811 36.852 34.595 34.084 34.408 34.716 34.969 35.229 35.454 35.631 35.679 35.689 35.534 35.592 35.374 35.277 35.076 34.695
26.361 31.656 32.319 33.122 33.812 34.473 35.244 35.492 34.886 34.083 33.301 32.637 31.95 31.251 31.848 32.731 33.298 34.129 34.753 35.427 35.157 34.456 33.695 32.969 32.263 31.517 27.203 25.146 26.927 30.145 32.455 33.373 34.132 33.332 34.083 35.567 34.212 33.571 28.947 26.017 26.015 25.964 25.974 25.928 26.17 25.891 25.882 25.962 26.027 26.094 26.046 26.113 26.196 26.215 26.27 26.333 26.327 26.364 26.385 26.431 29.832 30.984 31.946 33.04 33.014 31.991 31.913 32.772 33.44 32.648 32.967 33.052 33.855 34.222 34.579 32.534 32.697 32.873 33.071 33.594 34.061 34.595 35.068 35.499 35.97 36.456 36.143 35.616 35.206 34.617 34.199 33.79 33.153 32.733 32.143 31.682 29.245 27.362 27.207 25.075 24.903 24.954 25.022 25.047 25.203 25.305 25.316 25.327 25.321 25.335 25.209 25.283 25.321 25.355 25.345 25.385 25.492 25.534 25.564 25.558 25.762 25.867 25.973 26.489 26.346 26.096 26.026 26.094 26.136 26.343 26.318 26.455 26.515 26.634 27.324 27.751 27.47 27.574 27.711 27.83 27.881 28.07 28.169 28.123 28.195 28.363 28.57 28.682 28.799 28.936 29.131 29.245 29.304 29.457 29.649 29.774 29.848 30.157 30.331 30.578 30.789 31.096 31.247 31.454 31.56 31.974 32.147 31.986 31.914 31.984 31.937 31.875 31.937 31.883 31.773 31.769 31.896 31.892 31.827 31.775 31.761 31.727 31.594 31.383 31.399 31.398 31.289 31.067 30.686 32.036 30.425 31.13 31.323 31.097 -9999 -9999 -9999 -9999 -9999 24.093 23.032 22.212 22.431 22.951 23.635 23.62 24.141 24.931 26.015 27.106 28.755 27.903 27.687 27.789 27.688 27.745 27.788 27.864 27.917 27.955 27.97 28.062 28.052 28.105 28.132 28.239 28.265 28.343 35.289 35.912 36.252 36.611 36.994 37.201 37.076 36.804 36.637 36.387 36.109 35.885 35.35 29.321 28 27.63 27.598 27.684 27.648 27.645 27.772 27.844 30.529 28.32 27.899 27.91 27.968 27.99 27.992 30.285 31.768 32.546 32.924 32.797 32.088 31.93 35.602 32.052 29.167 28.245 28.287 28.514 35.632 35.949 36.22 36.543 36.763 37.063 37.32 37.553 37.859 38.038 38.36 38.694 38.86 38.729 38.47 38.22 37.94 37.735 37.433 37.247 36.809 36.603 36.267 36.075 35.755 31.846 32.432 32.218 30.422 28.633 28.738 28.705 28.905 28.644 28.676 28.607 28.635 28.616 28.616 28.569 28.574 28.558 28.549 28.542 28.552 28.52 28.503 28.891 29.234 29 28.853 28.715 28.747 28.825 28.904 28.905 28.927 28.985 28.996 28.983 28.958 28.928 28.858 29.538 30.855 29.416 28.599 28.505 28.615 28.427 28.436 30.215 30.493 29.334 28.597 33.094 33.227 33.377 33.68 34.104 34.607 34.907 34.011 34.425 34.95 34.169 34.097 34.773 34.793 34.134 34.551 34.425 33.687 29.365 28.544 28.534 28.509 28.98 28.527 28.612 28.633 28.553 28.593 28.877 29.242 29.818 30.329 30.816 31.506 31.77 31.938 31.989 31.761 31.738 31.7 31.636 31.651 31.632 31.556 31.496 31.596 31.67 32.344 32.922 33.149 33.107 33.168 33.213 33.213 33.254 33.422 33.55 33.553 33.604 33.728 33.804 33.82 33.965 33.892 33.891 34.115 38.173 38.531 38.418 39.063 38.658 38.274 35.758 34.01 34.292 35.633 37.616 35.215 36.096 35.837 35.406 35.382 35.499 35.471 35.18 35.027 34.731 37.045
26.514 31.626 32.348 32.957 33.821 34.519 35.167 35.468 34.846 34.048 33.358 32.596 30.522 28.595 30.261 30.438 30.41 30.806 31.632 32.881 31.643 30.99 31.359 32.089 28.606 30.296 29.624 25.138 28.557 30.261 32.598 33.371 34.151 34.935 35.991 35.883 35.066 34.167 28.454 25.989 25.886 25.874 25.915 25.816 25.899 25.99 27.685 29.412 27.995 28.042 26.707 26.344 26.835 26.713 26.322 26.585 26.432 26.674 27.513 26.511 27.774 31.045 32.172 33.222 32.894 32.058 31.874 32.84 33.291 32.444 32.801 34.406 35.236 36.068 34.282 32.524 32.575 32.801 32.96 33.329 33.914 34.362 34.779 35.233 35.864 36.358 36.275 35.804 35.354 34.901 34.373 33.895 33.358 32.864 32.516 32.003 31.417 26.888 25.972 25.055 25.155 24.975 24.948 25.024 25.325 25.215 25.272 25.321 25.36 25.39 25.332 25.245 25.249 25.288 25.379 25.39 25.431 25.497 25.503 25.6 25.661 25.779 25.865 25.967 26.125 26.208 26.652 26.415 26.47 26.559 26.802 26.827 26.95 27.023 27.151 27.215 27.267 27.501 27.521 28.107 27.707 27.824 27.904 28.074 28.231 28.418 28.547 28.704 28.811 28.994 29.044 29.207 29.437 29.597 29.722 29.992 30.212 30.58 30.67 31.035 31.289 31.493 32.293 31.995 32.399 32.095 32.089 32.357 31.905 31.828 31.93 31.88 31.836 31.757 31.684 31.718 31.813 31.752 31.703 31.571 31.455 31.302 31.371 31.37 31.371 31.423 31.3 31.019 29.312 28.076 28.352 30.028 30.745 30.422 -9999 -9999 -9999 -9999 -9999 -9999 22.893 22.308 22.519 22.48 23.441 23.635 23.971 24.445 25.592 28.367 30.903 32.804 29.308 29.864 27.627 27.703 27.747 27.807 27.831 27.93 27.962 28.005 28.016 28.117 28.127 28.165 28.2 28.293 33.231 35.578 36.034 36.481 36.826 36.793 36.786 36.484 36.229 35.958 35.866 35.468 30.134 30.11 28.672 27.791 27.588 27.626 27.645 27.626 27.652 27.793 27.933 27.925 28.021 27.937 28.006 28.058 28.058 28.059 30.569 31.684 32.334 32.912 33.058 33.175 31.123 34.491 32.806 28.349 32 35.586 35.995 36.346 36.593 36.899 37.087 37.401 37.598 37.941 38.115 38.404 38.674 38.843 38.657 38.368 38.147 37.894 37.624 37.377 37.055 36.817 36.569 36.277 35.865 35.678 30.404 28.525 31.268 31.822 28.71 28.663 28.683 28.717 28.652 28.681 28.66 28.657 28.659 28.581 28.549 28.576 28.559 28.57 28.55 28.56 28.531 28.497 28.536 28.546 28.482 28.503 28.529 29.374 28.794 28.841 28.88 28.901 28.924 28.971 28.983 29.02 29.03 29.006 28.995 29.177 29.461 28.949 28.868 28.633 28.523 28.487 29.505 31.16 31.59 31.305 29.992 28.521 28.483 29.959 33.358 33.541 34.211 34.742 34.497 34.056 34.598 35.061 34.183 34.277 34.528 34.179 34.858 34.842 34.615 33.322 28.726 28.552 28.568 28.517 28.947 29.428 28.628 28.674 28.598 28.573 28.779 29.166 29.582 30.06 30.646 31.035 31.698 34.426 36.931 35.373 31.9 31.623 31.59 31.63 31.615 31.527 31.518 31.541 31.55 32.18 32.638 33.26 33.351 33.242 33.238 33.215 33.329 33.382 33.451 33.479 33.61 33.737 33.826 33.817 33.831 33.695 34.55 37.901 37.109 35.886 37.179 38.046 37.403 37.167 34.77 33.93 38.592 36.131 34.954 36.539 37.381 35.267 35.352 35.26 35.221 35.076 34.643 34.633 34.389
27.06 31.503 32.384 32.985 33.807 34.475 35.215 35.509 34.749 34.018 33.418 32.584 30.395 28.899 28.885 28.848 28.883 28.863 28.853 28.812 28.838 28.874 28.848 29.003 26.22 25.107 24.969 24.989 27.172 31.849 32.729 33.508 34.418 35.125 35.96 35.572 34.799 33.985 30.414 25.948 25.855 26.321 26.668 26.513 28.585 29.077 29.791 30.423 29.979 29.86 29.408 29.379 29.183 29.654 29.243 29.741 28.935 31.024 32.556 33.417 32.386 31.851 32.05 33.086 32.827 31.838 32.161 33.051 33.275 32.356 33.591 34.508 35.347 36.024 36.241 34.323 32.637 32.683 32.769 33.253 33.622 34.067 34.677 35.069 35.525 36.058 36.491 36.063 35.584 35.09 34.558 34.069 33.685 33.168 32.662 32.123 28.116 26.468 28.108 25.001 24.947 24.868 24.912 24.986 25.119 25.213 25.346 25.316 25.36 25.365 25.417 25.382 25.272 25.28 25.309 25.348 25.433 25.484 25.574 25.598 25.661 25.76 25.816 25.896 26.02 26.426 26.278 26.364 27.972 26.828 26.698 26.735 27.252 27.041 27.014 27.107 27.125 27.227 27.419 27.521 27.721 27.79 27.939 28.142 28.303 28.361 28.569 28.716 28.781 29.025 29.204 29.434 29.599 29.904 30.143 30.259 30.677 31.028 31.372 31.561 31.983 31.943 31.976 32.244 32.143 32.313 32.496 32.077 31.84 31.731 31.689 31.628 31.606 31.545 31.491 31.52 31.586 31.465 31.41 31.229 31.228 31.288 31.333 31.377 31.475 31.702 31.519 29.903 27.368 25.007 25.893 -9999 -9999 -9999 -9999 -9999 -9999 -9999 -9999 -9999 -9999 22.565 22.495 22.484 23.322 23.445 23.732 24.138 25.161 28.359 32.733 34.351 34.807 27.777 27.598 27.639 27.649 27.726 27.821 27.917 27.896 27.966 28.011 28.082 28.098 28.182 28.219 28.246 28.355 35.281 35.852 36.136 36.594 36.506 36.346 36.087 35.968 35.68 35.277 31.656 30.121 29.588 29.075 27.916 27.599 27.623 27.681 27.704 27.627 27.738 27.894 29.601 29.329 27.979 28.102 28.11 28.062 27.977 27.953 29.111 31.858 33.27 35.543 34.891 33.278 36.11 32.589 28.346 28.289 33.444 35.962 36.225 36.556 36.883 37.338 37.609 37.913 38.186 38.578 38.766 38.825 38.588 38.361 38.045 37.822 37.501 37.276 36.975 36.768 36.474 36.224 35.978 35.498 31.667 28.56 28.785 28.653 28.68 28.666 28.656 28.655 28.674 28.669 28.656 28.63 28.64 28.607 28.654 28.602 28.585 28.595 28.527 28.527 28.52 28.547 28.481 28.515 28.54 28.56 28.589 28.861 28.766 28.834 28.876 28.901 28.941 28.965 28.929 28.996 29.028 29.025 29.028 29.053 28.959 28.882 29.246 29.025 28.64 28.535 28.516 28.591 30.498 31.558 30.199 29.138 28.872 28.507 28.489 29.941 30.884 33.695 34.203 34.872 33.966 33.988 34.584 34.707 33.856 34.422 35.616 35.547 36.357 35.037 34.638 34.139 28.782 28.52 28.525 28.524 28.594 28.539 28.616 28.591 28.567 28.619 28.705 28.968 29.52 30.004 30.553 31.139 35.897 37.944 38.94 34.738 33.253 31.608 31.546 31.596 31.519 31.449 31.435 31.504 31.482 32.153 33.326 33.865 33.073 33.116 33.195 33.288 33.387 33.38 33.427 33.478 33.696 33.667 33.659 33.709 33.796 33.721 33.689 33.704 34.463 35.914 37.372 37.958 37.753 37.46 35.633 38.868 38.985 35.203 34.627 35.057 35.66 35.09 34.798 34.942 35.139 34.788 34.647 34.849
27.892 31.676 32.384 33.042 33.781 34.446 35.035 35.46 34.796 34.08 33.362 32.611 29.567 28.386 28.461 28.441 28.494 28.449 28.449 28.489 28.462 28.455 28.523 28.48 25.793 25.484 24.916 26.358 27.179 31.704 32.759 33.592 34.346 35.231 36.087 35.536 34.807 33.816 30.859 29.208 27.309 27.653 29.08 30.609 29.955 29.875 30.044 30.125 30.075 30.262 30.174 30.311 30.218 30.17 30.085 30.078 30.058 31.318 32.601 33.26 32.562 31.859 32.373 33.168 32.752 31.844 32.13 33.12 33.223 32.369 33.046 34.509 35.277 36.296 36.292 34.01 32.228 31.955 32.409 32.922 33.425 33.908 34.409 34.846 35.43 35.903 36.362 36.224 35.748 35.322 34.836 34.383 33.842 33.304 32.845 32.418 31.806 26.835 27.213 25.058 24.871 24.812 24.876 24.928 25.097 25.175 25.231 25.238 25.356 25.305 25.373 25.424 25.443 25.413 25.343 25.413 25.444 25.511 25.536 25.634 25.677 25.716 25.77 25.842 25.987 26.08 26.116 26.21 26.303 26.352 26.504 26.584 26.726 26.762 26.873 27.009 27.144 27.248 27.361 27.536 27.692 27.846 28.027 28.066 28.282 28.484 28.482 28.825 29.006 29.3 29.394 29.779 30.1 30.438 31.202 31.554 31.407 31.908 32.046 32.051 32.171 32.352 32.012 32.213 31.762 31.772 31.467 31.407 31.426 31.441 31.477 31.372 31.314 31.341 31.315 31.32 31.269 31.059 31.11 31.17 31.188 31.201 31.321 31.432 31.497 31.933 31.516 29.477 25.365 23.609 24.26 -9999 -9999 -9999 -9999 -9999 -9999 -9999 -9999 -9999 -9999 -9999 -9999 22.449 23.216 23.234 23.285 23.798 24.537 26.492 31.073 33.071 31.687 28.996 27.569 27.587 27.609 27.692 27.72 27.843 27.905 27.952 27.925 27.976 28.059 28.121 28.169 28.219 28.279 29.601 35.43 36.002 36.309 36.081 35.967 35.752 35.246 32.62 29.628 29.785 29.599 29.35 29.152 27.782 27.61 27.572 27.698 27.676 27.745 27.741 27.842 28.519 28.056 28.023 28.081 28.068 28.003 28.009 27.996 28.177 31.486 33.256 34.744 35.448 34.603 33.083 31.258 28.383 28.293 28.525 35.335 35.991 36.379 36.671 36.992 37.287 37.647 38.076 38.34 38.693 38.575 38.277 37.993 37.731 37.406 37.166 36.94 36.666 36.434 36.08 35.858 35.533 28.544 28.678 28.987 28.624 28.636 28.715 28.66 28.678 28.622 28.665 28.667 28.637 28.603 28.633 28.59 28.568 28.609 28.555 28.572 28.551 28.538 28.563 28.522 28.549 28.49 28.523 28.559 29.811 29.212 28.811 28.818 28.883 28.912 28.95 28.928 28.942 28.958 29.012 29.03 29.04 29.079 29.053 28.991 28.763 28.861 29.071 28.515 28.519 28.515 28.568 28.829 29.227 29.273 29.093 30.161 28.535 28.662 30.733 31.611 33.749 34.396 34.926 34.031 34.222 34.669 35.195 36.574 36.069 35.792 35.722 35.274 34.975 34.622 31.544 28.619 28.593 28.573 28.514 28.547 28.518 28.624 28.637 28.55 28.564 28.655 28.855 29.267 29.776 30.655 36.762 38.959 39.146 34.973 33.852 31.655 31.521 31.492 31.521 31.518 31.404 31.471 31.457 31.491 31.874 32.999 33.545 33.199 33.218 33.264 33.313 33.345 33.369 33.53 33.625 33.606 33.675 33.646 33.594 33.55 33.589 33.605 33.602 34.075 36.182 36.166 36.249 37.444 34.158 35.394 36.177 34.085 35.833 40.045 37.487 34.724 34.679 34.332 35.078 37.254 36.439 34.645
26.83 31.619 32.292 33.003 33.732 34.399 35.13 35.403 34.812 33.967 33.423 32.548 29.805 28.076 28.076 28.122 28.05 28.093 28.102 28.145 27.996 28.058 28.058 28.233 27.879 27.708 24.953 25.951 27.2 32.188 33.012 33.798 34.496 35.384 35.992 35.401 34.542 31.185 28.241 28.289 30.165 30.871 30.747 30.903 29.246 30.77 30.843 30.27 30.293 30.394 30.148 30.36 30.404 30.416 30.303 30.425 30.23 31.491 32.527 33.332 32.526 31.907 32.365 33.26 32.723 31.747 32.298 33.23 33.104 32.267 33.703 34.666 35.494 36.384 36.238 35.375 31.373 31.783 32.303 32.77 33.138 33.692 34.077 34.737 35.118 35.598 36.079 36.423 35.969 35.492 35 34.503 34.094 33.647 33.065 32.72 32.157 27.872 26.537 25.017 24.919 24.796 24.913 24.933 25.006 25.113 25.138 25.252 25.276 25.317 25.321 25.418 25.486 25.499 25.485 25.432 25.395 25.467 25.587 25.634 25.704 25.689 25.797 25.873 25.912 25.985 26.096 26.208 26.341 26.379 26.487 26.567 26.657 26.829 26.953 27.021 27.158 27.28 27.42 27.548 27.755 27.805 27.954 28.117 28.203 28.354 28.534 28.942 29.136 29.545 29.907 30.289 30.512 31.275 31.566 31.887 31.682 32.076 31.965 31.779 31.992 31.884 31.611 31.314 31.241 31.085 30.987 30.949 30.975 31.044 30.957 31.022 32.327 31.516 30.888 30.972 30.933 31.03 31.013 31.102 31.185 31.202 31.274 31.438 31.47 31.583 30.033 26.902 23.974 23.796 23.71 23.875 -9999 -9999 -9999 -9999 -9999 -9999 -9999 -9999 -9999 -9999 -9999 22.402 22.233 23.158 23.269 23.585 24.377 25.226 29.341 30.099 29.324 27.555 27.566 27.543 27.528 27.617 27.713 27.717 27.852 27.913 27.93 27.976 27.979 28.128 28.125 28.205 28.192 28.239 33.887 35.763 35.981 35.764 35.575 31.369 29.719 30.288 30.02 29.834 29.476 29.102 28.376 27.695 27.588 27.578 27.672 27.709 27.726 27.692 27.866 28.073 28.269 28.063 28.031 28.029 28.006 27.964 27.954 27.99 30.826 32.653 33.186 34.844 35.308 34.064 32.779 31.177 28.392 28.326 29.674 35.545 36.055 36.395 36.756 37.086 37.445 37.698 38.168 38.412 38.203 37.886 37.554 37.463 37.072 36.81 36.54 36.285 36.123 35.84 35.309 29.247 29.765 28.703 28.632 28.625 28.572 28.647 28.66 28.609 28.653 28.634 28.638 28.625 28.602 28.626 28.613 28.529 28.576 28.932 29.472 29.364 28.544 28.932 28.535 28.537 28.555 28.577 28.695 28.869 28.875 28.841 28.88 28.896 28.951 28.975 28.914 28.908 28.954 28.975 29.035 29.047 29.074 29.076 29.096 29.028 29.093 29 28.667 28.598 28.542 28.49 28.451 28.422 28.561 29.029 28.768 28.568 28.642 29.402 30.383 32.235 33.863 34.496 34.907 34.095 35.931 36.746 36.567 36.33 36.048 35.773 34.999 35.221 34.649 34.506 32.032 28.672 28.579 28.551 28.52 28.57 28.593 28.588 28.597 29.287 29.069 29.799 28.943 29.178 29.917 31.33 36.906 33.646 34.039 32.533 31.576 31.599 31.461 31.405 31.463 31.472 31.438 31.348 31.392 31.397 32.071 32.84 33.127 33.269 33.435 33.462 33.24 33.464 33.529 33.556 33.576 33.538 33.524 33.554 33.544 33.474 33.47 33.475 33.458 33.461 33.428 34.334 35.2 33.837 35.95 37.214 36.634 35.021 39.308 39.453 35.758 34.327 34.337 37.277 38.993 38.218 36.769
25.66 31.443 32.172 32.95 33.525 34.304 34.984 35.161 34.592 33.91 33.207 32.478 28.425 27.73 26.227 27.556 27.588 27.649 27.649 27.704 27.644 27.62 27.161 27.699 27.828 26.332 24.913 25.102 29.932 32.265 33.11 33.86 34.58 35.391 36 35.338 34.518 33.134 25.694 26.828 30.466 26.301 25.901 26.615 29.607 30.065 30.092 30.196 30.459 30.704 30.125 30.165 30.372 30.279 30.138 30.45 30.27 31.556 32.724 33.153 32.357 31.665 32.471 33.258 32.483 31.914 32.307 33.262 33.138 32.132 33.627 34.684 35.492 36.401 36.222 35.352 32.3 31.408 32.022 32.513 32.997 33.5 33.994 34.307 34.909 35.354 35.933 36.421 36.203 35.709 35.271 34.764 34.279 33.807 33.232 32.841 31.236 29.575 29.795 26.354 24.94 24.743 24.816 24.879 24.943 25.116 25.177 25.162 25.24 25.257 25.393 25.399 25.368 25.428 25.587 25.583 25.478 25.482 25.491 25.569 25.611 25.737 25.757 25.862 25.913 26.037 26.091 26.212 26.242 26.356 26.502 26.628 26.699 26.74 26.878 27.041 27.147 27.314 27.407 27.603 27.689 27.886 27.906 28.003 28.182 28.347 28.67 28.921 29.349 29.816 30.133 30.739 31.098 31.266 31.313 31.604 31.15 31.336 31.146 30.998 30.919 30.772 30.756 30.621 30.52 30.593 30.572 30.596 30.533 30.715 30.714 30.755 30.71 30.675 30.719 30.845 30.901 31.022 31.125 31.145 31.088 30.948 30.969 30.944 30.868 29.401 27.885 26.055 24.089 23.664 23.427 23.369 23.48 -9999 -9999 -9999 -9999 -9999 -9999 -9999 -9999 -9999 -9999 -9999 22.369 23.144 23.124 23.447 24.107 24.665 26.583 28.51 28.234 27.746 27.596 27.548 27.54 27.599 27.627 27.697 27.745 27.835 27.864 27.957 27.987 28.064 28.082 28.193 28.197 28.19 28.348 35.452 35.583 31.519 30.359 29.851 30.201 30.28 29.828 29.151 28.471 27.837 27.618 27.492 27.568 27.611 27.707 27.657 27.736 27.749 27.777 28.256 28.125 28.032 28.034 27.983 27.948 27.916 27.96 27.974 27.973 28.871 32.541 33.638 34.906 35.299 33.795 32.062 29.512 28.292 28.243 29.717 35.69 36.174 36.454 36.739 37.152 37.498 37.855 38.057 37.867 37.595 37.324 37.029 36.731 36.495 36.251 35.954 35.744 30.454 28.705 29.342 28.648 28.649 28.63 28.579 28.562 28.578 28.594 28.622 28.622 29.664 28.863 30.103 28.634 28.878 28.739 28.489 28.397 28.425 28.449 28.618 28.918 29.096 29.512 28.607 28.622 28.678 28.691 28.738 28.862 28.869 28.93 28.924 28.92 28.878 28.891 28.913 28.906 28.965 29.006 29.05 29.12 29.108 29.089 29.04 28.92 28.855 29.163 28.601 28.505 28.52 28.466 28.414 28.402 28.704 28.66 28.689 29.015 28.684 31.428 33.08 33.505 33.929 34.464 36.123 36.873 37.083 36.76 36.496 36.233 36.034 36.208 34.886 34.631 34.607 34.601 30.536 28.71 28.593 28.565 28.57 28.614 28.739 28.651 29.856 30.344 28.688 29.067 28.818 29.338 29.946 31.837 32.055 31.381 31.659 31.645 31.519 31.495 31.464 31.359 31.44 31.411 31.347 31.318 31.319 31.38 31.66 33.424 33.822 33.425 33.444 33.428 33.54 33.697 33.54 33.416 33.418 33.414 33.468 33.377 33.476 33.416 33.494 33.415 33.446 33.525 33.498 33.767 33.831 36.219 37.073 34.434 36.678 37.668 36.628 34.826 34.226 35.061 35.598 33.938 35.937 36.086
