ncols 407
nrows 32
xllcorner    432152
yllcorner    438088
cellsize     2
NODATA_value -9999
-9999 -9999 -9999 -9999 -9999 -9999 -9999 -9999 -9999 -9999 -9999 -9999 -9999 -9999 -9999 -9999 -9999 -9999 -9999 -9999 -9999 -9999 -9999 -9999 -9999 -9999 -9999 -9999 -9999 -9999 -9999 -9999 -9999 -9999 -9999 -9999 -9999 -9999 -9999 -9999 -9999 -9999 -9999 -9999 -9999 -9999 -9999 -9999 -9999 -9999 -9999 -9999 -9999 -9999 -9999 -9999 -9999 -9999 -9999 -9999 -9999 -9999 -9999 -9999 -9999 -9999 -9999 -9999 -9999 -9999 -9999 -9999 -9999 -9999 -9999 -9999 -9999 -9999 -9999 -9999 -9999 -9999 -9999 -9999 -9999 -9999 -9999 -9999 -9999 -9999 -9999 -9999 -9999 -9999 -9999 -9999 -9999 -9999 -9999 -9999 -9999 -9999 -9999 -9999 -9999 -9999 -9999 -9999 -9999 -9999 -9999 -9999 -9999 -9999 -9999 -9999 -9999 -9999 -9999 -9999 -9999 -9999 -9999 -9999 -9999 -9999 -9999 -9999 -9999 -9999 -9999 -9999 -9999 -9999 -9999 -9999 -9999 -9999 -9999 -9999 -9999 -9999 -9999 -9999 -9999 -9999 -9999 -9999 -9999 -9999 -9999 -9999 -9999 -9999 -9999 -9999 -9999 -9999 -9999 -9999 -9999 -9999 -9999 -9999 -9999 -9999 -9999 -9999 -9999 -9999 -9999 -9999 -9999 -9999 -9999 -9999 -9999 -9999 -9999 -9999 -9999 -9999 -9999 -9999 -9999 -9999 -9999 -9999 -9999 -9999 -9999 -9999 -9999 -9999 -9999 -9999 -9999 -9999 -9999 -9999 -9999 -9999 -9999 114.45 114.348 114.312 114.32 114.304 114.267 114.317 114.316 114.296 114.31 114.305 114.297 114.29 114.31 114.255 114.28 114.268 114.247 114.259 114.27 114.298 114.262 114.292 114.254 114.309 114.263 114.247 114.25 114.239 114.258 114.28 114.25 114.25 114.764 121.277 124.76 128.851 130.472 134.518 132.422 135.548 137.688 137.22 135.392 135.272 131.652 121.138 117.83 117.524 117.592 117.656 117.711 117.775 117.796 117.768 117.736 117.914 117.813 118.136 120.933 123.175 129.234 128.826 130.112 126.252 118.956 118.038 117.413 117.456 117.492 117.499 117.486 117.505 117.488 117.519 117.567 117.551 117.503 117.529 117.468 117.46 117.431 117.405 117.359 117.349 117.75 124.559 128.573 130.098 128.429 129.465 132.709 134.361 128.423 122.821 119.532 118.239 118.101 118.609 121.618 126.962 123.742 119.181 118.798 118.875 118.812 118.753 118.765 118.793 118.848 118.867 118.927 119.006 119.063 119.168 119.25 120.916 123.853 123.667 121.327 119.526 119.034 118.853 125.152 131.826 133.542 134.825 134.991 135.073 136.503 136.657 136.874 137.097 136.335 131.87 119.968 121.264 136.395 141.511 142.501 139.59 122.773 118.501 118.553 118.509 118.448 118.565 127.838 131.351 131.691 130.418 131.589 120.657 117.96 117.841 117.73 117.673 117.593 117.479 117.411 117.21 117.524 117.159 122.665 128.513 127.896 121.073 116.549 116.348 116.208 123.324 128.813 131.59 132.524 130.728 133.272 130.357 131.418 133.085 133.831 133.967 133.783 124.379 126.767 132.098 133.116 134.011 133.482 125.824 130.533 131.241 128.616 126.09 130.157 131.157 119.954 118.812 114.504 114.034 113.706 113.371 113.142 112.749 112.478
-9999 -9999 -9999 -9999 -9999 -9999 -9999 -9999 -9999 -9999 -9999 -9999 -9999 -9999 -9999 -9999 -9999 -9999 -9999 -9999 -9999 -9999 -9999 -9999 -9999 -9999 -9999 -9999 -9999 -9999 -9999 -9999 -9999 -9999 -9999 -9999 -9999 -9999 -9999 -9999 -9999 -9999 -9999 -9999 -9999 -9999 -9999 -9999 -9999 -9999 -9999 -9999 -9999 -9999 -9999 -9999 -9999 -9999 -9999 -9999 -9999 -9999 -9999 -9999 -9999 -9999 -9999 -9999 -9999 -9999 -9999 -9999 -9999 -9999 -9999 -9999 -9999 -9999 -9999 -9999 -9999 -9999 -9999 -9999 -9999 -9999 -9999 -9999 -9999 -9999 -9999 -9999 -9999 -9999 -9999 -9999 -9999 -9999 -9999 -9999 -9999 -9999 -9999 -9999 -9999 -9999 -9999 -9999 -9999 -9999 -9999 -9999 -9999 -9999 -9999 -9999 -9999 -9999 -9999 -9999 -9999 -9999 -9999 -9999 -9999 -9999 -9999 -9999 -9999 -9999 -9999 -9999 -9999 -9999 -9999 -9999 -9999 -9999 -9999 -9999 -9999 -9999 -9999 -9999 -9999 -9999 -9999 -9999 -9999 -9999 -9999 -9999 -9999 -9999 -9999 -9999 -9999 -9999 -9999 -9999 -9999 -9999 -9999 -9999 -9999 -9999 -9999 -9999 -9999 -9999 -9999 -9999 -9999 -9999 -9999 -9999 -9999 -9999 -9999 -9999 -9999 -9999 -9999 -9999 -9999 -9999 -9999 -9999 -9999 -9999 -9999 -9999 -9999 -9999 -9999 -9999 -9999 -9999 -9999 -9999 -9999 -9999 -9999 114.391 114.318 114.303 114.303 114.304 114.268 114.305 114.301 114.284 114.311 114.309 114.299 114.316 114.309 114.295 114.281 114.242 114.256 114.258 114.224 114.258 114.258 114.297 114.278 114.208 114.266 114.256 114.239 114.245 114.25 114.309 114.245 114.232 114.226 114.6 117.656 128.805 133.298 134.645 135.129 135.661 136.73 136.696 136.33 133.519 126.512 119.309 117.461 117.497 117.562 117.532 117.648 117.668 117.683 117.662 117.617 117.702 117.689 119.219 120.679 121.208 122.414 120.115 121.004 118.099 117.293 117.312 117.367 117.44 117.488 117.479 117.501 117.518 117.473 117.554 117.547 117.547 117.489 117.519 117.48 117.439 117.413 117.384 117.334 117.252 121.566 125.378 126.949 129.749 129.757 130.541 131.039 133.101 128.807 122.168 121.813 117.895 117.893 117.955 118.085 118.721 118.317 118.48 118.566 118.566 118.537 118.566 118.642 118.647 118.61 118.687 118.773 118.794 118.861 118.935 119.005 119.138 122.155 122.521 119.759 119.039 118.812 118.801 127.937 131.788 133.169 134.184 134.449 134.151 135.507 134.075 136.371 133.229 136.431 133.811 121.569 118.219 134.066 136.244 140.269 139.641 128.237 118.295 118.163 118.155 118.077 118.024 118.326 124.174 126.318 126.603 122.407 117.749 117.641 117.551 117.453 117.513 123.626 119.153 124.025 117.166 116.68 119.223 124.419 133.316 134.667 129.031 118.041 115.874 115.769 115.845 123.85 130.597 132.766 132.96 133.641 129.305 127.548 132.014 133.298 132.476 133.346 133.587 123.787 130.572 122.128 130.728 128.479 119.05 117.945 117.439 125.146 129.212 128.096 117.915 114.52 114.183 113.924 113.497 113.168 112.837 112.459 112.193 111.973
-9999 -9999 -9999 -9999 -9999 -9999 -9999 -9999 -9999 -9999 -9999 -9999 -9999 -9999 -9999 -9999 -9999 -9999 -9999 -9999 -9999 -9999 -9999 -9999 -9999 -9999 -9999 -9999 -9999 -9999 -9999 -9999 -9999 -9999 -9999 -9999 -9999 -9999 -9999 -9999 -9999 -9999 -9999 -9999 -9999 -9999 -9999 -9999 -9999 -9999 -9999 -9999 -9999 -9999 -9999 -9999 -9999 -9999 -9999 -9999 -9999 -9999 -9999 -9999 -9999 -9999 -9999 -9999 -9999 -9999 -9999 -9999 -9999 -9999 -9999 -9999 -9999 -9999 -9999 -9999 -9999 -9999 -9999 -9999 -9999 -9999 -9999 -9999 -9999 -9999 -9999 -9999 -9999 -9999 -9999 -9999 -9999 -9999 -9999 -9999 -9999 -9999 -9999 -9999 -9999 -9999 -9999 -9999 -9999 -9999 -9999 -9999 -9999 -9999 -9999 -9999 -9999 -9999 -9999 -9999 -9999 -9999 -9999 -9999 -9999 -9999 -9999 -9999 -9999 -9999 -9999 -9999 -9999 -9999 -9999 -9999 -9999 -9999 -9999 -9999 -9999 -9999 -9999 -9999 -9999 -9999 -9999 -9999 -9999 -9999 -9999 -9999 -9999 -9999 -9999 -9999 -9999 -9999 -9999 -9999 -9999 -9999 -9999 -9999 -9999 -9999 -9999 -9999 -9999 -9999 -9999 -9999 -9999 -9999 -9999 -9999 -9999 -9999 -9999 -9999 -9999 -9999 -9999 -9999 -9999 -9999 -9999 -9999 -9999 -9999 -9999 -9999 -9999 -9999 -9999 -9999 -9999 -9999 -9999 -9999 -9999 -9999 -9999 114.339 114.284 114.298 114.273 114.285 114.291 114.273 114.292 114.277 114.302 114.28 114.264 114.287 114.305 114.281 114.29 114.287 114.232 114.234 114.23 114.236 114.236 114.227 114.245 114.253 114.267 114.25 114.252 114.26 114.267 114.239 114.24 114.175 114.164 114.396 118.667 123.245 133.269 133.528 136.536 137.302 138.2 135.926 134.639 123.989 121.191 118.691 117.497 117.425 117.451 117.498 117.555 117.618 117.575 117.576 117.564 117.622 117.583 119.491 119.787 119.959 120.639 120.483 118.213 117.287 117.283 117.335 117.391 117.405 117.406 117.448 117.474 117.455 117.479 117.529 117.484 117.491 117.5 117.483 117.454 117.46 117.422 117.359 117.299 117.286 122.654 126.011 126.174 128.864 128.227 128.534 126.814 125.186 128.385 127.461 120.449 117.721 117.694 117.793 117.945 118.1 118.174 118.237 118.289 118.327 118.369 118.409 118.399 118.331 118.361 118.398 118.434 118.499 118.609 118.678 118.762 118.744 118.71 118.699 118.682 118.578 118.501 118.341 124.528 129.465 132.136 132.351 132.552 132.036 131.617 135.624 135.735 133.357 135.275 134.316 132.039 124.771 135.215 133.507 133.731 128.137 120.353 117.816 117.85 117.854 117.764 117.68 117.631 117.595 117.554 117.415 117.342 117.277 117.333 117.235 117.155 118.966 121.432 127.486 129.141 120.688 116.688 118.381 126.343 134.302 135.268 132.368 127.746 121.322 117.844 116.043 121.502 127.008 128.3 131.053 132.198 121.687 128.556 129.661 132.623 134.329 132.255 132.393 131.704 129.711 125.464 121.405 118.098 114.942 114.911 114.865 114.771 117.388 117.078 114.487 114.179 113.683 113.32 113.005 112.63 112.201 112.029 111.762 111.569
-9999 -9999 -9999 -9999 -9999 -9999 -9999 -9999 -9999 -9999 -9999 -9999 -9999 -9999 -9999 -9999 -9999 -9999 -9999 -9999 -9999 -9999 -9999 -9999 -9999 -9999 -9999 -9999 -9999 -9999 -9999 -9999 -9999 -9999 -9999 -9999 -9999 -9999 -9999 -9999 -9999 -9999 -9999 -9999 -9999 -9999 -9999 -9999 -9999 -9999 -9999 -9999 -9999 -9999 -9999 -9999 -9999 -9999 -9999 -9999 -9999 -9999 -9999 -9999 -9999 -9999 -9999 -9999 -9999 -9999 -9999 -9999 -9999 -9999 -9999 -9999 -9999 -9999 -9999 -9999 -9999 -9999 -9999 -9999 -9999 -9999 -9999 -9999 -9999 -9999 -9999 -9999 -9999 -9999 -9999 -9999 -9999 -9999 -9999 -9999 -9999 -9999 -9999 -9999 -9999 -9999 -9999 -9999 -9999 -9999 -9999 -9999 -9999 -9999 -9999 -9999 -9999 -9999 -9999 -9999 -9999 -9999 -9999 -9999 -9999 -9999 -9999 -9999 -9999 -9999 -9999 -9999 -9999 -9999 -9999 -9999 -9999 -9999 -9999 -9999 -9999 -9999 -9999 -9999 -9999 -9999 -9999 -9999 -9999 -9999 -9999 -9999 -9999 -9999 -9999 -9999 -9999 -9999 -9999 -9999 -9999 -9999 -9999 -9999 -9999 -9999 -9999 -9999 -9999 -9999 -9999 -9999 -9999 -9999 -9999 -9999 -9999 -9999 -9999 -9999 -9999 -9999 -9999 -9999 -9999 -9999 -9999 -9999 -9999 -9999 -9999 -9999 -9999 -9999 -9999 -9999 -9999 -9999 -9999 -9999 -9999 -9999 -9999 114.348 114.289 114.302 114.314 114.294 114.283 114.296 114.246 114.29 114.307 114.262 114.3 114.29 114.297 114.276 114.268 114.253 114.246 114.216 114.224 114.213 114.251 114.237 114.239 114.262 114.245 114.251 114.207 114.227 114.245 114.247 114.231 114.167 114.131 116.194 124.492 123.751 131.967 134.641 136.137 136.568 135.79 137.224 131.247 125.581 122.205 117.821 117.298 117.367 117.397 117.485 117.498 117.507 117.481 117.424 117.439 117.498 117.519 118.262 118.069 117.488 118.316 120.712 118.51 117.481 117.245 117.333 117.347 117.375 117.441 117.436 117.428 117.449 117.493 117.466 117.47 117.467 117.456 117.458 117.434 117.416 117.387 117.332 117.311 117.688 122.292 125.423 127.411 129.047 128.074 126.323 125.316 126.649 127.287 119.201 118.59 117.524 117.507 117.628 117.801 117.935 117.975 117.978 118.041 118.125 118.114 118.125 118.056 118.086 118.364 118.162 118.204 118.273 118.342 118.395 118.387 118.384 118.281 118.281 118.278 118.198 118.11 118.041 122.554 126.121 128.652 129.25 126.913 128.451 132.373 133.699 135.794 135.934 134.802 129.907 127.414 118.624 119.129 126.834 118.999 119.913 117.392 117.471 117.53 117.496 117.436 117.334 117.217 117.239 117.201 117.078 117.001 123.316 121.703 117.588 117.384 119.756 132.029 129.138 122.682 120.889 122.652 120.597 127.828 133.109 133.981 130.664 120.111 123.418 125.654 122.353 119.725 125.174 129.608 132.54 129.65 129.323 126.763 128.784 132.818 130.71 131.284 131.808 131.425 128.75 118.674 115.008 114.938 114.881 114.81 114.797 114.749 114.592 114.277 113.87 113.587 113.24 112.831 112.364 112.162 111.907 111.629 111.419 111.3
-9999 -9999 -9999 -9999 -9999 -9999 -9999 -9999 -9999 -9999 -9999 -9999 -9999 -9999 -9999 -9999 -9999 -9999 -9999 -9999 -9999 -9999 -9999 -9999 -9999 -9999 -9999 -9999 -9999 -9999 -9999 -9999 -9999 -9999 -9999 -9999 -9999 -9999 -9999 -9999 -9999 -9999 -9999 -9999 -9999 -9999 -9999 -9999 -9999 -9999 -9999 -9999 -9999 -9999 -9999 -9999 -9999 -9999 -9999 -9999 -9999 -9999 -9999 -9999 -9999 -9999 -9999 -9999 -9999 -9999 -9999 -9999 -9999 -9999 -9999 -9999 -9999 -9999 -9999 -9999 -9999 -9999 -9999 -9999 -9999 -9999 -9999 -9999 -9999 -9999 -9999 -9999 -9999 -9999 -9999 -9999 -9999 -9999 -9999 -9999 -9999 -9999 -9999 -9999 -9999 -9999 -9999 -9999 -9999 -9999 -9999 -9999 -9999 -9999 -9999 -9999 -9999 -9999 -9999 -9999 -9999 -9999 -9999 -9999 -9999 -9999 -9999 -9999 -9999 -9999 -9999 -9999 -9999 -9999 -9999 -9999 -9999 -9999 -9999 -9999 -9999 -9999 -9999 -9999 -9999 -9999 -9999 -9999 -9999 -9999 -9999 -9999 -9999 -9999 -9999 -9999 -9999 -9999 -9999 -9999 -9999 -9999 -9999 -9999 -9999 -9999 -9999 -9999 -9999 -9999 -9999 -9999 -9999 -9999 -9999 -9999 -9999 -9999 -9999 -9999 -9999 -9999 -9999 -9999 -9999 -9999 -9999 -9999 -9999 -9999 -9999 -9999 -9999 -9999 -9999 -9999 -9999 -9999 -9999 -9999 -9999 -9999 114.31 114.317 114.313 114.334 114.335 114.334 114.283 114.304 114.311 114.289 114.267 114.265 114.307 114.281 114.315 114.307 114.287 114.294 114.255 114.23 114.192 114.201 114.222 114.242 114.259 114.287 114.247 114.269 114.239 114.233 114.238 114.251 114.723 114.157 114.711 125.297 125.897 127.188 131.493 135.315 133.554 135.912 134.792 135.677 135.022 126.159 118.186 117.174 117.187 117.291 117.342 117.35 117.395 117.446 117.38 117.394 117.424 117.437 117.426 117.425 118.806 117.587 117.687 119.296 117.591 117.204 117.217 117.227 117.298 117.314 117.333 117.367 117.403 117.381 117.476 117.402 117.462 117.477 117.469 117.478 117.441 117.381 117.387 117.341 117.254 117.232 118.543 124.254 123.201 129.89 130.424 126.494 126.804 126.319 117.318 117.187 117.655 117.382 117.365 117.496 120.744 118.519 117.772 117.655 117.801 117.865 117.846 117.822 117.848 118.209 118.332 117.974 117.995 118.023 118.08 118.144 118.121 118.079 118.031 117.943 117.894 117.853 117.809 117.729 117.607 117.862 117.663 117.593 117.399 121.047 125.687 132.615 133.327 132.916 131.513 117.701 117.529 117.469 117.34 117.221 117.145 117.017 117.01 117.044 117.138 117.13 117.08 117.308 122.274 117.137 116.805 121.752 127.81 132.13 133.179 128.561 118.978 125.36 127.859 129.047 129.578 128.074 122.962 121.631 127.528 127.969 130.639 128.824 120.71 118.901 128.565 123.438 126.94 128.887 132.639 133.635 133.549 131.81 128.823 125.727 130.979 131.111 130.127 129.392 121.039 118.417 116.136 114.784 114.83 114.739 114.759 114.759 114.507 114.167 113.811 113.439 112.987 112.713 112.351 111.972 111.721 111.563 111.368 111.21 111.05
-9999 -9999 -9999 -9999 -9999 -9999 -9999 -9999 -9999 -9999 -9999 -9999 -9999 -9999 -9999 -9999 -9999 -9999 -9999 -9999 -9999 -9999 -9999 -9999 -9999 -9999 -9999 -9999 -9999 -9999 -9999 -9999 -9999 -9999 -9999 -9999 -9999 -9999 -9999 -9999 -9999 -9999 -9999 -9999 -9999 -9999 -9999 -9999 -9999 -9999 -9999 -9999 -9999 -9999 -9999 -9999 -9999 -9999 -9999 -9999 -9999 -9999 -9999 -9999 -9999 -9999 -9999 -9999 -9999 -9999 -9999 -9999 -9999 -9999 -9999 -9999 -9999 -9999 -9999 -9999 -9999 -9999 -9999 -9999 -9999 -9999 -9999 -9999 -9999 -9999 -9999 -9999 -9999 -9999 -9999 -9999 -9999 -9999 -9999 -9999 -9999 -9999 -9999 -9999 -9999 -9999 -9999 -9999 -9999 -9999 -9999 -9999 -9999 -9999 -9999 -9999 -9999 -9999 -9999 -9999 -9999 -9999 -9999 -9999 -9999 -9999 -9999 -9999 -9999 -9999 -9999 -9999 -9999 -9999 -9999 -9999 -9999 -9999 -9999 -9999 -9999 -9999 -9999 -9999 -9999 -9999 -9999 -9999 -9999 -9999 -9999 -9999 -9999 -9999 -9999 -9999 -9999 -9999 -9999 -9999 -9999 -9999 -9999 -9999 -9999 -9999 -9999 -9999 -9999 -9999 -9999 -9999 -9999 -9999 -9999 -9999 -9999 -9999 -9999 -9999 -9999 -9999 -9999 -9999 -9999 -9999 -9999 -9999 -9999 -9999 -9999 -9999 -9999 -9999 -9999 -9999 -9999 -9999 -9999 -9999 -9999 -9999 114.291 114.298 114.291 114.331 114.35 114.353 114.336 114.313 114.304 114.323 114.299 114.294 114.271 114.276 114.302 114.241 114.251 114.265 114.229 114.23 114.199 114.226 114.203 114.226 114.246 114.256 114.232 114.237 114.207 114.233 114.215 114.247 115.312 114.379 122.532 126.593 126.034 128.33 130.895 130.206 132.53 134.554 135.44 133.883 122.835 120.232 117.936 117.243 117.158 117.25 117.274 117.265 117.303 117.254 117.291 117.228 117.305 117.333 117.315 117.344 119.189 117.44 117.328 117.629 117.394 117.564 117.302 117.25 117.289 117.277 117.235 117.264 117.355 117.334 117.402 117.373 117.38 117.379 117.405 117.389 117.413 117.381 117.379 117.337 117.257 117.255 127.029 125.05 127.584 122.265 131.712 125.935 122.651 120.78 117.136 117.022 117.067 117.155 117.219 117.27 117.399 117.545 117.471 117.437 117.558 117.622 117.606 117.619 117.671 117.716 117.761 117.799 117.79 117.836 117.873 117.933 117.936 117.932 117.806 117.725 117.652 117.59 117.528 117.413 117.301 118.931 118.387 118.985 119.415 118.761 117.143 128.858 130.364 128.226 119.28 117.367 117.294 117.191 117.098 116.976 116.83 116.733 116.635 116.608 116.673 116.954 121.339 127.761 127.351 120.291 121.095 126.636 131.065 134.429 135.553 131.204 126.98 129.25 130.498 132.561 130.888 130.964 130.101 125.859 124.383 127.077 120.69 119.317 124.532 132.432 130.8 126.879 125.819 129.03 132.188 133.156 133.339 130.983 122.955 127.904 127.938 128.259 127.192 126.09 117.958 114.8 114.797 114.773 114.733 114.672 114.575 114.298 114 113.682 113.352 112.86 112.528 112.188 111.898 111.677 111.478 111.285 111.13 110.991 110.824
-9999 -9999 -9999 -9999 -9999 -9999 -9999 -9999 -9999 -9999 -9999 -9999 -9999 -9999 -9999 -9999 -9999 -9999 -9999 -9999 -9999 -9999 -9999 -9999 -9999 -9999 -9999 -9999 -9999 -9999 -9999 -9999 -9999 -9999 -9999 -9999 -9999 -9999 -9999 -9999 -9999 -9999 -9999 -9999 -9999 -9999 -9999 -9999 -9999 -9999 -9999 -9999 -9999 -9999 -9999 -9999 -9999 -9999 -9999 -9999 -9999 -9999 -9999 -9999 -9999 -9999 -9999 -9999 -9999 -9999 -9999 -9999 -9999 -9999 -9999 -9999 -9999 -9999 -9999 -9999 -9999 -9999 -9999 -9999 -9999 -9999 -9999 -9999 -9999 -9999 -9999 -9999 -9999 -9999 -9999 -9999 -9999 -9999 -9999 -9999 -9999 -9999 -9999 -9999 -9999 -9999 -9999 -9999 -9999 -9999 -9999 -9999 -9999 -9999 -9999 -9999 -9999 -9999 -9999 -9999 -9999 -9999 -9999 -9999 -9999 -9999 -9999 -9999 -9999 -9999 -9999 -9999 -9999 -9999 -9999 -9999 -9999 -9999 -9999 -9999 -9999 -9999 -9999 -9999 -9999 -9999 -9999 -9999 -9999 -9999 -9999 -9999 -9999 -9999 -9999 -9999 -9999 -9999 -9999 -9999 -9999 -9999 -9999 -9999 -9999 -9999 -9999 -9999 -9999 -9999 -9999 -9999 -9999 -9999 -9999 -9999 -9999 -9999 -9999 -9999 -9999 -9999 -9999 -9999 -9999 -9999 -9999 -9999 -9999 -9999 -9999 -9999 -9999 -9999 -9999 -9999 -9999 -9999 -9999 -9999 -9999 -9999 114.263 114.266 114.312 114.315 114.364 114.339 114.365 114.365 114.365 114.362 114.364 114.331 114.318 114.308 114.305 114.321 114.314 114.248 114.231 114.216 114.232 114.244 114.226 114.217 114.231 114.234 114.193 114.2 114.209 114.234 114.227 114.209 114.174 114.895 125.686 126.187 126.984 129.343 129.672 128.916 128.391 128.299 129.195 129.517 120.287 118.964 117.336 117.139 117.087 117.124 117.176 117.241 117.22 117.229 117.197 117.168 117.17 117.246 117.235 117.435 120.24 117.341 117.249 117.206 117.084 117.074 117.484 118.307 118.27 118.071 117.693 117.254 117.327 117.309 117.297 117.294 117.302 117.37 117.357 117.347 117.37 117.374 117.359 117.319 117.48 128.412 131.127 131.506 132.529 132.44 122.003 121.098 118.507 117.924 116.918 116.852 116.893 116.969 117.041 117.059 117.225 117.298 117.212 117.204 117.259 117.409 117.369 117.357 117.459 117.524 117.542 117.548 117.58 117.614 117.659 117.684 117.715 117.688 117.52 117.485 117.415 117.328 117.239 117.114 119.384 122.387 122.129 120.661 120.476 120.159 118.833 118.855 121.431 120.625 117.955 117.136 117.113 117.022 116.96 116.645 116.541 116.392 116.31 116.232 117.186 119.497 120.382 129.285 129.585 119.717 119.3 128.199 131.057 134.659 136.311 132.35 125.125 119.752 126.909 128.979 131.612 130.853 129.304 130.165 128.479 115.84 120.094 122.273 129.41 132.773 123.249 130.735 129.141 128.891 130.721 130.516 126.96 126.24 115.316 113.811 122.262 117.656 120.448 115.795 115.282 114.368 114.409 114.372 114.328 114.232 113.992 113.72 113.427 113.183 112.733 112.338 112.028 111.746 111.522 111.373 111.183 111.111 110.865 110.738 110.597
-9999 -9999 -9999 -9999 -9999 -9999 -9999 -9999 -9999 -9999 -9999 -9999 -9999 -9999 -9999 -9999 -9999 -9999 -9999 -9999 -9999 -9999 -9999 -9999 -9999 -9999 -9999 -9999 -9999 -9999 -9999 -9999 -9999 -9999 -9999 -9999 -9999 -9999 -9999 -9999 -9999 -9999 -9999 -9999 -9999 -9999 -9999 -9999 -9999 -9999 -9999 -9999 -9999 -9999 -9999 -9999 -9999 -9999 -9999 -9999 -9999 -9999 -9999 -9999 -9999 -9999 -9999 -9999 -9999 -9999 -9999 -9999 -9999 -9999 -9999 -9999 -9999 -9999 -9999 -9999 -9999 -9999 -9999 -9999 -9999 -9999 -9999 -9999 -9999 -9999 -9999 -9999 -9999 -9999 -9999 -9999 -9999 -9999 -9999 -9999 -9999 -9999 -9999 -9999 -9999 -9999 -9999 -9999 -9999 -9999 -9999 -9999 -9999 -9999 -9999 -9999 -9999 -9999 -9999 -9999 -9999 -9999 -9999 -9999 -9999 -9999 -9999 -9999 -9999 -9999 -9999 -9999 -9999 -9999 -9999 -9999 -9999 -9999 -9999 -9999 -9999 -9999 -9999 -9999 -9999 -9999 -9999 -9999 -9999 -9999 -9999 -9999 -9999 -9999 -9999 -9999 -9999 -9999 -9999 -9999 -9999 -9999 -9999 -9999 -9999 -9999 -9999 -9999 -9999 -9999 -9999 -9999 -9999 -9999 -9999 -9999 -9999 -9999 -9999 -9999 -9999 -9999 -9999 -9999 -9999 -9999 -9999 -9999 -9999 -9999 -9999 -9999 -9999 -9999 -9999 -9999 -9999 -9999 -9999 -9999 -9999 -9999 114.244 114.259 114.328 114.343 114.39 114.366 114.388 114.389 114.388 114.396 114.367 114.368 114.345 114.346 114.333 114.349 114.339 114.36 114.303 114.265 114.277 115.004 114.312 114.192 114.237 114.218 114.198 114.205 114.216 114.211 114.249 114.23 114.364 114.6 124.68 126.922 128.126 128.292 132.038 129.116 128.705 122.639 119.329 119.547 117.185 116.862 117.014 117.072 117.032 117.133 117.141 117.136 117.102 117.116 117.073 117.035 117.081 117.132 117.169 117.434 118.026 117.155 117.128 117.051 116.971 116.883 116.969 116.973 116.976 116.927 117.12 117.969 118.274 118.224 118.212 117.471 117.293 117.247 117.333 117.262 117.344 117.344 117.364 117.475 125.224 128.917 130.447 132.038 132.416 125.55 118.702 119.117 118.033 118.283 117.172 116.743 116.762 116.763 116.834 116.877 116.953 117.045 116.992 116.98 116.994 117.049 117.152 117.213 117.281 117.327 117.276 117.317 117.383 117.423 117.415 117.396 117.401 117.367 117.237 117.145 117.172 117.068 117.004 116.935 120.617 123.151 123.231 121.252 123.916 125.54 118.065 122.832 129.245 127.146 117.245 120.234 123.669 124.838 123.652 118.167 118.035 116.043 115.916 115.9 118.996 126.973 122.284 120.722 131.182 131.62 119.708 127.484 130.253 133.211 134.683 132.086 125.952 118.047 125.482 126.392 120.817 128.932 130.308 129.633 133.181 127.179 123.091 119.455 131.676 132.24 131.548 128.622 125.788 129.055 128.849 128.238 125.27 119.243 113.617 113.596 113.596 115.441 116.543 115.361 114.178 113.696 113.87 113.767 113.695 113.573 113.362 113.113 112.941 112.651 112.215 111.865 111.637 111.357 111.18 111.05 110.856 110.795 110.644 110.51 110.332
-9999 -9999 -9999 -9999 -9999 -9999 -9999 -9999 -9999 -9999 -9999 -9999 -9999 -9999 -9999 -9999 -9999 -9999 -9999 -9999 -9999 -9999 -9999 -9999 -9999 -9999 -9999 -9999 -9999 -9999 -9999 -9999 -9999 -9999 -9999 -9999 -9999 -9999 -9999 -9999 -9999 -9999 -9999 -9999 -9999 -9999 -9999 -9999 -9999 -9999 -9999 -9999 -9999 -9999 -9999 -9999 -9999 -9999 -9999 -9999 -9999 -9999 -9999 -9999 -9999 -9999 -9999 -9999 -9999 -9999 -9999 -9999 -9999 -9999 -9999 -9999 -9999 -9999 -9999 -9999 -9999 -9999 -9999 -9999 -9999 -9999 -9999 -9999 -9999 -9999 -9999 -9999 -9999 -9999 -9999 -9999 -9999 -9999 -9999 -9999 -9999 -9999 -9999 -9999 -9999 -9999 -9999 -9999 -9999 -9999 -9999 -9999 -9999 -9999 -9999 -9999 -9999 -9999 -9999 -9999 -9999 -9999 -9999 -9999 -9999 -9999 -9999 -9999 -9999 -9999 -9999 -9999 -9999 -9999 -9999 -9999 -9999 -9999 -9999 -9999 -9999 -9999 -9999 -9999 -9999 -9999 -9999 -9999 -9999 -9999 -9999 -9999 -9999 -9999 -9999 -9999 -9999 -9999 -9999 -9999 -9999 -9999 -9999 -9999 -9999 -9999 -9999 -9999 -9999 -9999 -9999 -9999 -9999 -9999 -9999 -9999 -9999 -9999 -9999 -9999 -9999 -9999 -9999 -9999 -9999 -9999 -9999 -9999 -9999 -9999 -9999 -9999 -9999 -9999 -9999 -9999 -9999 -9999 -9999 -9999 -9999 -9999 114.252 114.275 114.331 114.346 114.364 114.372 114.394 114.381 114.349 114.396 114.404 114.371 114.352 114.349 114.363 114.348 114.349 114.353 114.321 114.315 114.299 114.292 114.248 114.227 114.245 114.224 114.224 114.21 114.193 114.217 114.225 114.306 114.452 114.007 121.309 126.587 130.55 132.17 133.993 133.37 132.114 122.118 117.444 116.745 116.774 116.815 118.4 117.032 116.987 117.062 117.084 117.048 117.033 117.019 116.983 117.051 117.079 117.124 117.163 118.363 117.28 117.183 117.16 117.109 117.032 116.961 116.829 116.746 116.677 116.588 116.685 116.746 116.744 116.751 117.087 117.143 118.119 118.245 118.245 117.96 117.265 117.276 117.25 122.849 127.17 130.378 131.834 134.104 126.993 121.733 117.657 118.118 117.99 118.08 117.615 116.698 116.573 116.579 116.599 116.645 116.691 116.718 116.712 116.687 116.742 118.387 119.825 119.507 118.566 117.057 117.038 117.069 117.113 117.128 117.144 117.111 117.064 117.052 116.918 116.821 116.804 116.784 116.757 116.696 120.257 121.396 122.207 120.696 124.302 128.291 119.041 116.536 129.268 126.502 120.38 124.487 128.4 131.394 132.138 130.559 119.815 115.628 115.549 116.066 127.301 129.792 131.812 130.227 128.513 132.628 129.932 130.339 129.921 130.75 130.976 125.416 126.184 129.441 128.686 126.324 115.931 125.715 129.129 135.066 133.846 131.87 128.785 131.086 121.346 130.856 129.874 129.494 130.046 127.095 118.874 118.102 114.688 113.861 113.372 113.323 113.297 117.294 118.953 117.733 114.149 113.045 113.026 112.965 113.113 112.982 112.709 112.488 112.294 112.023 111.727 111.5 111.287 111.053 110.909 110.781 110.623 110.45 110.295 110.225 110.105
-9999 -9999 -9999 -9999 -9999 -9999 -9999 -9999 -9999 -9999 -9999 -9999 -9999 -9999 -9999 -9999 -9999 -9999 -9999 -9999 -9999 -9999 -9999 -9999 -9999 -9999 -9999 -9999 -9999 -9999 -9999 -9999 -9999 -9999 -9999 -9999 -9999 -9999 -9999 -9999 -9999 -9999 -9999 -9999 -9999 -9999 -9999 -9999 -9999 -9999 -9999 -9999 -9999 -9999 -9999 -9999 -9999 -9999 -9999 -9999 -9999 -9999 -9999 -9999 -9999 -9999 -9999 -9999 -9999 -9999 -9999 -9999 -9999 -9999 -9999 -9999 -9999 -9999 -9999 -9999 -9999 -9999 -9999 -9999 -9999 -9999 -9999 -9999 -9999 -9999 -9999 -9999 -9999 -9999 -9999 -9999 -9999 -9999 -9999 -9999 -9999 -9999 -9999 -9999 -9999 -9999 -9999 -9999 -9999 -9999 -9999 -9999 -9999 -9999 -9999 -9999 -9999 -9999 -9999 -9999 -9999 -9999 -9999 -9999 -9999 -9999 -9999 -9999 -9999 -9999 -9999 -9999 -9999 -9999 -9999 -9999 -9999 -9999 -9999 -9999 -9999 -9999 -9999 -9999 -9999 -9999 -9999 -9999 -9999 -9999 -9999 -9999 -9999 -9999 -9999 -9999 -9999 -9999 -9999 -9999 -9999 -9999 -9999 -9999 -9999 -9999 -9999 -9999 -9999 -9999 -9999 -9999 -9999 -9999 -9999 -9999 -9999 -9999 -9999 -9999 -9999 -9999 -9999 -9999 -9999 -9999 -9999 -9999 -9999 -9999 -9999 -9999 -9999 -9999 -9999 -9999 -9999 -9999 -9999 -9999 -9999 -9999 114.248 114.301 114.332 114.296 114.35 114.371 114.339 114.347 114.358 114.379 114.391 114.35 114.334 114.306 114.367 114.338 114.355 114.32 114.337 114.316 114.292 114.286 114.267 114.284 114.268 114.245 114.249 114.236 114.196 114.22 114.222 114.143 114.125 113.977 120.935 126.876 130.995 133.422 134.361 134.57 132.052 119.24 116.879 116.663 116.707 116.721 118.626 116.949 116.918 117.019 116.969 116.979 116.927 116.926 116.909 117.01 117.02 117.116 117.158 119.463 117.341 117.174 117.122 117.114 117.001 116.969 116.908 116.879 116.747 116.646 116.583 116.475 116.383 116.388 116.392 116.496 116.632 116.714 116.727 117.741 118.001 118.018 117.719 119.72 129.354 132.553 133.983 135.008 134.874 122.087 116.42 116.963 117.969 119.279 120.863 117.115 116.38 116.378 116.4 116.431 116.46 116.442 116.435 116.454 116.551 118.305 121.874 122.193 121.405 117.234 116.743 116.757 116.788 116.747 116.752 116.761 116.73 116.708 116.538 116.978 118.878 116.594 116.517 117.709 120.993 119.799 120.608 116.844 126.317 128.088 127.151 125.072 128.134 132.274 130.778 125.851 131.74 134.958 135.893 133.372 123.017 115.353 115.204 115.191 125.687 130.249 132.197 132.209 132.161 132.265 129.922 128.04 129.104 124.765 124.799 124.913 125.208 129.121 131.106 129.93 122.674 127.496 133.053 134.954 134.199 133.42 129.098 130.52 130.869 127.618 129.577 128.271 128.668 128.553 120.785 120.237 113.305 113.248 113.145 113.084 112.942 115.847 118.098 113.405 113.007 112.488 112.441 112.384 112.27 112.342 112.177 111.96 111.783 111.565 111.359 111.203 110.95 110.756 110.63 110.495 110.354 110.167 110.079 109.886 109.777
-9999 -9999 -9999 -9999 -9999 -9999 -9999 -9999 -9999 -9999 -9999 -9999 -9999 -9999 -9999 -9999 -9999 -9999 -9999 -9999 -9999 -9999 -9999 -9999 -9999 -9999 -9999 -9999 -9999 -9999 -9999 -9999 -9999 -9999 -9999 -9999 -9999 -9999 -9999 -9999 -9999 -9999 -9999 -9999 -9999 -9999 -9999 -9999 -9999 -9999 -9999 -9999 -9999 -9999 -9999 -9999 -9999 -9999 -9999 -9999 -9999 -9999 -9999 -9999 -9999 -9999 -9999 -9999 -9999 -9999 -9999 -9999 -9999 -9999 -9999 -9999 -9999 -9999 -9999 -9999 -9999 -9999 -9999 -9999 -9999 -9999 -9999 -9999 -9999 -9999 -9999 -9999 -9999 -9999 -9999 -9999 -9999 -9999 -9999 -9999 -9999 -9999 -9999 -9999 -9999 -9999 -9999 -9999 -9999 -9999 -9999 -9999 -9999 -9999 -9999 -9999 -9999 -9999 -9999 -9999 -9999 -9999 -9999 -9999 -9999 -9999 -9999 -9999 -9999 -9999 -9999 -9999 -9999 -9999 -9999 -9999 -9999 -9999 -9999 -9999 -9999 -9999 -9999 -9999 -9999 -9999 -9999 -9999 -9999 -9999 -9999 -9999 -9999 -9999 -9999 -9999 -9999 -9999 -9999 -9999 -9999 -9999 -9999 -9999 -9999 -9999 -9999 -9999 -9999 -9999 -9999 -9999 -9999 -9999 -9999 -9999 -9999 -9999 -9999 -9999 -9999 -9999 -9999 -9999 -9999 -9999 -9999 -9999 -9999 -9999 -9999 -9999 -9999 -9999 -9999 -9999 -9999 -9999 -9999 -9999 -9999 -9999 114.259 114.338 114.289 114.326 114.405 114.353 114.371 114.39 114.356 114.38 114.338 114.351 114.328 114.366 114.331 114.356 114.337 114.306 114.324 114.312 114.285 114.289 114.265 114.282 114.253 114.235 114.242 114.254 114.238 114.224 114.218 114.188 114.263 114.001 113.951 127.683 130.966 132.657 134.135 133.412 131.183 118.115 116.7 116.563 116.625 116.924 117.733 116.823 116.88 116.928 116.905 116.897 116.837 116.839 116.896 116.93 116.943 117.006 117.125 119.326 117.258 117.125 117.028 117.008 116.935 116.935 117.092 118.586 117.175 123.352 116.806 116.498 116.45 116.362 116.299 116.278 116.211 116.127 116.076 116.423 116.576 116.895 116.983 117.979 126.01 132.166 130.491 133.264 134.145 118.339 116.19 116.203 118.335 129.167 131.386 130.713 126.244 116.572 116.432 116.326 116.252 116.229 116.199 116.194 116.246 124.066 125.17 122.647 124.543 124.687 116.934 116.496 116.496 116.485 116.474 116.477 123.449 126.09 126.296 129.093 123.927 117.299 124.115 127.266 133.864 134.813 130.098 116.229 119.161 122.568 131.61 133.129 129.953 130.49 132.064 132.21 132.619 134.996 136.275 135.429 121.87 123.738 123.799 120.395 128.558 130.108 132.671 133.731 130.918 131.581 130.269 131.023 130.312 116.688 121.827 123.555 128.653 130.383 120.753 124.914 128.148 126.039 130.602 132.697 132.711 129.39 117.563 116.811 128.029 125.776 128.01 127.649 126.57 126.059 119.289 114.432 113.064 112.954 112.863 112.824 112.684 112.585 115.347 114.707 112.236 112.111 112.029 111.942 111.856 111.722 111.639 111.586 111.362 111.192 111.022 110.822 110.657 110.484 110.331 110.238 110.123 109.888 109.791 109.681 109.497
-9999 -9999 -9999 -9999 -9999 -9999 -9999 -9999 -9999 -9999 -9999 -9999 -9999 -9999 -9999 -9999 -9999 -9999 -9999 -9999 -9999 -9999 -9999 -9999 -9999 -9999 -9999 -9999 -9999 -9999 -9999 -9999 -9999 -9999 -9999 -9999 -9999 -9999 -9999 -9999 -9999 -9999 -9999 -9999 -9999 -9999 -9999 -9999 -9999 -9999 -9999 -9999 -9999 -9999 -9999 -9999 -9999 -9999 -9999 -9999 -9999 -9999 -9999 -9999 -9999 -9999 -9999 -9999 -9999 -9999 -9999 -9999 -9999 -9999 -9999 -9999 -9999 -9999 -9999 -9999 -9999 -9999 -9999 -9999 -9999 -9999 -9999 -9999 -9999 -9999 -9999 -9999 -9999 -9999 -9999 -9999 -9999 -9999 -9999 -9999 -9999 -9999 -9999 -9999 -9999 -9999 -9999 -9999 -9999 -9999 -9999 -9999 -9999 -9999 -9999 -9999 -9999 -9999 -9999 -9999 -9999 -9999 -9999 -9999 -9999 -9999 -9999 -9999 -9999 -9999 -9999 -9999 -9999 -9999 -9999 -9999 -9999 -9999 -9999 -9999 -9999 -9999 -9999 -9999 -9999 -9999 -9999 -9999 -9999 -9999 -9999 -9999 -9999 -9999 -9999 -9999 -9999 -9999 -9999 -9999 -9999 -9999 -9999 -9999 -9999 -9999 -9999 -9999 -9999 -9999 -9999 -9999 -9999 -9999 -9999 -9999 -9999 -9999 -9999 -9999 -9999 -9999 -9999 -9999 -9999 -9999 -9999 -9999 -9999 -9999 -9999 -9999 -9999 -9999 -9999 -9999 -9999 -9999 -9999 -9999 -9999 114.313 114.342 114.306 114.299 114.334 114.34 114.366 114.355 114.375 114.366 114.385 114.345 114.37 114.352 114.33 114.341 114.324 114.308 114.323 114.319 114.307 114.296 114.294 114.26 114.263 114.253 114.227 114.227 114.249 114.231 114.218 114.189 114.086 113.997 114.001 113.954 120.093 127.354 129.814 131.899 127.858 120.729 116.883 116.514 116.519 116.544 116.621 116.916 116.742 116.81 116.773 116.779 116.806 116.729 116.724 116.793 116.82 116.833 116.867 116.949 117.114 117.069 116.989 120.41 122.666 118.864 117.363 130.56 131.215 130.798 128.316 124.059 116.602 116.488 116.421 116.359 116.309 116.238 116.151 116.098 116.088 116.061 116.014 116.205 116.246 118.4 131.457 132.339 130.955 121.247 116.1 116.012 116.126 132.524 134.935 134.937 122.848 130.19 129.022 124.453 121.27 118.372 117.902 115.999 122.412 124.981 122.084 120.104 126.913 131.086 131.587 120.951 116.422 116.584 123.161 116.61 116.22 117.252 131.044 132.073 131.876 132.057 123.048 128.868 131.761 134.973 136.656 135.711 123.276 122.828 119.665 129.275 126.956 133.517 131.529 128.788 127.656 129.26 133.472 133.104 132.187 128.305 126.792 129.295 127.521 126.589 124.185 126.433 130.858 129.668 129.416 131.909 133.548 133.607 131.581 114.83 120.55 120.696 119.324 132.129 132.992 130.683 126.232 127.901 127.985 127.601 122.996 114.199 113.36 114.619 120.149 120.241 123.903 124.023 117.228 112.914 112.881 112.791 112.667 112.551 112.493 112.4 112.234 112.137 112.045 111.916 111.75 111.657 111.566 111.504 111.419 111.273 111.164 110.977 110.873 110.705 110.495 110.337 110.177 110.098 109.994 109.803 109.613 109.521 109.402 109.23
-9999 -9999 -9999 -9999 -9999 -9999 -9999 -9999 -9999 -9999 -9999 -9999 -9999 -9999 -9999 -9999 -9999 -9999 -9999 -9999 -9999 -9999 -9999 -9999 -9999 -9999 -9999 -9999 -9999 -9999 -9999 -9999 -9999 -9999 -9999 -9999 -9999 -9999 -9999 -9999 -9999 -9999 -9999 -9999 -9999 -9999 -9999 -9999 -9999 -9999 -9999 -9999 -9999 -9999 -9999 -9999 -9999 -9999 -9999 -9999 -9999 -9999 -9999 -9999 -9999 -9999 -9999 -9999 -9999 -9999 -9999 -9999 -9999 -9999 -9999 -9999 -9999 -9999 -9999 -9999 -9999 -9999 -9999 -9999 -9999 -9999 -9999 -9999 -9999 -9999 -9999 -9999 -9999 -9999 -9999 -9999 -9999 -9999 -9999 -9999 -9999 -9999 -9999 -9999 -9999 -9999 -9999 -9999 -9999 -9999 -9999 -9999 -9999 -9999 -9999 -9999 -9999 -9999 -9999 -9999 -9999 -9999 -9999 -9999 -9999 -9999 -9999 -9999 -9999 -9999 -9999 -9999 -9999 -9999 -9999 -9999 -9999 -9999 -9999 -9999 -9999 -9999 -9999 -9999 -9999 -9999 -9999 -9999 -9999 -9999 -9999 -9999 -9999 -9999 -9999 -9999 -9999 -9999 -9999 -9999 -9999 -9999 -9999 -9999 -9999 -9999 -9999 -9999 -9999 -9999 -9999 -9999 -9999 -9999 -9999 -9999 -9999 -9999 -9999 -9999 -9999 -9999 -9999 -9999 -9999 -9999 -9999 -9999 -9999 -9999 -9999 -9999 -9999 -9999 -9999 -9999 -9999 -9999 -9999 -9999 -9999 114.305 114.275 114.345 114.45 114.358 114.352 114.371 114.361 114.29 114.32 114.329 114.337 114.319 114.311 114.326 114.294 114.303 114.306 114.287 114.309 114.298 114.295 114.29 114.279 114.278 114.262 114.242 114.212 114.243 114.227 114.231 114.183 114.061 113.988 113.988 115.542 125.394 129.212 129.89 123.143 124.232 117.978 116.801 116.451 116.409 116.449 116.695 116.675 116.628 116.749 116.695 116.71 116.743 116.692 116.669 116.721 116.693 116.703 116.707 116.803 116.891 118.478 124.169 127.333 126.456 125.084 125.451 132.502 134.846 133.009 132.98 122.651 116.372 116.29 116.3 116.257 116.316 116.221 116.144 116.133 116.064 115.957 115.918 115.839 115.824 115.776 118.903 119.983 117.714 115.951 115.811 115.712 126.167 130.989 133.586 132.816 131.614 131.247 128.349 128.958 133.046 133.026 125.409 118.867 128.068 129.307 130.826 125.956 131.087 131.781 132.228 132.505 127.008 129.197 131.083 126.715 116.343 127.282 131.271 132.401 133.475 130.846 132.853 130.467 132.216 135.545 137.475 136.262 132.071 124.033 132.404 131.844 131.879 131.638 132.778 132.22 128.904 124.888 126.733 128.077 129.92 129.614 128.864 131.314 128.933 127.698 129.777 131.797 120.075 119.366 126.682 131.011 133.576 134.452 129.304 118.045 115.946 118.6 130.171 130.039 130.681 130.522 128.891 126.317 119.189 113.151 113.456 112.958 112.977 113.061 112.984 112.869 112.812 115.688 112.68 112.629 112.601 112.508 112.353 112.27 112.213 112.084 111.941 111.81 111.764 111.667 111.536 111.352 111.214 111.111 111.107 110.936 110.778 110.622 110.469 110.283 110.262 110.097 109.915 109.833 109.729 109.552 109.375 109.287 109.15 108.984
-9999 -9999 -9999 -9999 -9999 -9999 -9999 -9999 -9999 -9999 -9999 -9999 -9999 -9999 -9999 -9999 -9999 -9999 -9999 -9999 -9999 -9999 -9999 -9999 -9999 -9999 -9999 -9999 -9999 -9999 -9999 -9999 -9999 -9999 -9999 -9999 -9999 -9999 -9999 -9999 -9999 -9999 -9999 -9999 -9999 -9999 -9999 -9999 -9999 -9999 -9999 -9999 -9999 -9999 -9999 -9999 -9999 -9999 -9999 -9999 -9999 -9999 -9999 -9999 -9999 -9999 -9999 -9999 -9999 -9999 -9999 -9999 -9999 -9999 -9999 -9999 -9999 -9999 -9999 -9999 -9999 -9999 -9999 -9999 -9999 -9999 -9999 -9999 -9999 -9999 -9999 -9999 -9999 -9999 -9999 -9999 -9999 -9999 -9999 -9999 -9999 -9999 -9999 -9999 -9999 -9999 -9999 -9999 -9999 -9999 -9999 -9999 -9999 -9999 -9999 -9999 -9999 -9999 -9999 -9999 -9999 -9999 -9999 -9999 -9999 -9999 -9999 -9999 -9999 -9999 -9999 -9999 -9999 -9999 -9999 -9999 -9999 -9999 -9999 -9999 -9999 -9999 -9999 -9999 -9999 -9999 -9999 -9999 -9999 -9999 -9999 -9999 -9999 -9999 -9999 -9999 -9999 -9999 -9999 -9999 -9999 -9999 -9999 -9999 -9999 -9999 -9999 -9999 -9999 -9999 -9999 -9999 -9999 -9999 -9999 -9999 -9999 -9999 -9999 -9999 -9999 -9999 -9999 -9999 -9999 -9999 -9999 -9999 -9999 -9999 -9999 -9999 -9999 -9999 -9999 -9999 -9999 -9999 -9999 -9999 -9999 114.273 114.306 114.271 114.315 114.322 114.388 114.395 114.356 114.451 114.318 114.294 114.309 114.324 114.31 114.29 114.328 114.3 114.29 114.312 114.304 114.271 114.287 114.282 114.269 114.273 114.258 114.233 114.214 114.212 114.181 114.175 114.16 114.03 113.992 114.019 122.827 128.704 130.893 131.333 130.958 127.639 119.408 116.462 116.293 116.301 116.435 116.567 116.604 116.585 116.681 116.648 116.654 116.575 116.56 116.509 116.614 116.581 118.132 116.882 116.63 116.641 117.074 125.278 126.932 127.619 123.623 126.42 132.764 135.717 136.07 131.468 129.024 116.34 116.09 116.123 119.261 119.075 116.122 116.046 116.295 116.956 116.711 116.204 116.165 115.815 115.728 115.689 115.766 117.162 119.583 118.774 125.258 134.099 133.27 131.147 133.797 135.25 133.111 132.181 133.327 135.242 136.524 133.635 127.317 129.824 130.404 129.848 132.689 132.675 127.162 129.79 132.873 131.127 133.512 133.945 133.554 122.035 129.75 130.852 134.4 134.161 134.274 134.047 133.934 132.561 135.803 137.689 136.706 124.217 126.265 132.32 132.779 132.625 133.878 132.717 131.994 127.942 125.559 119.555 128.661 130.949 130.31 125.596 130.485 130.324 129.112 125.512 129.198 132.049 127.562 127.482 130.116 133.19 134.172 131.402 118.991 121.277 126.037 129.659 121.358 130.319 126.984 123.11 125.855 120.758 119.135 112.849 112.697 112.662 112.685 112.582 112.532 112.578 112.555 112.426 112.365 112.333 112.226 112.1 111.969 111.961 111.83 111.689 111.544 111.44 111.309 111.172 111.015 110.903 110.771 110.659 110.53 110.461 110.296 110.115 110.004 109.827 109.723 109.661 109.582 109.392 109.252 109.128 108.982 108.878 108.75
-9999 -9999 -9999 -9999 -9999 -9999 -9999 -9999 -9999 -9999 -9999 -9999 -9999 -9999 -9999 -9999 -9999 -9999 -9999 -9999 -9999 -9999 -9999 -9999 -9999 -9999 -9999 -9999 -9999 -9999 -9999 -9999 -9999 -9999 -9999 -9999 -9999 -9999 -9999 -9999 -9999 -9999 -9999 -9999 -9999 -9999 -9999 -9999 -9999 -9999 -9999 -9999 -9999 -9999 -9999 -9999 -9999 -9999 -9999 -9999 -9999 -9999 -9999 -9999 -9999 -9999 -9999 -9999 -9999 -9999 -9999 -9999 -9999 -9999 -9999 -9999 -9999 -9999 -9999 -9999 -9999 -9999 -9999 -9999 -9999 -9999 -9999 -9999 -9999 -9999 -9999 -9999 -9999 -9999 -9999 -9999 -9999 -9999 -9999 -9999 -9999 -9999 -9999 -9999 -9999 -9999 -9999 -9999 -9999 -9999 -9999 -9999 -9999 -9999 -9999 -9999 -9999 -9999 -9999 -9999 -9999 -9999 -9999 -9999 -9999 -9999 -9999 -9999 -9999 -9999 -9999 -9999 -9999 -9999 -9999 -9999 -9999 -9999 -9999 -9999 -9999 -9999 -9999 -9999 -9999 -9999 -9999 -9999 -9999 -9999 -9999 -9999 -9999 -9999 -9999 -9999 -9999 -9999 -9999 -9999 -9999 -9999 -9999 -9999 -9999 -9999 -9999 -9999 -9999 -9999 -9999 -9999 -9999 -9999 -9999 -9999 -9999 -9999 -9999 -9999 -9999 -9999 -9999 -9999 -9999 -9999 -9999 -9999 -9999 -9999 -9999 -9999 -9999 -9999 -9999 -9999 -9999 -9999 -9999 -9999 -9999 114.258 114.253 114.282 114.321 114.347 114.36 114.331 114.375 114.355 114.341 114.346 114.299 114.299 114.378 114.324 114.283 114.293 114.29 114.298 114.294 114.28 114.289 114.254 114.252 114.266 114.241 114.216 114.234 114.185 114.165 114.123 114.134 113.969 113.917 115.16 123.297 128.314 128.918 130.021 130.194 125.519 117.616 116.328 116.209 116.228 116.345 116.575 116.452 116.541 116.557 116.571 116.507 116.528 116.492 116.422 116.915 120.776 122.265 118.335 116.516 116.494 116.487 123.879 125.653 125.005 125.891 126.313 130.763 134.284 134.996 134.333 127.025 118.424 116.162 116.65 119.56 118.12 115.874 115.8 117.434 131.074 131.755 128.732 117.94 124.413 125.486 129.284 134.346 129.465 132.16 131.318 129.551 133.804 133.386 134.929 134.24 134.189 132.849 131.998 134.386 136.372 137.293 135.721 130.622 130.88 130.431 130.643 133.646 133.286 129.818 131.056 130.774 132.485 135.244 135.922 135.184 128.067 127.69 132.625 129.188 133.856 127.767 135.455 130.62 131.287 134.367 136.04 135.23 131.866 131.495 132.363 132.465 132.531 131.523 130.517 130.501 129.912 127.288 124.576 129.399 130.394 131.437 127.873 131.244 132.189 127.244 128.803 132.487 132.002 126.83 123.488 121.373 128.713 131.28 130.517 116.972 114.414 117.352 123.489 128.854 129.079 124.428 125.815 123.551 114.128 112.489 112.436 112.354 112.308 112.314 112.271 112.204 112.191 112.157 112.087 112.079 112.025 111.927 111.792 111.687 111.685 111.553 111.375 111.281 111.191 111.034 110.88 110.758 110.631 110.542 110.398 110.258 110.137 109.997 109.803 109.72 109.628 109.507 109.343 109.196 109.084 108.989 108.808 108.718 108.614 108.492
-9999 -9999 -9999 -9999 -9999 -9999 -9999 -9999 -9999 -9999 -9999 -9999 -9999 -9999 -9999 -9999 -9999 -9999 -9999 -9999 -9999 -9999 -9999 -9999 -9999 -9999 -9999 -9999 -9999 -9999 -9999 -9999 -9999 -9999 -9999 -9999 -9999 -9999 -9999 -9999 -9999 -9999 -9999 -9999 -9999 -9999 -9999 -9999 -9999 -9999 -9999 -9999 -9999 -9999 -9999 -9999 -9999 -9999 -9999 -9999 -9999 -9999 -9999 -9999 -9999 -9999 -9999 -9999 -9999 -9999 -9999 -9999 -9999 -9999 -9999 -9999 -9999 -9999 -9999 -9999 -9999 -9999 -9999 -9999 -9999 -9999 -9999 -9999 -9999 -9999 -9999 -9999 -9999 -9999 -9999 -9999 -9999 -9999 -9999 -9999 -9999 -9999 -9999 -9999 -9999 -9999 -9999 -9999 -9999 -9999 -9999 -9999 -9999 -9999 -9999 -9999 -9999 -9999 -9999 -9999 -9999 -9999 -9999 -9999 -9999 -9999 -9999 -9999 -9999 -9999 -9999 -9999 -9999 -9999 -9999 -9999 -9999 -9999 -9999 -9999 -9999 -9999 -9999 -9999 -9999 -9999 -9999 -9999 -9999 -9999 -9999 -9999 -9999 -9999 -9999 -9999 -9999 -9999 -9999 -9999 -9999 -9999 -9999 -9999 -9999 -9999 -9999 -9999 -9999 -9999 -9999 -9999 -9999 -9999 -9999 -9999 -9999 -9999 -9999 -9999 -9999 -9999 -9999 -9999 -9999 -9999 -9999 -9999 -9999 -9999 -9999 -9999 -9999 -9999 -9999 -9999 -9999 -9999 -9999 -9999 -9999 114.285 114.314 114.315 114.314 114.335 114.345 114.33 114.349 114.341 114.336 114.317 114.293 114.308 114.329 114.331 114.291 114.326 114.321 114.374 114.294 114.271 114.273 114.288 114.264 114.268 114.231 114.218 114.212 114.185 114.152 114.086 114.075 113.964 114.016 114.135 117.738 125.958 127.237 128.497 128.026 120.639 117.458 116.223 116.134 116.258 116.338 116.457 116.392 116.458 116.476 116.484 116.404 116.395 116.341 116.284 117.398 123.916 117.864 116.415 118.77 116.361 116.351 118.422 124.689 125.529 126.395 122.375 124.118 129.522 131.875 130.078 119.567 116.114 116.469 116.242 116.986 116.219 116.014 115.739 129.248 133.314 134.13 134.117 131.966 133.04 127.34 134.393 134.299 125.108 128.588 132.377 131.655 132.063 134.379 134.873 135.697 135.559 132.891 131.108 133.862 136.079 136.975 134.888 132.122 127.249 132.671 131.704 133.269 133.98 132.195 129.04 128.445 131.287 133.869 135.225 134.464 125.419 123.109 130.933 131.873 132.482 133.237 132.942 128.477 126.384 130.05 130.886 130.057 131.545 132.989 133.34 132.967 132.306 130.576 131.384 133.811 133.643 130.262 129.683 130.996 131.759 130.953 131.475 132.705 131.342 130.174 119.698 131.041 127.112 128.579 120.155 118.243 124.923 118.592 114.114 112.398 114.147 115.456 115.597 116.012 126.259 118.159 117.798 112.192 112.149 112.174 112.102 112.031 112.006 111.948 111.888 111.82 111.851 111.782 111.736 111.627 111.597 111.655 111.468 111.423 111.388 111.231 111.083 110.988 110.876 110.776 110.638 110.485 110.391 110.257 110.115 110.015 109.897 109.731 109.561 109.461 109.357 109.162 109.038 108.929 108.821 108.663 108.489 108.39 108.326 108.247
-9999 -9999 -9999 -9999 -9999 -9999 -9999 -9999 -9999 -9999 -9999 -9999 -9999 -9999 -9999 -9999 -9999 -9999 -9999 -9999 -9999 -9999 -9999 -9999 -9999 -9999 -9999 -9999 -9999 -9999 -9999 -9999 -9999 -9999 -9999 -9999 -9999 -9999 -9999 -9999 -9999 -9999 -9999 -9999 -9999 -9999 -9999 -9999 -9999 -9999 -9999 -9999 -9999 -9999 -9999 -9999 -9999 -9999 -9999 -9999 -9999 -9999 -9999 -9999 -9999 -9999 -9999 -9999 -9999 -9999 -9999 -9999 -9999 -9999 -9999 -9999 -9999 -9999 -9999 -9999 -9999 -9999 -9999 -9999 -9999 -9999 -9999 -9999 -9999 -9999 -9999 -9999 -9999 -9999 -9999 -9999 -9999 -9999 -9999 -9999 -9999 -9999 -9999 -9999 -9999 -9999 -9999 -9999 -9999 -9999 -9999 -9999 -9999 -9999 -9999 -9999 -9999 -9999 -9999 -9999 -9999 -9999 -9999 -9999 -9999 -9999 -9999 -9999 -9999 -9999 -9999 -9999 -9999 -9999 -9999 -9999 -9999 -9999 -9999 -9999 -9999 -9999 -9999 -9999 -9999 -9999 -9999 -9999 -9999 -9999 -9999 -9999 -9999 -9999 -9999 -9999 -9999 -9999 -9999 -9999 -9999 -9999 -9999 -9999 -9999 -9999 -9999 -9999 -9999 -9999 -9999 -9999 -9999 -9999 -9999 -9999 -9999 -9999 -9999 -9999 -9999 -9999 -9999 -9999 -9999 -9999 -9999 -9999 -9999 -9999 -9999 -9999 -9999 -9999 -9999 -9999 -9999 -9999 -9999 -9999 -9999 114.283 114.287 114.309 114.325 114.323 114.34 114.309 114.33 114.345 114.301 114.282 114.312 114.301 114.306 114.305 114.298 114.269 114.305 114.302 114.318 114.31 114.254 114.255 114.348 114.278 114.234 114.225 114.198 114.148 114.128 114.086 114.024 113.985 114.01 114.267 114.867 121.813 125.005 125.99 119.503 118.508 116.334 116.091 116.043 116.158 116.274 116.423 116.419 116.41 116.394 116.382 116.331 116.3 116.222 116.228 118.208 118.688 117.104 119.238 122.274 116.253 116.194 116.182 118.694 125.664 119.608 116.131 118.079 122.746 118.139 115.809 115.814 115.799 115.783 115.69 115.645 117.689 115.993 118.272 131.549 133.79 135.94 136.348 133.815 133.084 132.78 133.786 134.957 137.005 125.122 133.108 131.428 132.715 132.928 134.969 134.679 135.167 132.572 129.821 129.137 132.74 132.333 131.741 128.873 123.117 131.937 132.064 132.343 131.354 131.84 129.444 128.818 127.749 130.821 131.638 127.7 124.424 119.206 118.414 130.637 133.703 133.047 134.128 132.263 129.866 129.893 129.662 130.988 130.969 132.814 132.199 130.043 131.615 129.092 131.008 133.549 133.601 130.189 125.834 132.426 131.35 132.578 132.933 133.539 131.797 129.138 128.238 128.436 124.653 121.846 112.427 112.236 114.607 112.138 112.11 112.16 112.186 112.115 114.121 119.616 117.206 113.13 111.865 111.846 111.822 111.862 111.783 111.7 111.682 111.634 111.55 111.503 111.506 111.486 111.389 111.306 111.288 111.256 111.14 111.11 111.112 110.987 110.797 110.688 110.606 110.478 110.354 110.187 110.119 110.015 109.81 109.742 109.596 109.44 109.282 109.203 108.984 108.811 108.691 108.655 108.532 108.386 108.229 108.141 108.102 107.975
-9999 -9999 -9999 -9999 -9999 -9999 -9999 -9999 -9999 -9999 -9999 -9999 -9999 -9999 -9999 -9999 -9999 -9999 -9999 -9999 -9999 -9999 -9999 -9999 -9999 -9999 -9999 -9999 -9999 -9999 -9999 -9999 -9999 -9999 -9999 -9999 -9999 -9999 -9999 -9999 -9999 -9999 -9999 -9999 -9999 -9999 -9999 -9999 -9999 -9999 -9999 -9999 -9999 -9999 -9999 -9999 -9999 -9999 -9999 -9999 -9999 -9999 -9999 -9999 -9999 -9999 -9999 -9999 -9999 -9999 -9999 -9999 -9999 -9999 -9999 -9999 -9999 -9999 -9999 -9999 -9999 -9999 -9999 -9999 -9999 -9999 -9999 -9999 -9999 -9999 -9999 -9999 -9999 -9999 -9999 -9999 -9999 -9999 -9999 -9999 -9999 -9999 -9999 -9999 -9999 -9999 -9999 -9999 -9999 -9999 -9999 -9999 -9999 -9999 -9999 -9999 -9999 -9999 -9999 -9999 -9999 -9999 -9999 -9999 -9999 -9999 -9999 -9999 -9999 -9999 -9999 -9999 -9999 -9999 -9999 -9999 -9999 -9999 -9999 -9999 -9999 -9999 -9999 -9999 -9999 -9999 -9999 -9999 -9999 -9999 -9999 -9999 -9999 -9999 -9999 -9999 -9999 -9999 -9999 -9999 -9999 -9999 -9999 -9999 -9999 -9999 -9999 -9999 -9999 -9999 -9999 -9999 -9999 -9999 -9999 -9999 -9999 -9999 -9999 -9999 -9999 -9999 -9999 -9999 -9999 -9999 -9999 -9999 -9999 -9999 -9999 -9999 -9999 -9999 -9999 -9999 -9999 -9999 -9999 -9999 -9999 114.277 114.272 114.315 114.288 114.259 114.274 114.296 114.332 114.3 114.338 114.308 114.279 114.301 114.268 114.266 114.251 114.262 114.254 114.27 114.239 114.222 114.24 114.23 114.283 114.244 114.213 114.195 114.182 114.161 114.11 114.11 113.988 114.481 118.425 118.228 119.417 115.305 117.298 117.94 115.621 115.873 116.092 115.988 115.944 116.095 116.192 116.316 116.28 116.345 116.287 116.294 116.259 116.2 116.154 116.85 121.237 116.792 122.294 127.476 129.822 124.808 116.981 116.11 116.029 115.99 115.999 116.029 115.968 115.848 115.787 115.671 115.637 115.729 115.617 115.578 119.086 123.155 124.213 122.552 129.948 134.209 135.828 136.165 133.84 130.16 131.851 133.42 134.791 131.373 135.406 133.575 132.301 130.281 128.354 133.544 130.882 132.24 129.698 126.57 119.959 126.951 127.677 124.794 125.198 126.621 125.492 128.959 130.071 130.232 129.863 129.899 127.946 125.955 128.085 127.392 128.815 128.791 127.076 117.975 125.657 131.795 131.857 132.61 133.271 132.731 131.939 130.975 132.621 132.615 131.586 133.777 132.655 132.047 129.688 129.475 132.124 132.413 130.151 123.643 131.779 126.792 132.397 132.223 131.677 129.423 128.151 128.879 121.361 117.119 113.135 111.93 111.859 111.838 111.838 111.824 111.872 111.905 111.751 111.618 111.599 111.648 111.584 111.574 111.526 111.462 111.471 111.409 111.375 111.364 111.313 111.229 111.194 111.174 111.134 111.059 111.002 111.058 110.951 110.837 110.753 110.723 110.561 110.483 110.396 110.329 110.187 110.06 109.901 109.838 109.703 109.575 109.449 109.299 109.169 108.993 108.904 108.751 108.577 108.452 108.341 108.186 108.063 108.023 107.932 107.839 107.684
-9999 -9999 -9999 -9999 -9999 -9999 -9999 -9999 -9999 -9999 -9999 -9999 -9999 -9999 -9999 -9999 -9999 -9999 -9999 -9999 -9999 -9999 -9999 -9999 -9999 -9999 -9999 -9999 -9999 -9999 -9999 -9999 -9999 -9999 -9999 -9999 -9999 -9999 -9999 -9999 -9999 -9999 -9999 -9999 -9999 -9999 -9999 -9999 -9999 -9999 -9999 -9999 -9999 -9999 -9999 -9999 -9999 -9999 -9999 -9999 -9999 -9999 -9999 -9999 -9999 -9999 -9999 -9999 -9999 -9999 -9999 -9999 -9999 -9999 -9999 -9999 -9999 -9999 -9999 -9999 -9999 -9999 -9999 -9999 -9999 -9999 -9999 -9999 -9999 -9999 -9999 -9999 -9999 -9999 -9999 -9999 -9999 -9999 -9999 -9999 -9999 -9999 -9999 -9999 -9999 -9999 -9999 -9999 -9999 -9999 -9999 -9999 -9999 -9999 -9999 -9999 -9999 -9999 -9999 -9999 -9999 -9999 -9999 -9999 -9999 -9999 -9999 -9999 -9999 -9999 -9999 -9999 -9999 -9999 -9999 -9999 -9999 -9999 -9999 -9999 -9999 -9999 -9999 -9999 -9999 -9999 -9999 -9999 -9999 -9999 -9999 -9999 -9999 -9999 -9999 -9999 -9999 -9999 -9999 -9999 -9999 -9999 -9999 -9999 -9999 -9999 -9999 -9999 -9999 -9999 -9999 -9999 -9999 -9999 -9999 -9999 -9999 -9999 -9999 -9999 -9999 -9999 -9999 -9999 -9999 -9999 -9999 -9999 -9999 -9999 -9999 -9999 -9999 -9999 -9999 -9999 -9999 -9999 -9999 -9999 -9999 114.26 114.303 114.256 114.284 114.266 114.31 114.296 114.337 114.294 114.278 114.283 114.255 114.238 114.26 114.258 114.261 114.233 114.247 114.26 114.257 114.267 114.233 114.223 114.218 114.212 114.202 114.177 114.134 114.182 114.142 114.073 113.951 118.464 120.591 122.464 121.948 117.662 115.092 115.391 115.649 116.046 115.896 115.876 115.905 115.965 116.139 116.214 116.227 116.253 116.205 116.177 116.133 116.095 116.03 123.248 119.488 128.504 132.85 136.08 136.758 125.837 121.911 116.298 115.889 115.889 115.946 115.913 115.858 115.759 115.663 116.476 117.967 119.419 117.329 115.604 122.433 125.095 126.423 125.343 126.488 130.631 132.74 132.216 131.21 130.031 132.232 134.251 135.086 121.496 135.184 119.803 133.037 133.564 134.673 133.696 126.375 126.726 126.838 117.67 115.716 114.921 114.994 114.971 114.962 114.969 117.648 121.744 127.821 128.284 128.736 124.566 119.655 115.69 123.194 126.569 129.615 128.867 129.258 120.477 120.004 128.712 130.472 133.501 133.869 132.988 130.999 127.33 130.868 132.16 133.01 129.796 132.966 130.006 129.157 128.705 130.381 130.834 120.417 114.013 117.113 125.443 130.033 125.402 128.77 127.993 128.233 117.813 111.596 111.567 111.564 111.54 111.441 111.502 111.521 111.523 111.575 111.519 111.405 111.308 111.349 111.341 111.279 111.249 111.192 111.15 111.129 111.009 111.024 111.033 110.967 110.911 110.911 110.944 110.887 110.769 110.747 110.708 110.6 110.461 110.446 110.38 110.238 110.081 110.038 109.963 109.934 109.778 109.635 109.545 109.403 109.287 109.152 109.017 108.861 108.702 108.622 108.431 108.29 108.214 108.097 107.922 107.808 107.695 107.634 107.518 107.441
-9999 -9999 -9999 -9999 -9999 -9999 -9999 -9999 -9999 -9999 -9999 -9999 -9999 -9999 -9999 -9999 -9999 -9999 -9999 -9999 -9999 -9999 -9999 -9999 -9999 -9999 -9999 -9999 -9999 -9999 -9999 -9999 -9999 -9999 -9999 -9999 -9999 -9999 -9999 -9999 -9999 -9999 -9999 -9999 -9999 -9999 -9999 -9999 -9999 -9999 -9999 -9999 -9999 -9999 -9999 -9999 -9999 -9999 -9999 -9999 -9999 -9999 -9999 -9999 -9999 -9999 -9999 -9999 -9999 -9999 -9999 -9999 -9999 -9999 -9999 -9999 -9999 -9999 -9999 -9999 -9999 -9999 -9999 -9999 -9999 -9999 -9999 -9999 -9999 -9999 -9999 -9999 -9999 -9999 -9999 -9999 -9999 -9999 -9999 -9999 -9999 -9999 -9999 -9999 -9999 -9999 -9999 -9999 -9999 -9999 -9999 -9999 -9999 -9999 -9999 -9999 -9999 -9999 -9999 -9999 -9999 -9999 -9999 -9999 -9999 -9999 -9999 -9999 -9999 -9999 -9999 -9999 -9999 -9999 -9999 -9999 -9999 -9999 -9999 -9999 -9999 -9999 -9999 -9999 -9999 -9999 -9999 -9999 -9999 -9999 -9999 -9999 -9999 -9999 -9999 -9999 -9999 -9999 -9999 -9999 -9999 -9999 -9999 -9999 -9999 -9999 -9999 -9999 -9999 -9999 -9999 -9999 -9999 -9999 -9999 -9999 -9999 -9999 -9999 -9999 -9999 -9999 -9999 -9999 -9999 -9999 -9999 -9999 -9999 -9999 -9999 -9999 -9999 -9999 -9999 -9999 -9999 -9999 -9999 -9999 -9999 114.213 114.276 114.269 114.309 114.222 114.247 114.3 114.285 114.279 114.272 114.238 114.286 114.245 114.256 114.193 114.247 114.243 114.218 114.269 114.244 114.284 114.22 114.219 114.214 114.21 114.18 114.155 114.11 114.115 114.124 114.05 119.389 122.773 124.305 127.542 124.404 122.615 120.972 122.561 122.545 119.474 117.999 115.755 115.843 115.914 116.108 116.108 116.156 116.177 116.17 116.123 116.016 116.035 115.979 116.31 118.658 130.946 134.38 135.964 136.833 136.905 124.762 117.555 115.792 115.791 115.842 115.815 115.693 116.759 119.401 120.086 123.868 123.729 119.605 118.492 123.545 125.666 126.586 125.939 125.195 125.485 125.435 119.527 115.126 120.155 127.98 132.992 134.652 135.707 135.258 133.972 133.829 134.772 136.321 135.699 131.742 127.281 125.413 120.84 118.422 114.788 114.733 114.712 114.724 114.67 115.781 120.652 121.593 120.454 120.113 121.31 121.72 119.417 124.373 127.638 129.794 130.692 129.515 126.214 124.124 127.828 130.083 131.962 132.389 131.573 130.033 129.566 129.964 130.78 132.567 132.835 131.817 126.264 116.753 117.428 122.655 116.515 115.811 112.049 111.921 112.446 118.105 120.908 122.377 127.116 120.184 111.375 111.24 111.235 111.149 111.096 111.049 111.101 111.04 111.088 111.137 111.191 111.073 111.018 111.04 111.037 110.961 110.944 110.915 110.849 110.806 110.757 110.723 110.696 110.664 110.576 110.568 110.591 110.55 110.491 110.442 110.41 110.341 110.207 110.143 110.058 109.923 109.825 109.77 109.69 109.586 109.457 109.349 109.286 109.158 109.032 108.874 108.758 108.633 108.428 108.353 108.167 108.022 107.892 107.815 107.691 107.509 107.412 107.367 107.266 107.146
-9999 -9999 -9999 -9999 -9999 -9999 -9999 -9999 -9999 -9999 -9999 -9999 -9999 -9999 -9999 -9999 -9999 -9999 -9999 -9999 -9999 -9999 -9999 -9999 -9999 -9999 -9999 -9999 -9999 -9999 -9999 -9999 -9999 -9999 -9999 -9999 -9999 -9999 -9999 -9999 -9999 -9999 -9999 -9999 -9999 -9999 -9999 -9999 -9999 -9999 -9999 -9999 -9999 -9999 -9999 -9999 -9999 -9999 -9999 -9999 -9999 -9999 -9999 -9999 -9999 -9999 -9999 -9999 -9999 -9999 -9999 -9999 -9999 -9999 -9999 -9999 -9999 -9999 -9999 -9999 -9999 -9999 -9999 -9999 -9999 -9999 -9999 -9999 -9999 -9999 -9999 -9999 -9999 -9999 -9999 -9999 -9999 -9999 -9999 -9999 -9999 -9999 -9999 -9999 -9999 -9999 -9999 -9999 -9999 -9999 -9999 -9999 -9999 -9999 -9999 -9999 -9999 -9999 -9999 -9999 -9999 -9999 -9999 -9999 -9999 -9999 -9999 -9999 -9999 -9999 -9999 -9999 -9999 -9999 -9999 -9999 -9999 -9999 -9999 -9999 -9999 -9999 -9999 -9999 -9999 -9999 -9999 -9999 -9999 -9999 -9999 -9999 -9999 -9999 -9999 -9999 -9999 -9999 -9999 -9999 -9999 -9999 -9999 -9999 -9999 -9999 -9999 -9999 -9999 -9999 -9999 -9999 -9999 -9999 -9999 -9999 -9999 -9999 -9999 -9999 -9999 -9999 -9999 -9999 -9999 -9999 -9999 -9999 -9999 -9999 -9999 -9999 -9999 -9999 -9999 -9999 -9999 -9999 -9999 -9999 -9999 114.228 114.25 114.275 114.28 114.274 114.269 114.285 114.295 114.271 114.241 114.226 114.238 114.236 114.24 114.237 114.243 114.214 114.258 114.206 114.23 114.253 114.188 114.188 114.224 114.198 114.198 114.168 114.162 114.148 114.148 115.159 122.599 126.343 129.066 131.615 132.244 130.303 127.05 127.448 126.697 123.506 121.614 116.109 115.81 115.861 115.954 116.023 116.07 116.102 116.086 116.086 115.983 115.936 115.827 115.817 122.791 129.809 133.487 135.037 135.527 135.949 134.109 117.77 115.687 115.646 115.602 115.605 115.569 118.869 118.723 118.089 124.951 125.082 121.11 121.115 122.531 125.816 126.552 125.583 124.347 122.519 115.681 115.083 115.059 114.997 118.31 131.885 132.092 130.328 134.491 131.264 124.797 134.687 136.287 135.48 131.367 123.883 124.688 124.316 118.233 114.609 114.543 114.5 114.715 114.755 118.375 121.125 121.463 118.689 117.68 120.98 122.218 116.553 123.194 126.634 129.101 129.967 128.419 124.44 119.376 124.861 125.356 130.594 131.008 130.013 124.686 123.18 123.559 128.802 131.42 131.32 126.448 124.554 115.234 111.94 111.935 111.819 111.735 111.666 111.57 111.47 111.36 111.204 111.213 119.506 111.134 110.995 110.959 110.883 110.83 110.742 110.741 110.743 110.745 110.783 110.757 110.687 110.637 110.597 110.72 110.711 110.66 110.648 110.587 110.548 110.507 110.45 110.379 110.376 110.338 110.223 110.197 110.244 110.181 110.137 110.121 110.108 110.023 109.886 109.85 109.813 109.641 109.483 109.423 109.34 109.325 109.157 109.002 108.93 108.818 108.653 108.566 108.495 108.282 108.125 108.028 107.924 107.745 107.648 107.559 107.406 107.285 107.16 107.068 106.999 106.913
-9999 -9999 -9999 -9999 -9999 -9999 -9999 -9999 -9999 -9999 -9999 -9999 -9999 -9999 -9999 -9999 -9999 -9999 -9999 -9999 -9999 -9999 -9999 -9999 -9999 -9999 -9999 -9999 -9999 -9999 -9999 -9999 -9999 -9999 -9999 -9999 -9999 -9999 -9999 -9999 -9999 -9999 -9999 -9999 -9999 -9999 -9999 -9999 -9999 -9999 -9999 -9999 -9999 -9999 -9999 -9999 -9999 -9999 -9999 -9999 -9999 -9999 -9999 -9999 -9999 -9999 -9999 -9999 -9999 -9999 -9999 -9999 -9999 -9999 -9999 -9999 -9999 -9999 -9999 -9999 -9999 -9999 -9999 -9999 -9999 -9999 -9999 -9999 -9999 -9999 -9999 -9999 -9999 -9999 -9999 -9999 -9999 -9999 -9999 -9999 -9999 -9999 -9999 -9999 -9999 -9999 -9999 -9999 -9999 -9999 -9999 -9999 -9999 -9999 -9999 -9999 -9999 -9999 -9999 -9999 -9999 -9999 -9999 -9999 -9999 -9999 -9999 -9999 -9999 -9999 -9999 -9999 -9999 -9999 -9999 -9999 -9999 -9999 -9999 -9999 -9999 -9999 -9999 -9999 -9999 -9999 -9999 -9999 -9999 -9999 -9999 -9999 -9999 -9999 -9999 -9999 -9999 -9999 -9999 -9999 -9999 -9999 -9999 -9999 -9999 -9999 -9999 -9999 -9999 -9999 -9999 -9999 -9999 -9999 -9999 -9999 -9999 -9999 -9999 -9999 -9999 -9999 -9999 -9999 -9999 -9999 -9999 -9999 -9999 -9999 -9999 -9999 -9999 -9999 -9999 -9999 -9999 -9999 -9999 -9999 114.243 114.247 114.261 114.256 114.237 114.258 114.233 114.259 114.269 114.253 114.209 114.211 114.233 114.169 114.184 114.152 114.19 114.238 114.211 114.226 114.207 114.195 114.237 114.174 114.202 114.201 114.167 114.175 114.171 114.151 114.115 122.123 128.019 129.514 131.679 132.358 132.919 131.525 125.961 128.441 130.337 127.696 122.179 117.859 115.732 115.754 115.856 115.968 115.97 116.023 115.99 115.933 115.899 115.881 115.815 115.826 118.087 124.755 130.537 130.59 132.994 124.328 123.654 117.144 115.491 115.411 115.358 115.427 118.022 119.486 116.784 126.959 128.884 129.351 125.897 122.069 121.806 123.791 124.367 123.762 122.16 115.637 114.927 114.911 114.907 114.946 114.873 131.624 130.23 128.679 133.726 133.993 138.707 134.081 133.122 131.438 129.094 119.769 123.887 123.068 117.085 114.461 114.429 124.894 123.388 127.855 120.651 120.366 121.158 118.015 114.211 118.44 119.994 117.18 122.651 124.041 127.471 127.742 124.949 118.371 116.802 115.061 124.825 122.218 128.55 124.696 115.607 114.464 119.576 125.001 126.95 123.801 121.428 118.092 111.786 111.73 111.658 111.51 111.459 111.338 111.229 111.113 111.005 110.965 110.895 110.773 110.675 110.717 110.63 110.546 110.478 110.425 110.44 110.45 110.449 110.497 110.403 110.313 110.293 110.292 110.282 110.215 110.199 110.318 110.265 110.23 110.183 110.136 110.095 110.076 110.009 109.938 109.944 109.934 109.87 109.835 109.83 109.768 109.684 109.568 109.534 109.506 109.363 109.224 109.148 109.058 108.957 108.762 108.679 108.599 108.443 108.421 111.344 109.837 108.663 107.873 107.712 107.594 107.454 107.359 107.27 107.157 107.016 106.894 106.849 106.723 106.608
-9999 -9999 -9999 -9999 -9999 -9999 -9999 -9999 -9999 -9999 -9999 -9999 -9999 -9999 -9999 -9999 -9999 -9999 -9999 -9999 -9999 -9999 -9999 -9999 -9999 -9999 -9999 -9999 -9999 -9999 -9999 -9999 -9999 -9999 -9999 -9999 -9999 -9999 -9999 -9999 -9999 -9999 -9999 -9999 -9999 -9999 -9999 -9999 -9999 -9999 -9999 -9999 -9999 -9999 -9999 -9999 -9999 -9999 -9999 -9999 -9999 -9999 -9999 -9999 -9999 -9999 -9999 -9999 -9999 -9999 -9999 -9999 -9999 -9999 -9999 -9999 -9999 -9999 -9999 -9999 -9999 -9999 -9999 -9999 -9999 -9999 -9999 -9999 -9999 -9999 -9999 -9999 -9999 -9999 -9999 -9999 -9999 -9999 -9999 -9999 -9999 -9999 -9999 -9999 -9999 -9999 -9999 -9999 -9999 -9999 -9999 -9999 -9999 -9999 -9999 -9999 -9999 -9999 -9999 -9999 -9999 -9999 -9999 -9999 -9999 -9999 -9999 -9999 -9999 -9999 -9999 -9999 -9999 -9999 -9999 -9999 -9999 -9999 -9999 -9999 -9999 -9999 -9999 -9999 -9999 -9999 -9999 -9999 -9999 -9999 -9999 -9999 -9999 -9999 -9999 -9999 -9999 -9999 -9999 -9999 -9999 -9999 -9999 -9999 -9999 -9999 -9999 -9999 -9999 -9999 -9999 -9999 -9999 -9999 -9999 -9999 -9999 -9999 -9999 -9999 -9999 -9999 -9999 -9999 -9999 -9999 -9999 -9999 -9999 -9999 -9999 -9999 -9999 -9999 -9999 -9999 -9999 -9999 -9999 -9999 114.256 114.263 114.288 114.297 114.257 114.273 114.261 114.305 114.261 114.257 114.278 114.246 114.218 114.233 114.226 114.203 114.201 114.201 114.224 114.219 114.218 114.198 114.222 114.156 114.228 114.205 114.216 114.188 114.206 114.153 114.397 120.841 127.688 131.249 132.81 132.062 133 132.022 132.492 132.317 130.263 130.509 123.141 117.609 118.226 115.707 115.754 115.862 115.916 115.929 115.92 115.861 115.795 115.777 115.771 123.414 124.323 117.727 117.987 117.424 120.147 115.982 118.355 115.638 115.116 115.044 114.982 114.986 118.62 119.017 125.457 129.927 127.405 129.222 127.202 125.478 120.231 114.701 114.589 114.77 114.751 114.55 114.598 114.637 114.727 114.802 114.769 116.929 124.646 126.825 137.652 139.184 122.83 118.679 122.286 121.756 115.901 116.057 120.3 118.721 114.977 114.357 114.702 129.627 131.298 123.113 126.355 118.039 115.027 114.28 116.452 114.942 113.525 113.379 115.048 121.414 118.947 118.68 115.845 113.064 112.998 112.885 112.64 112.797 116.349 112.388 112.3 112.223 112.161 111.87 111.699 113.506 112.435 111.568 111.516 111.422 111.326 111.194 111.15 111.042 110.919 110.782 110.685 110.61 110.522 110.403 110.327 110.3 110.245 110.158 110.151 110.131 110.167 110.142 110.165 110.176 110.068 110.002 109.957 109.977 109.979 109.917 109.891 109.926 109.875 109.886 109.863 109.836 109.794 109.793 109.741 109.667 109.648 109.649 109.612 109.536 109.5 109.493 109.398 109.241 109.233 109.151 109.062 108.903 108.821 108.753 108.675 108.457 108.353 108.269 108.345 115.093 112.61 114.798 110.234 108.427 107.37 107.226 107.095 107.082 107.005 106.817 106.694 106.605 106.568 106.467 106.363
-9999 -9999 -9999 -9999 -9999 -9999 -9999 -9999 -9999 -9999 -9999 -9999 -9999 -9999 -9999 -9999 -9999 -9999 -9999 -9999 -9999 -9999 -9999 -9999 -9999 -9999 -9999 -9999 -9999 -9999 -9999 -9999 -9999 -9999 -9999 -9999 -9999 -9999 -9999 -9999 -9999 -9999 -9999 -9999 -9999 -9999 -9999 -9999 -9999 -9999 -9999 -9999 -9999 -9999 -9999 -9999 -9999 -9999 -9999 -9999 -9999 -9999 -9999 -9999 -9999 -9999 -9999 -9999 -9999 -9999 -9999 -9999 -9999 -9999 -9999 -9999 -9999 -9999 -9999 -9999 -9999 -9999 -9999 -9999 -9999 -9999 -9999 -9999 -9999 -9999 -9999 -9999 -9999 -9999 -9999 -9999 -9999 -9999 -9999 -9999 -9999 -9999 -9999 -9999 -9999 -9999 -9999 -9999 -9999 -9999 -9999 -9999 -9999 -9999 -9999 -9999 -9999 -9999 -9999 -9999 -9999 -9999 -9999 -9999 -9999 -9999 -9999 -9999 -9999 -9999 -9999 -9999 -9999 -9999 -9999 -9999 -9999 -9999 -9999 -9999 -9999 -9999 -9999 -9999 -9999 -9999 -9999 -9999 -9999 -9999 -9999 -9999 -9999 -9999 -9999 -9999 -9999 -9999 -9999 -9999 -9999 -9999 -9999 -9999 -9999 -9999 -9999 -9999 -9999 -9999 -9999 -9999 -9999 -9999 -9999 -9999 -9999 -9999 -9999 -9999 -9999 -9999 -9999 -9999 -9999 -9999 -9999 -9999 -9999 -9999 -9999 -9999 -9999 -9999 -9999 -9999 -9999 -9999 -9999 -9999 114.259 114.263 114.237 114.248 114.269 114.264 114.277 114.303 114.266 114.223 114.232 114.227 114.211 114.244 114.334 114.181 114.142 114.168 114.277 114.169 114.183 114.193 114.171 114.176 114.172 114.176 114.154 114.2 114.181 114.138 114.119 120.389 127.759 130.765 131.972 131.509 131.693 132.554 132.113 130.582 133.056 132.199 131.252 124.416 123.611 116.185 115.695 115.795 115.843 115.877 115.844 115.784 115.753 115.666 126.993 129.703 129.864 129.82 130.69 125.999 117.6 115.665 115.244 114.984 114.834 114.708 114.668 114.598 115.531 128.33 121.022 121.487 129.999 130.331 127.265 125.859 116.423 114.359 114.347 114.325 114.287 114.273 114.29 114.344 114.506 114.646 114.641 114.621 124.207 125.498 135.676 138.506 133.829 130.166 114.774 114.637 114.474 114.43 114.484 114.496 114.354 114.328 114.567 128.492 131.202 132.286 127.09 116.899 113.522 113.395 115.412 114.821 113.206 113.095 113.062 113.004 112.874 112.842 112.714 112.746 112.69 112.585 112.459 112.336 112.196 112.108 111.961 111.912 111.826 111.59 111.398 111.309 111.191 111.154 111.19 111.083 110.997 110.875 110.827 110.716 110.628 110.496 110.392 110.306 110.215 110.098 110.018 109.995 109.924 109.825 109.806 109.805 109.817 109.83 109.867 109.813 109.706 109.691 109.674 109.7 109.708 109.604 109.579 109.578 109.536 109.562 109.535 109.441 109.429 109.402 109.426 109.362 109.354 109.384 109.328 109.233 109.211 109.172 109.079 108.977 108.934 108.884 108.735 108.574 108.523 108.453 108.347 108.167 108.057 107.99 109.253 114.755 108.981 114.771 110.004 109.631 107.144 106.945 106.796 106.766 106.651 106.516 106.41 106.389 106.331 106.245 106.087
-9999 -9999 -9999 -9999 -9999 -9999 -9999 -9999 -9999 -9999 -9999 -9999 -9999 -9999 -9999 -9999 -9999 -9999 -9999 -9999 -9999 -9999 -9999 -9999 -9999 -9999 -9999 -9999 -9999 -9999 -9999 -9999 -9999 -9999 -9999 -9999 -9999 -9999 -9999 -9999 -9999 -9999 -9999 -9999 -9999 -9999 -9999 -9999 -9999 -9999 -9999 -9999 -9999 -9999 -9999 -9999 -9999 -9999 -9999 -9999 -9999 -9999 -9999 -9999 -9999 -9999 -9999 -9999 -9999 -9999 -9999 -9999 -9999 -9999 -9999 -9999 -9999 -9999 -9999 -9999 -9999 -9999 -9999 -9999 -9999 -9999 -9999 -9999 -9999 -9999 -9999 -9999 -9999 -9999 -9999 -9999 -9999 -9999 -9999 -9999 -9999 -9999 -9999 -9999 -9999 -9999 -9999 -9999 -9999 -9999 -9999 -9999 -9999 -9999 -9999 -9999 -9999 -9999 -9999 -9999 -9999 -9999 -9999 -9999 -9999 -9999 -9999 -9999 -9999 -9999 -9999 -9999 -9999 -9999 -9999 -9999 -9999 -9999 -9999 -9999 -9999 -9999 -9999 -9999 -9999 -9999 -9999 -9999 -9999 -9999 -9999 -9999 -9999 -9999 -9999 -9999 -9999 -9999 -9999 -9999 -9999 -9999 -9999 -9999 -9999 -9999 -9999 -9999 -9999 -9999 -9999 -9999 -9999 -9999 -9999 -9999 -9999 -9999 -9999 -9999 -9999 -9999 -9999 -9999 -9999 -9999 -9999 -9999 -9999 -9999 -9999 -9999 -9999 -9999 -9999 -9999 -9999 -9999 -9999 -9999 114.27 114.27 114.261 114.253 114.284 114.297 114.327 114.314 114.265 114.242 114.24 114.256 114.241 114.209 114.173 114.174 114.165 114.127 114.592 114.153 114.16 114.154 114.18 114.154 114.154 114.185 114.166 114.171 114.136 114.135 114.045 115.676 123.195 128.873 126.674 130.675 131.823 132.61 132.664 132.823 133.432 132.346 133.855 127.35 126.517 125.662 125.9 119.76 115.782 115.815 115.758 115.707 115.967 125.711 130.302 130.805 133.23 133.865 134.505 131.951 128.243 118.215 115.23 114.752 114.657 114.523 114.449 114.47 117.497 128.187 121.066 125.546 130.838 130.737 128.87 121.819 116.42 114.133 114.11 114.072 114.055 114.086 114.106 114.157 114.237 114.367 114.503 114.527 115.495 121.938 133.379 127.192 128.465 116.524 118.75 120.051 117.088 114.505 114.39 114.325 114.279 114.34 119.48 127.907 126.544 129.191 128.638 118.015 115.814 113.361 113.093 112.947 112.874 112.77 112.701 112.685 112.595 112.513 112.371 112.332 112.279 112.237 112.13 112.02 111.915 111.79 111.698 111.637 111.492 111.26 111.071 111.003 110.882 110.835 110.717 110.62 110.539 110.46 110.485 110.391 110.305 110.176 110.118 110.042 109.937 109.821 109.76 109.692 109.59 109.553 109.467 109.504 109.481 109.493 109.506 109.392 109.348 109.344 109.43 109.439 109.424 109.318 109.324 109.293 109.289 109.251 109.205 109.132 109.116 109.096 109.057 108.952 108.948 109.06 109.044 108.97 108.957 108.918 108.834 108.679 108.678 108.6 108.453 108.298 108.248 108.129 108.046 107.877 107.648 107.969 108.039 108.87 107.487 109.586 107.17 106.966 107.239 106.677 106.571 106.544 106.387 106.313 106.112 106.082 106.027 105.898 105.773
-9999 -9999 -9999 -9999 -9999 -9999 -9999 -9999 -9999 -9999 -9999 -9999 -9999 -9999 -9999 -9999 -9999 -9999 -9999 -9999 -9999 -9999 -9999 -9999 -9999 -9999 -9999 -9999 -9999 -9999 -9999 -9999 -9999 -9999 -9999 -9999 -9999 -9999 -9999 -9999 -9999 -9999 -9999 -9999 -9999 -9999 -9999 -9999 -9999 -9999 -9999 -9999 -9999 -9999 -9999 -9999 -9999 -9999 -9999 -9999 -9999 -9999 -9999 -9999 -9999 -9999 -9999 -9999 -9999 -9999 -9999 -9999 -9999 -9999 -9999 -9999 -9999 -9999 -9999 -9999 -9999 -9999 -9999 -9999 -9999 -9999 -9999 -9999 -9999 -9999 -9999 -9999 -9999 -9999 -9999 -9999 -9999 -9999 -9999 -9999 -9999 -9999 -9999 -9999 -9999 -9999 -9999 -9999 -9999 -9999 -9999 -9999 -9999 -9999 -9999 -9999 -9999 -9999 -9999 -9999 -9999 -9999 -9999 -9999 -9999 -9999 -9999 -9999 -9999 -9999 -9999 -9999 -9999 -9999 -9999 -9999 -9999 -9999 -9999 -9999 -9999 -9999 -9999 -9999 -9999 -9999 -9999 -9999 -9999 -9999 -9999 -9999 -9999 -9999 -9999 -9999 -9999 -9999 -9999 -9999 -9999 -9999 -9999 -9999 -9999 -9999 -9999 -9999 -9999 -9999 -9999 -9999 -9999 -9999 -9999 -9999 -9999 -9999 -9999 -9999 -9999 -9999 -9999 -9999 -9999 -9999 -9999 -9999 -9999 -9999 -9999 -9999 -9999 -9999 -9999 -9999 -9999 -9999 -9999 -9999 114.268 114.276 114.29 114.266 114.291 114.317 114.315 114.303 114.268 114.254 114.256 114.252 114.244 114.209 114.185 114.197 114.187 114.181 114.155 114.175 114.149 114.132 114.153 114.115 114.126 114.117 114.131 114.144 114.142 114.075 114.24 114.76 120.678 124.678 126.362 129.773 130.814 131.161 131.268 130.479 133.219 134.411 135.694 133.985 132.445 130.818 126.829 125.059 116.351 115.709 115.656 115.612 120.004 128.468 131.163 132.461 134.397 135.247 135.25 133.535 128 125.904 115.948 114.752 114.479 114.388 114.296 114.482 115.124 120.022 127.108 125.094 130.183 129.544 124.224 117.309 113.945 113.949 113.949 113.932 113.946 113.982 114.012 114.087 114.108 114.211 114.375 114.465 114.442 126.201 131.224 118.427 115.251 114.387 116.102 121.474 121.035 119.97 114.398 114.224 114.281 114.317 114.542 121.014 123.709 127.465 127.413 123.29 117.571 113.187 112.996 112.867 112.734 112.597 112.385 112.353 112.264 112.171 112.042 111.97 111.877 111.811 111.715 111.617 111.517 111.488 111.364 111.308 111.119 110.901 110.762 110.674 110.597 110.508 110.395 110.315 110.172 110.112 110.033 109.967 109.945 109.904 109.842 109.717 109.62 109.535 109.471 109.446 109.366 109.282 109.204 109.218 109.191 109.169 109.056 109.007 109.029 109.009 109.054 109.098 109.061 109.043 109.056 109.04 108.992 108.966 108.927 108.878 108.822 108.822 108.729 108.65 108.702 108.731 108.662 108.58 108.531 108.511 108.512 108.4 108.359 108.266 108.142 107.989 107.956 107.837 107.758 107.697 109.554 108.839 108.568 112.43 114.501 109.257 106.967 118.503 109.001 106.461 106.219 106.161 106.033 106.015 105.894 105.838 105.726 105.609 105.534
-9999 -9999 -9999 -9999 -9999 -9999 -9999 -9999 -9999 -9999 -9999 -9999 -9999 -9999 -9999 -9999 -9999 -9999 -9999 -9999 -9999 -9999 -9999 -9999 -9999 -9999 -9999 -9999 -9999 -9999 -9999 -9999 -9999 -9999 -9999 -9999 -9999 -9999 -9999 -9999 -9999 -9999 -9999 -9999 -9999 -9999 -9999 -9999 -9999 -9999 -9999 -9999 -9999 -9999 -9999 -9999 -9999 -9999 -9999 -9999 -9999 -9999 -9999 -9999 -9999 -9999 -9999 -9999 -9999 -9999 -9999 -9999 -9999 -9999 -9999 -9999 -9999 -9999 -9999 -9999 -9999 -9999 -9999 -9999 -9999 -9999 -9999 -9999 -9999 -9999 -9999 -9999 -9999 -9999 -9999 -9999 -9999 -9999 -9999 -9999 -9999 -9999 -9999 -9999 -9999 -9999 -9999 -9999 -9999 -9999 -9999 -9999 -9999 -9999 -9999 -9999 -9999 -9999 -9999 -9999 -9999 -9999 -9999 -9999 -9999 -9999 -9999 -9999 -9999 -9999 -9999 -9999 -9999 -9999 -9999 -9999 -9999 -9999 -9999 -9999 -9999 -9999 -9999 -9999 -9999 -9999 -9999 -9999 -9999 -9999 -9999 -9999 -9999 -9999 -9999 -9999 -9999 -9999 -9999 -9999 -9999 -9999 -9999 -9999 -9999 -9999 -9999 -9999 -9999 -9999 -9999 -9999 -9999 -9999 -9999 -9999 -9999 -9999 -9999 -9999 -9999 -9999 -9999 -9999 -9999 -9999 -9999 -9999 -9999 -9999 -9999 -9999 -9999 -9999 -9999 -9999 -9999 -9999 -9999 -9999 114.243 114.246 114.278 114.264 114.28 114.267 114.297 114.294 114.27 114.254 114.238 114.23 114.242 114.221 114.196 114.199 114.191 114.208 114.199 114.157 114.174 114.169 114.15 114.124 114.118 114.122 114.159 114.364 114.503 114.533 117.701 116.027 120.223 116.584 123.406 128.444 120.266 128.818 130.132 131.525 133.318 135.514 136.278 135.852 134.445 131.149 127.956 117.394 115.607 115.606 115.574 115.572 118.774 127.869 130.418 133.923 134.697 133.425 134.782 132.28 129.08 126.566 122.481 115.338 114.306 114.242 114.206 114.12 114.066 114.033 121.073 127.385 122.825 117.964 115.201 113.897 113.867 113.876 113.882 113.847 113.869 113.889 113.917 113.983 114.029 114.104 114.265 114.377 114.384 114.427 114.442 114.468 114.401 114.378 114.301 119.708 120.337 116.416 114.225 114.191 114.551 114.715 118.581 123.967 127.175 127.647 128.19 119.026 117.51 112.804 112.704 112.671 112.581 112.431 112.285 112.128 111.925 111.809 111.737 111.61 111.528 111.458 111.338 111.212 111.094 111.051 110.94 110.858 110.745 110.546 110.473 110.314 110.259 110.189 110.09 110.004 109.843 109.786 109.718 109.64 109.491 109.481 109.425 109.341 109.334 109.258 109.213 109.153 109.075 109.033 108.986 108.97 108.943 108.916 108.771 108.714 108.699 108.736 108.749 108.754 108.698 108.699 108.702 108.69 108.651 108.709 108.656 108.59 108.553 108.532 108.466 108.376 108.413 108.392 108.335 108.254 108.234 108.169 108.091 108.002 107.977 107.989 107.865 107.711 107.669 107.598 107.475 113.758 107.514 107.2 110.689 122.469 122.544 114.008 127.971 128.997 116.264 106.201 106.156 106.131 105.931 105.713 105.613 105.557 105.475 105.373 105.35
-9999 -9999 -9999 -9999 -9999 -9999 -9999 -9999 -9999 -9999 -9999 -9999 -9999 -9999 -9999 -9999 -9999 -9999 -9999 -9999 -9999 -9999 -9999 -9999 -9999 -9999 -9999 -9999 -9999 -9999 -9999 -9999 -9999 -9999 -9999 -9999 -9999 -9999 -9999 -9999 -9999 -9999 -9999 -9999 -9999 -9999 -9999 -9999 -9999 -9999 -9999 -9999 -9999 -9999 -9999 -9999 -9999 -9999 -9999 -9999 -9999 -9999 -9999 -9999 -9999 -9999 -9999 -9999 -9999 -9999 -9999 -9999 -9999 -9999 -9999 -9999 -9999 -9999 -9999 -9999 -9999 -9999 -9999 -9999 -9999 -9999 -9999 -9999 -9999 -9999 -9999 -9999 -9999 -9999 -9999 -9999 -9999 -9999 -9999 -9999 -9999 -9999 -9999 -9999 -9999 -9999 -9999 -9999 -9999 -9999 -9999 -9999 -9999 -9999 -9999 -9999 -9999 -9999 -9999 -9999 -9999 -9999 -9999 -9999 -9999 -9999 -9999 -9999 -9999 -9999 -9999 -9999 -9999 -9999 -9999 -9999 -9999 -9999 -9999 -9999 -9999 -9999 -9999 -9999 -9999 -9999 -9999 -9999 -9999 -9999 -9999 -9999 -9999 -9999 -9999 -9999 -9999 -9999 -9999 -9999 -9999 -9999 -9999 -9999 -9999 -9999 -9999 -9999 -9999 -9999 -9999 -9999 -9999 -9999 -9999 -9999 -9999 -9999 -9999 -9999 -9999 -9999 -9999 -9999 -9999 -9999 -9999 -9999 -9999 -9999 -9999 -9999 -9999 -9999 -9999 -9999 -9999 -9999 -9999 -9999 114.262 114.264 114.299 114.236 114.258 114.258 114.289 114.306 114.282 114.291 114.259 114.241 114.236 114.239 114.202 114.202 114.207 114.227 114.226 114.18 114.196 114.195 114.16 114.194 114.16 114.119 114.125 114.106 119.177 116.556 124.172 124.206 117.62 119.6 123.142 128.455 129.479 130.778 125.797 132.8 134.486 135.609 136.259 136.927 135.621 133.19 128.831 119.605 115.533 115.506 115.511 115.471 115.69 130.256 132.054 129.318 132.627 130.809 134.867 132.058 128.82 126.254 121.744 115.121 114.197 114.128 114.083 113.999 113.957 113.88 113.834 113.954 114.136 113.818 113.814 113.846 113.835 113.813 113.824 113.812 113.806 113.815 113.879 113.919 113.961 114.046 114.232 114.372 114.403 114.426 114.397 114.397 114.369 114.356 114.264 115.575 118.187 116.168 114.198 114.152 114.731 114.665 120.79 123.861 128.511 130.132 128.813 126.639 124.87 112.823 112.141 112.507 112.158 112.17 112.098 111.941 111.758 111.638 111.473 111.372 111.257 111.201 110.927 110.85 110.721 110.62 110.552 110.461 110.311 110.129 110.133 110.066 109.963 109.875 109.771 109.686 109.581 109.509 109.401 109.34 109.187 109.156 109.077 109.015 108.984 108.975 108.924 108.89 108.814 108.754 108.72 108.727 108.729 108.664 108.488 108.469 108.442 108.433 108.418 108.474 108.432 108.401 108.41 108.406 108.351 108.38 108.289 108.246 108.235 108.216 108.14 108.099 108.074 108.085 108.019 107.936 107.865 107.826 107.824 107.685 107.676 107.611 107.473 107.353 107.272 107.278 107.325 115.522 110.535 109.476 125.595 124.702 131.107 112.043 124.419 128.277 128.377 114.292 110.769 116.923 106.422 105.49 105.357 105.301 105.265 105.15 105.064
-9999 -9999 -9999 -9999 -9999 -9999 -9999 -9999 -9999 -9999 -9999 -9999 -9999 -9999 -9999 -9999 -9999 -9999 -9999 -9999 -9999 -9999 -9999 -9999 -9999 -9999 -9999 -9999 -9999 -9999 -9999 -9999 -9999 -9999 -9999 -9999 -9999 -9999 -9999 -9999 -9999 -9999 -9999 -9999 -9999 -9999 -9999 -9999 -9999 -9999 -9999 -9999 -9999 -9999 -9999 -9999 -9999 -9999 -9999 -9999 -9999 -9999 -9999 -9999 -9999 -9999 -9999 -9999 -9999 -9999 -9999 -9999 -9999 -9999 -9999 -9999 -9999 -9999 -9999 -9999 -9999 -9999 -9999 -9999 -9999 -9999 -9999 -9999 -9999 -9999 -9999 -9999 -9999 -9999 -9999 -9999 -9999 -9999 -9999 -9999 -9999 -9999 -9999 -9999 -9999 -9999 -9999 -9999 -9999 -9999 -9999 -9999 -9999 -9999 -9999 -9999 -9999 -9999 -9999 -9999 -9999 -9999 -9999 -9999 -9999 -9999 -9999 -9999 -9999 -9999 -9999 -9999 -9999 -9999 -9999 -9999 -9999 -9999 -9999 -9999 -9999 -9999 -9999 -9999 -9999 -9999 -9999 -9999 -9999 -9999 -9999 -9999 -9999 -9999 -9999 -9999 -9999 -9999 -9999 -9999 -9999 -9999 -9999 -9999 -9999 -9999 -9999 -9999 -9999 -9999 -9999 -9999 -9999 -9999 -9999 -9999 -9999 -9999 -9999 -9999 -9999 -9999 -9999 -9999 -9999 -9999 -9999 -9999 -9999 -9999 -9999 -9999 -9999 -9999 -9999 -9999 -9999 -9999 -9999 -9999 114.291 114.297 114.271 114.257 114.28 114.27 114.277 114.294 114.27 114.27 114.239 114.248 114.238 114.245 114.225 114.208 114.214 114.209 114.198 114.181 114.204 114.16 114.152 114.155 114.126 114.14 114.127 114.022 116.739 121.011 125.289 127.679 124.415 121.835 124.4 127.384 126.316 124.664 132.201 135.304 137.227 136.426 135.186 136.421 134.699 133.784 127.322 115.622 115.525 115.439 115.411 115.317 119.625 132.388 132.461 134.071 134.451 132.906 133.582 131.452 128.592 125.068 117.684 114.192 114.053 113.986 113.888 113.862 113.796 113.786 113.753 113.753 113.701 113.68 113.686 113.691 113.735 113.793 113.809 113.801 113.776 113.793 113.81 113.838 113.888 113.995 114.114 114.278 114.368 114.356 114.385 114.37 114.346 114.332 114.322 114.309 114.303 114.108 114.101 114.673 114.79 114.497 117.659 123.087 126.992 129.737 128.02 126.698 123.456 113.948 120.297 114.387 113.231 113.465 111.689 111.55 111.703 113.15 117.061 119.891 118.236 117.815 110.869 110.54 110.38 110.258 110.163 110.044 109.832 109.702 109.666 109.695 109.653 109.528 109.468 109.377 109.246 109.21 109.131 109.041 108.953 108.872 108.839 108.747 108.669 108.633 108.605 108.543 108.503 108.463 108.42 108.52 108.498 108.344 108.213 108.215 108.17 108.174 108.196 108.188 108.126 108.12 108.149 108.12 108.083 108.016 107.938 107.93 107.92 107.889 107.8 107.781 107.807 107.788 107.708 107.621 107.557 107.495 107.367 107.235 107.316 107.247 107.12 106.986 106.966 106.888 111.636 114.847 114.31 115.9 116.847 121.635 124.429 116.223 124.108 130.991 124.275 121.66 121.88 117.511 112.033 109.704 105.247 105.084 105.023 104.924 104.837
-9999 -9999 -9999 -9999 -9999 -9999 -9999 -9999 -9999 -9999 -9999 -9999 -9999 -9999 -9999 -9999 -9999 -9999 -9999 -9999 -9999 -9999 -9999 -9999 -9999 -9999 -9999 -9999 -9999 -9999 -9999 -9999 -9999 -9999 -9999 -9999 -9999 -9999 -9999 -9999 -9999 -9999 -9999 -9999 -9999 -9999 -9999 -9999 -9999 -9999 -9999 -9999 -9999 -9999 -9999 -9999 -9999 -9999 -9999 -9999 -9999 -9999 -9999 -9999 -9999 -9999 -9999 -9999 -9999 -9999 -9999 -9999 -9999 -9999 -9999 -9999 -9999 -9999 -9999 -9999 -9999 -9999 -9999 -9999 -9999 -9999 -9999 -9999 -9999 -9999 -9999 -9999 -9999 -9999 -9999 -9999 -9999 -9999 -9999 -9999 -9999 -9999 -9999 -9999 -9999 -9999 -9999 -9999 -9999 -9999 -9999 -9999 -9999 -9999 -9999 -9999 -9999 -9999 -9999 -9999 -9999 -9999 -9999 -9999 -9999 -9999 -9999 -9999 -9999 -9999 -9999 -9999 -9999 -9999 -9999 -9999 -9999 -9999 -9999 -9999 -9999 -9999 -9999 -9999 -9999 -9999 -9999 -9999 -9999 -9999 -9999 -9999 -9999 -9999 -9999 -9999 -9999 -9999 -9999 -9999 -9999 -9999 -9999 -9999 -9999 -9999 -9999 -9999 -9999 -9999 -9999 -9999 -9999 -9999 -9999 -9999 -9999 -9999 -9999 -9999 -9999 -9999 -9999 -9999 -9999 -9999 -9999 -9999 -9999 -9999 -9999 -9999 -9999 -9999 -9999 -9999 -9999 -9999 -9999 -9999 114.29 114.309 114.296 114.366 114.334 114.333 114.305 114.298 114.286 114.266 114.247 114.263 114.248 114.247 114.247 114.225 114.219 114.188 114.198 114.201 114.191 114.21 114.202 114.173 114.169 114.143 114.175 114.075 121.076 123.694 124.842 123.309 118.268 116.869 122.582 124.173 125.784 127.905 132.609 134.815 137.017 135.981 133.737 134.184 132.722 128.031 123.368 116.941 115.383 115.366 115.328 118.544 127.184 133.323 135.027 131.683 132.854 129.804 131.215 130.938 129.197 125.37 116.889 114.059 113.91 113.84 113.733 113.71 113.705 113.675 113.677 113.654 113.584 113.558 113.575 113.643 113.657 113.712 113.736 113.691 113.709 113.731 113.776 113.814 113.863 113.929 113.985 114.111 114.236 114.293 114.306 114.286 114.291 114.274 114.273 114.25 114.167 114.193 114.816 114.998 114.722 114.454 116.201 120.178 123.957 122.893 125.704 124.683 117.77 120.104 124.348 124.352 118.158 115.931 115.823 114.084 116.186 126.341 124.493 124.131 123.161 122.755 118.859 117.216 111.554 110.055 109.826 109.664 109.408 109.327 109.263 109.228 109.2 109.13 109.14 109.01 109.109 108.89 108.82 108.741 108.67 108.63 108.543 108.455 108.411 108.389 108.288 108.239 108.237 108.229 108.201 108.216 108.176 108.032 107.966 107.94 107.925 107.905 107.957 107.927 107.863 107.843 107.863 107.861 107.755 107.739 107.675 107.585 107.543 107.481 107.4 107.416 107.427 107.403 107.372 107.274 107.239 107.181 107.021 106.946 106.955 106.873 106.747 106.686 106.622 106.698 112.244 113.439 118.304 115.484 120.023 121.424 122.131 123.059 119.533 121.516 122.044 122.551 121.611 118.59 115.082 110.154 105.406 104.857 104.824 104.716 104.656
-9999 -9999 -9999 -9999 -9999 -9999 -9999 -9999 -9999 -9999 -9999 -9999 -9999 -9999 -9999 -9999 -9999 -9999 -9999 -9999 -9999 -9999 -9999 -9999 -9999 -9999 -9999 -9999 -9999 -9999 -9999 -9999 -9999 -9999 -9999 -9999 -9999 -9999 -9999 -9999 -9999 -9999 -9999 -9999 -9999 -9999 -9999 -9999 -9999 -9999 -9999 -9999 -9999 -9999 -9999 -9999 -9999 -9999 -9999 -9999 -9999 -9999 -9999 -9999 -9999 -9999 -9999 -9999 -9999 -9999 -9999 -9999 -9999 -9999 -9999 -9999 -9999 -9999 -9999 -9999 -9999 -9999 -9999 -9999 -9999 -9999 -9999 -9999 -9999 -9999 -9999 -9999 -9999 -9999 -9999 -9999 -9999 -9999 -9999 -9999 -9999 -9999 -9999 -9999 -9999 -9999 -9999 -9999 -9999 -9999 -9999 -9999 -9999 -9999 -9999 -9999 -9999 -9999 -9999 -9999 -9999 -9999 -9999 -9999 -9999 -9999 -9999 -9999 -9999 -9999 -9999 -9999 -9999 -9999 -9999 -9999 -9999 -9999 -9999 -9999 -9999 -9999 -9999 -9999 -9999 -9999 -9999 -9999 -9999 -9999 -9999 -9999 -9999 -9999 -9999 -9999 -9999 -9999 -9999 -9999 -9999 -9999 -9999 -9999 -9999 -9999 -9999 -9999 -9999 -9999 -9999 -9999 -9999 -9999 -9999 -9999 -9999 -9999 -9999 -9999 -9999 -9999 -9999 -9999 -9999 -9999 -9999 -9999 -9999 -9999 -9999 -9999 -9999 -9999 -9999 -9999 -9999 -9999 -9999 -9999 114.281 114.279 114.305 114.305 114.315 114.319 114.295 114.326 114.3 114.283 114.26 114.272 114.267 114.251 114.22 114.251 114.236 114.211 114.235 114.219 114.182 114.19 114.183 114.14 114.151 114.144 114.128 114.043 122.005 124.906 125.729 125.839 118.798 117.24 116.683 113.924 122.873 127.297 131.615 133.161 136.303 133.923 133.209 132.09 122.374 121.641 116.666 115.581 115.336 115.334 115.197 119.802 130.792 134.264 134.513 131.861 133.174 134.468 130.996 131.39 130.426 124.262 116.499 113.927 113.77 113.669 113.578 113.574 113.53 113.565 113.534 113.492 113.493 113.47 113.492 113.521 113.557 113.575 113.664 113.651 113.653 113.684 113.767 113.801 113.856 113.868 113.918 114.009 114.161 114.248 114.265 114.268 114.273 114.303 114.231 114.17 114.01 114.019 115.063 115.061 114.223 114.502 114.034 116.849 124.319 129.467 129.996 128.909 124.418 127.535 127.86 128.376 128.894 124.034 121.896 126.37 126.46 126.123 127.885 127.396 124.553 124.41 123.486 119.033 113.157 116.135 114.373 111.424 109.194 109.054 108.939 108.811 108.725 112.724 109.038 109.021 111.314 111.684 108.574 108.434 108.398 108.342 108.279 108.19 108.137 108.117 108.071 108.028 107.998 107.981 107.976 107.903 107.741 107.619 107.682 107.711 107.712 107.647 107.685 107.673 107.632 107.588 107.567 107.533 107.489 107.432 107.365 107.254 107.193 107.179 107.164 107.097 107.087 107.05 106.987 106.897 106.914 106.847 106.729 106.632 106.631 106.518 106.423 106.345 106.28 106.33 110.956 116.32 115.373 120.283 123.399 124.493 121.049 115.085 122.249 121.892 121.387 122.401 121.266 118.484 110.308 105.199 104.639 104.656 104.572 104.474 104.463
-9999 -9999 -9999 -9999 -9999 -9999 -9999 -9999 -9999 -9999 -9999 -9999 -9999 -9999 -9999 -9999 -9999 -9999 -9999 -9999 -9999 -9999 -9999 -9999 -9999 -9999 -9999 -9999 -9999 -9999 -9999 -9999 -9999 -9999 -9999 -9999 -9999 -9999 -9999 -9999 -9999 -9999 -9999 -9999 -9999 -9999 -9999 -9999 -9999 -9999 -9999 -9999 -9999 -9999 -9999 -9999 -9999 -9999 -9999 -9999 -9999 -9999 -9999 -9999 -9999 -9999 -9999 -9999 -9999 -9999 -9999 -9999 -9999 -9999 -9999 -9999 -9999 -9999 -9999 -9999 -9999 -9999 -9999 -9999 -9999 -9999 -9999 -9999 -9999 -9999 -9999 -9999 -9999 -9999 -9999 -9999 -9999 -9999 -9999 -9999 -9999 -9999 -9999 -9999 -9999 -9999 -9999 -9999 -9999 -9999 -9999 -9999 -9999 -9999 -9999 -9999 -9999 -9999 -9999 -9999 -9999 -9999 -9999 -9999 -9999 -9999 -9999 -9999 -9999 -9999 -9999 -9999 -9999 -9999 -9999 -9999 -9999 -9999 -9999 -9999 -9999 -9999 -9999 -9999 -9999 -9999 -9999 -9999 -9999 -9999 -9999 -9999 -9999 -9999 -9999 -9999 -9999 -9999 -9999 -9999 -9999 -9999 -9999 -9999 -9999 -9999 -9999 -9999 -9999 -9999 -9999 -9999 -9999 -9999 -9999 -9999 -9999 -9999 -9999 -9999 -9999 -9999 -9999 -9999 -9999 -9999 -9999 -9999 -9999 -9999 -9999 -9999 -9999 -9999 -9999 -9999 -9999 -9999 -9999 -9999 114.3 114.297 114.28 114.302 114.271 114.301 114.285 114.288 114.304 114.283 114.251 114.258 114.27 114.274 114.251 114.239 114.223 114.225 114.238 114.217 114.192 114.192 114.203 114.154 114.178 114.194 114.17 114.106 114.082 114.352 117.963 125.461 118.668 121.673 116.189 116.221 117.839 126.188 130.496 131.344 134.702 135.117 136.696 134.165 135.471 132.082 127.737 118.864 115.322 115.228 115.244 119.939 133.316 131.333 135.287 135.539 134.956 129.882 133.486 131.593 130.997 126.09 116.375 113.77 113.659 113.523 113.431 113.372 113.4 113.394 113.371 113.353 113.376 113.379 113.355 113.396 113.435 113.442 113.51 113.556 113.601 113.65 113.759 113.844 113.889 113.9 113.917 113.941 114.053 114.112 114.168 114.218 115.825 116.211 114.617 114.008 113.965 114.757 114.409 114.472 114.213 114.09 113.421 116.757 128.553 131.323 130.189 129.323 128.352 123.269 127.978 129.142 128.882 128.056 125.189 127.039 126.889 126.978 129.217 131.142 128.69 128.617 126.363 123.024 121.087 122.062 123.819 124.128 119.847 118.951 116.103 116.18 117.136 122.616 124.306 123.801 120.827 117.65 108.383 108.124 108.06 108.028 107.987 107.915 107.895 107.887 107.838 107.788 107.789 107.768 107.697 107.53 107.484 107.407 107.401 107.397 107.457 107.478 107.479 107.482 107.401 107.365 107.333 107.274 107.198 107.159 107.075 106.999 106.939 106.927 106.871 106.806 106.768 106.724 106.65 106.558 106.542 106.483 106.416 106.324 106.292 106.199 106.113 106.029 105.957 105.913 105.927 111.157 115.888 118.569 121.747 122.21 121.519 119.542 118.027 119.545 120.812 120.525 119.228 113.414 105.36 104.496 104.44 104.478 104.397 104.302 104.318
