ncols 433
nrows 32
xllcorner    432004
yllcorner    432498
cellsize     2
NODATA_value -9999
49.176 49.189 44.327 45.326 41.694 39.495 39.478 39.465 39.489 39.644 39.151 39.324 39.052 39.11 39.032 38.865 39.003 39.271 39.443 39.547 39.518 39.548 39.506 39.481 39.428 39.417 39.463 39.427 39.418 39.391 39.381 39.312 39.252 39.222 39.202 39.583 39.369 39.444 41.495 39.265 39.064 38.941 38.885 38.312 38.323 38.308 38.331 38.373 38.425 38.368 38.389 38.439 38.448 38.46 38.481 38.48 38.513 38.529 38.513 38.539 38.545 38.548 38.557 38.621 38.63 38.615 39.997 38.889 44.112 46.18 45.266 38.68 37.857 37.887 37.918 37.92 37.905 37.912 37.895 37.931 37.944 37.923 37.92 37.877 37.896 37.919 37.88 37.876 37.846 37.869 37.83 37.875 37.88 37.891 37.891 37.89 37.912 37.922 37.868 37.877 37.869 37.874 37.895 37.856 37.861 38.027 41.986 47.333 48.857 40.455 37.323 37.407 37.224 37.079 37.114 37.026 37.082 37.123 37.22 37.254 37.28 37.227 37.19 37.158 37.106 37.104 37.13 37.073 37.06 37.008 37.81 38.277 38.429 37.446 37.177 37.181 37.156 37.166 37.056 37.009 37.012 36.836 36.707 36.62 36.556 36.512 36.573 36.66 36.711 36.839 36.844 36.875 36.911 36.907 36.924 36.96 37.003 36.968 37.009 36.996 36.997 36.905 36.796 36.659 36.572 36.531 36.523 36.55 36.543 36.497 36.477 36.512 37.028 36.587 36.638 36.657 36.647 36.651 36.582 36.605 36.568 36.55 36.54 36.561 36.644 36.7 36.815 36.947 37.063 37.185 37.312 37.596 37.7 37.668 37.685 38.188 37.787 37.722 37.712 37.798 37.684 37.576 38.188 37.488 37.52 37.568 37.552 37.504 37.496 37.575 37.59 37.548 37.513 37.445 37.458 37.434 37.393 37.383 37.325 37.236 37.199 37.332 37.375 37.406 37.456 37.396 37.353 37.21 37.136 39.109 45.183 45.359 46.478 41.447 36.959 37.042 40.683 44.141 45.232 44.449 41.486 36.758 36.645 36.44 36.283 36.233 36.127 36.008 35.801 35.494 35.166 34.66 37.002 39.198 39.101 39.042 38.911 38.827 38.728 38.613 38.51 38.381 38.304 38.186 35.238 34.329 36.376 34.322 34.211 34.246 34.217 34.405 34.332 34.276 34.095 33.952 33.968 33.944 33.951 34.006 33.98 33.996 34.507 35.229 40.489 43.043 43.704 42.095 35.737 35.589 37.873 39.508 39.441 37.519 36.716 34.58 34.236 34.204 34.174 34.241 36.485 36.227 34.163 34.337 35.965 35.012 34.449 33.455 33.364 33.342 33.289 34.237 33.563 34.831 34.839 41.55 41.959 41.314 36.121 37.22 35.553 33.285 33.392 33.443 33.535 33.484 33.515 33.546 33.557 33.952 33.797 33.747 33.674 33.595 33.508 33.422 33.416 33.316 33.239 33.174 33.198 33.314 33.274 33.208 33.21 33.201 33.298 33.231 33.337 33.333 33.294 33.352 33.37 33.366 33.322 33.367 33.331 33.363 33.359 33.339 33.377 33.367 33.358 33.355 33.334 33.335 33.521 33.869 33.285 33.282 33.232 33.249 33.248 33.18 33.168 33.147 33.158 33.187 33.231 33.213 33.231 33.261 33.279 33.245 33.268 33.221 33.23 33.177 33.149 33.226 33.193 33.263 33.276 33.285 33.255 33.248 33.317 33.332 33.372 33.353 33.316 33.355 33.341 33.305 33.257 33.227 33.235 33.214 33.218 33.197 33.202 33.224 33.234 33.256 33.239 33.269 33.32 33.296 33.259 33.251 33.192 33.205 33.215 33.201 33.198 33.243 33.243 33.268 33.287 33.241 33.228 33.212 33.28
49.164 49.202 49.185 49.202 46.901 39.831 39.455 39.509 40.071 39.556 38.976 38.955 38.855 38.841 38.839 38.93 39.157 39.363 39.469 39.569 39.514 39.484 39.472 39.433 39.4 39.408 39.438 39.43 39.421 39.373 39.308 39.285 39.232 39.221 39.208 40 42.903 40.397 42.308 39.665 38.552 38.277 38.274 38.301 38.284 38.292 38.313 38.349 38.368 38.395 38.393 38.444 38.44 38.445 38.478 38.489 38.482 38.519 38.524 38.5 38.548 38.564 38.582 38.561 38.579 38.708 39.146 38.676 43.234 46.174 41.504 37.797 37.817 37.826 37.82 37.831 37.856 37.846 37.863 37.876 37.874 37.879 37.859 37.84 37.852 37.861 37.856 37.832 37.805 37.8 37.824 37.814 37.808 37.835 37.845 37.855 37.871 37.86 37.838 37.863 37.852 37.849 37.862 37.855 37.846 37.876 39.403 41.948 40.692 39.931 37.252 37.462 37.279 37.024 37.034 36.977 36.958 36.994 37.034 37.155 37.168 37.184 37.131 37.081 37.027 36.976 36.976 36.986 36.919 36.978 37.003 37.068 37.074 37.143 37.106 37.048 37.051 37.005 36.935 36.877 36.81 36.677 36.59 36.483 36.455 36.416 36.519 36.537 36.659 36.739 36.749 36.759 36.757 36.787 36.827 36.853 36.849 36.886 36.894 36.891 36.822 36.754 36.616 36.573 36.479 36.468 36.477 36.455 36.475 36.497 36.479 36.437 36.754 36.692 36.611 36.583 36.557 36.532 36.53 36.487 36.484 36.474 36.446 36.514 36.51 36.527 36.615 36.733 36.91 36.994 37.115 37.408 37.563 37.601 38.049 37.98 37.634 37.617 37.735 37.636 37.519 37.476 37.476 37.518 37.573 37.532 37.507 37.563 37.605 37.751 37.734 37.682 37.658 37.536 37.455 37.431 37.412 37.369 37.299 37.262 37.25 37.168 37.281 37.85 37.363 37.847 37.439 37.385 37.461 44.403 43.146 46.461 43.742 37.172 36.993 37.006 39.026 41.463 40.436 38.424 37.373 36.777 36.581 36.446 36.287 36.161 36.029 35.834 35.55 35.211 34.69 34.422 39.387 39.33 39.226 39.104 39.003 38.98 38.816 38.776 38.622 38.568 38.405 38.321 38.284 37.614 38.379 35.602 34.158 34.127 34.19 34.448 34.349 34.231 34.014 33.903 33.962 33.991 33.983 33.998 33.946 33.969 34.04 34.643 40.809 42.705 43.741 40.245 36.044 35.629 35.935 37.089 37.466 36.824 36.792 34.485 34.21 34.239 34.186 35.929 36.54 36.625 36.684 36.55 34.96 34.299 35.983 34.762 34.146 33.44 33.352 33.294 33.221 33.19 33.167 37.521 39.662 35.367 33.136 34.179 33.235 33.31 33.318 33.41 33.552 33.503 33.514 33.515 33.527 34.546 33.754 33.664 33.658 33.592 33.536 33.45 33.355 33.315 33.219 33.218 33.272 33.302 33.243 33.195 33.229 33.254 33.312 33.33 33.26 33.305 33.308 33.333 33.32 33.351 33.335 33.332 33.353 33.337 33.337 33.368 33.351 33.368 33.371 33.36 33.36 33.328 33.332 33.353 33.322 33.301 33.748 33.261 33.268 33.245 33.231 33.218 33.209 33.211 33.15 33.189 33.173 33.224 33.257 33.262 33.212 33.29 33.279 33.273 33.211 33.215 33.219 33.263 33.208 33.246 33.22 33.233 33.255 33.261 33.305 33.283 33.326 33.317 33.346 33.337 33.335 33.294 33.282 33.259 33.273 33.24 33.222 33.229 33.211 33.226 33.162 33.229 33.292 33.286 33.323 33.281 33.243 33.253 33.262 33.227 33.238 33.26 33.285 33.288 33.266 33.204 33.159 33.22 33.302
49.203 49.206 49.235 49.226 49.231 42.035 40.393 40.285 40.713 39.518 38.912 38.849 38.83 39.476 41.895 39.075 39.211 39.369 39.46 39.52 39.488 39.459 39.396 39.378 39.392 39.39 39.391 39.406 39.382 39.354 39.307 39.31 39.265 39.561 40.064 39.382 39.709 39.835 39.169 39.97 38.371 38.234 38.246 38.278 38.267 38.303 38.29 38.347 38.358 38.409 38.375 38.407 38.402 38.463 38.445 38.477 38.456 38.49 38.472 38.541 38.522 38.53 38.549 38.562 39.104 38.928 38.589 38.25 37.993 38.494 37.749 37.757 37.782 37.778 37.799 37.788 37.797 37.807 37.835 37.824 37.854 37.826 37.849 37.826 37.835 37.809 37.848 37.804 37.788 37.803 37.803 37.793 37.749 37.808 37.811 37.841 37.802 37.82 37.866 37.834 37.85 37.841 37.795 37.794 37.806 37.88 37.898 41.855 42.952 38.058 37.432 37.157 37.309 37.152 36.921 36.939 36.883 36.848 36.942 37.012 37.085 37.077 37.03 36.952 36.934 36.923 36.847 36.828 36.872 36.821 36.834 36.886 36.972 36.998 36.973 36.932 36.951 36.926 36.828 36.755 36.658 36.586 36.498 36.45 36.384 36.362 36.421 36.465 36.581 36.612 36.626 36.644 36.631 36.654 36.668 36.685 36.738 36.734 36.764 36.7 36.675 36.57 36.518 36.458 36.433 36.394 36.375 36.395 36.416 36.453 36.446 36.429 36.46 36.872 36.557 36.519 36.478 36.468 36.448 36.468 36.445 36.393 36.393 36.395 36.416 36.417 36.556 36.552 36.627 36.903 36.97 37.306 37.411 37.692 38.036 37.621 37.546 37.574 37.638 37.47 37.446 37.355 37.417 37.477 37.533 37.55 37.532 37.626 37.734 37.705 37.715 37.754 37.798 37.654 37.636 37.486 37.408 37.379 37.369 37.318 37.248 37.23 37.181 37.227 37.277 37.306 38.042 37.411 37.269 43.993 46.379 46.21 42.464 37.171 37.084 37.052 37.043 36.994 37.024 36.96 36.835 36.682 36.543 36.401 36.264 36.128 35.96 35.77 35.486 34.979 34.511 39.076 39.555 39.466 39.413 39.347 39.147 39.147 38.939 38.889 38.763 38.664 38.575 38.508 38.365 38.355 38.163 36.297 34.191 34.117 34.107 34.206 34.258 34.211 34.102 33.943 33.928 33.928 33.927 33.974 33.959 33.943 33.907 34.024 36.102 40.8 42.364 38.336 39.77 40.023 38.635 38.678 39.508 36.921 35.441 34.207 34.234 34.2 34.188 36.543 36.615 36.611 36.693 36.408 34.377 33.933 33.911 34.141 36.601 35.202 33.655 33.375 33.289 33.236 33.185 33.153 33.172 33.152 33.139 33.214 33.268 33.293 33.378 33.456 33.54 33.459 33.485 33.501 33.642 33.887 33.706 33.652 33.616 33.529 33.693 33.4 33.389 33.323 33.238 33.272 33.292 33.292 33.241 33.2 33.233 33.221 33.27 33.338 33.352 33.325 33.329 33.311 33.334 33.375 33.358 33.361 33.346 33.338 33.346 33.334 33.342 33.343 33.335 33.352 33.397 33.384 33.359 33.311 33.344 33.288 33.318 33.31 33.414 33.357 33.289 33.268 33.295 33.22 33.205 33.225 33.236 33.161 33.262 33.201 33.224 33.227 33.245 33.265 33.27 33.277 33.28 33.302 33.258 33.233 33.181 33.166 33.237 33.23 33.255 33.24 33.275 33.281 33.297 33.299 33.329 33.375 33.35 33.324 33.324 33.312 33.283 33.238 33.235 33.224 33.185 33.215 33.225 33.203 33.264 33.282 33.26 33.264 33.282 33.317 33.287 33.29 33.263 33.262 33.234 33.188 33.203 33.229 33.301
49.221 49.223 49.212 49.176 48.993 47.455 46.744 40.448 40.577 39.322 38.869 38.773 39.652 43.6 43.892 40.652 39.1 39.225 39.4 39.472 39.461 39.416 39.392 39.373 39.371 39.358 39.334 39.372 39.371 39.366 39.309 39.293 39.71 43.38 39.147 38.97 39.531 38.411 38.184 38.22 38.217 38.226 38.219 38.251 38.259 38.259 38.277 38.314 38.327 38.368 38.355 38.394 38.407 38.453 38.449 38.434 38.459 38.484 38.467 38.527 38.52 38.516 38.524 39.821 38.742 38.582 38.265 37.944 37.739 37.73 37.706 37.763 37.738 37.734 37.749 37.754 37.735 37.773 37.776 37.782 37.776 37.805 37.798 37.742 37.788 37.804 37.807 37.758 37.761 37.785 37.752 37.748 37.731 37.728 37.784 37.814 37.779 37.771 37.816 37.804 37.835 37.816 37.788 37.801 37.776 37.785 37.964 44.693 43.978 41.268 37.636 37.267 37.009 37.121 36.972 36.847 36.876 36.796 36.811 36.793 36.925 36.974 36.944 36.913 36.862 36.871 36.842 36.774 36.722 36.749 36.728 36.715 36.813 36.866 36.811 36.811 36.8 36.732 36.69 36.611 36.58 36.503 36.427 36.427 36.39 36.401 36.374 36.384 36.47 36.51 36.5 36.532 36.53 36.569 36.547 36.582 36.603 36.608 36.621 36.553 36.487 36.397 36.401 36.392 36.367 36.356 36.344 36.362 36.333 36.371 36.416 36.399 36.41 36.612 36.686 36.543 36.446 36.434 36.388 36.375 36.413 36.312 36.327 36.355 36.352 36.359 36.336 36.414 36.482 36.675 36.882 37.13 37.483 37.921 37.643 37.475 37.494 37.477 37.325 37.307 37.296 37.336 37.403 37.465 37.446 37.479 37.569 37.714 39.942 39.741 37.893 38.598 38.13 39.137 37.708 37.649 37.439 37.405 37.369 37.315 37.298 37.272 37.178 37.171 37.135 37.26 37.292 37.865 37.536 43.027 46.142 43.991 38.359 37.109 37.053 37.087 36.963 36.986 37.024 36.904 36.758 36.66 36.569 36.428 36.222 36.058 35.863 35.587 35.12 34.641 37.363 39.798 39.708 39.599 39.537 39.426 39.356 39.25 39.097 39.018 38.895 38.793 38.763 38.629 38.559 38.383 38.352 38.218 36.844 34.854 34.038 34.069 34.107 34.151 34.177 34.058 33.99 33.991 33.94 33.927 33.908 33.921 33.915 33.872 34.313 34.766 34.861 38.321 40.002 40.585 40.643 40.888 41.161 38.221 34.515 34.194 34.189 34.255 36.36 36.608 36.61 36.642 36.165 36.019 33.963 33.913 33.891 33.859 33.861 33.973 34.391 35.28 34.192 33.315 33.249 33.229 33.177 33.172 33.219 33.3 33.307 33.341 33.383 33.409 33.493 33.478 33.479 33.498 33.64 33.993 33.711 33.653 33.565 34.412 33.719 33.426 33.297 33.265 33.191 33.268 33.307 33.274 33.246 33.199 33.254 33.261 33.306 33.295 33.277 33.293 33.333 33.327 33.285 33.287 33.332 33.34 33.337 33.343 33.369 33.361 33.357 33.311 33.378 33.371 33.367 33.368 33.345 33.357 33.348 33.356 33.355 33.367 33.307 33.332 33.303 33.264 33.352 33.306 33.26 33.289 33.218 33.253 33.239 33.204 33.232 33.213 33.182 33.224 33.246 33.268 33.26 33.277 33.271 33.244 33.217 33.269 33.23 33.188 33.229 33.249 33.203 33.229 33.236 33.263 33.268 33.345 33.33 33.349 33.35 33.38 33.308 33.321 33.3 33.272 33.266 33.261 33.252 33.261 33.269 33.274 33.202 33.206 33.249 33.285 33.305 33.316 33.254 33.283 33.244 33.185 33.209 33.273 33.295
49.227 49.266 49.196 49.167 49.164 49.192 45.02 41.636 40.224 39.329 38.865 38.916 44.623 45.184 44.936 43.661 40.163 38.997 39.185 39.346 39.396 39.415 39.383 39.348 39.302 39.334 39.361 39.319 39.332 39.354 39.32 39.313 41.565 44.913 43.098 41.733 38.432 38.192 38.162 38.213 38.203 38.212 38.202 38.226 38.255 38.281 38.305 38.3 38.35 38.33 38.353 38.357 38.433 38.421 38.465 38.419 38.461 38.478 38.458 38.524 38.5 38.586 38.629 38.663 38.478 38.201 37.964 37.752 37.664 37.703 37.661 37.696 37.697 37.673 37.718 37.758 37.725 37.719 37.744 37.765 37.764 37.789 37.765 37.758 37.758 37.735 37.73 37.736 37.731 37.746 37.722 37.74 37.726 37.709 37.772 38.368 37.768 37.751 37.764 37.765 37.783 37.771 37.759 37.789 37.765 37.749 37.766 41.455 41.033 38.6 37.711 37.49 37.102 36.883 37.197 36.888 36.79 36.766 36.669 36.727 36.773 36.855 36.847 36.843 36.798 36.802 36.747 36.672 36.633 36.557 36.627 36.598 36.623 36.686 36.689 36.681 36.608 36.548 36.592 36.556 36.442 36.398 36.358 36.366 36.384 36.377 36.37 36.356 36.353 36.44 36.418 36.457 36.453 36.449 36.425 36.422 36.45 36.471 36.477 36.422 36.358 36.335 36.324 36.366 36.321 36.317 36.307 36.304 36.24 36.321 36.333 36.372 36.371 36.385 36.81 36.768 36.457 36.372 36.411 36.335 36.291 36.268 36.303 36.358 36.354 36.257 36.28 36.349 36.449 36.618 36.753 37.07 37.721 37.811 37.359 37.363 37.392 37.241 37.205 37.153 37.216 37.299 37.364 37.431 37.391 37.484 37.589 37.706 37.073 37.248 37.707 38.309 38.417 38.088 37.834 37.679 37.635 37.518 37.39 37.334 37.341 37.307 37.289 37.241 37.136 37.111 37.181 37.237 37.454 38.731 40.73 41.853 37.81 37.089 37.14 37.051 37.057 37.107 37.08 36.94 36.783 36.705 36.583 36.38 36.196 36.019 35.79 35.424 34.847 38.531 40.044 39.95 39.833 39.718 39.626 39.527 39.488 39.38 39.242 39.146 39.04 38.937 38.87 38.794 38.708 38.542 38.512 38.358 38.263 37.419 34.165 34.077 34.05 34.028 34.127 34.338 34.101 34.025 33.939 33.91 33.93 33.943 33.86 33.881 33.848 33.831 33.796 34.183 38.218 39.975 39.08 40.327 40.141 35.125 34.021 34.148 34.163 34.244 36.604 36.566 36.597 36.696 36.123 34.562 33.908 33.887 33.941 33.908 33.822 33.8 33.785 35.119 34.435 33.732 33.279 33.247 33.253 33.257 33.302 33.282 33.283 33.342 33.394 33.429 33.449 33.438 33.445 33.51 33.699 34.313 33.849 33.889 33.624 34.646 35.385 36.095 33.325 33.254 33.259 33.599 33.285 33.222 33.223 33.233 33.264 33.27 33.262 33.295 33.283 33.256 33.269 33.199 33.248 33.315 33.347 33.324 33.35 33.356 33.333 33.356 33.309 33.338 33.361 33.346 33.367 33.352 33.361 33.333 33.343 33.326 33.362 33.388 33.371 33.366 33.325 33.35 33.312 33.329 33.333 33.3 33.755 33.281 33.282 33.289 33.257 33.219 33.197 33.226 33.222 33.231 33.254 33.236 33.188 33.253 33.308 33.266 33.263 33.228 33.257 33.223 33.191 33.149 33.196 33.202 33.213 33.272 33.289 33.293 33.259 33.305 33.338 33.341 33.358 33.311 33.31 33.318 33.296 33.293 33.291 33.26 33.214 33.194 33.193 33.212 33.262 33.32 33.307 33.292 33.222 33.2 33.225 33.294 33.31
49.232 49.195 49.221 49.263 49.159 49.167 49.191 48.152 44.906 39.286 38.846 44.421 45.35 45.246 45.151 45.036 44.447 42.515 39.058 39.159 39.335 39.365 39.367 39.32 39.345 39.362 39.36 39.297 39.272 39.291 39.348 39.351 43.197 43.282 42.581 39.197 38.174 38.149 38.142 38.167 38.161 38.196 38.213 38.226 38.224 38.261 38.266 38.313 38.332 38.338 38.351 38.378 38.384 38.391 38.408 38.417 38.445 38.481 38.475 38.48 38.521 38.686 38.677 38.377 38.184 37.829 37.672 37.629 37.635 37.646 37.647 37.638 37.64 37.684 37.681 37.679 37.686 37.69 37.708 37.725 37.736 37.718 37.743 37.746 37.701 37.659 37.682 37.675 37.703 37.696 37.713 37.694 37.719 37.701 39.328 38.019 37.717 37.76 37.744 37.745 37.733 37.722 37.743 37.746 37.732 37.742 37.809 37.81 37.979 37.993 37.987 37.699 37.28 36.966 36.763 36.906 36.744 36.658 36.673 36.655 36.676 36.736 36.773 36.74 36.737 36.725 36.645 36.544 36.517 36.454 36.405 36.514 36.544 36.577 36.582 36.531 36.465 36.383 36.38 36.348 36.305 36.357 36.301 36.291 36.35 36.356 36.344 36.326 36.339 36.34 36.336 36.337 36.36 36.34 36.352 36.332 36.342 36.314 36.32 36.258 36.259 36.292 36.244 36.25 36.257 36.267 36.264 36.238 36.241 36.252 36.307 36.303 36.321 36.376 36.416 36.6 36.475 36.361 36.34 36.309 36.331 36.294 36.315 36.332 36.327 36.231 36.234 36.243 36.429 36.499 36.594 37.278 37.661 37.285 37.269 37.257 37.152 37.075 37.126 37.096 37.192 37.271 37.302 37.314 37.411 37.562 37.882 37.079 35.808 35.557 35.516 35.738 36.59 38.059 37.98 37.869 38.823 37.655 37.52 37.402 37.345 37.295 37.287 37.219 37.207 37.197 37.107 37.106 37.215 37.269 37.651 37.507 37.113 37.094 37.173 37.078 37.067 37.039 37.033 36.9 36.797 36.783 36.588 36.441 36.212 36.009 35.679 34.957 37.682 40.319 40.138 40.06 39.978 39.893 39.799 39.708 39.614 39.471 39.341 39.296 39.126 39.144 39.01 38.914 38.776 38.69 38.603 38.54 38.368 38.296 38.11 35.268 34.023 33.983 34.026 34.015 34.063 34.109 34.14 34.003 33.942 33.952 33.921 33.928 33.914 33.859 33.8 33.754 36.047 38.637 38.429 38.528 39.03 34.947 33.958 33.988 34.023 34.126 36.718 36.611 36.667 36.664 35.371 34.115 33.945 33.924 33.901 33.842 33.804 33.81 33.759 33.79 33.785 34.25 33.282 33.241 33.283 33.269 33.295 33.271 33.345 33.398 33.42 33.465 33.421 33.46 33.458 33.551 33.736 33.679 33.668 33.589 34.133 35.097 35.29 36.109 35.412 33.84 33.206 33.242 33.294 33.232 33.199 33.236 33.239 33.302 33.319 33.324 33.308 33.278 33.307 33.276 33.236 33.182 33.184 33.287 33.331 33.35 33.323 33.346 33.329 33.377 33.332 33.346 33.341 33.391 33.357 33.346 33.324 33.314 33.332 33.35 33.332 33.339 33.347 33.386 33.377 33.335 33.324 33.305 33.284 33.321 33.594 33.492 33.286 33.294 33.264 33.258 33.23 33.249 33.152 33.176 33.177 33.194 33.252 33.253 33.284 33.286 33.254 33.257 33.232 33.227 33.21 33.222 33.195 33.205 33.199 33.243 33.226 33.246 33.25 33.304 33.318 33.333 33.348 33.363 33.343 33.353 33.322 33.314 33.254 33.204 33.195 33.198 33.256 33.239 33.283 33.247 33.219 33.223 33.253 33.295 33.312
49.182 49.193 49.198 49.164 49.174 49.161 49.2 49.21 43.65 38.942 44.385 45.145 45.28 45.377 45.291 45.136 44.901 42.919 40.055 38.954 39.178 39.293 39.344 39.316 39.347 39.314 39.289 39.274 39.29 39.317 39.294 39.274 39.671 39.812 38.302 38.08 38.112 38.146 38.124 38.164 38.178 38.207 38.197 38.197 38.215 38.238 38.253 38.279 38.327 38.307 38.315 38.371 38.381 38.372 38.385 38.392 38.455 38.481 38.47 38.591 39.414 38.87 38.445 38.067 37.802 37.628 37.569 37.568 37.582 37.583 37.615 37.617 37.628 37.644 37.613 37.631 37.648 37.653 37.668 37.667 37.67 37.69 37.676 37.659 37.661 37.646 37.594 37.659 37.665 37.633 37.669 37.667 37.672 38.134 37.953 37.657 37.677 37.756 37.75 37.696 37.702 37.712 37.714 37.721 37.702 37.733 37.841 37.875 37.931 38.051 43.438 40.663 37.495 36.972 36.665 36.791 36.811 36.628 36.629 36.603 36.595 36.616 36.64 36.627 36.615 36.55 36.557 36.452 36.446 36.364 36.355 36.338 36.417 36.42 36.507 36.377 36.296 36.258 36.205 36.228 36.235 36.226 36.254 36.257 36.242 36.293 36.311 36.302 36.24 36.261 36.227 36.254 36.274 36.224 36.204 36.237 36.221 36.201 36.193 36.178 36.22 36.221 36.274 36.229 36.206 36.205 36.183 36.204 36.18 36.191 36.236 36.246 36.273 36.276 36.348 36.367 36.39 36.369 36.283 36.279 36.366 36.263 36.251 36.255 36.272 36.266 36.206 36.22 36.313 36.381 36.877 37.511 37.296 37.122 37.204 37.106 36.975 36.971 36.978 37.042 37.121 37.216 37.258 37.305 37.388 38.66 37.082 35.596 35.465 35.454 35.462 35.473 35.561 36.083 37.158 37.781 37.906 37.72 37.58 37.53 37.45 37.326 37.281 37.293 37.259 37.232 37.173 37.081 37.075 37.118 37.167 37.573 37.639 37.117 37.102 37.086 37.067 37.013 36.942 36.931 36.863 36.813 36.634 36.461 36.186 35.832 35.12 34.637 40.642 40.466 40.365 40.215 40.112 40.017 39.899 39.802 39.694 39.653 39.533 39.428 39.382 39.218 39.125 39.015 38.924 38.802 38.753 38.574 38.521 38.441 38.369 38.239 35.163 34.723 33.964 33.96 34.004 34.074 34.451 34.011 34.083 34.051 34.063 33.923 33.888 33.899 33.834 33.793 33.731 33.669 34.722 35.856 35.355 33.795 33.755 33.891 33.915 33.933 33.984 34.774 36.461 36.113 34.832 33.942 33.885 33.877 33.904 33.871 33.783 33.734 33.73 33.707 34.558 34.271 33.525 33.215 33.248 33.32 33.336 33.33 33.387 33.381 33.426 33.481 33.449 33.429 33.472 33.509 33.699 33.673 33.55 33.528 36.464 35.948 35.771 35.288 36.157 34.046 33.251 33.295 33.249 33.134 33.213 33.232 33.284 33.303 33.253 33.34 33.261 33.287 33.27 33.257 33.3 33.211 33.23 33.219 33.264 33.25 33.268 33.375 33.343 33.381 33.354 33.37 33.346 33.375 33.355 33.328 33.322 33.37 33.36 33.338 33.358 33.376 33.348 33.325 33.37 33.337 33.357 33.362 33.378 33.328 33.333 33.372 33.332 33.318 33.325 33.262 33.293 33.242 33.265 33.26 33.179 33.214 33.201 33.213 33.183 33.196 33.25 33.287 33.245 33.269 33.272 33.233 33.219 33.206 33.205 33.168 33.179 33.173 33.216 33.231 33.222 33.319 33.249 33.305 33.337 33.352 33.347 33.331 33.316 33.236 33.256 33.228 33.217 33.226 33.22 33.224 33.217 33.199 33.291 33.3 33.322
42.794 49.111 49.194 49.172 49.177 49.202 49.204 43.847 40.684 42.413 44.802 45.047 45.107 45.249 45.361 45.254 45.174 45.059 44.164 39.054 38.989 39.174 39.265 39.283 39.306 39.311 39.295 39.269 39.299 39.278 39.177 39.007 38.612 38.242 38.108 38.085 38.072 38.092 38.128 38.156 38.147 38.162 38.196 38.212 38.215 38.228 38.261 38.285 38.309 38.341 38.341 38.359 38.388 38.377 38.395 38.418 38.405 38.483 38.492 38.611 38.632 38.383 38.043 37.736 37.577 37.52 37.544 37.585 37.535 37.592 37.562 37.542 37.581 37.568 37.614 37.608 37.6 37.614 37.582 37.615 37.637 37.641 37.624 37.618 37.629 37.658 37.635 37.593 37.614 37.632 37.645 37.649 37.62 37.66 37.62 37.663 37.65 37.72 37.689 37.664 37.662 37.682 37.706 37.728 37.712 37.694 37.778 37.808 37.756 37.819 44.76 43.246 37.539 37.104 36.659 36.541 36.641 36.692 36.553 36.6 36.535 36.539 36.527 36.469 36.469 36.464 36.439 36.404 36.365 36.332 36.3 36.283 36.266 36.282 36.332 36.27 36.226 36.227 36.124 36.126 36.105 36.142 36.199 36.221 36.176 36.207 36.185 36.174 36.173 36.189 36.152 36.143 36.155 36.157 36.148 36.077 36.107 36.104 36.129 36.152 36.147 36.166 36.172 36.167 36.154 36.152 36.165 36.179 36.171 36.148 36.17 36.225 36.213 36.179 36.196 36.226 36.296 36.39 36.337 36.294 36.249 36.203 36.222 36.218 36.21 36.262 36.252 36.202 36.227 36.565 37.253 37.364 37.012 37.051 37.087 36.88 36.853 36.847 36.903 37.052 37.094 37.167 37.194 37.264 37.355 37.034 35.971 35.43 35.47 35.469 35.467 35.495 35.542 35.518 35.625 36.443 37.23 37.736 38.521 37.583 37.532 37.431 37.301 37.292 37.257 37.23 37.183 37.121 37.081 37.045 37.086 37.153 37.38 37.631 37.114 37.097 37.094 37.107 37.019 36.963 36.874 36.814 36.614 36.371 36.144 35.53 34.686 39.852 41.861 40.617 40.451 40.295 40.268 40.154 40.023 39.978 39.893 39.714 39.68 39.552 39.484 39.393 39.292 39.163 39.074 38.948 38.881 38.771 38.699 38.632 38.501 38.41 38.335 37.387 34.161 33.905 33.914 33.957 33.992 34.011 34.036 34.139 34.21 34.19 34.043 33.929 33.844 33.838 33.796 33.722 33.664 33.661 33.692 33.736 33.693 33.781 33.828 33.831 33.861 33.846 34.683 34.504 34.532 35.061 34.037 33.894 33.888 33.849 33.779 33.777 33.708 33.772 34.503 35.133 34.048 33.184 33.23 33.269 33.332 33.349 33.405 33.433 33.473 33.508 33.431 33.414 33.467 33.528 33.667 33.613 33.535 36.131 36.407 36.437 36.499 34.515 35.584 33.825 33.741 33.247 33.231 33.215 33.218 33.258 33.235 33.3 33.382 33.352 33.232 33.266 33.285 33.27 33.27 33.193 33.198 33.232 33.254 33.243 33.263 33.24 33.238 33.286 33.317 33.352 33.348 33.335 33.347 33.335 33.34 33.31 33.302 33.351 33.361 33.352 33.354 33.356 33.321 33.391 33.357 33.316 33.342 33.35 33.37 33.361 33.379 33.363 33.339 33.319 33.305 33.281 33.315 33.279 33.277 33.262 33.217 33.225 33.241 33.188 33.194 33.198 33.225 33.251 33.287 33.247 33.279 33.245 33.219 33.216 33.227 33.253 33.24 33.209 33.171 33.23 33.267 33.273 33.251 33.303 33.335 33.358 33.34 33.296 33.267 33.239 33.237 33.216 33.247 33.212 33.206 33.224 33.294 33.322 33.364
39.397 47.224 49.191 49.171 49.136 49.037 43.651 42.172 41.869 42.237 42.32 44.831 44.996 45.142 45.251 45.323 45.285 45.161 45.007 44.732 39.262 38.961 39.13 39.192 39.27 39.309 39.267 39.282 39.224 39.131 38.932 38.581 38.262 38.057 38.054 38.077 38.094 38.079 38.104 38.114 38.143 38.147 38.217 38.181 38.23 38.227 38.291 38.243 38.28 38.272 38.299 38.302 38.339 38.383 38.36 38.382 38.45 38.54 39.324 38.625 38.454 37.997 37.682 37.552 37.5 37.499 37.494 37.496 37.504 37.527 37.537 37.54 37.551 37.546 37.547 37.574 37.575 37.584 37.588 37.583 37.595 37.587 37.574 37.582 37.594 37.572 37.564 37.582 37.559 37.598 37.597 37.61 37.613 37.609 37.638 37.623 37.622 37.628 37.662 37.65 37.645 37.678 37.702 37.701 37.689 37.69 37.73 37.819 37.816 37.768 38.898 37.797 37.542 37.163 36.796 36.488 36.502 37.476 36.595 36.493 36.504 36.476 36.458 36.378 36.356 36.359 36.333 36.323 36.284 36.269 36.229 36.235 36.213 36.236 36.254 36.249 36.2 36.152 36.107 36.05 36.057 36.035 36.096 36.113 36.105 36.093 36.085 36.076 36.105 36.107 36.12 36.1 36.124 36.077 36.058 35.997 36.009 36.061 36.071 36.077 36.106 36.099 36.099 36.135 36.098 36.094 36.097 36.103 36.141 36.126 36.141 36.144 36.18 36.155 36.156 36.157 36.189 36.188 36.308 36.322 36.245 36.291 36.226 36.173 36.192 36.26 36.251 36.271 36.221 36.908 37.351 36.901 36.916 36.926 36.813 36.739 36.712 36.791 36.911 36.973 37.03 36.988 37.113 37.259 37.769 36.027 35.463 35.435 35.814 35.704 35.453 35.483 35.472 35.494 35.504 35.491 36.072 36.919 37.521 37.663 37.591 37.551 37.464 37.308 37.254 37.229 37.212 37.197 37.172 37.081 37.043 37.062 37.119 37.18 37.727 37.359 37.186 37.13 37.094 37.056 36.945 36.83 36.598 36.338 35.967 34.878 38.571 42.179 41.997 41.876 41.608 40.559 40.401 40.306 40.183 40.104 39.991 39.896 39.754 39.718 39.598 39.525 39.359 39.312 39.187 39.109 38.99 38.958 38.755 38.72 38.657 38.53 38.427 36.05 33.842 33.829 33.838 33.887 33.901 33.95 33.985 34.248 34.263 35.172 34.436 34.022 33.96 33.876 33.816 33.754 33.766 33.71 33.671 33.611 33.566 33.686 33.719 33.712 33.769 33.695 34.217 35.45 34.185 35.345 34.692 33.814 33.837 33.844 33.774 33.725 33.748 33.798 34.829 34.503 33.513 33.137 33.185 33.239 33.345 33.364 33.389 33.422 33.453 33.45 33.426 33.466 33.419 33.443 33.597 33.551 33.52 36.411 36.462 36.457 36.467 34.127 33.157 33.327 33.253 33.28 33.194 33.238 33.196 33.259 33.313 33.355 33.403 33.359 33.4 33.349 33.339 33.28 33.247 33.265 33.271 33.253 33.229 33.263 33.283 33.24 33.267 33.274 33.266 33.26 33.269 33.29 33.355 33.334 33.327 33.358 33.347 33.354 33.348 33.38 33.326 33.326 33.375 33.383 33.282 33.332 33.334 33.301 33.335 33.358 33.33 33.383 33.403 33.391 33.361 33.31 33.348 33.313 33.351 33.282 33.297 33.283 33.269 33.205 33.196 33.18 33.213 33.207 33.213 33.216 33.218 33.225 33.264 33.259 33.257 33.243 33.239 33.22 33.196 33.182 33.19 33.196 33.244 33.29 33.279 33.277 33.278 33.245 33.242 33.263 33.194 33.253 33.244 33.177 33.172 33.22 33.267 33.307 33.346
39.58 39.775 49.074 49.174 49.048 42.204 41.538 42.415 42.233 42.205 42.275 42.962 44.803 44.954 45.136 45.266 45.353 45.276 45.143 45.008 42.278 40.109 38.928 39.142 39.189 39.232 39.24 39.201 39.125 38.745 38.616 38.139 38.013 38.013 38.053 38.069 38.103 38.078 38.117 38.121 38.149 38.139 38.17 38.167 38.172 38.203 38.209 38.253 38.257 38.282 38.29 38.315 38.312 38.354 38.356 38.383 38.386 38.529 38.574 38.339 37.961 37.724 37.535 37.481 37.447 37.432 37.46 37.501 37.468 37.488 37.495 37.48 37.489 37.516 37.503 37.517 37.551 37.547 37.574 37.533 37.539 37.55 37.516 37.569 37.571 37.547 37.579 37.564 37.57 37.568 37.541 37.589 37.607 37.601 37.586 37.61 37.611 37.602 37.598 37.607 37.643 37.682 37.656 37.682 37.692 37.643 37.723 37.719 37.899 37.786 37.846 37.65 37.496 37.106 36.668 36.531 36.62 37.347 36.992 36.424 36.451 36.447 36.407 36.379 36.339 36.278 36.254 36.268 36.247 36.221 36.152 36.147 36.185 36.204 36.182 36.176 36.115 36.096 36.06 36.024 36.01 35.97 36.006 36.019 36.03 36.037 35.962 35.961 36.003 36.026 36.018 36.024 35.973 35.991 36.001 35.963 35.968 35.984 36.001 36.013 36.031 36.014 36.051 36.018 36.051 36.031 36.068 36.066 36.098 36.099 36.1 36.116 36.13 36.108 36.117 36.105 36.1 36.122 36.191 36.254 36.244 36.202 36.178 36.239 36.226 36.246 36.243 36.271 36.805 37.145 36.806 36.785 36.814 36.731 36.684 36.622 36.657 36.757 36.86 36.896 36.922 36.981 37.088 37.029 36.466 35.511 35.406 37.722 48.82 42.164 35.892 35.83 36.319 35.576 35.49 35.495 35.477 35.958 36.691 37.419 37.708 38.054 37.535 37.504 37.388 37.246 37.242 37.188 37.168 37.121 37.087 37.024 36.965 37.034 37.153 37.515 37.283 37.135 37.113 37.137 37.04 36.851 36.541 36.011 35.024 34.604 41.965 42.191 42.192 42.019 41.969 41.857 41.463 40.433 40.318 40.203 40.093 40.028 39.929 39.841 39.727 39.621 39.536 39.493 39.361 39.197 39.144 39.043 38.989 38.85 38.743 38.701 38.488 34.547 33.884 33.725 33.788 33.757 33.771 33.912 33.972 34.289 34.314 35.863 34.292 34.088 34.034 33.994 33.902 33.865 33.803 33.741 33.678 33.667 33.64 33.559 33.575 33.671 33.633 33.659 35.11 36.205 34.993 34.374 33.799 33.814 33.783 33.758 33.714 33.736 33.762 34.603 35.487 34.473 33.427 33.142 33.218 33.243 33.325 33.333 33.367 33.476 33.498 33.481 33.43 33.422 33.434 33.398 33.454 33.455 35.505 36.411 36.437 36.452 36.381 33.296 33.192 33.212 33.256 33.264 33.182 33.252 33.261 33.304 33.273 33.337 33.367 33.351 33.376 33.383 33.408 33.387 33.379 33.34 33.313 33.24 33.236 33.22 33.271 33.281 33.271 33.282 33.267 33.253 33.214 33.237 33.283 33.299 33.329 33.322 33.358 33.372 33.334 33.365 33.364 33.346 33.368 33.36 33.289 33.312 33.312 33.338 33.346 33.323 33.348 33.375 33.358 33.384 33.398 33.364 33.364 33.32 33.341 33.319 33.313 33.334 33.28 33.299 33.256 33.264 33.266 33.23 33.23 33.207 33.164 33.192 33.218 33.233 33.242 33.238 33.265 33.271 33.232 33.229 33.225 33.232 33.245 33.257 33.23 33.224 33.23 33.233 33.235 33.189 33.213 33.236 33.251 33.222 33.198 33.249 33.257 33.329 33.351
39.629 39.501 41.351 47.231 41.855 40.719 42.214 42.347 42.297 42.222 42.276 42.359 42.698 44.352 45.039 45.12 45.282 45.35 45.238 45.136 45.003 43.78 38.928 38.987 39.068 39.167 39.14 38.985 38.793 38.406 38.071 37.976 37.989 38.016 38.03 38.036 38.065 38.113 38.09 38.084 38.113 38.134 38.155 38.184 38.175 38.243 38.212 38.247 38.262 38.241 38.263 38.286 38.302 38.331 38.321 38.351 38.576 38.545 38.365 38.044 37.672 37.463 37.401 37.421 37.426 37.409 37.415 37.405 37.444 37.448 37.426 37.429 37.467 37.474 37.471 37.507 37.5 37.532 37.523 37.541 37.491 37.47 37.478 37.509 37.507 37.513 37.504 37.536 37.549 37.492 37.507 37.516 37.542 37.551 37.55 37.547 37.553 37.565 37.558 37.574 37.564 37.614 37.625 37.675 37.65 37.633 37.681 37.712 37.796 37.805 37.887 37.785 37.538 36.903 36.618 36.701 38.218 36.737 36.843 36.679 36.357 36.401 36.401 36.347 36.276 36.228 36.182 36.196 36.206 36.166 36.146 36.078 36.095 36.125 36.122 36.088 36.082 36.061 35.979 35.966 35.988 35.943 35.877 35.869 35.893 35.885 35.883 35.896 35.923 35.946 35.969 35.959 35.971 35.913 35.895 35.891 35.908 35.926 35.951 35.98 35.963 35.949 35.978 35.972 35.986 35.977 36.004 36.024 36.066 36.025 36.068 36.096 36.091 36.084 36.108 36.062 36.071 36.082 36.11 36.167 36.212 36.204 36.146 36.186 36.22 36.234 36.244 36.606 36.956 36.714 36.689 36.994 38.048 36.612 36.548 36.535 36.65 36.713 36.805 36.76 36.769 37.054 39.021 36.635 35.848 35.404 35.669 42.884 44.047 49.537 47.532 43.791 45.078 37.831 35.484 35.475 35.51 35.44 35.548 36.653 37.293 37.701 37.879 37.918 37.465 37.414 37.248 37.2 37.153 37.17 37.142 37.1 37.027 36.973 37.01 37.041 37.095 37.467 37.166 37.147 37.075 36.918 36.596 35.84 34.672 39.672 41.938 42.078 42.092 42.177 42.123 41.978 41.9 41.45 40.734 40.304 40.221 40.136 40.07 39.964 39.857 39.741 39.663 39.575 39.502 39.412 39.318 39.178 39.017 39.012 38.925 38.718 34.442 34.072 33.864 33.646 33.689 33.705 33.802 33.871 33.956 34.106 34.274 34.602 34.127 34.08 34.075 34.045 33.986 33.879 33.847 33.788 33.727 33.668 33.617 33.617 33.598 33.545 33.535 33.548 34.657 35.76 36.451 34.683 34.016 33.699 33.691 33.699 33.75 33.733 33.984 36.16 34.848 34.056 33.292 33.166 33.204 33.257 33.352 33.379 33.421 33.447 33.446 33.42 33.469 33.424 33.403 33.316 33.323 33.398 33.399 33.894 34.116 35.802 34.208 33.241 33.23 33.221 33.273 33.241 33.189 33.253 33.271 33.319 33.368 33.413 33.375 33.349 33.354 33.369 33.372 33.368 33.387 33.336 33.386 33.358 33.32 33.25 33.213 33.26 33.282 33.247 33.296 33.267 33.28 33.283 33.278 33.271 33.273 33.231 33.234 33.252 33.305 33.387 33.384 33.386 33.337 33.312 33.245 33.295 33.287 33.305 33.266 33.286 33.322 33.329 33.346 33.374 33.393 33.362 33.372 33.404 33.379 33.332 33.337 33.323 33.304 33.539 33.317 33.273 33.252 33.282 33.258 33.217 33.198 33.194 33.155 33.2 33.224 33.162 33.204 33.187 33.241 33.266 33.258 33.238 33.242 33.239 33.198 33.154 33.157 33.181 33.17 33.196 33.217 33.219 33.245 33.187 33.189 33.224 33.272 33.309 33.364
39.614 39.423 39.171 39.011 39.116 42.2 42.21 42.249 42.224 42.228 42.598 42.259 42.58 42.816 44.812 45.062 45.18 45.32 45.314 45.262 41.746 39.443 38.859 38.743 38.944 39.054 38.946 38.776 38.431 38.076 37.939 37.953 37.947 37.983 38.006 38.027 38.048 38.061 38.034 38.1 38.088 38.126 38.147 38.137 38.169 38.248 38.203 38.215 38.217 38.225 38.26 38.278 38.28 38.307 38.45 38.942 38.568 38.381 37.896 37.666 37.466 37.318 37.386 37.381 37.362 37.36 37.393 37.403 37.391 37.387 37.404 37.399 37.419 37.446 37.462 37.453 37.456 37.5 37.486 37.458 37.444 37.451 37.412 37.432 37.458 37.471 37.491 37.483 37.513 37.502 37.5 37.513 37.49 37.515 37.52 37.522 37.514 37.503 37.531 37.552 37.573 37.603 37.613 37.635 37.615 37.606 37.673 37.653 37.744 37.763 37.778 37.492 37.106 36.825 36.509 37.022 37.015 36.397 36.753 36.865 36.448 36.31 36.339 36.346 36.288 36.183 36.145 36.12 36.092 36.079 36.098 36.063 36.041 36.03 36.056 36.025 36.008 36.019 35.943 35.96 35.962 35.882 35.837 35.773 35.769 35.816 35.83 35.855 35.842 35.828 35.857 35.879 35.879 35.847 35.854 35.854 35.858 35.875 35.893 35.88 35.883 35.89 35.906 35.879 35.9 35.903 35.964 35.948 35.991 35.969 36.014 36.034 36.026 36.049 36.064 36.042 36.028 36.056 36.064 36.163 36.2 36.208 36.158 36.174 36.249 36.268 36.382 36.966 36.738 36.637 36.81 43.805 42.026 36.582 36.482 36.526 36.582 36.674 36.729 36.726 36.831 38.301 36.774 35.736 35.436 35.42 41.613 43.352 43.327 44.47 37.729 40.313 37.309 35.57 35.513 35.5 35.498 35.471 35.438 35.537 36.246 36.952 37.687 37.604 38.934 37.494 37.415 37.294 37.216 37.154 37.161 37.068 37.08 37.063 36.936 36.957 37.032 37.085 37.132 37.243 37.157 37.06 36.733 36.064 35.326 35.984 38.729 41.894 42.071 42.13 42.187 42.148 42.047 41.92 41.57 40.512 40.453 40.336 40.186 40.109 40.017 39.888 39.793 39.762 39.6 39.525 39.361 39.305 39.243 39.121 39.028 36.175 33.747 33.812 33.692 33.655 33.601 33.674 33.792 33.893 34.001 34.243 35.739 34.537 34.198 34.113 34.09 34.037 34.041 33.983 33.918 33.878 33.825 33.709 33.704 33.638 33.626 33.548 33.506 33.527 33.475 33.557 33.58 33.599 33.598 34.282 34.001 33.757 33.649 33.74 34.599 35.049 34.517 34.004 33.148 33.194 33.267 33.337 33.374 33.453 33.463 33.515 33.538 33.491 33.448 33.406 33.397 33.361 33.313 33.239 33.252 33.201 33.261 33.277 33.268 33.217 33.23 33.256 33.241 33.198 33.169 33.242 33.342 33.363 33.381 33.319 33.385 33.376 33.379 33.396 33.309 33.389 33.376 33.34 33.355 33.339 33.332 33.344 33.337 33.362 33.327 33.217 33.253 33.288 33.236 33.25 33.306 33.278 33.264 33.275 33.275 33.268 33.254 33.304 33.309 33.338 33.366 33.251 33.268 33.267 33.274 33.251 33.269 33.25 33.319 33.34 33.335 33.384 33.379 33.369 33.376 33.363 33.571 33.371 33.388 33.356 33.357 33.345 33.35 33.315 33.501 33.474 33.287 33.279 33.267 33.249 33.262 33.268 33.214 33.195 33.185 33.168 33.201 33.221 33.217 33.239 33.277 33.235 33.242 33.201 33.188 33.235 33.186 33.256 33.242 33.21 33.223 33.164 33.188 33.254 33.312 33.327 33.354
39.398 39.048 38.881 39.039 44.394 42.922 42.32 42.362 42.271 42.356 42.26 42.345 42.21 42.307 42.44 44.852 44.999 45.119 45.283 41.859 38.846 38.877 38.865 38.649 38.545 38.777 38.673 38.461 38.05 37.966 37.916 37.876 37.934 37.963 37.98 37.99 38.025 38.037 38.063 38.087 38.103 38.118 38.133 38.117 38.165 38.16 38.163 38.203 38.186 38.257 38.253 38.269 38.285 38.326 38.459 38.518 38.217 37.836 37.586 37.438 37.299 37.297 37.303 37.313 37.335 37.342 37.353 37.35 37.35 37.334 37.371 37.404 37.381 37.392 37.419 37.427 37.439 37.431 37.43 37.428 37.391 37.368 37.385 37.421 37.38 37.423 37.422 37.447 37.454 37.49 37.475 37.435 37.471 37.475 37.471 37.459 37.464 37.48 37.501 37.517 37.549 37.578 37.554 37.562 37.592 37.62 37.718 39.401 39.793 37.667 37.556 37.419 36.962 36.486 36.687 36.907 36.564 36.571 36.438 36.508 36.686 36.376 36.278 36.306 36.209 36.146 36.067 36.049 36.059 36.013 36.028 35.993 36.036 36.007 35.965 35.995 35.978 35.932 35.95 35.96 35.938 35.868 35.781 35.752 35.681 35.708 35.737 35.775 35.78 35.752 35.757 35.77 35.804 35.805 35.802 35.777 35.817 35.826 35.845 35.792 35.807 35.808 35.806 35.852 35.841 35.85 35.885 35.896 35.933 35.926 35.97 35.987 36.001 35.996 35.987 36.013 36.046 36.071 36.046 36.139 36.174 36.217 36.127 36.103 36.204 36.227 36.518 36.763 36.567 36.568 36.65 40.948 37.053 36.395 36.432 36.494 36.595 36.537 36.581 36.735 37.933 37.58 36.004 35.441 35.381 39.552 43.274 43.979 43.962 43.472 42.528 38.694 35.827 36.426 35.63 36.007 35.885 35.471 35.442 35.441 35.409 35.803 36.697 37.523 37.695 39.055 37.538 37.389 37.279 37.155 37.122 37.114 37.077 37.053 36.993 36.934 36.941 37.012 37.048 37.409 37.186 37.168 36.969 36.745 36.083 35.421 34.877 36.622 41.677 42.233 42.07 42.14 42.148 42.104 41.983 41.948 41.321 40.454 40.332 40.246 40.183 40.042 39.992 39.786 39.728 39.657 39.589 40.13 39.359 39.261 39.05 33.825 33.717 33.684 33.577 33.577 33.597 33.724 33.847 33.961 34.121 39.1 35.862 35.429 34.797 34.159 34.198 34.176 34.095 34.012 33.907 33.904 33.896 33.821 33.755 33.657 33.613 33.6 33.541 33.489 33.427 33.426 33.397 33.417 33.478 33.755 35.306 36.165 34.032 33.742 35.511 34.541 34.434 33.206 33.211 33.25 33.299 33.313 33.368 33.473 33.507 33.518 33.549 33.498 33.482 33.465 33.368 33.314 33.29 33.279 33.609 33.371 33.218 33.226 33.255 33.274 33.249 33.248 33.256 33.205 33.202 33.289 33.316 33.301 33.363 33.379 33.356 33.368 33.363 33.358 33.386 33.38 33.362 33.37 33.353 33.358 33.351 33.364 33.311 33.36 33.355 33.305 33.293 33.278 33.279 33.26 33.294 33.27 33.306 33.265 33.315 33.331 33.281 33.307 33.296 33.282 33.289 33.235 33.238 33.243 33.214 33.214 33.202 33.267 33.292 33.347 33.38 33.356 33.389 33.383 33.369 33.382 33.361 33.381 33.358 33.358 33.392 33.388 33.338 33.37 33.332 33.363 33.324 33.301 33.423 33.313 33.267 33.261 33.289 33.245 33.221 33.17 33.175 33.195 33.234 33.213 33.209 33.216 33.236 33.25 33.253 33.258 33.254 33.28 33.305 33.207 33.209 33.193 33.195 33.264 33.297 33.346 33.366
39.092 38.864 39.199 44.465 45.009 44.404 42.316 42.385 42.218 42.281 42.246 42.383 42.456 42.338 42.291 42.702 43.982 45.016 41.876 38.872 38.931 38.894 38.817 38.684 38.404 38.341 38.243 37.99 37.87 37.921 37.887 37.878 37.929 37.954 37.96 37.983 37.993 38.02 38.045 38.051 38.076 38.102 38.138 38.16 38.175 38.198 38.195 38.178 38.194 38.219 38.258 38.248 38.352 38.869 38.375 38.105 37.743 37.574 37.329 37.249 37.252 37.236 37.263 37.249 37.301 37.317 37.335 37.323 37.313 37.302 37.335 37.314 37.364 37.374 37.384 37.39 37.381 37.403 37.396 37.365 37.369 37.38 37.338 37.357 37.371 37.367 37.39 37.407 37.408 37.437 37.421 37.424 37.396 37.405 37.468 37.444 37.445 37.461 37.471 37.468 37.513 37.563 37.541 37.513 37.536 37.569 37.757 39.908 39.407 37.576 37.366 37.044 36.658 37.003 38.015 36.636 36.561 36.618 36.575 36.242 36.62 36.563 36.282 36.192 36.199 36.096 36.043 35.926 35.927 35.946 35.955 35.973 35.965 35.932 35.958 35.905 35.911 35.903 35.912 35.926 35.88 35.823 35.726 35.685 35.679 35.673 35.664 35.669 35.685 35.687 35.7 35.708 35.671 35.7 35.759 35.742 35.766 35.732 35.712 35.731 35.743 35.733 35.719 35.744 35.745 35.778 35.77 35.831 35.861 35.881 35.856 35.917 35.944 35.945 35.933 35.966 35.987 35.972 36.012 36.043 36.106 36.16 36.125 36.127 36.102 36.223 36.57 36.646 36.44 36.525 36.395 36.331 36.28 36.281 36.393 36.507 36.476 36.468 36.607 36.708 36.595 36.031 35.525 35.35 35.547 43.098 43.796 44.332 44.933 44.109 43.623 42.232 38.341 35.992 37.733 37.922 36.509 36.21 35.472 35.463 35.42 35.404 35.67 36.329 37.187 37.692 37.578 37.491 37.361 37.277 37.152 37.132 37.116 37.046 37.027 36.951 36.953 36.929 36.902 36.982 37.025 37.112 37.218 37.064 36.783 36.064 35.527 35.016 35.717 40.265 41.966 42.045 42.098 42.155 42.089 42.015 41.877 41.194 40.503 40.374 40.249 40.13 40.08 39.996 39.878 39.768 39.659 39.552 39.485 39.413 35.499 35.011 33.826 33.649 33.643 33.629 33.647 33.773 33.858 34.052 37.878 40.08 39.715 39.019 37.149 35.075 34.429 34.387 34.21 34.165 34.012 33.96 33.9 33.841 33.822 33.785 33.73 33.679 33.547 33.51 33.512 33.461 33.432 33.405 33.347 33.342 33.612 34.473 35.184 35.014 34.296 33.534 33.276 33.228 33.289 33.237 33.338 33.407 33.426 33.465 33.488 33.573 33.547 33.478 33.42 33.366 33.327 33.355 33.301 33.187 33.497 33.255 33.256 33.242 33.272 33.247 33.299 33.284 33.241 33.227 33.202 33.288 33.328 33.339 33.359 33.384 33.329 33.382 33.369 33.363 33.339 33.352 33.377 33.389 33.372 33.377 33.369 33.319 33.366 33.351 33.373 33.342 33.374 33.396 33.343 33.366 33.334 33.296 33.29 33.25 33.277 33.299 33.305 33.323 33.312 33.293 33.3 33.294 33.269 33.239 33.242 33.175 33.234 33.253 33.307 33.338 33.343 33.373 33.395 33.369 33.361 33.818 33.42 33.404 33.383 33.374 33.378 33.357 33.346 33.357 33.337 33.386 33.382 33.337 33.333 33.33 33.332 33.329 33.367 33.296 33.271 33.256 33.251 33.21 33.227 33.21 33.16 33.157 33.172 33.225 33.226 33.279 33.258 33.226 33.28 33.247 33.201 33.2 33.226 33.273 33.338 33.35 33.355
38.936 42.32 45.333 45.24 45.131 45.035 44.847 42.844 42.226 42.239 42.311 42.235 42.255 42.352 42.241 40.322 41.312 41.621 39.48 38.907 38.869 38.832 38.83 38.664 38.482 38.191 37.954 37.879 37.823 37.832 37.859 37.909 37.917 37.93 37.972 37.987 37.992 38.037 38.022 38.112 38.072 38.101 38.138 38.1 38.111 38.128 38.16 38.173 38.173 38.209 38.228 38.292 38.371 38.28 37.989 37.745 37.329 37.229 37.193 37.18 37.241 37.222 37.226 37.256 37.295 37.272 37.277 37.261 37.267 37.27 37.299 37.301 37.264 37.32 37.319 37.325 37.32 37.325 37.34 37.333 37.329 37.333 37.336 37.338 37.354 37.349 37.351 37.36 37.374 37.405 37.4 37.397 37.4 37.384 37.421 37.434 37.423 37.426 37.421 37.424 37.49 37.471 37.492 37.501 37.538 37.59 37.616 38.307 37.535 37.312 37.117 36.766 36.898 37.119 36.975 36.519 36.571 36.59 36.625 36.481 36.278 36.631 36.884 36.123 36.14 36.053 35.972 35.892 35.875 35.87 35.906 35.855 35.845 35.864 35.848 35.848 35.835 35.838 35.868 35.87 35.823 35.784 35.7 35.637 35.622 35.614 35.624 35.579 35.601 35.624 35.628 35.654 35.668 35.69 35.741 35.687 35.718 35.683 35.652 35.661 35.696 35.656 35.654 35.656 35.671 35.701 35.76 35.768 35.808 35.826 35.825 35.83 35.834 35.873 35.899 35.931 35.961 35.975 35.972 36.009 36.049 36.051 36.11 36.135 36.108 36.148 36.51 36.819 36.478 36.334 36.251 36.234 36.197 36.277 36.368 36.41 36.39 36.492 36.583 37.041 36.061 35.428 35.33 35.369 42.208 43.78 44.29 45.046 45.034 44.617 44.257 43.988 43.203 40.839 38.067 39.541 39.04 36.781 36.31 35.618 35.453 35.431 35.42 35.42 35.901 36.705 37.387 37.636 37.539 37.453 37.356 37.229 37.121 37.063 37.058 37.003 36.963 36.983 36.931 36.914 36.99 37.047 37.085 37.2 37.068 36.777 36.299 35.793 35.323 34.616 40.274 41.867 41.977 42.026 42.187 42.136 41.986 41.917 41.798 40.637 40.455 40.387 40.19 40.076 39.984 39.861 39.805 39.69 39.638 39.52 39.047 37.945 34.918 33.736 33.67 33.625 33.74 33.87 33.924 34.035 39.2 39.988 39.856 39.796 39.774 39.636 37.896 36.826 35.146 34.35 34.026 33.981 33.939 33.895 33.861 33.822 33.892 34.05 33.778 33.666 33.496 33.491 33.41 33.417 33.389 33.324 33.329 33.332 33.635 33.418 33.304 33.244 33.224 33.261 33.308 33.338 33.335 33.382 33.395 33.502 33.583 33.567 33.545 33.474 33.454 33.377 33.321 33.316 33.23 33.249 33.236 33.271 33.263 33.261 33.297 33.263 33.282 33.253 33.239 33.258 33.261 33.283 33.289 33.266 33.336 33.331 33.372 33.38 33.374 33.35 33.401 33.381 33.38 33.367 33.347 33.352 33.386 33.315 33.331 33.357 33.363 33.329 33.374 33.383 33.363 33.362 33.372 33.346 33.371 33.309 33.258 33.26 33.242 33.292 33.306 33.311 33.289 33.275 33.254 33.26 33.242 33.212 33.218 33.23 33.266 33.364 33.353 33.389 33.35 33.334 33.324 33.387 33.362 33.341 33.37 33.328 33.352 33.373 33.343 33.364 33.386 33.373 33.374 33.382 33.388 33.37 33.364 33.32 33.31 33.316 33.344 33.343 33.271 33.291 33.263 33.245 33.244 33.148 33.177 33.203 33.231 33.232 33.285 33.264 33.213 33.174 33.162 33.194 33.261 33.275 33.316 33.328 33.331
42.199 45.169 45.258 45.353 45.248 45.128 44.978 44.386 42.402 42.318 42.247 42.751 42.247 42.278 40.414 38.944 38.894 38.871 38.849 38.858 38.792 38.762 38.722 38.522 38.243 38.051 37.91 37.881 37.866 37.835 37.865 37.851 37.906 37.908 37.938 37.968 37.959 37.992 38.013 38.011 38.031 38.062 38.045 38.087 38.113 38.132 38.131 38.188 38.171 38.194 38.446 38.327 38.19 37.969 37.642 37.332 37.19 37.138 37.134 37.162 37.168 37.198 37.211 37.235 37.245 37.229 37.221 37.259 37.22 37.251 37.258 37.256 37.291 37.287 37.281 37.273 37.303 37.289 37.307 37.279 38.844 37.34 37.278 37.293 37.295 37.319 37.302 37.297 37.326 37.345 37.363 37.364 37.372 37.384 37.339 37.405 37.386 37.393 37.381 37.422 37.456 37.453 37.461 37.451 37.475 37.559 37.572 37.672 37.413 37.09 36.837 36.448 36.814 36.671 36.596 36.544 36.591 36.58 36.602 36.587 36.364 36.371 36.511 36.264 36.082 36.106 35.977 35.859 35.834 35.801 35.809 35.788 35.789 35.766 35.743 35.758 35.814 35.83 35.812 35.787 35.732 35.721 35.608 35.605 35.56 35.544 35.518 35.527 35.518 35.561 35.552 35.552 35.61 35.639 35.659 35.668 35.652 35.629 35.635 35.62 35.62 35.613 35.633 35.607 35.637 35.663 35.66 35.696 35.718 35.766 35.765 35.78 35.808 35.832 35.863 35.848 35.886 35.921 35.959 35.977 35.973 35.992 36.057 36.148 36.163 36.198 36.616 36.766 36.414 36.198 36.218 36.162 36.172 36.245 36.321 36.294 36.382 36.472 36.564 36.221 35.511 35.22 35.273 38.57 43.487 44.243 44.844 45.526 45.659 45.209 44.739 44.295 44.002 43.602 41.957 39.442 39.444 39.796 36.681 36.314 35.575 35.475 35.432 35.374 35.355 35.691 36.206 37.368 37.706 38.566 38.651 37.346 37.251 37.09 37.071 37.059 37.024 37.028 36.934 36.889 36.867 36.884 36.941 37.002 37.989 37.18 36.803 36.463 35.953 35.316 34.886 36.497 41.749 41.975 42.028 42.143 42.118 42.106 41.999 41.834 40.856 40.438 40.345 40.246 40.171 40.001 39.935 39.829 39.756 39.663 39.527 39.503 38.135 35.281 33.776 33.674 33.762 33.853 33.985 34.068 37.983 40.157 40.068 39.946 39.929 39.359 39.029 38.885 38.443 34.45 34.015 33.979 33.978 33.938 33.89 33.871 34.008 33.699 35.915 36.685 35.133 33.656 33.464 33.423 33.371 33.346 33.366 33.31 33.311 33.289 33.288 33.314 33.313 33.339 33.361 33.361 33.389 33.46 33.483 33.556 33.548 33.602 33.582 33.509 33.422 33.333 33.299 33.311 33.285 33.965 33.212 33.221 33.282 33.308 33.27 33.282 33.302 33.299 33.259 33.271 33.276 33.255 33.269 33.267 33.285 33.329 33.294 33.331 33.333 33.325 33.367 33.332 33.384 33.401 33.39 33.396 33.406 33.346 33.29 33.321 33.326 33.379 33.344 33.382 33.356 33.336 33.345 33.356 33.355 33.368 33.361 33.338 33.337 33.26 33.283 33.305 33.266 33.273 33.246 33.263 33.247 33.253 33.268 33.273 33.239 33.278 33.28 33.255 33.353 33.374 33.379 33.49 33.369 33.409 33.364 33.371 33.359 33.349 33.377 33.373 33.371 33.374 33.339 33.331 33.374 33.342 33.37 33.345 33.379 33.31 33.316 33.342 33.347 33.397 33.791 33.273 33.203 33.234 33.199 33.19 33.174 33.275 33.303 33.282 33.22 33.169 33.171 33.209 33.219 33.326 33.354 33.363 33.317
44.658 44.972 45.092 45.262 45.356 45.237 45.108 44.999 44.135 42.71 42.221 42.295 41.565 40.203 38.952 38.971 38.868 38.826 38.808 38.799 38.703 38.625 38.509 38.15 37.968 37.832 37.834 37.831 37.847 37.848 37.837 37.853 37.895 37.947 37.923 37.935 37.941 37.95 38.03 38.011 38.031 38.047 38.042 38.073 38.217 38.091 38.143 38.127 38.151 39.538 38.612 38.199 37.899 37.455 37.218 37.138 37.091 37.095 37.11 37.128 37.145 37.178 37.172 37.169 37.194 37.171 37.18 37.211 37.207 37.21 37.233 37.218 37.21 37.238 37.238 37.219 37.251 37.255 37.254 37.236 37.251 37.238 37.319 37.242 37.261 37.265 37.278 37.258 37.286 37.291 37.308 37.319 37.342 37.331 37.341 37.371 37.375 37.317 37.356 37.377 37.374 37.376 37.423 37.409 37.49 37.546 37.614 37.523 37.179 36.732 36.631 36.864 36.93 36.561 36.532 36.562 36.537 36.612 36.566 36.579 36.63 36.299 36.359 36.493 36.145 35.934 35.991 35.863 35.772 35.711 35.683 35.687 35.699 35.676 35.702 35.718 35.72 35.723 35.755 35.691 35.663 35.629 35.593 35.563 35.536 35.513 35.524 35.442 35.5 35.491 35.503 35.516 35.553 35.579 35.583 35.611 35.604 35.569 35.548 35.581 35.574 35.61 35.563 35.59 35.571 35.588 35.61 35.619 35.672 35.661 35.704 35.713 35.767 35.77 35.812 35.778 35.834 35.861 35.912 36.014 36.002 35.98 36.015 36.091 36.272 36.5 36.768 36.498 36.19 36.099 36.028 36.101 36.134 36.221 36.568 37.761 36.389 36.446 36.17 35.416 35.202 35.205 39.607 43.393 44.166 44.388 44.95 45.425 45.886 45.669 45.277 44.996 44.527 44.045 43.662 43.181 39.128 38.07 38.802 35.692 35.49 36.466 35.5 35.423 35.385 35.324 35.365 36.161 37.297 37.584 37.519 37.394 37.35 37.27 37.11 37.047 37.068 37.038 36.986 36.911 36.89 36.853 36.818 36.921 36.977 37.472 37.142 36.928 36.47 36.055 35.569 35.195 36.665 40.181 41.817 42.002 42.1 42.151 42.098 42.019 41.906 41.556 40.529 40.356 40.261 40.184 40.085 40.01 39.91 39.794 39.713 39.55 36.31 35.88 34.34 33.679 33.739 33.928 34.04 34.149 38.483 40.342 40.318 40.189 39.796 39.251 39.158 39.175 39.094 38.949 34.371 33.953 34.053 34.026 33.948 33.918 33.89 33.749 34.213 35.686 34.081 33.621 33.529 33.516 33.464 33.38 33.341 33.35 33.304 33.315 33.305 33.331 33.306 33.376 33.401 33.414 33.438 33.423 33.489 33.578 33.614 33.576 33.551 33.466 33.405 33.392 33.315 33.307 33.222 34.058 33.252 33.249 33.283 33.261 33.312 33.281 33.267 33.261 33.269 33.296 33.275 33.237 33.219 33.24 33.223 33.283 33.273 33.274 33.295 33.297 33.295 33.34 33.34 33.35 33.296 33.372 33.39 33.351 33.319 33.317 33.306 33.344 33.377 33.337 33.356 33.384 33.34 33.357 33.379 33.406 33.388 33.382 33.371 33.358 33.359 33.317 33.206 33.22 33.251 33.233 33.248 33.227 33.241 33.248 33.26 33.254 33.277 33.238 33.248 33.268 33.335 33.31 33.35 33.398 33.334 33.354 33.341 33.299 33.37 33.359 33.362 33.384 33.333 33.387 33.371 33.352 33.411 33.356 33.339 33.337 33.35 33.374 33.337 33.35 33.336 33.304 33.299 33.25 33.276 33.196 33.194 33.207 33.257 33.297 33.223 33.162 33.194 33.218 33.282 33.303 33.34 33.334 33.345
39.566 44.638 45.017 45.136 45.235 45.333 45.251 45.109 44.987 43.134 42.476 42.122 39.279 39.019 38.883 38.815 38.791 38.809 38.745 38.685 38.579 38.313 38.081 38.316 38.015 37.798 37.811 37.853 37.833 37.869 37.861 37.893 37.88 37.919 37.938 37.901 37.935 37.927 37.969 37.985 38.021 38.023 38.036 38.053 38.093 38.09 38.134 38.158 38.244 38.406 38.11 37.819 37.462 37.201 37.026 37.023 37.016 37.059 37.083 37.094 37.113 37.136 37.164 37.135 37.124 37.151 37.178 37.169 37.183 37.183 37.193 37.172 37.189 37.2 37.205 37.192 37.189 37.197 37.19 37.202 37.211 37.212 37.515 37.187 37.217 37.21 37.236 37.245 37.24 37.267 37.23 37.208 37.302 37.294 37.304 37.297 37.278 37.285 37.312 37.311 37.309 37.353 37.326 37.411 37.527 37.575 37.547 37.248 36.821 36.403 36.455 37.464 36.525 36.516 36.527 36.545 36.581 36.617 36.576 36.594 36.617 36.581 36.264 36.365 36.421 35.995 35.946 35.909 35.762 35.681 35.639 35.591 35.608 35.582 35.601 35.66 35.672 35.654 35.618 35.625 35.591 35.53 35.544 35.517 35.516 35.498 35.464 35.423 35.428 35.426 35.45 35.456 35.483 35.514 35.504 35.524 35.533 35.516 35.507 35.528 35.536 35.537 35.549 35.551 35.535 35.568 35.556 35.563 35.59 35.636 35.654 35.645 35.642 35.711 35.727 35.758 35.791 35.79 35.851 35.977 36.656 36.574 36.268 36.185 36.428 36.545 36.381 36.178 36.041 35.958 36.024 36.064 36.124 36.131 36.159 36.79 36.364 36.229 35.521 35.194 35.157 35.298 43.204 43.209 43.528 43.873 44.346 44.83 45.23 45.693 45.88 45.538 45.037 44.68 44.263 43.853 42.771 39.785 36.969 36.941 38.849 37.46 37.838 36.032 35.453 35.355 35.325 35.385 35.869 36.909 37.473 37.566 38.19 37.358 37.266 37.206 37.06 37.009 36.993 36.957 36.907 36.891 36.789 36.862 36.829 36.944 37.052 37.169 36.87 36.623 36.235 35.731 35.24 34.601 39.572 41.714 41.992 42.06 42.154 42.15 42.032 41.986 41.657 41.19 40.418 40.298 40.218 40.108 39.98 39.943 39.852 37.565 36.348 36.417 34.09 33.791 33.92 34.016 34.093 34.333 39.723 40.499 40.432 40.322 39.823 39.425 39.316 39.301 39.169 39.119 34.046 34.084 34.107 34.099 34.057 34.485 33.973 33.867 33.809 33.674 33.597 33.583 33.499 34.407 33.78 33.528 33.479 33.379 33.303 33.313 33.288 33.311 33.369 33.366 33.401 33.485 33.483 33.542 33.57 33.613 33.626 33.588 33.548 33.44 33.401 33.326 33.293 33.264 33.29 33.42 33.253 33.202 33.255 33.299 33.292 33.287 33.3 33.322 33.33 33.304 33.299 33.224 33.217 33.174 33.184 33.242 33.187 33.231 33.247 33.263 33.27 33.244 33.285 33.304 33.329 33.328 33.358 33.335 33.366 33.326 33.36 33.342 33.37 33.333 33.346 33.392 33.379 33.37 33.391 33.38 33.382 33.395 33.385 33.385 33.354 33.272 33.24 33.261 33.262 33.235 33.245 33.253 33.252 33.292 33.265 33.316 33.296 33.269 33.264 33.294 33.362 33.243 33.253 33.304 33.336 33.308 33.38 33.322 33.362 33.331 33.358 33.379 33.373 33.382 33.375 33.335 33.341 33.349 33.351 33.348 33.314 33.322 33.33 33.366 33.353 33.327 33.305 33.275 33.258 33.223 33.166 33.192 33.273 33.272 33.234 33.185 33.193 33.239 33.271 33.317 33.382 33.346 33.307
39.089 40 43.719 44.986 45.117 45.266 45.359 45.212 45.118 44.968 44.412 40.888 39.06 38.923 38.852 38.794 38.735 38.744 38.637 38.504 38.245 38.009 39.466 37.839 37.781 37.797 37.801 37.823 37.811 37.849 37.837 37.873 37.872 37.909 37.913 37.924 37.91 37.952 37.962 37.984 37.996 38.046 38.064 38.05 38.099 38.07 38.134 38.56 38.212 38.083 37.725 37.4 37.181 37.048 36.989 36.969 37.001 37.009 37.04 37.049 37.072 37.074 37.088 37.121 37.093 37.117 37.105 37.154 37.132 37.139 37.127 37.119 37.165 37.151 37.153 37.14 37.162 37.155 37.157 37.148 37.17 37.157 37.179 37.163 37.158 37.194 37.199 37.215 37.241 37.199 37.231 37.247 37.247 37.26 37.276 37.203 37.221 37.205 37.233 37.285 37.301 37.33 37.333 37.469 37.466 37.602 37.201 36.907 36.684 36.831 37.256 36.829 36.572 36.545 36.555 36.549 36.57 36.555 36.608 36.597 36.568 36.598 36.475 36.103 36.199 36.051 35.932 35.888 35.779 35.723 35.632 35.528 35.545 35.567 35.58 35.581 35.557 35.518 35.529 35.523 35.484 35.499 35.474 35.464 35.462 35.435 35.404 35.401 35.385 35.382 35.386 35.359 35.412 35.431 35.443 35.456 35.472 35.475 35.489 35.509 35.481 35.508 35.51 35.513 35.532 35.549 35.533 35.524 35.535 35.542 35.584 35.533 35.605 35.654 35.692 35.7 35.778 35.787 35.823 36.362 36.477 36.96 36.4 36.545 36.688 36.374 36.062 35.955 35.852 35.889 35.972 36.029 36.036 36.044 36.174 36.302 36.678 35.751 35.225 35.155 35.2 42.319 43.824 43.512 43.722 43.363 43.784 44.285 44.661 45.142 45.549 45.879 45.675 45.23 44.65 44.382 44.026 43.52 41.247 35.618 37.326 36.954 37.364 37.172 35.556 35.318 35.349 35.302 35.243 35.861 36.415 37.369 37.645 37.49 37.326 37.262 37.181 37.03 37.005 36.996 36.942 36.925 36.839 36.796 36.761 36.764 36.874 36.862 37.047 36.935 36.722 36.385 35.799 35.336 34.69 37.554 41.682 41.98 42.085 42.076 42.172 42.093 41.984 41.918 40.77 40.509 40.338 40.28 40.222 40.091 38.881 34.854 36.338 34.2 33.738 33.81 33.942 34.104 34.238 37.333 40.175 40.231 40.331 40.352 39.756 39.641 39.544 39.424 39.351 34.627 34.061 34.102 34.061 34.181 34.542 34.092 34.087 33.965 33.938 33.865 33.769 33.705 33.589 33.529 33.581 33.604 33.537 33.518 33.389 33.309 33.296 33.323 33.374 33.356 33.409 33.51 33.535 33.555 33.616 33.658 33.64 33.579 33.517 33.472 33.439 33.441 33.369 33.232 33.176 33.247 33.224 33.223 33.23 33.184 33.307 33.289 33.277 33.28 33.247 33.311 33.329 33.269 33.249 33.266 33.186 33.238 33.247 33.214 33.202 33.18 33.244 33.239 33.257 33.271 33.24 33.329 33.31 33.338 33.326 33.296 33.315 33.359 33.35 33.339 33.353 33.371 33.377 33.4 33.407 33.364 33.401 33.372 33.406 33.38 33.324 33.244 33.292 33.272 33.27 33.243 33.239 33.243 33.237 33.251 33.284 33.253 33.26 33.28 33.302 33.251 33.258 33.266 33.272 33.257 33.242 33.228 33.29 33.271 33.322 33.356 33.383 33.388 33.345 33.369 33.335 33.351 33.337 33.361 33.33 33.326 33.362 33.369 33.346 33.344 33.325 33.375 33.342 33.289 33.288 33.248 33.191 33.217 33.285 33.237 33.217 33.187 33.214 33.24 33.284 33.325 33.358 33.346 33.315
39.168 39.075 39.972 44.698 45.051 45.194 45.241 45.35 45.238 45.117 44.969 43.622 38.879 38.862 38.828 38.755 38.652 38.619 38.437 38.297 39.118 37.807 37.718 37.724 37.766 37.795 37.793 37.773 37.82 37.827 37.82 37.849 37.837 37.873 37.892 37.901 37.93 37.92 37.971 37.978 37.982 37.995 38.01 38.051 38.018 38.063 38.177 38.239 38.019 37.606 37.416 37.055 36.961 36.934 36.906 36.951 36.94 36.944 37.015 37.017 37.034 37.056 37.037 37.077 37.053 37.063 37.088 37.095 37.088 37.081 37.117 37.106 37.071 37.102 37.114 37.094 37.112 37.124 37.104 37.125 37.105 37.11 37.106 37.102 37.128 37.153 37.159 37.152 37.179 37.156 37.188 37.185 37.211 37.23 37.204 37.217 37.18 37.195 37.218 37.272 37.278 37.288 37.362 37.445 37.546 37.328 37.048 36.573 36.527 36.781 36.999 36.571 36.546 36.519 36.556 36.569 36.557 36.596 36.662 36.594 36.566 36.561 36.599 36.416 35.974 36.237 36.439 35.822 35.792 35.746 35.587 35.533 35.476 35.478 35.493 35.492 35.489 35.469 35.415 35.417 35.416 35.434 35.428 35.441 35.425 35.405 35.403 35.344 35.319 35.344 35.345 35.339 35.366 35.375 35.397 35.406 35.411 35.414 35.424 35.46 35.459 35.424 35.436 35.491 35.494 35.508 35.487 35.503 35.509 35.517 35.477 35.492 35.539 35.594 35.61 35.679 35.654 35.635 35.924 36.241 36.441 36.657 36.702 36.774 36.723 35.986 35.909 35.823 35.811 35.874 35.963 35.98 35.97 36.067 36.186 37.389 35.863 35.311 35.174 35.274 42.304 43.755 44.416 44.129 43.616 43.273 43.316 43.644 44.1 44.665 45.035 45.443 45.819 45.718 45.317 44.825 44.418 44.148 43.495 39.398 38.348 37.795 40.925 37.698 36.15 35.693 35.289 35.329 35.278 35.26 35.364 36.003 36.871 37.508 37.548 37.645 37.213 37.232 37.109 37.008 37.013 36.97 36.908 36.825 36.789 36.744 36.791 36.841 36.913 36.968 37.069 36.895 36.436 36.135 35.417 35.007 35.255 41.165 41.946 42.062 42.114 42.108 42.13 41.995 41.934 41.572 40.536 40.414 40.292 40.023 35.206 34.337 34.552 34.185 33.794 33.866 34.072 34.207 34.479 39.272 40.023 40.095 40.172 39.923 39.574 39.641 39.672 39.632 39.591 38.816 34.389 34.159 34.165 34.363 36.571 34.319 34.193 34.081 34.033 33.968 33.886 33.845 33.783 33.628 33.533 33.557 33.402 33.812 33.755 33.496 33.401 33.322 33.399 33.403 33.445 33.495 33.497 33.593 33.639 33.669 33.65 33.52 33.551 33.579 33.591 33.537 33.482 33.425 33.718 33.243 33.249 33.26 33.245 33.257 33.265 33.289 33.264 33.326 33.305 33.29 33.286 33.281 33.267 33.289 33.3 33.262 33.251 33.175 33.201 33.207 33.171 33.196 33.19 33.236 33.218 33.256 33.262 33.279 33.299 33.332 33.303 33.325 33.307 33.384 33.367 33.381 33.412 33.366 33.438 33.363 33.371 33.35 33.36 33.373 33.332 33.29 33.275 33.263 33.299 33.257 33.239 33.265 33.251 33.318 33.319 33.295 33.214 33.223 33.257 33.237 33.244 33.237 33.278 33.296 33.257 33.273 33.253 33.238 33.269 33.242 33.358 33.329 33.378 33.338 33.382 33.385 33.33 33.384 33.354 33.378 33.369 33.335 33.353 33.384 33.387 33.381 33.327 33.318 33.279 33.172 33.135 33.215 33.261 33.271 33.213 33.199 33.261 33.286 33.308 33.354 33.36 33.345 33.33
39.201 39.139 39.042 40.04 44.64 45.074 45.162 45.271 45.319 45.245 45.116 41.395 38.835 38.786 38.749 38.737 38.62 38.419 38.274 37.98 37.774 37.657 37.704 37.728 37.728 37.772 37.741 37.812 37.775 37.781 37.825 37.799 37.824 37.848 37.865 37.856 37.933 37.896 37.95 37.929 37.93 37.984 38.019 38.028 38.055 39.171 38.174 37.871 37.732 37.269 37.035 36.926 36.82 36.859 36.873 36.877 36.953 36.957 36.959 36.951 36.975 37.001 37.009 37.013 37.031 37.025 37.015 37.028 37.042 37.012 37.036 37.046 37.041 37.071 37.071 37.05 37.075 37.064 37.083 37.078 37.07 37.063 37.048 37.077 37.082 37.076 37.096 37.116 37.107 37.115 37.181 37.18 37.158 37.17 37.183 37.18 37.184 37.186 37.215 37.2 37.242 37.306 37.412 37.408 37.416 36.999 36.665 36.411 36.517 36.338 36.125 36.416 36.566 36.556 36.554 36.554 36.562 36.583 36.591 36.595 36.558 36.576 36.551 36.592 36.346 36.094 36.135 35.874 35.761 35.756 35.639 35.481 35.431 35.417 35.425 35.449 35.393 35.36 35.384 35.329 35.346 35.369 35.394 35.362 35.38 35.342 35.352 35.336 35.321 35.309 35.296 35.322 35.322 35.315 35.309 35.329 35.369 35.356 35.403 35.395 35.405 35.388 35.389 35.434 35.466 35.423 35.444 35.44 35.487 35.469 35.425 35.487 35.516 35.544 35.579 35.675 35.664 35.637 35.826 35.901 36.018 36.052 36.705 36.862 36.071 35.821 35.763 35.739 35.75 35.841 35.867 35.894 35.901 36.052 36.251 36.147 35.388 35.148 35.123 41.089 43.652 44.343 44.923 44.574 44.223 43.657 43.353 43.303 43.497 44.046 44.416 44.811 45.34 45.804 45.948 45.473 45.049 44.564 44.225 43.779 41.843 40.636 41.453 41.344 39.83 36.456 35.817 35.302 35.287 35.29 35.243 35.278 35.485 36.198 37.176 37.443 37.462 37.288 37.185 37.095 36.975 36.955 36.968 36.945 36.867 36.812 36.781 36.701 36.742 36.809 36.936 37.135 36.846 36.66 36.195 35.72 35.277 34.999 41.026 41.8 41.943 42.063 42.16 42.142 42.068 41.984 41.768 41.262 40.49 36.421 34.309 34.178 34.275 34.007 33.905 34.04 34.187 37.827 39.479 39.681 39.718 39.846 39.906 39.391 39.401 39.464 39.527 39.645 39.7 39.658 35.767 34.207 34.208 34.367 37.423 37.466 35.921 36.168 34.284 35.058 34.462 34.035 33.972 33.796 33.736 33.647 33.516 33.458 33.417 33.9 34.133 33.488 33.367 33.453 33.46 33.562 33.547 33.654 33.687 33.647 33.637 33.572 33.584 33.676 33.619 33.62 33.531 33.505 33.803 33.23 33.251 33.234 33.189 33.194 33.277 33.299 33.275 33.29 33.249 33.225 33.272 33.249 33.267 33.252 33.296 33.286 33.281 33.292 33.268 33.196 33.203 33.222 33.19 33.196 33.179 33.23 33.232 33.266 33.239 33.231 33.268 33.257 33.272 33.305 33.326 33.372 33.358 33.383 33.392 33.298 33.382 33.414 33.367 33.389 33.349 33.308 33.332 33.304 33.29 33.248 33.282 33.285 33.302 33.36 33.349 33.358 33.368 33.317 33.311 33.223 33.199 33.237 33.256 33.288 33.294 33.321 33.294 33.27 33.251 33.267 33.281 33.253 33.272 33.244 33.315 33.358 33.353 33.36 33.352 33.358 33.328 33.365 33.331 33.315 33.332 33.321 33.356 33.306 33.255 33.178 33.183 33.271 33.303 33.232 33.233 33.192 33.226 33.268 33.321 33.333 33.526 33.5 33.315
39.335 39.173 39.101 39 40.356 44.728 43.96 45.159 45.256 45.304 41.803 38.75 38.774 38.726 38.677 38.594 38.47 38.305 38.05 38.129 37.687 37.704 37.676 37.688 37.711 37.702 37.74 37.774 37.77 37.802 37.803 37.825 37.858 37.816 37.841 37.861 37.899 37.909 37.919 37.954 37.936 37.949 37.983 38.031 39.286 38.093 37.873 37.568 37.224 36.952 36.883 36.819 36.807 36.825 36.823 36.809 36.878 36.924 36.921 36.937 36.952 36.944 36.941 36.985 36.967 36.96 36.951 36.971 36.988 36.997 36.975 36.997 36.998 37.004 37.013 37.015 37.052 37.009 37.041 37.021 36.995 37.037 37.034 37.024 37.048 37.067 37.053 37.046 37.105 37.093 37.1 37.113 37.128 37.138 37.15 37.166 37.176 37.206 37.195 37.174 37.22 37.322 37.371 37.458 37.159 36.766 36.485 36.43 36.4 36.131 35.97 35.977 36.307 36.567 36.56 36.569 36.575 36.568 36.578 36.605 36.61 36.614 36.536 36.541 36.519 36.146 35.901 36.26 35.823 35.669 35.691 35.49 35.386 35.414 35.373 35.345 35.328 35.311 35.321 35.294 35.27 35.303 35.331 35.327 35.309 35.306 35.285 35.298 35.287 35.256 35.285 35.237 35.255 35.259 35.257 35.287 35.304 35.336 35.325 35.359 35.362 35.379 35.38 35.379 35.392 35.348 35.379 35.425 35.43 35.391 35.4 35.437 35.494 35.521 35.529 35.577 35.609 35.677 35.728 35.823 35.99 36.493 36.508 37.055 36.429 35.823 35.676 35.685 35.76 35.747 35.786 35.831 35.986 37.233 36.102 35.4 35.132 35.1 39.346 43.426 44.069 44.791 45.392 45.186 44.834 44.291 43.96 43.396 43.157 43.415 43.863 44.268 44.719 45.302 45.644 45.933 45.572 45.05 44.577 44.236 44.005 43.367 40.567 41.152 41.494 39.265 36.148 35.862 35.297 35.55 35.256 35.272 35.26 35.325 35.819 36.931 37.43 37.379 37.591 37.248 37.14 36.924 36.946 36.94 36.871 36.814 36.745 36.739 36.714 36.715 36.82 36.835 37.902 37.018 36.748 36.477 35.872 35.447 34.957 36.137 40.363 41.94 41.992 42.099 42.152 42.135 41.951 41.846 41.104 34.381 34.207 34.14 34.049 34.032 34.065 34.113 34.342 40.068 39.425 39.448 39.638 39.664 39.459 39.189 39.204 39.375 39.446 39.535 39.513 36.769 34.4 35.529 34.583 37.654 37.386 37.385 37.351 37.021 35.307 35.976 34.855 35.261 34.238 34.135 33.892 33.841 33.673 33.64 34.284 33.484 33.689 33.57 33.53 33.498 33.53 33.564 33.558 33.647 33.706 33.685 33.608 33.556 33.523 33.722 33.714 33.773 36.804 36.479 35.388 33.333 33.245 33.235 33.22 33.262 33.299 33.289 33.228 33.223 33.245 33.275 33.228 33.201 33.17 33.238 33.238 33.242 33.245 33.228 33.265 33.276 33.294 33.281 33.216 33.267 33.228 33.172 33.198 33.201 33.231 33.224 33.202 33.264 33.224 33.304 33.288 33.309 33.345 33.372 33.365 33.335 33.363 33.394 33.371 33.405 33.358 33.36 33.345 33.349 33.296 33.314 33.296 33.288 33.322 33.345 33.363 33.357 33.335 33.347 33.357 33.316 33.308 33.304 33.311 33.269 33.272 33.22 33.228 33.234 33.28 33.321 33.275 33.322 33.246 33.257 33.256 33.308 33.312 33.296 33.32 33.333 33.369 33.321 33.31 33.33 33.34 33.291 33.285 33.286 33.297 33.196 33.196 33.247 33.238 33.227 33.197 33.208 33.26 33.326 33.334 33.311 33.338 33.324 33.338
39.316 39.269 39.112 39.084 39.02 43.51 44.798 45.061 45.132 41.831 38.818 38.673 38.618 38.616 38.558 38.368 38.084 37.911 38.403 37.64 37.634 37.657 37.644 37.691 37.698 37.719 37.771 37.761 37.739 37.75 37.814 37.81 37.813 37.848 37.845 37.851 37.88 37.889 37.914 37.907 37.955 37.94 38.013 38.05 38.111 37.86 37.506 37.187 36.933 36.796 36.772 36.79 36.777 36.773 36.794 36.814 36.83 36.875 36.876 36.864 36.893 36.936 36.905 36.892 36.919 36.889 36.897 36.903 36.944 36.991 36.95 36.966 36.953 36.95 36.965 36.973 36.964 36.97 36.976 36.965 36.943 36.957 36.964 36.972 36.986 37.03 37.02 37.011 37.036 37.046 37.059 37.062 37.103 37.099 37.068 37.121 37.136 37.17 37.16 37.142 37.205 37.334 37.325 37.214 37.064 36.535 36.505 36.453 36.267 36.03 35.998 35.902 35.878 36.274 36.485 36.548 36.571 36.633 36.558 36.586 36.615 36.611 36.559 36.527 36.514 36.498 35.892 36.295 36.137 35.698 35.607 35.554 35.386 35.35 35.312 35.266 35.249 35.215 35.222 35.222 35.257 35.243 35.213 35.275 35.266 35.228 35.227 35.254 35.261 35.211 35.216 35.197 35.211 35.229 35.264 35.25 35.232 35.261 35.285 35.293 35.306 35.332 35.335 35.328 35.31 35.329 35.293 35.363 35.352 35.358 35.395 35.417 35.451 35.498 35.545 35.58 35.566 35.577 35.807 35.927 36.33 36.346 35.993 35.908 35.781 35.617 35.604 35.705 35.7 35.704 35.766 35.843 36.032 36.698 35.438 35.178 35.173 37.168 43.117 43.922 45.655 46.01 46.133 45.811 45.356 44.879 44.41 44.2 43.477 43.212 43.345 43.694 44.173 44.476 45.036 45.432 46.027 45.615 45.279 44.728 44.408 44.022 43.561 42.391 41.267 39.617 39.462 36.185 35.464 35.902 35.481 35.271 35.245 35.256 35.252 35.546 36.718 37.279 37.327 37.495 37.194 37.145 37.071 36.969 36.901 36.904 36.869 36.797 36.763 36.68 36.674 36.783 36.802 36.848 37.286 36.811 36.51 36.134 35.632 35.258 35.956 36.682 41.845 42.011 42.076 42.136 42.112 41.764 35.205 34.304 34.281 34.195 34.099 34.183 34.144 34.247 34.484 39.929 39.531 39.097 39.034 39.101 39.006 39.002 39.093 39.173 39.258 39.313 39.284 34.433 34.309 36.28 36.611 38.046 37.441 37.423 37.386 37.361 37.281 37.456 37.833 37.39 37.455 37.515 34.784 34.072 33.881 33.713 33.621 33.52 33.504 33.774 33.654 33.561 33.568 33.587 33.674 33.713 33.717 33.625 33.638 33.55 33.581 33.712 33.813 33.833 36.816 37.142 37.216 33.618 33.242 33.223 33.226 33.292 33.275 33.284 33.24 33.237 33.249 33.289 33.264 33.245 33.206 33.22 33.237 33.181 33.238 33.177 33.202 33.241 33.248 33.287 33.299 33.29 33.225 33.194 33.254 33.246 33.206 33.163 33.171 33.196 33.222 33.215 33.243 33.263 33.29 33.316 33.31 33.256 33.312 33.342 33.346 33.368 33.386 33.375 33.374 33.386 33.358 33.289 33.324 33.301 33.338 33.336 33.34 33.373 33.376 33.372 33.365 33.339 33.339 33.355 33.33 33.306 33.294 33.25 33.221 33.264 33.245 33.283 33.3 33.303 33.317 33.312 33.276 33.263 33.263 33.257 33.241 33.24 33.315 33.33 33.368 33.361 33.33 33.319 33.307 33.268 33.212 33.189 33.201 33.267 33.233 33.192 33.202 33.264 33.252 33.292 33.364 33.302 33.347 33.343 33.32
39.337 39.172 39.1 39.025 39.05 38.995 42.862 40.726 39.95 38.826 38.792 38.591 38.31 38.347 38.283 38.038 37.864 37.647 37.727 37.606 37.611 37.625 37.663 37.644 37.663 37.74 37.734 37.77 37.735 37.765 37.754 37.784 37.776 37.836 37.833 37.837 37.844 37.883 37.862 37.896 37.945 38.006 38.529 38.038 37.748 37.455 37.095 36.862 36.759 36.75 36.737 36.808 37.227 36.734 36.765 36.796 36.795 36.826 36.829 36.835 36.835 36.829 36.843 36.866 36.83 36.852 36.862 36.873 36.894 36.895 36.87 36.897 36.909 36.917 36.89 36.914 36.93 36.924 36.92 36.918 36.933 36.915 36.927 36.948 36.95 36.945 36.961 36.996 36.993 36.97 36.996 37.005 37.073 37.048 37.048 37.076 37.118 37.106 37.139 37.158 37.245 37.356 37.368 37.054 36.754 36.92 36.761 36.244 36.094 35.933 35.934 35.93 35.862 35.844 35.979 36.455 36.539 36.596 36.578 36.551 36.564 36.569 36.524 36.491 36.426 36.394 36.384 35.813 36.247 35.843 35.629 35.547 35.439 35.339 35.239 35.227 35.205 35.221 35.243 35.194 35.197 35.198 35.187 35.187 35.173 35.177 35.199 35.205 35.228 35.194 35.162 35.179 35.191 35.2 35.193 35.222 35.222 35.211 35.204 35.248 35.238 35.279 35.262 35.251 35.267 35.265 35.317 35.287 35.299 35.327 35.336 35.392 35.434 35.457 35.535 35.515 35.56 35.681 36.125 36.222 36.525 35.951 35.723 35.571 35.577 35.521 35.596 35.631 35.66 35.666 35.741 35.872 36.354 35.561 35.181 35.15 37.62 42.636 43.818 44.567 45.213 45.723 46.338 46.291 45.922 45.455 44.952 44.654 44.169 43.767 43.313 43.293 43.608 44.008 44.529 44.834 45.314 45.815 45.737 45.379 44.889 44.611 43.994 43.634 43.181 42.323 39.477 39.319 38.527 36.232 35.331 35.271 35.248 35.23 35.248 35.224 35.501 36.517 37.343 37.332 37.311 37.194 37.154 37.095 36.95 36.968 36.888 36.806 36.801 36.768 36.708 36.599 36.662 36.789 36.814 36.942 36.881 36.686 36.442 36.012 35.412 34.903 36.115 41.542 41.925 42.035 42.164 37.971 34.379 34.322 34.27 34.298 34.32 34.294 34.267 34.394 40.247 39.658 39.378 39.288 39.246 40.188 40.64 40.08 38.981 38.979 39.178 39.15 36.029 34.375 34.426 36.854 37.583 37.793 37.606 37.469 37.491 37.386 37.394 38.078 38.057 37.386 37.305 37.351 37.42 35.886 34.69 33.88 33.708 33.594 33.526 33.886 33.761 33.59 33.598 33.636 33.711 33.735 33.746 33.691 33.628 33.613 33.575 33.733 34.147 34.241 34.83 36.702 37.11 33.346 33.24 33.197 33.166 33.278 33.289 33.227 33.221 33.216 33.327 33.329 33.314 33.282 33.272 33.278 33.265 33.233 33.223 33.218 33.169 33.211 33.252 33.243 33.215 33.23 33.281 33.291 33.275 33.291 33.23 33.261 33.207 33.176 33.194 33.254 33.205 33.166 33.231 33.192 33.263 33.301 33.269 33.286 33.326 33.276 33.332 33.362 33.374 33.326 33.388 33.352 33.315 33.299 33.348 33.334 33.325 33.343 33.361 33.393 33.507 33.413 33.332 33.332 33.388 33.372 33.371 33.344 33.339 33.285 33.293 33.284 33.26 33.275 33.227 33.291 33.325 33.285 33.281 33.247 33.265 33.292 33.257 33.207 33.236 33.347 33.318 33.271 33.27 33.228 33.174 33.188 33.237 33.246 33.215 33.149 33.223 33.23 33.28 33.368 33.337 33.329 33.352 33.325 33.305
39.187 39.005 39.004 38.979 39.036 39.095 38.948 39.445 38.797 38.764 38.707 38.574 38.319 38.054 37.977 37.869 38.098 37.616 37.58 37.574 37.609 37.608 37.621 37.623 37.663 37.682 37.68 37.737 37.741 37.741 37.765 37.761 37.773 37.777 37.804 37.858 37.868 37.88 37.83 37.915 37.949 38.033 37.974 37.768 37.383 37.029 36.827 36.714 36.672 36.682 36.731 37.81 36.657 36.684 36.721 36.728 36.752 36.763 36.754 36.787 36.769 36.794 36.806 36.778 36.779 36.787 36.789 36.793 36.796 36.802 36.815 36.821 36.875 36.852 36.877 36.899 36.883 36.881 36.875 36.904 36.922 36.889 36.917 36.883 36.918 36.922 36.932 36.936 36.928 36.948 36.935 36.953 36.983 36.995 37.038 37.054 37.043 37.069 37.095 37.196 37.256 37.308 37.025 36.715 36.466 36.845 36.433 36.09 36.023 35.97 35.928 35.875 35.863 35.806 35.792 35.894 36.198 36.564 36.551 36.569 36.565 36.556 36.532 36.47 36.432 36.423 36.349 36.259 35.933 37.005 35.768 35.5 35.51 35.337 35.232 35.213 35.198 35.176 35.194 35.191 35.187 35.151 35.161 35.137 35.097 35.123 35.124 35.137 35.129 35.15 35.144 35.111 35.15 35.181 35.198 35.191 35.179 35.18 35.182 35.193 35.202 35.207 35.21 35.218 35.261 35.266 35.28 35.298 35.266 35.277 35.302 35.369 35.436 35.503 35.516 35.527 35.61 35.68 36.016 36.35 36.04 35.625 35.54 35.535 35.465 35.538 35.569 35.562 35.584 35.645 35.745 35.818 35.664 35.257 35.087 36.34 39.961 43.371 43.961 45.562 45.144 45.329 45.788 46.23 46.769 46.021 45.612 45.076 44.719 44.276 43.803 43.461 43.231 43.863 44.01 44.355 44.873 45.254 45.701 45.908 45.416 45.11 44.765 44.234 43.833 42.702 40.096 39.328 39.18 39.329 36.71 35.344 35.294 35.228 35.264 35.234 35.26 35.471 36.56 37.223 37.31 37.28 37.242 37.127 37.047 36.912 36.895 36.906 36.863 36.864 36.727 36.725 36.672 36.712 36.736 36.803 36.86 36.952 36.758 36.577 36.305 35.758 35.194 35.96 40.379 41.722 41.824 34.517 34.395 34.423 34.414 34.385 34.357 34.357 34.423 37.472 40.037 39.654 39.605 39.487 39.548 40.451 40.564 40.561 39.085 38.935 38.87 38.791 34.488 34.373 36.496 37.967 38.462 38.044 37.819 37.551 37.594 37.476 37.407 37.419 37.44 37.389 37.395 37.317 37.39 37.531 34.158 33.873 33.762 33.632 33.625 33.759 33.836 33.684 33.639 33.697 33.786 33.81 33.718 33.646 33.604 33.628 33.695 33.905 33.95 33.945 33.989 33.954 34.004 34.218 33.224 33.201 33.211 33.268 33.246 33.175 33.213 33.244 33.332 33.324 33.32 33.343 33.321 33.314 33.299 33.238 33.284 33.26 33.249 33.228 33.202 33.198 33.187 33.192 33.171 33.207 33.225 33.284 33.285 33.291 33.259 33.222 33.268 33.246 33.251 33.181 33.191 33.208 33.252 33.262 33.2 33.285 33.278 33.272 33.273 33.343 33.299 33.311 33.348 33.346 33.334 33.344 33.357 33.397 33.381 33.352 33.326 33.319 33.372 33.363 33.376 33.358 33.377 33.318 33.332 33.365 33.343 33.388 33.376 33.352 33.325 33.256 33.297 33.274 33.278 33.246 33.275 33.269 33.317 33.308 33.292 33.252 33.242 33.248 33.234 33.252 33.248 33.229 33.191 33.187 33.234 33.265 33.21 33.146 33.239 33.29 33.328 33.365 33.348 33.329 33.327 33.337 33.271
39.043 38.959 38.882 38.925 38.895 38.989 38.839 38.795 38.726 38.594 38.577 38.497 38.264 37.97 37.752 37.621 37.656 37.616 37.665 37.604 37.618 37.632 37.616 37.627 37.628 37.682 37.669 37.703 37.693 37.771 37.745 37.739 37.781 37.807 37.815 37.821 37.864 37.839 37.852 38.121 38.137 37.939 37.643 37.382 36.98 36.71 36.669 36.618 36.637 36.645 36.651 36.651 36.634 36.653 36.682 36.689 36.716 36.721 36.701 36.74 36.72 36.749 36.793 36.742 36.707 36.758 36.747 36.778 36.785 36.768 36.754 36.814 36.817 36.812 36.834 36.853 36.832 36.866 36.857 36.871 36.881 36.879 36.862 36.845 36.862 36.854 36.879 36.875 36.881 36.903 36.898 36.906 36.905 36.946 36.987 36.984 36.992 37.004 37.105 37.173 37.309 37.032 36.71 36.517 37.257 36.979 36.131 36.059 35.967 35.909 35.915 35.908 35.847 35.844 35.828 35.792 35.926 36.219 36.478 36.583 36.609 36.496 36.459 36.44 36.455 36.374 36.347 36.318 36.144 35.613 35.988 35.539 35.434 35.45 35.314 35.203 35.209 35.17 35.158 35.133 35.109 35.134 35.117 35.063 35.059 35.092 35.103 35.09 35.07 35.075 35.074 35.098 35.13 35.154 35.163 35.17 35.18 35.18 35.175 35.161 35.14 35.157 35.165 35.18 35.193 35.227 35.263 35.259 35.221 35.262 35.285 35.359 35.415 35.453 35.508 35.536 35.54 35.762 36.173 36.132 35.562 35.417 35.404 35.339 35.409 35.484 35.539 35.52 35.449 35.726 35.733 35.601 35.264 35.147 35.181 40.405 43.334 43.206 43.451 43.781 44.374 44.661 45.283 45.504 46.05 46.416 46.146 45.665 45.348 44.779 44.316 44.127 48.678 49.187 45.035 43.739 44.233 44.757 45.226 45.694 45.967 45.753 45.159 44.655 44.374 44.112 43.67 42.52 39.468 39.232 39.329 37.765 35.392 35.374 35.236 35.236 35.281 35.263 35.577 36.271 37.131 37.374 37.347 37.26 37.1 37.064 36.921 36.878 36.877 36.811 36.826 36.707 36.637 36.622 36.593 36.691 36.774 36.866 36.884 36.81 36.635 36.401 35.931 35.414 34.883 37.027 35.27 34.515 34.457 34.404 34.448 34.46 34.456 34.469 34.494 39.181 40.221 39.761 39.77 39.69 39.944 40.345 40.355 39.456 39.233 36.753 34.547 35.246 34.447 34.538 37.46 38.954 38.882 38.598 38.32 38.147 37.8 37.527 37.473 37.461 37.401 37.383 37.419 37.415 37.377 35.098 34.01 33.854 33.762 33.704 33.636 33.832 33.808 33.678 33.721 33.781 33.865 33.757 33.759 33.697 33.662 33.62 33.771 34.224 34.082 33.985 33.961 33.922 33.92 33.959 33.232 33.189 33.178 33.313 33.288 33.218 33.247 33.27 33.334 33.355 33.372 33.36 33.298 33.337 33.333 33.319 33.287 33.33 33.265 33.297 33.268 33.235 33.208 33.184 33.186 33.198 33.223 33.233 33.212 33.261 33.271 33.302 33.244 33.239 33.249 33.258 33.224 33.19 33.248 33.239 33.218 33.215 33.227 33.27 33.228 33.295 33.256 33.293 33.31 33.317 33.312 33.327 33.332 33.365 33.364 33.366 33.37 33.354 33.366 33.385 33.374 33.388 33.347 33.367 33.371 33.385 33.358 33.328 33.388 33.361 33.342 33.368 33.371 33.325 33.312 33.256 33.25 33.238 33.243 33.275 33.306 33.267 33.297 33.22 33.274 33.243 33.282 33.209 33.142 33.204 33.282 33.241 33.194 33.187 33.271 33.283 33.322 33.36 33.376 33.347 33.307 33.292 33.277
38.934 38.738 38.787 38.696 38.671 38.665 38.685 38.53 38.552 38.507 38.498 38.36 37.955 37.733 38.046 37.64 37.636 37.635 37.615 37.562 37.569 37.627 37.623 37.656 37.666 37.658 37.663 37.675 37.696 37.707 37.739 37.735 37.744 37.789 37.789 37.824 37.806 37.843 37.898 38.693 37.908 37.705 37.354 36.916 36.72 36.601 36.594 36.605 36.6 36.603 36.585 36.604 36.646 36.614 36.673 36.627 36.678 36.674 36.71 36.702 36.663 36.708 36.691 36.639 36.67 36.7 36.694 36.736 36.705 36.775 36.742 36.74 36.755 36.778 36.808 36.804 36.807 36.806 36.8 36.844 36.842 36.838 36.833 36.803 36.816 36.831 36.842 36.821 36.81 36.835 36.869 36.88 36.867 36.892 36.913 36.913 36.948 36.997 37.099 37.204 37.122 36.858 36.504 36.895 37.476 36.136 36.051 36.037 35.976 35.945 35.919 35.89 35.857 35.854 35.808 35.862 36.009 35.881 36.083 36.399 36.457 36.479 36.423 36.393 36.365 36.333 36.302 36.233 36.189 36.482 35.989 35.791 35.514 35.383 35.38 35.294 35.212 35.162 35.096 35.072 35.071 35.093 35.083 35.054 35.054 35.026 35.047 35.052 35.024 35.01 35.008 35.041 35.082 35.086 35.072 35.126 35.156 35.142 35.159 35.13 35.104 35.138 35.136 35.152 35.166 35.201 35.223 35.221 35.208 35.28 35.271 35.349 35.378 35.415 35.463 35.516 35.684 36.086 36.031 35.614 35.383 35.312 35.263 35.294 35.381 35.441 35.423 35.435 35.54 35.687 35.569 35.215 35.147 35.146 39.405 43.31 43.884 43.582 43.285 43.326 43.757 44.17 44.661 45.108 45.463 46.021 46.446 46.328 45.74 45.435 45.051 48.409 51.432 51.076 49.118 43.843 43.702 44.182 44.488 44.945 45.385 45.936 45.964 45.521 44.797 44.332 44.027 44.222 43.015 39.394 39.27 39.302 38.314 35.379 35.261 35.263 35.224 35.247 35.262 35.457 36.178 36.869 37.374 37.38 37.229 37.089 37.079 37.013 36.876 36.826 36.774 36.783 36.689 36.681 36.67 36.592 36.679 36.69 37.079 37.773 36.926 36.709 36.57 36.115 35.763 35.057 34.781 34.653 34.493 34.516 34.516 34.503 34.462 34.484 36.97 40.35 39.607 39.587 39.699 39.802 40.08 40.167 39.758 39.428 39.351 35.952 34.599 34.499 34.482 34.483 36.822 39.564 39.46 39.108 38.901 38.703 38.386 38.144 37.755 37.587 37.493 38.1 37.458 37.377 37.557 34.471 34.055 33.881 33.82 33.727 33.708 33.977 33.845 33.773 33.792 33.837 39.09 33.954 33.784 33.716 33.641 33.743 33.87 34.49 34.01 34.024 34.033 33.985 33.988 33.562 33.221 33.197 33.259 33.288 33.263 33.207 33.272 33.319 33.379 33.35 33.338 33.357 33.4 33.374 33.372 33.384 33.358 33.355 33.325 33.29 33.291 33.256 33.261 33.241 33.241 33.18 33.192 33.213 33.224 33.205 33.218 33.245 33.241 33.213 33.285 33.259 33.317 33.298 33.298 33.3 33.249 33.206 33.196 33.178 33.243 33.224 33.228 33.239 33.265 33.278 33.218 33.269 33.298 33.33 33.311 33.348 33.367 33.405 33.399 33.358 33.387 33.401 33.399 33.396 33.381 33.35 33.38 33.383 33.39 33.408 33.395 33.362 33.351 33.347 33.361 33.359 33.346 33.308 33.27 33.287 33.234 33.225 33.29 33.282 33.262 33.268 33.238 33.203 33.164 33.203 33.263 33.266 33.202 33.181 33.258 33.283 33.322 33.368 33.334 33.346 33.314 33.336 33.338
38.777 38.673 38.551 38.427 38.399 38.374 38.406 38.351 38.432 38.459 38.319 37.979 37.717 37.379 37.643 38.366 37.675 37.632 37.579 37.594 37.617 37.606 37.617 37.622 37.615 37.679 37.679 37.67 37.692 37.709 37.722 37.742 37.766 37.777 37.801 37.8 37.844 37.83 37.865 37.782 37.563 37.24 36.887 36.677 36.583 36.572 36.5 36.524 36.551 36.552 36.546 36.559 36.583 36.58 36.596 36.591 36.61 36.653 36.642 36.668 36.649 36.647 36.701 36.637 36.658 36.625 36.65 36.669 36.667 36.733 36.736 36.723 36.756 36.726 36.752 36.748 36.773 36.853 36.78 36.797 36.804 36.789 36.788 36.766 36.782 36.797 36.823 36.762 36.764 36.78 36.797 36.834 36.836 36.851 36.866 36.871 36.878 37.049 37.153 37.272 37.066 36.661 36.463 36.951 36.406 36.035 36.039 36.025 35.996 35.956 35.894 35.855 35.843 35.821 35.897 35.933 36.298 35.946 35.82 35.902 36.233 36.362 36.419 36.361 36.31 36.332 35.942 35.71 35.803 35.896 36.207 35.843 35.589 35.418 35.358 35.322 35.238 35.149 35.043 34.962 34.981 35.011 35.047 35.062 35.048 35.012 35.013 34.977 34.964 34.973 34.977 34.985 35.009 35.04 35.065 35.088 35.09 35.125 35.109 35.118 35.107 35.103 35.086 35.146 35.131 35.169 35.162 35.161 35.194 35.205 35.26 35.309 35.325 35.395 35.42 35.627 35.943 36.11 35.573 35.314 35.22 35.184 35.175 35.231 35.359 35.389 35.383 35.464 35.596 35.944 35.302 35.095 35.14 35.316 42.351 43.722 44.464 44.146 43.803 43.339 43.348 43.618 44.089 44.449 45.047 45.289 45.779 46.184 46.425 46.023 47.088 52.407 51.994 51.559 51.121 50.646 48.34 43.771 44.003 44.56 44.783 45.255 45.789 46.032 45.452 44.979 44.651 44.185 43.655 43.199 42.186 39.375 39.39 38.34 36.147 35.291 35.294 35.3 35.275 35.271 35.336 35.75 36.706 37.268 37.316 37.229 37.223 37.025 36.982 36.819 36.83 36.809 36.834 36.688 36.657 36.622 36.613 36.613 36.638 36.707 36.816 36.876 36.784 36.618 36.277 35.87 35.593 35.258 34.74 34.529 34.556 34.538 34.557 34.556 38.529 40.12 39.288 39.448 39.529 39.544 39.674 39.829 39.748 39.573 37.044 34.651 34.609 34.5 34.498 34.545 37.823 39.052 39.293 39.475 39.446 39.194 38.892 38.642 38.399 38.09 39.754 40.649 39.925 37.641 36.39 34.164 33.995 33.891 33.83 33.799 33.8 33.959 33.86 33.832 33.887 33.919 33.872 33.829 33.753 33.756 33.696 33.795 34.182 34.029 34.037 34.034 34.039 34.014 34.003 33.335 33.252 33.235 33.25 33.266 33.256 33.239 33.293 33.362 33.341 33.372 33.359 33.345 33.374 33.379 33.396 33.382 33.39 33.38 33.337 33.311 33.359 33.344 33.286 33.248 33.29 33.282 33.257 33.253 33.208 33.211 33.245 33.203 33.206 33.174 33.173 33.218 33.288 33.291 33.301 33.316 33.302 33.241 33.211 33.205 33.226 33.257 33.219 33.189 33.213 33.254 33.245 33.23 33.214 33.266 33.306 33.355 33.457 33.496 33.375 33.335 33.35 33.407 33.386 33.37 33.36 33.336 33.37 33.39 33.339 33.374 33.356 33.374 33.372 33.343 33.359 33.395 33.394 33.392 33.306 33.345 33.304 33.269 33.284 33.231 33.249 33.284 33.209 33.196 33.201 33.254 33.26 33.163 33.178 33.228 33.255 33.3 33.309 33.351 33.362 33.337 33.298 33.277 33.308
38.415 38.26 38.083 38.028 38.062 38.199 38.17 38.181 38.26 38.337 38.03 37.742 37.763 37.593 37.57 37.752 38.443 37.603 37.614 37.574 37.564 37.572 37.559 37.601 37.616 37.589 37.643 37.672 37.697 37.68 37.711 37.763 37.766 37.83 37.781 37.788 37.92 37.872 37.732 37.483 37.052 36.962 36.667 36.533 36.544 36.505 36.492 36.508 36.498 36.517 36.556 36.545 36.52 36.574 36.56 36.547 36.539 36.592 36.621 36.621 36.614 36.59 36.595 36.588 36.581 36.624 36.609 36.624 36.635 36.664 36.719 36.686 36.677 36.723 36.737 36.704 36.716 36.724 36.742 36.746 36.741 36.735 36.734 36.74 36.759 36.764 36.731 36.701 36.727 36.747 36.81 36.781 36.82 36.798 36.839 36.868 36.977 37.093 37.236 36.974 36.832 36.694 36.866 36.307 36.108 36.055 36.037 36.006 35.972 35.946 35.936 35.898 35.807 35.903 36.051 36.227 36.257 36.114 36.072 35.784 35.801 36.202 36.329 36.308 36.267 35.913 35.765 35.626 35.669 35.6 35.858 35.764 35.418 38.41 39.682 36.667 35.274 35.154 34.991 34.959 34.901 34.933 34.949 35.026 35.032 35.02 34.984 34.923 34.92 34.942 34.935 34.966 35.01 35.045 35.058 35.045 35.027 35.03 35.039 35.081 35.086 35.096 35.068 35.097 35.117 35.148 35.143 35.152 35.164 35.227 35.266 35.278 35.32 35.381 35.431 35.823 36.028 35.559 35.291 35.149 35.158 35.136 35.157 35.268 35.272 35.255 35.373 35.461 36.727 35.353 35.132 35.138 35.304 42.213 43.479 44.317 44.921 44.801 44.29 43.876 43.471 43.104 43.46 44.001 44.366 44.755 45.303 45.699 46.03 46.607 52.579 53.107 52.531 52.11 51.616 51.353 50.794 49.685 43.976 43.947 44.323 44.745 45.166 45.996 45.904 45.579 45.212 44.783 44.351 43.874 43.422 40.459 39.549 39.586 38.843 37.658 35.346 35.297 35.26 35.326 35.292 35.263 35.629 36.533 37.173 37.404 37.382 37.464 37.123 37.026 36.927 36.808 36.778 36.771 36.716 36.676 36.661 36.583 36.517 36.585 36.674 37.025 36.792 36.767 36.664 36.509 36.289 35.805 35.35 34.929 34.679 34.59 34.56 34.848 40.988 39.467 39.124 39.228 39.369 39.367 39.411 39.478 39.597 39.596 36.003 34.627 34.54 34.511 34.544 34.647 38.409 38.713 38.902 39.056 39.392 39.543 39.463 39.178 39.034 38.666 40.395 40.731 40.815 39.836 39.034 37.881 35.83 33.919 33.878 33.85 34.043 33.964 33.87 33.896 33.921 34.03 33.874 33.866 33.789 33.734 33.699 33.852 34.111 34.106 34.337 34.035 34.016 34.056 34.954 33.438 33.179 33.241 33.322 33.278 33.192 33.213 33.234 33.31 33.351 33.383 33.378 33.332 33.398 33.348 33.398 33.385 33.357 33.351 33.388 33.344 33.373 33.333 33.323 33.324 33.323 33.303 33.288 33.287 33.284 33.272 33.289 33.233 33.225 33.145 33.169 33.157 33.213 33.236 33.263 33.238 33.287 33.347 33.285 33.279 33.291 33.234 33.163 33.204 33.159 33.176 33.234 33.207 33.177 33.219 33.267 33.281 33.309 33.294 33.332 33.336 33.318 33.328 33.368 33.355 33.381 33.36 33.355 33.334 33.368 33.381 33.345 33.337 33.35 33.377 33.388 33.4 33.34 33.361 33.356 33.343 33.333 33.362 33.35 33.308 33.256 33.222 33.179 33.16 33.226 33.248 33.225 33.199 33.193 33.158 33.224 33.307 33.346 33.378 33.35 33.307 33.313 33.32 33.27
38.065 37.833 37.815 37.75 37.84 37.94 38.029 37.893 37.918 37.873 37.765 37.463 37.736 37.832 37.43 37.588 37.754 37.733 37.535 37.634 37.585 37.56 37.576 37.55 37.596 37.639 37.638 37.625 37.655 37.702 37.683 37.707 37.749 37.741 37.769 37.867 38.137 37.681 37.522 37.132 36.755 36.603 36.506 36.468 36.44 36.443 36.449 36.467 36.474 36.492 36.477 36.468 36.504 36.476 36.479 36.52 36.527 36.545 36.551 36.57 36.566 36.554 36.579 36.537 36.534 36.58 36.6 36.613 36.611 36.629 36.628 36.633 36.673 36.676 36.66 36.678 36.687 36.662 36.694 36.698 36.698 36.715 36.693 36.697 36.697 36.714 36.71 36.682 36.694 36.691 36.721 36.74 36.755 36.772 36.763 36.833 36.992 37.164 37.092 36.931 36.857 36.674 36.816 36.194 36.104 36.03 36.057 35.991 35.986 35.948 35.937 35.916 35.904 35.955 36.116 36.185 36.16 36.266 36.247 36.294 36.052 35.86 36.186 36.177 36.177 35.768 35.668 35.631 35.412 35.421 35.637 35.494 40.392 42.177 44.719 43.239 39.071 35.255 35.035 34.963 34.911 34.849 34.853 34.939 34.983 34.966 34.969 34.928 34.933 34.931 34.942 34.95 35.007 35.033 35.016 34.985 35 35.014 35.049 35.068 35.053 35.068 35.058 35.062 35.114 35.116 35.123 35.156 35.175 35.192 35.226 35.258 35.31 35.355 35.744 35.972 35.644 35.258 35.097 35.041 35.031 35.095 35.134 35.205 35.186 35.248 35.33 36.675 35.649 35.153 35.121 35.136 39.709 43.357 44.032 44.676 45.453 45.341 44.862 44.353 43.932 43.531 43.308 43.367 43.746 44.314 44.718 45.082 45.469 50.785 53.649 53.526 53.142 52.773 52.285 51.821 51.397 50.83 49.305 44.805 43.808 44.215 44.609 45.05 45.567 45.961 45.678 45.194 44.772 44.352 43.951 43.556 42.596 40.501 39.735 39.55 38.306 35.367 37.257 35.405 35.321 35.294 35.307 35.535 36.068 36.932 37.334 37.354 37.336 37.088 37.032 36.989 36.809 36.76 36.705 36.732 36.654 36.69 36.598 36.509 36.522 36.623 36.653 36.786 36.764 36.659 36.6 36.447 35.992 35.565 35.239 34.885 34.744 39.41 40.217 38.956 38.979 39.112 39.177 39.188 39.263 39.351 39.392 39.441 34.754 34.594 34.553 34.547 36.041 38.118 38.16 38.121 38.35 38.554 38.803 39.035 39.214 39.482 39.553 40.271 40.635 40.693 40.841 39.783 39.148 38.985 35.346 33.857 33.828 33.85 34.084 33.923 33.912 33.935 33.977 34.038 33.923 33.888 33.798 33.799 33.86 34.008 34.405 34.117 34.339 34.205 34.067 34.02 35.003 33.227 33.237 33.267 33.3 33.231 33.155 33.249 33.274 33.308 33.29 33.319 33.405 33.384 33.356 33.399 33.347 33.404 33.378 33.394 33.402 33.366 33.349 33.374 33.391 33.371 33.358 33.365 33.344 33.345 33.316 33.305 33.295 33.266 33.303 33.239 33.215 33.205 33.2 33.212 33.25 33.195 33.221 33.28 33.296 33.301 33.3 33.325 33.317 33.264 33.281 33.223 33.213 33.193 33.188 33.16 33.205 33.204 33.494 33.269 33.277 33.278 33.293 33.303 33.325 33.32 33.34 33.334 33.364 33.354 33.386 33.349 33.338 33.35 33.374 33.383 33.338 33.355 33.366 33.37 33.372 33.369 33.365 33.358 33.365 33.286 33.271 33.254 33.2 33.131 33.213 33.232 33.234 33.164 33.186 33.229 33.224 33.333 33.306 33.334 33.315 33.352 33.338 33.329 33.276
37.751 37.645 37.578 37.603 37.637 37.696 37.729 37.778 37.727 37.734 37.817 37.731 37.669 37.798 37.763 37.632 37.644 37.723 38.038 37.566 37.543 37.743 37.534 37.577 37.566 37.61 37.617 37.666 37.683 37.668 37.674 37.695 37.701 37.725 37.8 37.798 37.625 37.381 37.072 36.74 36.551 36.472 36.429 36.413 36.374 36.389 36.404 36.438 36.43 36.469 36.44 36.438 36.444 36.43 36.449 36.475 36.488 36.495 36.514 36.511 36.518 36.499 36.529 36.5 36.491 36.523 36.539 36.567 36.577 36.588 36.576 36.597 36.615 36.611 36.635 36.616 36.625 36.621 36.63 36.645 36.65 36.67 36.682 36.695 36.659 36.673 36.646 36.667 36.65 36.664 36.67 36.697 36.713 36.714 36.718 36.868 36.904 36.881 36.979 36.871 37.4 37.429 36.15 36.143 36.132 36.098 35.992 36.029 35.996 35.906 35.885 35.908 36.026 36.222 36.231 36.233 36.162 36.217 36.26 36.396 36.329 36.083 35.769 35.76 35.956 35.862 35.552 35.408 35.337 35.331 35.439 35.387 41.309 43.942 46.097 40.264 42.965 37.54 35.193 35.037 34.915 34.875 34.854 34.861 34.909 34.912 34.914 34.903 34.91 34.918 34.918 34.96 34.994 35.035 34.947 34.924 34.983 34.984 35.026 35.013 35.037 35.047 35.061 35.065 35.021 35.032 35.106 35.133 35.162 35.165 35.191 35.26 35.294 35.496 35.979 35.796 35.298 35.043 34.989 34.949 34.945 35.059 35.09 35.098 35.142 35.234 35.361 35.337 35.199 35.093 35.1 39.36 43.318 43.861 44.579 45.149 45.674 45.826 45.467 44.957 44.63 44.106 43.676 43.279 43.3 43.634 44.083 44.592 48.751 52.75 53.125 53.672 53.689 53.268 52.824 52.367 51.819 51.508 50.841 45.813 44.922 43.77 44.023 44.579 44.935 45.29 45.951 45.799 45.321 44.898 44.628 44.118 43.641 43.229 39.881 39.741 39.713 38.944 38.529 38.448 35.57 35.304 35.297 35.278 35.325 35.907 36.811 37.261 37.319 37.292 37.233 37.017 36.977 36.816 36.769 36.744 36.654 36.642 36.598 36.626 36.542 36.47 36.555 36.615 36.682 36.803 36.682 36.629 36.525 36.044 35.712 35.37 38.02 41.083 39.335 39.102 40.727 40.916 39.822 39.08 39.141 39.146 39.255 36.815 34.629 34.608 34.623 35.071 37.551 38.777 38.533 38.328 38.156 38.134 38.312 38.651 38.781 39.1 39.312 40.363 40.665 40.76 40.808 38.314 38.907 36.908 33.988 33.901 33.894 34.194 34.091 33.95 33.977 33.98 34.053 33.996 33.938 33.907 33.809 33.761 33.919 34.005 34.141 34.137 34.129 34.152 34.118 34.176 33.488 33.22 33.257 33.233 33.312 33.235 33.185 33.225 33.231 33.286 33.348 33.372 33.363 33.336 33.363 33.385 33.374 33.356 33.381 33.344 33.368 33.397 33.341 33.335 33.369 33.353 33.349 33.342 33.354 33.329 33.359 33.346 33.331 33.317 33.322 33.238 33.27 33.259 33.262 33.241 33.259 33.233 33.157 33.171 33.243 33.215 33.259 33.278 33.315 33.279 33.295 33.31 33.271 33.286 33.234 33.219 33.12 33.201 33.19 33.221 33.219 33.263 33.274 33.253 33.299 33.289 33.322 33.314 33.345 33.301 33.365 33.388 33.382 33.33 33.366 33.369 33.4 33.393 33.347 33.324 33.347 33.357 33.372 33.3 33.347 33.301 33.3 33.232 33.202 33.204 33.235 33.236 33.205 33.185 33.194 33.208 33.248 33.268 33.304 33.342 33.242 33.275 33.286 33.298 33.237
37.567 37.534 37.515 37.488 37.493 37.5 37.562 37.6 37.611 37.655 37.684 37.74 37.673 37.639 37.679 37.652 37.571 37.642 37.784 38.245 37.54 37.54 37.534 37.567 37.605 37.627 37.638 37.593 37.657 37.639 37.685 37.645 37.714 39.11 37.907 37.618 37.379 36.996 36.646 36.453 36.396 36.38 36.347 36.364 36.355 36.353 36.365 36.363 36.374 36.408 36.408 36.406 36.376 36.406 36.395 36.439 36.454 36.425 36.452 36.45 36.453 36.443 36.425 36.472 36.5 36.481 36.477 36.521 36.553 36.54 36.549 36.571 36.576 36.591 36.594 36.578 36.575 36.569 36.579 36.601 36.595 36.625 36.608 36.641 36.615 36.599 36.601 36.623 36.624 36.64 36.655 36.667 36.667 36.676 36.854 36.89 36.918 36.932 37.009 37.248 38.056 36.494 36.147 36.103 36.134 36.095 35.998 35.969 35.901 35.915 35.899 36.01 36.333 36.266 36.241 36.159 36.166 36.248 36.3 36.201 36.198 36.038 35.857 35.54 35.455 35.574 35.575 35.369 35.386 35.244 35.099 37.671 42.201 39.382 45.926 45.028 41.222 38.094 35.276 35.126 34.956 34.879 34.81 34.833 34.845 34.822 34.85 34.871 34.865 34.887 34.894 34.943 34.958 34.945 34.933 34.945 34.968 34.992 35.006 34.981 35.012 35.03 35.014 35.008 35.011 35.02 35.061 35.122 35.129 35.14 35.166 35.21 35.308 35.907 35.85 35.415 35.057 34.959 34.86 34.889 34.994 34.994 35.021 35.028 35.185 35.338 35.687 35.295 35.176 35.093 35.411 42.147 43.381 43.887 44.227 44.685 45.065 45.615 45.878 45.598 44.994 44.559 44.197 43.768 43.398 43.234 43.419 44.191 50.883 52.086 52.523 52.974 53.469 53.624 53.321 53.027 52.562 51.988 47.359 46.423 46.172 45.268 43.487 43.903 44.516 44.753 45.332 45.74 46.061 45.636 44.975 44.601 44.207 43.845 43.381 42.305 39.56 39.29 39.15 37.949 35.501 35.35 35.292 35.334 35.291 35.276 35.729 36.812 37.179 37.206 37.305 37.188 37.079 37.003 37.07 36.776 36.719 36.721 36.664 36.601 36.549 36.482 36.44 36.538 36.568 36.923 36.712 36.723 36.668 36.558 36.311 36.867 39.81 40.659 39.1 39.114 41.246 41.467 41.484 40.893 39.701 38.994 39.075 34.728 34.597 34.558 35.896 37.324 39.356 39.283 39.011 38.761 38.607 38.334 38.217 38.217 38.397 38.52 39.216 40.655 40.715 40.809 37.519 34.301 35.058 34.577 33.94 33.944 33.962 34.266 34.11 33.975 34.043 34 34.109 34.024 33.956 33.883 33.826 33.82 34.26 34.138 34.116 34.085 34.12 34.165 34.126 34.734 33.428 33.205 33.242 33.293 33.281 33.184 33.19 33.262 33.264 33.274 33.27 33.307 33.38 33.366 33.357 33.396 33.319 33.358 33.357 33.375 33.375 33.346 33.402 33.349 33.374 33.388 33.387 33.381 33.38 33.347 33.356 33.363 33.365 33.359 33.35 33.312 33.274 33.323 33.322 33.295 33.302 33.293 33.222 33.213 33.249 33.231 33.219 33.226 33.203 33.213 33.242 33.297 33.334 33.309 33.285 33.269 33.25 33.227 33.214 33.18 33.205 33.189 33.194 33.196 33.265 33.299 33.228 33.28 33.286 33.318 33.331 33.328 33.334 33.372 33.343 33.383 33.393 33.352 33.359 33.37 33.36 33.373 33.35 33.352 33.357 33.277 33.271 33.238 33.212 33.197 33.248 33.231 33.199 33.185 33.178 33.213 33.271 33.318 33.288 33.28 33.33 33.282 33.29 33.269 33.204
