ncols 447
nrows 32
xllcorner    432042
yllcorner    436416
cellsize     2
NODATA_value -9999
81.611 81.893 82.133 83.021 81.831 81.763 84.456 85.468 85.923 86.416 86.393 85.918 85.676 86.348 86.241 85.576 83.956 82.083 82.116 81.966 81.498 81.523 82.478 82.651 82.111 82.163 82.193 82.213 82.448 82.153 82.22 84.515 87.833 89.088 89.743 89.375 88.703 82.408 82.34 84.428 83.673 83.43 81.565 81.49 81.533 81.613 81.29 81.005 80.53 78.003 77.818 77.815 77.723 77.528 77.598 77.46 77.35 77.225 77.17 77.103 81.37 83.388 84.408 84.438 83.423 82.385 77.03 77.238 77.008 77.288 77.808 79.423 82.85 82.213 82.485 83.208 83.283 89.17 85.285 94.018 89.753 82.465 88.485 86.895 81.395 81.235 81.333 81.55 81.06 80.708 80.773 84.833 77.58 77.408 77.36 77.313 77.245 77.165 77.088 77.048 77.095 77.143 77.188 78.183 79.503 79.603 78.683 76.31 76.025 74.105 74.023 68.598 65.465 64.805 64.795 64.793 64.823 64.903 64.91 64.898 64.78 64.76 64.758 64.743 64.733 64.725 64.725 64.713 65.648 65.018 64.918 64.935 67.01 64.885 64.808 65.013 64.838 64.86 64.89 64.938 64.973 65 66.438 65.913 65.76 65.87 65.968 66.103 66.41 69.64 70.84 71.493 73.81 73.945 74.105 74.258 74.14 73.98 73.843 73.705 73.535 73.373 73.92 66.11 66.028 66.058 66.07 66.088 66.05 66.043 66.005 65.95 65.895 65.845 65.8 66.005 65.723 65.65 65.593 65.55 65.593 65.643 66.503 65.605 65.61 65.438 65.296 -9999 -9999 -9999 -9999 -9999 -9999 -9999 -9999 -9999 -9999 -9999 -9999 -9999 -9999 -9999 -9999 -9999 -9999 -9999 -9999 -9999 -9999 -9999 -9999 -9999 -9999 -9999 -9999 -9999 -9999 -9999 -9999 -9999 -9999 -9999 -9999 -9999 -9999 -9999 -9999 -9999 -9999 -9999 -9999 -9999 -9999 -9999 -9999 -9999 -9999 -9999 -9999 -9999 -9999 -9999 -9999 -9999 -9999 -9999 -9999 -9999 -9999 -9999 -9999 -9999 -9999 -9999 -9999 -9999 -9999 -9999 -9999 -9999 -9999 -9999 -9999 -9999 -9999 -9999 -9999 -9999 -9999 -9999 -9999 -9999 -9999 -9999 -9999 -9999 -9999 -9999 -9999 -9999 -9999 -9999 -9999 -9999 -9999 -9999 -9999 -9999 -9999 -9999 -9999 -9999 -9999 -9999 -9999 -9999 -9999 -9999 -9999 -9999 -9999 -9999 -9999 -9999 -9999 -9999 -9999 -9999 -9999 -9999 -9999 -9999 -9999 -9999 -9999 -9999 -9999 -9999 -9999 -9999 -9999 -9999 -9999 -9999 -9999 -9999 -9999 -9999 -9999 -9999 93.479 93.337 93.587 97.174 110.075 112.668 113.066 108.956 106.218 108.581 98.9 104.27 105.804 101.899 101.216 98.247 95.454 96.021 93.896 94.117 94.421 99.589 94.234 96.433 99.795 104.219 104.958 102.966 100.838 92.926 92.788 92.766 92.758 92.77 93.169 92.662 92.626 92.586 92.534 92.506 92.423 92.659 92.32 92.825 93.384 93.794 97.074 94.254 94.086 92.74 92.775 92.832 92.841 92.923 93.094 93.127 93.152 93.191 93.197 93.205 94.296 96.637 98.134 96.955 94.007 93.257 95.526 96.847 93.609 93.023 93.166 93.316 93.113 93.098 98.622 96.648 92.981 93.077 93.076 93.004 96.67 97.908 97.062 93.79 93.716 93.034 94.793 99.093 99.804 100.506 101.187 100.899 99.953 99.215 95.718 94.434 92.819 92.459 93.449 93.517 93.049 92.718 92.28 92.169 92.142 92.163 92.158 92.23 92.278 93.289 98.462 102.038 100.672 94.106 93.089 92.183 92.101
82.373 82.301 81.563 83.268 81.696 84.078 85.688 86.146 86.541 86.176 85.713 85.248 85.216 85.873 86.531 84.771 82.863 81.971 81.746 81.743 81.488 81.478 81.573 81.956 82.081 82.068 82.118 82.031 82.118 82.19 82.188 82.28 85.585 89.66 88.973 88.275 84.733 82.238 81.97 81.41 82.973 85.855 84.798 82.165 81.755 81.753 81.723 81.178 80.7 79.558 77.62 77.598 77.548 77.41 77.215 77.278 77.188 77.16 77.073 77.03 76.98 82.545 83.578 84.555 84.265 83.25 81.98 77.083 77.008 77.38 78.15 83.625 79.128 80.058 80.975 82.788 94.203 95.865 95.703 93.908 94.493 93.67 81.518 81.523 81.12 81.073 82.053 83.165 80.595 83.095 79.77 83.838 77.393 77.3 77.303 77.268 77.168 77.108 77.055 77.07 77.123 77.14 77.173 77.68 79.438 79.428 76.975 75.82 74.833 74.058 74.123 64.805 64.788 64.77 64.758 64.753 64.83 64.718 64.918 64.853 64.828 64.713 64.693 64.705 64.798 64.675 64.663 64.705 65.083 64.67 64.708 64.868 64.938 64.848 65.61 65.155 64.79 64.83 64.838 64.87 64.915 66.075 64.995 66.175 65.748 65.688 65.715 65.838 66.04 66.338 66.55 69.03 72.94 74.108 74.24 74.145 74.02 73.86 73.688 73.55 73.425 71.455 66.143 66.015 66.015 65.998 66.015 66.01 65.998 65.99 66.258 65.91 65.858 65.82 65.773 65.715 65.673 65.603 65.545 65.523 65.49 65.485 65.6 65.48 65.603 65.305 65.26 -9999 -9999 -9999 -9999 -9999 -9999 -9999 -9999 -9999 -9999 -9999 -9999 -9999 -9999 -9999 -9999 -9999 -9999 -9999 -9999 -9999 -9999 -9999 -9999 -9999 -9999 -9999 -9999 -9999 -9999 -9999 -9999 -9999 -9999 -9999 -9999 -9999 -9999 -9999 -9999 -9999 -9999 -9999 -9999 -9999 -9999 -9999 -9999 -9999 -9999 -9999 -9999 -9999 -9999 -9999 -9999 -9999 -9999 -9999 -9999 -9999 -9999 -9999 -9999 -9999 -9999 -9999 -9999 -9999 -9999 -9999 -9999 -9999 -9999 -9999 -9999 -9999 -9999 -9999 -9999 -9999 -9999 -9999 -9999 -9999 -9999 -9999 -9999 -9999 -9999 -9999 -9999 -9999 -9999 -9999 -9999 -9999 -9999 -9999 -9999 -9999 -9999 -9999 -9999 -9999 -9999 -9999 -9999 -9999 -9999 -9999 -9999 -9999 -9999 -9999 -9999 -9999 -9999 -9999 -9999 -9999 -9999 -9999 -9999 -9999 -9999 -9999 -9999 -9999 -9999 -9999 -9999 -9999 -9999 -9999 -9999 -9999 -9999 -9999 -9999 -9999 -9999 -9999 93.779 94.603 98.035 97 110.755 112.565 113.321 111.575 105.131 102.605 94.705 103.752 97.545 99.078 99.702 97.024 96.568 94.317 93.604 93.568 93.667 93.796 93.845 96.824 96.447 102.058 96.845 99.328 92.874 92.751 92.744 92.724 92.686 92.663 92.752 92.583 92.581 92.544 92.511 92.441 92.378 92.339 92.284 93.258 93.967 93.296 94.042 93.405 92.844 92.745 92.759 92.811 92.855 92.929 93.015 93.12 93.166 93.176 93.18 93.177 93.182 95.561 97.67 97.703 96.513 96.678 97.521 98.161 94.725 93.283 93.297 93.279 93.484 93.947 95.045 94.702 92.999 92.991 93.023 93.026 96.852 96.269 97.11 93.765 92.969 93.162 93.876 95.834 99.343 100.148 100.625 99.958 98.988 94.296 93.14 93.077 92.723 92.518 93.209 95.218 98.72 96.542 92.239 92.16 92.723 92.127 92.232 96.078 95.472 94.163 95.039 98.116 95.501 94.07 94.432 94.595 94.43
84.188 81.276 81.283 81.381 81.523 81.511 86.363 86.456 85.966 85.496 84.851 82.053 82.618 85.401 81.951 81.708 81.676 81.468 81.451 81.693 81.496 81.411 81.426 81.486 83.036 83.001 81.966 82.093 82.098 82.163 82.17 82.155 82.175 84.09 87.858 82.243 82.093 81.485 81.37 84.708 89.555 89.563 89.58 81.705 81.668 81.71 82.123 81.483 81.15 79.01 77.53 77.353 77.343 77.275 77.083 76.925 76.958 76.915 78.595 76.983 77.08 78.428 82.678 83.705 84.688 84.075 83.05 80.423 77.13 77.038 77.14 81.57 78.405 81.26 82.173 92.4 91.833 95.94 90.67 84.57 88.673 81.238 81.118 81.128 81.148 84.463 93.45 91.548 80.043 87.403 85.638 77.555 77.238 77.228 77.225 77.168 77.133 77.118 77.09 77.1 77.148 77.178 77.36 79.483 79.418 79.383 78.685 75.628 74.583 74.003 74.173 64.755 64.733 64.72 64.723 64.715 64.715 64.668 65.915 64.775 64.783 64.793 64.818 66.013 64.605 64.61 64.603 64.603 64.588 64.59 64.61 64.873 64.83 64.843 64.958 64.733 65.193 64.768 64.798 64.808 64.845 64.883 66.07 64.963 64.983 65.69 65.595 65.615 65.805 66.108 66.39 66.41 67.703 72.643 74.168 74.015 73.858 73.735 73.568 73.403 73.935 66.14 66.033 65.998 65.988 65.963 65.973 65.965 65.945 65.933 65.905 66.198 65.823 65.765 65.725 65.678 65.613 65.56 65.515 65.48 65.448 65.405 65.398 65.41 65.34 65.27 65.22 65.183 -9999 -9999 -9999 -9999 -9999 -9999 -9999 -9999 -9999 -9999 -9999 -9999 -9999 -9999 -9999 -9999 -9999 -9999 -9999 -9999 -9999 -9999 -9999 -9999 -9999 -9999 -9999 -9999 -9999 -9999 -9999 -9999 -9999 -9999 -9999 -9999 -9999 -9999 -9999 -9999 -9999 -9999 -9999 -9999 -9999 -9999 -9999 -9999 -9999 -9999 -9999 -9999 -9999 -9999 -9999 -9999 -9999 -9999 -9999 -9999 -9999 -9999 -9999 -9999 -9999 -9999 -9999 -9999 -9999 -9999 -9999 -9999 -9999 -9999 -9999 -9999 -9999 -9999 -9999 -9999 -9999 -9999 -9999 -9999 -9999 -9999 -9999 -9999 -9999 -9999 -9999 -9999 -9999 -9999 -9999 -9999 -9999 -9999 -9999 -9999 -9999 -9999 -9999 -9999 -9999 -9999 -9999 -9999 -9999 -9999 -9999 -9999 -9999 -9999 -9999 -9999 -9999 -9999 -9999 -9999 -9999 -9999 -9999 -9999 -9999 -9999 -9999 -9999 -9999 -9999 -9999 -9999 -9999 -9999 -9999 -9999 -9999 -9999 -9999 -9999 -9999 -9999 -9999 96.723 94.489 104.637 110.027 109.564 112.078 111.494 111.66 108.81 97.566 97.988 101.726 99.386 98.35 95.025 93.856 93.742 93.472 93.689 94.278 93.792 93.92 93.314 94.759 93.522 92.902 92.815 92.718 92.651 92.682 92.621 92.602 92.508 92.653 92.507 92.479 92.473 92.429 92.365 92.331 92.336 92.39 92.515 93.897 95.605 93.922 94.834 93.516 92.677 92.765 92.802 92.858 92.906 93.001 93.099 93.143 93.167 93.159 93.147 93.232 94.021 96.732 98.163 97.776 98.168 98.45 98.079 96.887 93.441 93.385 93.436 93.638 93.179 93.533 93.099 92.899 92.931 92.926 92.95 96.406 96.87 96.497 93.118 92.765 93.444 93.15 93.35 97.698 99.481 99.757 99.214 96.418 94.41 93.316 92.978 92.369 92.326 92.481 96.677 101.299 100.779 94.043 92.158 92.184 92.163 92.183 94.556 94.605 94.429 92.883 94.052 93.566 92.974 93.966 94.945 94.889
81.871 80.961 80.996 81.218 81.366 81.301 82.153 85.773 85.291 83.116 82.026 82.126 81.281 81.916 81.306 81.636 80.986 81.303 81.268 82.333 81.376 81.398 81.386 82.621 83.003 82.956 82.056 82.026 82.013 82.12 82.133 82.123 82.118 82.168 82.163 81.748 81.308 81.308 81.983 89.573 89.565 89.568 88.073 86.803 81.55 81.67 81.69 82.335 79.46 77.873 77.54 77.18 77.105 77.075 76.953 76.758 76.753 76.695 78.77 77.205 77.27 76.845 78.008 82.865 83.87 84.728 83.928 82.923 79.513 77.02 77.118 77.645 77.088 78.62 86.325 84.683 82.673 80.298 79.458 80.118 80.778 80.895 82.258 82.385 88.303 91.23 90.333 93.01 83.95 79.148 80.253 77.195 77.173 77.188 77.17 77.123 77.115 77.11 77.1 77.13 77.168 78.465 79.515 79.47 79.428 78.703 76.283 75.488 74.378 74.04 74.178 65.06 64.708 64.698 64.688 65.028 64.795 64.635 64.838 65.443 64.61 64.713 64.71 64.59 64.55 64.928 64.538 64.55 64.538 64.52 64.985 65.353 64.623 64.775 64.808 66.033 65.94 65.148 64.835 64.763 64.788 64.838 64.863 64.908 64.945 65.01 65.445 65.608 65.625 65.808 66.05 66.273 66.223 67.455 72.605 73.87 73.713 73.563 73.438 73.948 66.878 66.028 65.995 65.965 65.95 65.938 65.928 65.92 65.898 65.875 65.873 65.848 65.798 65.73 65.675 65.625 65.578 65.528 65.52 65.493 65.425 65.37 65.365 65.308 65.263 65.223 65.188 65.125 65.136 -9999 -9999 -9999 -9999 -9999 -9999 -9999 -9999 -9999 -9999 -9999 -9999 -9999 -9999 -9999 -9999 -9999 -9999 -9999 -9999 -9999 -9999 -9999 -9999 -9999 -9999 -9999 -9999 -9999 -9999 -9999 -9999 -9999 -9999 -9999 -9999 -9999 -9999 -9999 -9999 -9999 -9999 -9999 -9999 -9999 -9999 -9999 -9999 -9999 -9999 -9999 -9999 -9999 -9999 -9999 -9999 -9999 -9999 -9999 -9999 -9999 -9999 -9999 -9999 -9999 -9999 -9999 -9999 -9999 -9999 -9999 -9999 -9999 -9999 -9999 -9999 -9999 -9999 -9999 -9999 -9999 -9999 -9999 -9999 -9999 -9999 -9999 -9999 -9999 -9999 -9999 -9999 -9999 -9999 -9999 -9999 -9999 -9999 -9999 -9999 -9999 -9999 -9999 -9999 -9999 -9999 -9999 -9999 -9999 -9999 -9999 -9999 -9999 -9999 -9999 -9999 -9999 -9999 -9999 -9999 -9999 -9999 -9999 -9999 -9999 -9999 -9999 -9999 -9999 -9999 -9999 -9999 -9999 -9999 -9999 -9999 -9999 -9999 -9999 -9999 -9999 -9999 -9999 100.542 103.247 109.664 105.867 108.745 106.513 105.703 107.819 99.183 105.153 104.083 96.958 96.996 93.624 93.436 93.452 94.035 95.025 93.779 93.118 93.159 93.085 93.675 93.359 92.787 92.686 92.624 92.557 92.601 92.586 92.56 92.685 92.653 92.48 92.402 92.396 92.369 92.298 92.293 92.303 92.56 92.592 93.825 98.041 94.182 95.548 95.055 92.763 92.729 92.802 92.821 92.867 92.923 93.023 93.1 93.144 93.181 93.168 93.103 93.274 97.242 98.143 98.413 98.453 98.432 98.498 97.638 97.214 94.362 93.195 93.153 93.129 94.081 93.484 92.915 92.857 92.906 93.046 96.243 97.04 95.606 93.193 92.719 92.844 94.12 95.134 93.557 96.9 98.548 95.942 93.815 93.293 93.627 92.346 92.314 92.279 92.207 92.79 102.429 101.038 94.984 92.526 92.142 92.16 93.736 94.771 95.392 93.877 92.123 91.784 93.12 93.993 93.817 94.165 94.052
80.368 80.353 80.676 80.968 80.836 81.118 81.208 83.751 82.871 82.156 81.591 80.963 80.966 80.866 80.391 80.436 80.708 81.301 81.083 81.328 81.533 81.443 82.436 81.151 82.591 84.066 82.221 81.973 81.956 82.033 82.06 82.02 82.223 82.048 81.255 81.248 81.275 81.31 83.968 86.513 89.288 88.488 87.738 85.403 81.318 82.045 80.638 80.118 79.243 78.798 78.02 77.585 76.853 76.85 76.808 76.648 76.45 76.505 76.398 76.683 77.038 76.918 77.003 79.443 83.005 84.028 84.738 83.78 82.743 78.138 77.215 77.048 77.038 78.98 88.668 78.72 88.665 80.253 79.703 79.545 91.39 85.708 91.06 88.705 87.058 83.158 82.863 85.805 87.558 77.135 77.05 77.093 77.163 77.16 77.155 77.153 77.138 77.068 77.118 77.133 78.068 79.498 79.478 79.458 79.395 79.64 79.39 77.098 74.093 73.918 66.663 64.715 64.685 64.663 64.65 64.635 66.123 64.59 64.698 64.515 64.488 65.015 64.633 64.633 66.068 65.503 64.47 64.478 64.478 64.478 64.558 64.51 64.54 64.95 64.713 64.77 64.978 65.793 65.448 64.71 64.73 64.768 64.81 64.853 64.925 65.585 65.118 65.34 65.495 65.583 65.783 66.043 66.283 66.233 66.425 70.53 73.568 73.423 73.458 66.153 66.013 65.988 65.968 65.953 65.928 65.905 65.898 65.87 65.845 65.835 65.825 65.793 65.745 65.68 65.638 65.585 65.525 65.493 65.443 65.453 65.453 65.348 65.298 65.26 65.215 65.188 65.13 65.095 66.24 -9999 -9999 -9999 -9999 -9999 -9999 -9999 -9999 -9999 -9999 -9999 -9999 -9999 -9999 -9999 -9999 -9999 -9999 -9999 -9999 -9999 -9999 -9999 -9999 -9999 -9999 -9999 -9999 -9999 -9999 -9999 -9999 -9999 -9999 -9999 -9999 -9999 -9999 -9999 -9999 -9999 -9999 -9999 -9999 -9999 -9999 -9999 -9999 -9999 -9999 -9999 -9999 -9999 -9999 -9999 -9999 -9999 -9999 -9999 -9999 -9999 -9999 -9999 -9999 -9999 -9999 -9999 -9999 -9999 -9999 -9999 -9999 -9999 -9999 -9999 -9999 -9999 -9999 -9999 -9999 -9999 -9999 -9999 -9999 -9999 -9999 -9999 -9999 -9999 -9999 -9999 -9999 -9999 -9999 -9999 -9999 -9999 -9999 -9999 -9999 -9999 -9999 -9999 -9999 -9999 -9999 -9999 -9999 -9999 -9999 -9999 -9999 -9999 -9999 -9999 -9999 -9999 -9999 -9999 -9999 -9999 -9999 -9999 -9999 -9999 -9999 -9999 -9999 -9999 -9999 -9999 -9999 -9999 -9999 -9999 -9999 -9999 -9999 -9999 -9999 -9999 -9999 -9999 104.839 107.156 107.419 106.707 106.483 102.209 97.663 101.518 105.78 106.086 97.786 95.556 93.682 93.458 94.396 95.654 93.75 94.513 93.15 93.035 93 93.408 94.406 93.928 94.045 92.689 92.531 92.685 94.98 94.576 94.299 93.168 92.466 92.427 92.377 92.351 92.302 92.218 92.213 92.233 92.439 92.965 95.194 94.444 92.636 94.281 95.06 94.248 95.596 92.778 93.044 92.871 92.891 92.952 93.047 94.118 95.608 93.369 93.106 93.193 95.203 97.026 97.62 98.281 98.494 98.497 98.107 98.284 95.058 93.071 93.073 93.093 93.155 92.891 92.768 92.833 92.917 92.852 93.381 95.968 93.14 92.845 93.053 92.655 94.801 95.384 94.288 93.334 93.287 93.659 92.969 93.259 93.776 92.412 92.242 92.206 92.169 92.096 93.652 97.395 98.077 94.207 92.104 92.088 93.571 93.38 93.218 91.957 91.985 91.794 91.63 93.191 93.886 93.903 92.303
80.226 80.138 80.281 80.261 80.358 80.463 82.786 82.883 82.863 82.838 80.616 80.646 80.413 80.116 80.086 80.496 80.921 80.733 80.991 81.183 82.753 85.688 87.226 80.656 80.648 82.178 81.998 81.881 81.896 81.923 81.898 81.953 81.543 81.098 81.115 81.153 81.238 81.233 81.208 82.485 88.025 86.625 81.13 81.013 80.005 80.22 80.168 79.76 78.43 77.988 79.005 79.215 76.918 76.603 76.598 76.51 76.333 76.173 76.238 76.068 76.243 76.455 77.075 77.075 80.59 83.183 84.18 84.623 83.62 82.605 77.403 77.125 77.005 77.388 77.108 80.908 87.49 85.848 87.02 80.883 91.205 83.82 80.12 85.43 79.41 84.098 87.178 81.15 76.983 76.973 77.038 77.1 77.138 77.138 77.14 77.123 77.093 77.105 77.113 77.693 79.443 79.458 79.43 78.585 76.988 79.655 82.763 76.278 75.653 74.025 65.735 65.128 64.643 64.618 64.603 64.595 64.578 64.548 64.508 64.48 65.858 64.543 64.485 64.583 64.718 64.453 64.423 64.413 64.413 64.425 64.433 64.45 64.478 64.503 64.53 64.68 64.698 65.09 64.943 64.638 64.665 64.713 64.753 64.828 64.958 65.25 65.818 64.958 65.405 65.735 65.933 66.33 66.188 66.683 67.068 67.4 70.993 73.52 66.75 66.018 65.988 65.96 65.938 65.903 65.89 65.87 65.858 65.835 65.8 65.798 65.77 65.723 65.675 65.625 65.578 65.538 65.483 65.445 65.4 65.375 65.458 65.455 65.28 65.225 65.173 65.118 65.08 65.42 64.968 66.018 -9999 -9999 -9999 -9999 -9999 -9999 -9999 -9999 -9999 -9999 -9999 -9999 -9999 -9999 -9999 -9999 -9999 -9999 -9999 -9999 -9999 -9999 -9999 -9999 -9999 -9999 -9999 -9999 -9999 -9999 -9999 -9999 -9999 -9999 -9999 -9999 -9999 -9999 -9999 -9999 -9999 -9999 -9999 -9999 -9999 -9999 -9999 -9999 -9999 -9999 -9999 -9999 -9999 -9999 -9999 -9999 -9999 -9999 -9999 -9999 -9999 -9999 -9999 -9999 -9999 -9999 -9999 -9999 -9999 -9999 -9999 -9999 -9999 -9999 -9999 -9999 -9999 -9999 -9999 -9999 -9999 -9999 -9999 -9999 -9999 -9999 -9999 -9999 -9999 -9999 -9999 -9999 -9999 -9999 -9999 -9999 -9999 -9999 -9999 -9999 -9999 -9999 -9999 -9999 -9999 -9999 -9999 -9999 -9999 -9999 -9999 -9999 -9999 -9999 -9999 -9999 -9999 -9999 -9999 -9999 -9999 -9999 -9999 -9999 -9999 -9999 -9999 -9999 -9999 -9999 -9999 -9999 -9999 -9999 -9999 -9999 -9999 -9999 -9999 -9999 -9999 -9999 97.423 103.479 98.368 96.892 102.629 99.601 102.797 103.513 105.382 102.637 95.92 93.713 94.057 94.591 95.238 93.692 93.149 94.667 93.238 93.449 92.912 93.344 95.491 95.035 95.702 93.676 92.526 92.797 97.13 95.707 95.285 92.731 93.115 94.436 93.462 92.321 92.224 92.187 92.353 92.262 92.367 92.919 95.718 95.489 93.871 92.74 97.445 98.549 97.717 95.329 94.512 93.425 92.853 92.891 93.711 96.367 97.212 96.154 93.849 93.078 93.156 95.99 97.405 98.114 98.237 97.964 97.734 97.02 94.499 93.074 92.967 92.935 92.932 92.973 92.878 92.735 92.816 93.029 93.128 93.079 93.103 92.887 92.716 94.088 93.743 94.978 95.148 93.327 93.559 92.699 92.192 92.208 92.698 93.577 92.214 92.175 92.115 92.09 92.119 96.082 95.953 94.212 92.439 93.596 92.736 92.212 93.765 94.93 91.879 92.068 91.671 91.577 93.209 93.857 93.929
80.086 80.008 80.006 80.141 80.218 80.336 80.476 82.896 82.856 81.183 80.606 81.256 80.033 80.063 80.066 80.058 80.081 82.091 80.988 82.406 83.216 84.166 84.018 80.541 80.476 81.708 82.271 81.796 81.798 81.928 81.878 83.048 81.803 80.973 81.03 81.098 81.073 81.053 81.033 81.725 81.06 81.275 79.933 80.118 82.073 79.883 79.828 79.283 78.383 78.39 79.368 79.345 80.655 76.628 76.35 76.323 76.205 76.268 76.16 75.928 75.778 76.545 77.298 77.105 77.54 81.145 83.33 84.325 84.453 83.453 82.448 77.435 76.938 77.01 76.973 77.265 82.073 79.963 79.268 81.75 86.56 80.753 88.6 93.443 83.173 90.375 91.108 76.905 76.955 76.975 77 77.065 77.093 77.083 77.093 77.09 77.095 77.103 78.093 79.4 79.398 79.388 78.915 79.828 76.763 77.198 78.48 74.425 73.86 74.14 67.98 64.765 64.658 64.59 64.578 64.728 64.623 64.51 64.465 64.433 64.655 64.368 65.188 64.803 64.515 64.515 64.385 64.365 64.363 64.36 64.368 64.408 64.405 64.438 64.455 64.49 64.633 64.678 64.613 64.548 64.613 64.643 64.715 64.733 64.788 64.833 64.868 64.915 65.593 66.398 66.708 66.655 67.448 67.615 67.673 67.675 71.418 66.278 66.03 65.983 65.96 65.935 65.9 65.868 65.855 65.84 65.823 65.795 65.865 66.365 65.705 65.658 65.603 65.563 65.513 65.483 65.755 65.388 65.36 65.338 65.318 65.318 65.223 65.17 65.118 65.068 65.045 64.968 64.918 64.855 65.926 -9999 -9999 -9999 -9999 -9999 -9999 -9999 -9999 -9999 -9999 -9999 -9999 -9999 -9999 -9999 -9999 -9999 -9999 -9999 -9999 -9999 -9999 -9999 -9999 -9999 -9999 -9999 -9999 -9999 -9999 -9999 -9999 -9999 -9999 -9999 -9999 -9999 -9999 -9999 -9999 -9999 -9999 -9999 -9999 -9999 -9999 -9999 -9999 -9999 -9999 -9999 -9999 -9999 -9999 -9999 -9999 -9999 -9999 -9999 -9999 -9999 -9999 -9999 -9999 -9999 -9999 -9999 -9999 -9999 -9999 -9999 -9999 -9999 -9999 -9999 -9999 -9999 -9999 -9999 -9999 -9999 -9999 -9999 -9999 -9999 -9999 -9999 -9999 -9999 -9999 -9999 -9999 -9999 -9999 -9999 -9999 -9999 -9999 -9999 -9999 -9999 -9999 -9999 -9999 -9999 -9999 -9999 -9999 -9999 -9999 -9999 -9999 -9999 -9999 -9999 -9999 -9999 -9999 -9999 -9999 -9999 -9999 -9999 -9999 -9999 -9999 -9999 -9999 -9999 -9999 -9999 -9999 -9999 -9999 -9999 -9999 -9999 -9999 -9999 -9999 92.729 93.191 93.921 97.495 98.378 101.469 104.59 104.627 104.035 101.673 94.842 93.902 94.532 95.796 94.734 93.399 93.065 93.039 93.717 94.532 93.089 92.947 92.99 95.184 95.382 95.291 95.227 92.615 95.631 98.536 98.498 98.344 97.965 97.234 96.276 93.614 92.332 92.187 92.573 93.613 92.599 92.44 93.424 95.81 96.005 93.296 92.538 96.208 99.493 97.497 95.42 97.392 95.468 92.93 92.934 94.872 96.697 97.487 97.259 95.709 93.208 92.992 94.457 97.808 97.894 97.262 96.782 94.643 93.345 92.997 92.979 92.963 92.992 93.961 94.804 93.283 92.679 93.783 94.368 93.122 92.547 94.24 97.622 97.777 95.248 93.076 92.782 95.195 94.875 94.101 92.195 92.175 92.161 92.164 93.733 92.564 92.084 92.072 92.001 92 95.125 97.252 98.201 95.93 93.968 92.405 91.936 92.142 95.264 95.921 95.85 91.712 91.603 91.517 91.896 93.746
80.016 79.928 79.861 79.993 80.093 80.213 80.363 81.576 80.633 80.531 80.336 80.001 80.013 80.041 80.041 80.011 79.998 80.331 80.836 80.773 80.136 80.178 80.211 80.271 80.371 80.466 81.536 82.143 81.843 81.053 83.293 82.628 80.998 80.848 80.938 80.945 80.895 81.083 80.768 80.43 80.103 81.883 82.475 85.723 85.743 82.225 80.3 78.915 78.575 79.315 79.62 79.638 80.343 80.975 76.158 76.08 76.035 75.898 77.11 75.693 75.633 75.533 76.748 76.693 76.81 77.205 82.475 83.47 84.465 84.325 83.328 81.713 76.968 76.925 76.918 76.975 77.385 79.148 78.828 91.688 92.25 91.228 89.623 92.753 87.95 76.855 76.888 76.908 76.9 76.958 77.013 77.035 77.055 77.058 77.053 77.073 77.1 78.195 79.388 79.37 79.365 78.848 76.593 76.37 78.388 76.005 79.723 74.285 73.788 74.51 66.543 64.595 64.568 64.553 64.558 64.675 64.485 64.478 64.433 64.398 64.358 64.345 64.675 65.493 64.465 64.45 64.435 64.323 65.48 64.483 64.315 64.715 65.595 64.358 64.39 64.403 64.423 64.568 64.853 64.528 64.67 64.593 64.638 64.688 64.725 64.775 64.815 66.26 64.89 65.065 66.065 67.78 69.25 67.585 67.428 67.473 67.52 66.595 65.998 65.945 65.93 65.883 65.86 65.843 65.818 65.795 65.778 65.753 65.72 65.833 65.665 65.588 65.543 65.495 65.458 65.425 65.793 65.51 65.31 65.28 65.265 65.213 65.168 65.115 65.07 65.033 64.965 64.923 64.86 64.81 64.758 -9999 -9999 -9999 -9999 -9999 -9999 -9999 -9999 -9999 -9999 -9999 -9999 -9999 -9999 -9999 -9999 -9999 -9999 -9999 -9999 -9999 -9999 -9999 -9999 -9999 -9999 -9999 -9999 -9999 -9999 -9999 -9999 -9999 -9999 -9999 -9999 -9999 -9999 -9999 -9999 -9999 -9999 -9999 -9999 -9999 -9999 -9999 -9999 -9999 -9999 -9999 -9999 -9999 -9999 -9999 -9999 -9999 -9999 -9999 -9999 -9999 -9999 -9999 -9999 -9999 -9999 -9999 -9999 -9999 -9999 -9999 -9999 -9999 -9999 -9999 -9999 -9999 -9999 -9999 -9999 -9999 -9999 -9999 -9999 -9999 -9999 -9999 -9999 -9999 -9999 -9999 -9999 -9999 -9999 -9999 -9999 -9999 -9999 -9999 -9999 -9999 -9999 -9999 -9999 -9999 -9999 -9999 -9999 -9999 -9999 -9999 -9999 -9999 -9999 -9999 -9999 -9999 -9999 -9999 -9999 -9999 -9999 -9999 -9999 -9999 -9999 -9999 -9999 -9999 -9999 -9999 -9999 -9999 -9999 -9999 -9999 -9999 -9999 -9999 -9999 92.53 92.57 92.626 96.452 103.158 102.738 103.868 104.436 102.531 96.16 93.86 93.755 94.442 95.199 94.718 95.466 95.44 93.135 92.901 94.454 92.816 92.39 92.638 94.818 95.553 95.266 95.744 93.271 97.765 99.149 99.595 100.579 99.381 98.831 97.731 92.785 92.467 92.239 92.29 92.777 93.385 93.875 94.798 93.061 93.207 92.611 92.365 93.376 97.488 98.938 96.014 94.981 94.664 95.026 96.343 93.436 95.22 97.669 97.086 95.058 93.102 93.01 93.361 96.235 95.861 94.255 93.664 93.081 93.011 93.023 93.036 94.22 94.94 94.709 92.854 92.82 92.766 92.735 94.143 93.51 93.949 95.807 97.579 99.192 97.038 95.324 92.884 94.405 95.151 93.871 92.351 92.149 92.113 92.096 92.541 93.56 92.289 92.025 91.971 92.226 94.22 97.095 98.555 96.229 93.624 91.942 91.712 91.736 94.629 95.992 94.923 92.418 91.555 91.501 91.454 91.722
80.116 80.821 79.796 79.793 79.963 80.076 80.286 80.416 80.653 79.931 79.876 79.968 79.988 79.998 79.986 79.971 79.998 81.913 80.366 79.906 80.053 80.068 80.136 80.746 80.511 81.876 81.006 81.478 80.778 80.815 80.863 80.835 80.82 81.273 80.945 80.328 81.333 80.758 79.993 79.763 79.85 85.063 86.005 86.863 86.588 85.448 79.655 78.898 78.768 83.443 80.093 78.645 78.285 78.355 79.663 75.853 75.823 75.758 75.588 75.373 75.435 75.348 75.695 76.003 76.163 76.855 76.81 82.625 83.655 84.648 84.155 83.16 80.425 76.923 76.86 76.815 76.683 81.055 83.078 81.503 90.578 77.985 88.933 88.468 78.378 76.79 76.795 76.843 76.89 76.978 76.993 77.033 77.033 78.348 77.048 77.08 78.403 79.368 79.353 79.36 78.51 76.18 75.843 75.61 76.203 75.663 76.878 73.765 73.775 69.478 64.61 64.573 64.538 64.51 64.53 64.498 64.488 65.265 64.388 64.365 64.343 64.308 64.598 64.535 65.718 64.393 64.36 64.388 64.358 64.248 64.295 64.253 64.5 64.68 64.315 64.33 64.355 64.38 64.445 64.573 64.558 64.535 65.655 64.62 64.675 64.71 64.755 64.813 64.858 65.558 65.613 68.38 69.295 66.643 66.61 66.065 67.345 67.22 67.18 66.02 65.873 65.845 65.81 65.793 65.773 65.76 65.723 65.708 65.665 65.618 65.575 65.523 65.483 65.445 65.403 65.37 65.33 65.305 65.265 65.23 65.203 65.155 65.11 65.063 65.108 64.983 64.92 64.845 64.818 64.76 64.713 64.648 -9999 -9999 -9999 -9999 -9999 -9999 -9999 -9999 -9999 -9999 -9999 -9999 -9999 -9999 -9999 -9999 -9999 -9999 -9999 -9999 -9999 -9999 -9999 -9999 -9999 -9999 -9999 -9999 -9999 -9999 -9999 -9999 -9999 -9999 -9999 -9999 -9999 -9999 -9999 -9999 -9999 -9999 -9999 -9999 -9999 -9999 -9999 -9999 -9999 -9999 -9999 -9999 -9999 -9999 -9999 -9999 -9999 -9999 -9999 -9999 -9999 -9999 -9999 -9999 -9999 -9999 -9999 -9999 -9999 -9999 -9999 -9999 -9999 -9999 -9999 -9999 -9999 -9999 -9999 -9999 -9999 -9999 -9999 -9999 -9999 -9999 -9999 -9999 -9999 -9999 -9999 -9999 -9999 -9999 -9999 -9999 -9999 -9999 -9999 -9999 -9999 -9999 -9999 -9999 -9999 -9999 -9999 -9999 -9999 -9999 -9999 -9999 -9999 -9999 -9999 -9999 -9999 -9999 -9999 -9999 -9999 -9999 -9999 -9999 -9999 -9999 -9999 -9999 -9999 -9999 -9999 -9999 -9999 -9999 -9999 -9999 -9999 -9999 -9999 92.451 92.515 93.007 96.075 104.862 99.95 100.82 100.407 100.325 96.373 93.412 93.622 95.051 95.491 94.588 95.565 95.588 93.695 92.825 93.421 93.277 92.36 94.375 93.823 92.668 92.977 93.108 94.887 98.268 99.459 99.898 100.227 100.233 99.069 94.403 92.421 92.443 93.913 92.471 92.654 92.291 92.277 92.306 92.302 92.302 92.276 92.32 93.254 97.737 98.132 97.54 94.403 95.079 96.277 95.786 95.964 95.206 96.547 96.794 94.692 93.088 92.99 93.06 93.997 93.177 93.119 93.171 93.01 93.059 94.354 95.461 95.103 92.802 92.673 92.705 93.321 92.84 92.653 93.969 94.403 93.662 95.007 96.909 98.143 98.288 98.486 92.858 93.221 92.522 93.168 92.413 92.143 92.123 92.114 92.184 93.913 92.636 91.947 92.449 92.354 92.048 92.37 97.035 96.535 97.132 92.237 91.618 91.571 92.477 93.154 92.368 91.261 91.844 91.429 91.393 91.308
81.563 80.471 79.853 80.443 81.663 80.173 80.196 79.976 79.788 79.736 79.711 80.096 80.028 79.946 79.983 81.428 79.573 79.528 79.096 79.601 79.798 79.931 80.206 81.671 81.763 80.791 80.598 80.696 82.686 81.258 80.575 80.413 80.255 80.295 82.438 81.66 79.895 79.868 79.748 79.565 85.33 86.315 87.128 86.72 85.888 84.145 79.07 78.92 83.068 78.545 78.755 78.31 78.28 78.238 79.148 75.765 75.575 75.55 75.455 75.28 75.065 75.928 75.023 75.023 75.443 76.668 76.71 77.418 82.798 83.803 84.725 82.27 76.878 76.82 76.763 76.723 76.618 76.013 82.803 79.423 81.61 76.4 76.53 76.6 76.643 76.978 76.768 77.698 77.925 76.943 76.985 77.02 77.025 77.043 77.075 77.585 79.38 79.355 79.34 78.173 76.873 75.488 75.148 75.055 75.078 75.035 77 74.123 73.883 68.86 65.83 64.603 64.5 64.48 64.535 64.505 65.505 65.228 64.995 64.325 64.295 64.275 64.248 64.708 64.403 65.178 64.223 64.303 64.315 64.298 65.425 64.195 64.21 64.235 64.253 64.265 64.3 64.655 64.483 64.533 64.578 65.203 64.63 64.58 64.95 64.665 64.703 64.745 64.788 65.408 64.893 65.475 68.888 66.183 65.858 65.945 66.515 66.83 67.318 67.295 65.918 65.813 65.783 65.758 65.74 65.715 65.688 65.648 65.608 65.563 65.52 65.468 65.43 65.388 65.365 65.315 65.29 65.238 65.205 65.163 65.14 65.103 65.048 65.018 65.275 65.09 64.878 64.815 64.763 64.71 64.653 64.603 64.583 -9999 -9999 -9999 -9999 -9999 -9999 -9999 -9999 -9999 -9999 -9999 -9999 -9999 -9999 -9999 -9999 -9999 -9999 -9999 -9999 -9999 -9999 -9999 -9999 -9999 -9999 -9999 -9999 -9999 -9999 -9999 -9999 -9999 -9999 -9999 -9999 -9999 -9999 -9999 -9999 -9999 -9999 -9999 -9999 -9999 -9999 -9999 -9999 -9999 -9999 -9999 -9999 -9999 -9999 -9999 -9999 -9999 -9999 -9999 -9999 -9999 -9999 -9999 -9999 -9999 -9999 -9999 -9999 -9999 -9999 -9999 -9999 -9999 -9999 -9999 -9999 -9999 -9999 -9999 -9999 -9999 -9999 -9999 -9999 -9999 -9999 -9999 -9999 -9999 -9999 -9999 -9999 -9999 -9999 -9999 -9999 -9999 -9999 -9999 -9999 -9999 -9999 -9999 -9999 -9999 -9999 -9999 -9999 -9999 -9999 -9999 -9999 -9999 -9999 -9999 -9999 -9999 -9999 -9999 -9999 -9999 -9999 -9999 -9999 -9999 -9999 -9999 -9999 -9999 -9999 -9999 -9999 -9999 -9999 -9999 -9999 -9999 -9999 -9999 94.235 95.311 96.928 98.24 99.069 98.298 98.647 98.681 96.438 92.844 92.833 94.251 94.125 93.986 95.383 95.133 93.787 93.255 93.435 93.743 92.541 95.659 96.811 93.057 93.17 93.039 95.068 96.47 97.942 98.339 99.741 99.197 98.7 94.163 92.726 94.269 94.348 92.644 93.903 92.784 92.23 92.217 92.255 92.283 92.336 92.366 92.521 95.844 95.477 96.725 95.865 96.982 96.917 96.871 95.206 96.698 95.396 96.692 94.069 92.973 94.565 94.527 95.738 93.641 93.537 93.69 93.784 94.954 94.247 92.729 92.645 92.644 92.69 93.871 94.015 93.264 92.62 93.055 94.434 93.731 93 96.719 98.188 98.535 97.416 94.583 93.056 92.517 92.339 92.613 92.126 92.101 92.058 92.953 93.568 95.193 92.908 91.863 93.134 92.312 92.627 93.013 92.746 94.005 92.144 91.863 91.491 91.531 91.221 91.191 91.142 91.139 91.575 91.279 91.187
79.986 79.978 80.733 80.123 80.091 80.083 79.736 80.131 79.663 79.618 79.586 80.503 80.138 80.221 79.831 80.863 81.193 84.483 83.078 79.256 79.581 79.853 80.773 81.501 80.371 80.391 80.566 85.293 85.828 82.248 81.298 80.278 80.773 79.893 80.805 79.73 79.668 79.643 79.523 79.43 83.288 86.035 86.425 85.598 84.763 78.935 78.91 80.87 84.29 78.135 78.293 78.293 78.273 77.095 76.128 75.89 75.5 75.3 75.265 75.168 74.98 81.385 75.693 74.728 75.48 76.358 76.138 76.53 78.358 82.968 80.688 76.738 76.71 76.638 76.553 76.055 75.38 75.655 75.743 75.96 76.13 76.29 76.448 77.055 76.02 76.23 77.18 79.16 79.353 78.82 76.96 76.983 77.038 77.06 77.778 79.373 79.345 79.328 77.918 75.9 75.093 74.445 74.715 74.72 74.73 75.1 75.813 74.31 73.988 64.563 64.538 64.493 64.453 64.445 64.465 64.428 64.42 64.953 65.21 64.685 64.425 64.22 64.205 64.173 64.525 64.15 64.625 64.56 64.263 64.253 64.125 64.17 65.428 64.165 64.455 65.053 64.238 64.348 65.623 65.035 64.55 64.588 64.55 65.908 65.36 64.63 64.663 64.695 64.733 64.788 64.843 66.078 64.995 65.818 65.973 65.83 65.833 65.988 66.29 65.99 66.498 65.95 65.75 65.72 65.693 65.663 65.628 65.593 65.555 65.51 65.463 65.415 65.385 65.343 65.3 65.278 65.228 65.178 65.15 65.12 65.093 65.035 64.998 64.983 64.945 64.933 64.835 64.773 64.73 64.663 64.613 64.555 64.693 65.569 -9999 -9999 -9999 -9999 -9999 -9999 -9999 -9999 -9999 -9999 -9999 -9999 -9999 -9999 -9999 -9999 -9999 -9999 -9999 -9999 -9999 -9999 -9999 -9999 -9999 -9999 -9999 -9999 -9999 -9999 -9999 -9999 -9999 -9999 -9999 -9999 -9999 -9999 -9999 -9999 -9999 -9999 -9999 -9999 -9999 -9999 -9999 -9999 -9999 -9999 -9999 -9999 -9999 -9999 -9999 -9999 -9999 -9999 -9999 -9999 -9999 -9999 -9999 -9999 -9999 -9999 -9999 -9999 -9999 -9999 -9999 -9999 -9999 -9999 -9999 -9999 -9999 -9999 -9999 -9999 -9999 -9999 -9999 -9999 -9999 -9999 -9999 -9999 -9999 -9999 -9999 -9999 -9999 -9999 -9999 -9999 -9999 -9999 -9999 -9999 -9999 -9999 -9999 -9999 -9999 -9999 -9999 -9999 -9999 -9999 -9999 -9999 -9999 -9999 -9999 -9999 -9999 -9999 -9999 -9999 -9999 -9999 -9999 -9999 -9999 -9999 -9999 -9999 -9999 -9999 -9999 -9999 -9999 -9999 -9999 -9999 -9999 -9999 94.338 93.121 96.361 100.658 98.356 99.119 97.705 94.332 94.315 93.283 92.668 92.638 92.66 93.093 94.8 95.39 94.257 93.133 92.555 94.72 94.87 98.152 98.709 95.607 92.998 92.913 92.657 92.762 95.332 94.147 95.903 96.397 97.456 93.458 94.536 94.331 93.663 94.464 94.005 92.289 92.191 92.151 92.249 92.288 92.36 92.386 92.42 93.026 95.45 95.184 94.955 94.882 96.07 96.436 94.662 97.604 98.586 97.53 93.567 93.235 95.812 96.573 96.484 95.851 94.861 95.314 95.392 94.17 93.715 92.822 92.637 92.714 92.734 94.229 93.078 93.066 92.596 92.526 95.266 95.252 92.583 94.764 97.424 98.295 98.023 96.292 93.087 92.128 92.326 92.576 92.343 93.038 92.09 92.414 95.51 98.115 96.19 92.155 92.412 94.572 93.269 91.737 91.429 92.303 91.87 91.498 92.274 91.426 91.082 91.061 91.072 91.115 91.121 91.118 91.974
80.523 80.383 80.056 80.066 79.831 79.698 79.621 79.561 79.498 79.516 79.501 80.148 80.893 79.261 80.773 84.488 84.483 84.488 84.468 80.051 79.386 79.796 80.228 80.081 80.188 81.048 81.466 84.548 82.421 84.398 81.138 80.37 80.913 81.46 79.64 79.5 79.503 79.39 79.38 79.235 79.135 84.505 85.11 79.265 78.888 78.853 81.83 85.148 85.79 82.723 78.155 78.298 77.168 76.535 79.45 77.698 77.21 75.2 75.038 74.975 74.868 76.498 75.59 74.62 74.44 74.448 75.698 76.335 76.458 77.083 76.64 76.598 77.51 76.455 75.148 76.32 75.8 75.388 75.623 75.81 76.095 76.375 74.325 73.963 75.355 74.793 74.06 76.148 79.11 79.308 76.978 76.953 77.04 77.938 79.345 79.328 79.285 77.198 75.793 75.153 75.305 81.218 74.13 74.248 74.285 74.62 75.74 73.313 74.085 67.453 64.578 64.45 64.42 64.408 64.395 64.343 64.298 64.258 64.283 65.353 64.408 64.153 64.14 64.128 64.11 64.098 64.628 65.093 64.163 64.15 64.17 64.723 64.065 64.08 64.713 64.158 64.168 64.208 64.62 64.288 64.368 64.523 64.585 64.81 64.52 64.668 65.093 64.65 64.688 64.738 65.34 64.833 64.89 65.068 65.718 65.715 65.745 65.693 65.823 65.815 65.95 66.415 65.978 65.66 65.635 65.603 65.568 65.535 65.5 65.455 65.428 65.383 65.338 65.29 65.753 65.23 65.175 65.133 65.113 65.083 65.028 64.99 64.96 64.935 64.913 64.855 64.79 64.74 64.678 64.638 64.573 64.558 65.068 65.208 -9999 -9999 -9999 -9999 -9999 -9999 -9999 -9999 -9999 -9999 -9999 -9999 -9999 -9999 -9999 -9999 -9999 -9999 -9999 -9999 -9999 -9999 -9999 -9999 -9999 -9999 -9999 -9999 -9999 -9999 -9999 -9999 -9999 -9999 -9999 -9999 -9999 -9999 -9999 -9999 -9999 -9999 -9999 -9999 -9999 -9999 -9999 -9999 -9999 -9999 -9999 -9999 -9999 -9999 -9999 -9999 -9999 -9999 -9999 -9999 -9999 -9999 -9999 -9999 -9999 -9999 -9999 -9999 -9999 -9999 -9999 -9999 -9999 -9999 -9999 -9999 -9999 -9999 -9999 -9999 -9999 -9999 -9999 -9999 -9999 -9999 -9999 -9999 -9999 -9999 -9999 -9999 -9999 -9999 -9999 -9999 -9999 -9999 -9999 -9999 -9999 -9999 -9999 -9999 -9999 -9999 -9999 -9999 -9999 -9999 -9999 -9999 -9999 -9999 -9999 -9999 -9999 -9999 -9999 -9999 -9999 -9999 -9999 -9999 -9999 -9999 -9999 -9999 -9999 -9999 -9999 -9999 -9999 -9999 -9999 -9999 -9999 -9999 -9999 95.368 97.443 94.611 92.825 92.608 92.539 92.597 94.586 92.806 92.565 92.575 92.575 93.876 93.859 95.142 94.734 95.836 95.47 98.403 99.757 99.743 99.755 98.408 93.177 92.208 92.213 92.734 92.331 92.135 92.353 92.275 92.243 92.289 94.295 92.43 92.82 93.039 92.259 92.157 92.2 92.223 92.323 92.318 92.337 92.399 92.381 92.809 95.571 97.232 95.134 94.662 97.096 98.94 98.716 96.264 97.016 95.834 92.83 92.877 95.674 96.121 95.13 96.227 95.564 95.859 95.83 94.541 92.76 92.653 92.836 94.419 92.818 92.698 92.729 92.605 92.621 92.439 94.657 95.182 92.864 92.419 96.261 97.926 95.242 96.827 92.528 92.18 92.604 93.544 92.919 92.143 92.041 91.984 96.521 99.304 99.608 99.505 95.568 96.366 92.521 91.45 91.436 91.374 91.59 91.737 91.447 92.039 91.122 91.115 91.016 91.084 91.103 91.059 91.141
80.113 80.063 79.956 79.818 79.643 79.568 79.456 79.623 79.576 79.501 81.116 80.886 82.623 79.571 84.498 84.486 84.473 84.473 84.458 84.456 79.188 79.478 79.773 80.678 82.576 80.303 80.098 79.551 79.766 82.693 80.448 79.86 79.88 81.03 79.375 79.328 79.268 79.205 78.943 78.523 78.615 78.723 78.73 78.79 80.808 83.425 85.36 85.665 84.53 83.325 78.085 77.148 76.885 77.135 77.745 78.13 77.268 76.328 74.863 74.743 74.68 74.553 75.113 74.235 74.203 74.155 74.05 75.26 76.303 76.378 74.823 74.26 74.38 74.57 74.765 74.88 75.06 75.263 75.68 74.59 73.688 73.668 73.685 73.75 73.805 73.788 73.75 73.95 75.788 75.96 76.655 76.95 78.57 79.31 79.29 79.28 76.893 75.255 74.923 75.468 82.195 82.578 81.26 73.893 73.818 73.795 73.728 73.175 69.958 64.473 64.435 64.395 64.375 64.373 64.338 64.288 64.248 64.208 64.183 64.72 65.085 65.605 64.163 64.048 64.035 64.023 64.463 64.795 63.938 64.025 64.09 64.108 63.995 65.193 64.308 64.213 64.11 64.15 64.205 64.243 64.28 64.365 64.528 64.578 64.718 65.895 64.808 64.605 64.655 64.688 64.728 64.785 64.83 64.888 65.398 65.428 65.563 65.54 65.648 65.74 65.793 66.095 65.96 66.118 65.6 65.553 65.51 65.478 65.45 65.41 65.37 65.333 65.29 65.265 65.218 65.81 65.143 65.108 65.07 65.015 64.978 64.938 64.915 64.88 64.843 64.808 64.753 64.688 64.64 64.588 64.523 65.493 65.615 64.975 65.215 -9999 -9999 -9999 -9999 -9999 -9999 -9999 -9999 -9999 -9999 -9999 -9999 -9999 -9999 -9999 -9999 -9999 -9999 -9999 -9999 -9999 -9999 -9999 -9999 -9999 -9999 -9999 -9999 -9999 -9999 -9999 -9999 -9999 -9999 -9999 -9999 -9999 -9999 -9999 -9999 -9999 -9999 -9999 -9999 -9999 -9999 -9999 -9999 -9999 -9999 -9999 -9999 -9999 -9999 -9999 -9999 -9999 -9999 -9999 -9999 -9999 -9999 -9999 -9999 -9999 -9999 -9999 -9999 -9999 -9999 -9999 -9999 -9999 -9999 -9999 -9999 -9999 -9999 -9999 -9999 -9999 -9999 -9999 -9999 -9999 -9999 -9999 -9999 -9999 -9999 -9999 -9999 -9999 -9999 -9999 -9999 -9999 -9999 -9999 -9999 -9999 -9999 -9999 -9999 -9999 -9999 -9999 -9999 -9999 -9999 -9999 -9999 -9999 -9999 -9999 -9999 -9999 -9999 -9999 -9999 -9999 -9999 -9999 -9999 -9999 -9999 -9999 -9999 -9999 -9999 -9999 -9999 -9999 -9999 -9999 -9999 -9999 93.457 92.913 94.853 94.714 92.441 92.415 92.463 92.455 95.149 93.457 92.501 92.538 92.468 93.174 92.412 93.442 93.473 96.511 98.609 99.75 100.133 99.785 99.339 98.523 96.73 92.479 92.312 92.08 92.04 92.086 92.148 92.154 92.208 92.247 92.242 92.117 92.1 93.679 93.625 92.164 92.266 92.413 92.745 92.434 92.3 92.399 94.736 96.809 97.592 97.901 93.862 94.444 93.39 97.421 92.388 95.745 95.706 93.569 92.672 92.843 93.507 94.064 94.067 95.812 95.815 95.482 95.139 94.619 93.102 92.677 94.351 95.196 93.79 92.618 92.493 92.457 93.045 92.695 92.295 92.395 93.807 93.439 94.766 94.083 92.776 92.99 92.465 92.349 92.32 93.122 92.518 92.187 92.031 91.96 95.087 94.506 98.111 95.403 96.81 97.292 95.716 94.657 91.455 91.424 91.583 91.443 91.378 91.127 92.137 91.252 91.461 91.323 91.06 91.036 93.395
79.941 79.936 80.526 79.531 79.623 79.631 81.546 80.063 79.566 80.453 78.578 80.206 79.973 78.703 83.593 84.473 84.466 84.461 82.763 78.988 79.083 79.833 80.641 80.196 79.408 79.476 79.178 79.148 79.661 81.07 80.648 79.705 79.555 81.29 79.195 79.18 79.158 78.463 78.395 78.44 78.503 78.56 78.613 80.098 80.655 83.193 84.905 86.06 85.29 83.5 77.808 78.003 77.528 77.555 77.46 77.215 77.068 76.923 75.758 74.56 74.458 74.39 74.253 74.05 73.873 73.838 73.803 73.758 73.77 73.815 73.92 74.05 74.213 74.39 74.553 74.773 75.51 74.423 73.638 73.66 73.943 73.695 73.7 73.708 74.283 74.483 73.835 73.883 73.855 77.615 78.185 76.645 79.273 79.265 79.245 76.423 74.778 79.51 75.61 82.19 83.15 83.448 82.463 78.908 73.388 73.315 73.303 73.125 66.375 64.895 64.435 64.363 64.34 64.325 64.288 64.238 64.19 64.155 64.123 64.09 64.908 64.615 65.61 63.99 63.95 63.945 63.94 63.923 63.893 65.275 63.968 64.083 64.053 64.153 64.1 64.023 64.05 64.105 64.148 64.203 64.235 64.283 64.37 64.545 64.585 64.743 65.405 65.18 64.628 64.655 64.69 64.738 64.785 66.11 65.81 66.553 65.393 65.53 65.493 65.568 65.68 65.785 65.848 65.973 65.57 65.523 65.483 65.445 65.405 65.37 65.328 65.29 65.25 65.203 65.168 65.128 65.093 65.063 65.005 64.965 64.928 64.895 64.858 64.89 64.913 64.743 64.703 64.65 64.593 64.535 64.47 64.565 64.73 65.585 64.82 64.91 -9999 -9999 -9999 -9999 -9999 -9999 -9999 -9999 -9999 -9999 -9999 -9999 -9999 -9999 -9999 -9999 -9999 -9999 -9999 -9999 -9999 -9999 -9999 -9999 -9999 -9999 -9999 -9999 -9999 -9999 -9999 -9999 -9999 -9999 -9999 -9999 -9999 -9999 -9999 -9999 -9999 -9999 -9999 -9999 -9999 -9999 -9999 -9999 -9999 -9999 -9999 -9999 -9999 -9999 -9999 -9999 -9999 -9999 -9999 -9999 -9999 -9999 -9999 -9999 -9999 -9999 -9999 -9999 -9999 -9999 -9999 -9999 -9999 -9999 -9999 -9999 -9999 -9999 -9999 -9999 -9999 -9999 -9999 -9999 -9999 -9999 -9999 -9999 -9999 -9999 -9999 -9999 -9999 -9999 -9999 -9999 -9999 -9999 -9999 -9999 -9999 -9999 -9999 -9999 -9999 -9999 -9999 -9999 -9999 -9999 -9999 -9999 -9999 -9999 -9999 -9999 -9999 -9999 -9999 -9999 -9999 -9999 -9999 -9999 -9999 -9999 -9999 -9999 -9999 -9999 -9999 -9999 -9999 -9999 -9999 -9999 92.807 92.884 93.532 92.62 94.126 94.715 92.866 92.425 92.554 94.541 93.003 92.427 92.286 92.346 92.246 92.826 92.452 92.668 97.929 99.228 99.154 98.571 97.618 95.857 94.972 92.304 92.183 92.008 92.018 92.059 92.088 92.072 92.163 92.129 92.68 95.171 95.578 95.431 94.13 92.429 92.17 92.384 94.456 92.74 92.408 93.968 96.454 96.706 96.28 96.351 95.394 95.576 95.259 93.829 93.769 94.292 93.101 95.865 93.685 92.834 93.128 92.532 94.049 95.409 95.112 94.082 95.052 95.097 94.629 94.681 95.872 96.509 96.313 94.262 92.557 92.419 92.372 92.295 92.231 92.203 92.933 93.658 92.45 92.368 92.089 92.058 91.956 92.248 92.213 93.197 93.372 92.925 93.844 95.937 94.288 92.625 93.435 95.024 99.562 96.512 95.325 94.49 91.37 91.295 91.214 91.141 91.107 93.098 90.942 91.009 91.177 91.227 92.074 93.623 93.629
79.776 79.878 79.713 79.563 79.478 79.468 79.538 79.386 78.851 78.571 79.418 78.263 79.121 78.501 79.631 84.133 84.451 79.473 78.876 78.961 80.043 80.606 79.111 79.143 79.433 78.866 78.891 78.911 79.543 83.268 82.56 79.633 79.36 83.16 79.108 79.4 78.318 78.315 78.335 78.373 78.433 78.73 78.71 80.503 81.195 81.81 84.043 85.108 83.923 77.605 77.475 77.295 77.505 77.3 77.228 77.163 76.975 75.933 74.54 74.475 74.235 74.165 74.09 73.948 73.748 73.525 73.475 73.458 73.445 73.685 75.013 74.465 74.018 74.35 74.705 73.915 73.613 73.613 73.63 73.665 75.32 73.815 73.715 75.088 73.895 73.74 74.328 74.828 74.233 74.363 77.975 78.203 76.648 79.283 76.748 74.838 81.748 82.35 82.193 83.16 83.528 82.573 80.035 73.573 72.968 72.78 74.28 73.213 67.36 64.55 64.45 64.32 64.303 64.278 64.225 64.175 64.14 64.098 64.07 64.318 64.148 64.745 64.293 65.333 63.95 63.863 63.855 63.858 64.068 63.98 64.69 63.91 64.213 64.005 63.933 63.985 64.01 64.055 64.095 64.148 64.193 64.243 64.29 65.23 64.515 64.575 65.545 66.333 64.58 64.628 64.648 64.69 64.73 64.778 66.413 66.073 65.233 65.46 65.433 65.6 65.595 65.84 65.94 65.71 65.45 65.453 65.438 65.4 65.355 65.31 65.283 65.225 65.203 65.158 65.135 65.078 65.053 64.998 64.975 65.04 64.87 64.84 64.803 64.745 64.753 64.693 64.64 64.598 64.553 64.498 64.455 64.423 64.708 64.29 65.683 68.255 -9999 -9999 -9999 -9999 -9999 -9999 -9999 -9999 -9999 -9999 -9999 -9999 -9999 -9999 -9999 -9999 -9999 -9999 -9999 -9999 -9999 -9999 -9999 -9999 -9999 -9999 -9999 -9999 -9999 -9999 -9999 -9999 -9999 -9999 -9999 -9999 -9999 -9999 -9999 -9999 -9999 -9999 -9999 -9999 -9999 -9999 -9999 -9999 -9999 -9999 -9999 -9999 -9999 -9999 -9999 -9999 -9999 -9999 -9999 -9999 -9999 -9999 -9999 -9999 -9999 -9999 -9999 -9999 -9999 -9999 -9999 -9999 -9999 -9999 -9999 -9999 -9999 -9999 -9999 -9999 -9999 -9999 -9999 -9999 -9999 -9999 -9999 -9999 -9999 -9999 -9999 -9999 -9999 -9999 -9999 -9999 -9999 -9999 -9999 -9999 -9999 -9999 -9999 -9999 -9999 -9999 -9999 -9999 -9999 -9999 -9999 -9999 -9999 -9999 -9999 -9999 -9999 -9999 -9999 -9999 -9999 -9999 -9999 -9999 -9999 -9999 -9999 -9999 -9999 -9999 -9999 -9999 -9999 -9999 -9999 -9999 -9999 92.519 92.309 92.261 93.865 94.802 93.128 92.451 92.342 92.435 93.349 92.866 96.801 97.484 92.781 92.23 92.637 92.248 96.212 98.386 97.884 95.357 92.666 92.81 92.22 92.146 91.939 91.901 92.001 92.26 91.963 92.018 92.007 95.54 97.084 98.028 98.509 97.138 94.846 93.548 93.777 94.678 96.1 98.082 94.68 95.628 94.721 93.388 95.482 97.272 96.075 95.036 94.911 94.203 94.388 94.809 95.268 98.641 97.958 93.065 92.854 92.877 92.543 92.543 92.552 92.578 94.997 95.46 95.941 96.323 96.81 97.143 98.042 95.574 92.371 92.364 92.295 92.76 92.19 92.129 92.764 93.397 93.107 92.294 91.995 92.606 91.936 91.907 91.973 92.215 93.068 92.666 93.872 97.337 96.386 95.18 94.62 99.172 97.87 92.365 94.278 93.973 93.339 91.239 91.194 91.114 92.294 93.457 91.341 90.731 92.272 92.106 92.782 93.495 96.643
79.501 79.716 79.721 79.673 79.503 79.446 79.448 78.708 78.256 78.051 78.078 78.056 78.043 78.048 78.263 78.773 78.621 78.703 79.078 79.638 78.406 79.091 78.028 78.651 78.751 78.786 78.796 79.221 79.446 83.398 83.408 78.595 80.268 79.26 78.993 78.778 79.66 78.23 78.273 78.303 78.318 79.348 78.958 77.94 80.868 81.29 81.508 80.828 77.715 77.66 77.143 76.895 76.795 76.98 77.06 76.955 77.833 74.578 74.533 74.393 74.22 73.925 73.878 73.793 73.648 73.448 73.263 73.203 73.218 73.315 73.498 74.005 73.948 74.465 73.508 73.54 73.585 73.663 73.648 75.215 77.398 76.143 73.86 74.315 74.265 73.73 73.775 74.85 74.608 73.683 74.598 77.603 75.718 76.723 74.153 81.955 82.913 83.33 83.16 83.525 82.568 78.11 73.84 74.043 72.755 72.303 73.788 74.005 65.9 64.463 64.318 64.285 64.27 64.345 64.253 64.118 64.08 64.043 64.145 63.978 63.938 64.7 64.508 64.93 64.615 63.803 63.783 63.765 63.763 64.715 63.768 63.78 63.895 63.95 64.01 63.923 64.315 64.865 64.048 64.085 64.143 64.193 65.663 64.295 64.368 64.53 64.82 64.508 64.523 64.565 64.608 64.658 64.69 64.733 64.778 65.153 65.93 64.973 65.595 65.63 65.64 65.948 65.683 65.31 65.34 65.348 65.383 65.338 65.303 65.25 65.205 65.19 65.173 65.128 65.088 65.043 65.003 64.943 64.915 65.205 65.063 64.805 64.74 64.705 64.66 64.61 64.585 64.55 64.503 64.463 64.425 64.473 64.368 63.613 63.268 69.015 64.388 -9999 -9999 -9999 -9999 -9999 -9999 -9999 -9999 -9999 -9999 -9999 -9999 -9999 -9999 -9999 -9999 -9999 -9999 -9999 -9999 -9999 -9999 -9999 -9999 -9999 -9999 -9999 -9999 -9999 -9999 -9999 -9999 -9999 -9999 -9999 -9999 -9999 -9999 -9999 -9999 -9999 -9999 -9999 -9999 -9999 -9999 -9999 -9999 -9999 -9999 -9999 -9999 -9999 -9999 -9999 -9999 -9999 -9999 -9999 -9999 -9999 -9999 -9999 -9999 -9999 -9999 -9999 -9999 -9999 -9999 -9999 -9999 -9999 -9999 -9999 -9999 -9999 -9999 -9999 -9999 -9999 -9999 -9999 -9999 -9999 -9999 -9999 -9999 -9999 -9999 -9999 -9999 -9999 -9999 -9999 -9999 -9999 -9999 -9999 -9999 -9999 -9999 -9999 -9999 -9999 -9999 -9999 -9999 -9999 -9999 -9999 -9999 -9999 -9999 -9999 -9999 -9999 -9999 -9999 -9999 -9999 -9999 -9999 -9999 -9999 -9999 -9999 -9999 -9999 -9999 -9999 -9999 -9999 -9999 -9999 -9999 -9999 92.19 92.202 92.368 94.136 94.351 92.562 92.188 92.567 96.692 98.046 98.686 98.515 94.847 92.417 92.244 92.128 93.814 96.059 93.647 92.346 92.431 92.222 92.18 92.138 91.852 91.843 91.762 91.85 91.781 91.837 92.442 95.927 98.075 99.078 99.412 97.952 95.734 95.076 97.664 97.179 99.228 97.669 93.791 93.846 93.956 92.685 97.954 97.9 96.993 99.347 96.408 97.03 96.374 93.397 92.493 93.936 94.903 92.595 92.767 92.468 92.644 92.537 92.871 93.714 94.693 96.682 97.435 97.659 98.033 97.676 97.376 96.046 93.278 92.492 92.175 92.818 97.11 98.041 98.15 97.303 93.927 96.125 94.376 96.191 91.883 91.816 92.011 92.517 92.246 92.171 94.668 97.836 96.393 95.154 97.873 99.225 95.15 92.63 93.51 94.287 93.06 91.945 91.129 91.052 91.98 90.811 90.644 90.613 91.063 92.602 91.337 91.386 96.901
79.221 84.168 79.508 79.986 79.436 80.211 78.621 80.476 78.036 77.966 77.861 77.966 78.483 78.976 78.951 78.208 78.433 79.263 78.856 79.813 82.263 83.321 78.593 77.916 78.428 78.761 80.256 79.723 78.131 80.765 82.605 79.953 79.98 79.425 78.9 80.3 80.333 78.588 78.215 78.08 77.653 77.54 77.583 77.978 77.953 80.098 77.928 77.695 77.733 76.955 76.685 76.658 76.615 76.473 76.9 78.08 78.895 78.7 74.513 74.365 74.898 74.093 73.63 73.588 73.5 73.348 73.14 72.993 72.983 73.1 73.19 74.185 73.03 73.1 73.35 73.533 73.818 74.438 76.548 80.188 80.118 75.238 73.94 73.865 73.77 73.735 73.743 74.178 73.75 73.795 73.85 75.733 75.933 74.635 75.33 82.198 83.168 84.048 83.545 82.59 81.62 73.863 73.845 73.9 71.378 71.458 71.52 72.405 64.325 64.295 64.283 64.25 64.215 64.33 64.368 65.358 64.038 63.985 63.943 63.898 65.445 64.275 64.335 64.045 63.715 63.71 63.703 63.705 63.705 63.705 63.725 63.843 64.47 64.013 63.97 64.005 64.423 63.978 64.025 64.053 64.095 64.143 64.193 64.25 64.29 64.35 64.513 64.943 64.508 64.493 64.65 64.66 64.645 64.698 64.733 64.798 65.043 66.123 65.035 65.743 65.665 65.59 65.188 65.205 65.225 65.243 65.473 66.088 65.253 65.188 65.163 65.143 65.108 65.08 65.05 64.99 64.943 64.913 64.865 64.823 64.828 65.108 64.7 64.645 64.593 64.568 64.528 64.5 64.45 64.418 64.46 64.683 63.815 63.313 63.545 66.905 66.778 65.655 -9999 -9999 -9999 -9999 -9999 -9999 -9999 -9999 -9999 -9999 -9999 -9999 -9999 -9999 -9999 -9999 -9999 -9999 -9999 -9999 -9999 -9999 -9999 -9999 -9999 -9999 -9999 -9999 -9999 -9999 -9999 -9999 -9999 -9999 -9999 -9999 -9999 -9999 -9999 -9999 -9999 -9999 -9999 -9999 -9999 -9999 -9999 -9999 -9999 -9999 -9999 -9999 -9999 -9999 -9999 -9999 -9999 -9999 -9999 -9999 -9999 -9999 -9999 -9999 -9999 -9999 -9999 -9999 -9999 -9999 -9999 -9999 -9999 -9999 -9999 -9999 -9999 -9999 -9999 -9999 -9999 -9999 -9999 -9999 -9999 -9999 -9999 -9999 -9999 -9999 -9999 -9999 -9999 -9999 -9999 -9999 -9999 -9999 -9999 -9999 -9999 -9999 -9999 -9999 -9999 -9999 -9999 -9999 -9999 -9999 -9999 -9999 -9999 -9999 -9999 -9999 -9999 -9999 -9999 -9999 -9999 -9999 -9999 -9999 -9999 -9999 -9999 -9999 -9999 -9999 -9999 -9999 -9999 -9999 -9999 -9999 92.094 92.426 92.715 93.109 94.085 92.747 94.465 97.841 98.519 99.431 99.642 99.21 97.497 93.202 92.2 92.236 92.08 92.238 92.187 92.087 92.155 92.226 92.684 92.092 91.683 91.646 91.608 91.636 91.624 91.955 92.214 93.624 97.637 98.664 99.484 99.793 95.652 95.26 97.056 97.132 98.194 94.653 95.449 99.025 99.453 102.093 101.624 99.123 97.336 97.721 96.782 95.684 94.345 96.348 92.444 92.468 92.45 93.26 93.185 93.239 92.936 92.416 92.549 94.44 94.685 97.307 99.026 97.789 97.328 96.628 95.821 95.499 92.811 92.279 91.982 93.411 100.751 102.73 100.477 98.427 94.611 96.083 96.511 95.99 93.607 91.854 96.152 93.199 98.168 91.994 96.697 99.231 99.014 94.762 92.9 94.749 95.024 93.19 92.273 92.757 91.035 92.174 93.024 92.468 91.522 90.742 90.703 90.66 90.752 91.191 93.063 91.271 92.408
79.311 79.078 83.253 82.578 81.131 78.643 78.241 78.111 77.921 77.841 79.411 80.206 80.151 77.231 77.583 78.013 79.413 79.223 82.441 84.248 83.711 83.826 82.733 77.226 78.186 80.368 80.768 78.138 78.023 78.165 78.255 78.618 79.663 80.325 78.623 80.295 80.323 79.48 78.823 77.583 77.455 77.468 77.48 77.483 77.545 77.418 77.713 77.95 76.915 76.773 76.593 76.568 76.415 76.203 76.928 78.698 79.218 78.345 76.208 74.455 75.108 74.618 73.615 73.345 73.288 73.198 73.048 72.848 72.735 72.79 72.765 72.618 72.653 72.85 73.108 75.568 75.37 77.583 80.27 81.21 81.053 80.045 74.708 73.83 73.765 73.725 73.75 73.74 73.913 73.885 74.72 79.85 87.64 83.583 73.528 75.02 82.203 83.163 84.065 83.345 82.36 79.44 73.948 71.103 71.145 73.943 71.338 68.088 65.543 65.453 64.24 64.19 64.16 64.165 68.38 64.97 64.165 63.92 63.873 63.843 63.815 64.33 64.675 63.693 63.655 63.628 64.25 64.23 63.753 64.31 63.658 63.723 64.565 65.023 63.943 63.953 64.003 63.935 63.973 64.013 64.043 64.095 64.14 64.185 64.24 64.275 64.343 64.495 64.545 64.495 65.933 64.658 64.598 64.645 64.713 64.748 64.803 64.858 64.9 65.275 65.435 65.043 65.075 65.12 65.12 65.895 66.13 65.605 66.368 65.173 65.118 65.095 65.065 65.04 64.985 64.943 64.905 64.873 64.815 64.778 64.733 64.735 64.718 64.59 64.545 64.51 64.605 64.503 64.41 64.565 65.06 65.235 63.33 63.168 63.245 65.678 65.59 65.575 -9999 -9999 -9999 -9999 -9999 -9999 -9999 -9999 -9999 -9999 -9999 -9999 -9999 -9999 -9999 -9999 -9999 -9999 -9999 -9999 -9999 -9999 -9999 -9999 -9999 -9999 -9999 -9999 -9999 -9999 -9999 -9999 -9999 -9999 -9999 -9999 -9999 -9999 -9999 -9999 -9999 -9999 -9999 -9999 -9999 -9999 -9999 -9999 -9999 -9999 -9999 -9999 -9999 -9999 -9999 -9999 -9999 -9999 -9999 -9999 -9999 -9999 -9999 -9999 -9999 -9999 -9999 -9999 -9999 -9999 -9999 -9999 -9999 -9999 -9999 -9999 -9999 -9999 -9999 -9999 -9999 -9999 -9999 -9999 -9999 -9999 -9999 -9999 -9999 -9999 -9999 -9999 -9999 -9999 -9999 -9999 -9999 -9999 -9999 -9999 -9999 -9999 -9999 -9999 -9999 -9999 -9999 -9999 -9999 -9999 -9999 -9999 -9999 -9999 -9999 -9999 -9999 -9999 -9999 -9999 -9999 -9999 -9999 -9999 -9999 -9999 -9999 -9999 -9999 -9999 -9999 -9999 -9999 -9999 -9999 -9999 92.194 93.023 94.018 92.572 92.583 92.395 96.598 98.484 99.31 99.882 99.882 98.813 97.787 93.367 92.118 92.084 91.882 91.811 92 91.977 92.036 91.894 91.717 91.701 91.623 91.571 91.616 91.581 92.017 92.202 92.276 92.979 97.293 98.613 99.752 98.919 97.32 94.775 92.736 94.592 95.608 95.257 98.397 100.525 100.333 101.72 99.484 96.856 94.899 94.45 93.16 93.655 93.555 93.317 93.519 94.037 93.208 93.401 92.745 92.391 92.334 92.323 92.329 93.844 93.125 96.678 97.358 96.597 96.154 95.166 92.136 92.019 92.121 92.053 92.007 93.941 103.687 104.607 102.802 100.362 94.141 94.412 94.102 94.144 92.566 95.204 98.151 98.107 100.713 93.612 100.083 99.66 98.989 93.538 91.529 91.536 94.299 95.068 91.351 90.788 90.726 91.182 92.496 92.073 92.357 90.822 90.801 90.669 90.661 92.197 95.137 93.546 91.931
79.126 79.148 80.366 81.116 78.823 78.418 78.283 77.978 78.336 78.898 76.893 78.223 77.221 76.873 77.813 79.526 78.046 77.836 84.156 83.976 84.276 82.838 77.138 77.266 77.941 77.756 77.891 77.896 77.896 78.01 77.955 78.073 78.158 77.69 77.97 78.898 78.728 79.953 80.648 78.445 77.318 77.328 77.335 77.325 77.37 77.87 77.25 76.678 76.438 76.5 76.6 76.295 75.575 75.155 75.198 74.728 78.17 75.288 74.423 74.375 74.628 74.325 74.19 73.303 73.053 73.008 72.903 72.745 72.53 72.458 72.435 72.38 72.403 72.703 73.818 73.638 78.358 80.355 81.283 81.985 81.145 80.185 74.955 73.81 73.863 73.728 74.18 73.87 73.588 73.57 74.218 86.798 86.848 87.013 73.21 73.228 75.303 82.205 83.185 84.078 83.353 82.358 80.178 71.035 71.078 71.168 71.648 66.833 64.223 64.203 64.193 64.143 64.095 64.953 64.483 64.82 65.213 63.898 63.82 63.795 63.745 63.823 63.665 64.598 63.693 63.743 64.393 64.265 63.57 64.305 63.633 63.625 63.95 64.193 65.135 64.683 63.948 63.993 63.923 63.98 64.33 64.063 64.113 64.135 64.178 64.213 64.263 64.35 64.513 64.545 64.778 64.5 65.655 64.718 64.665 64.718 64.75 64.803 65.09 65.118 64.943 64.965 64.993 65.008 65.223 66.088 65.988 65.49 65.593 65.673 65.08 65.045 65.015 64.973 64.928 64.903 65.09 65.388 64.883 64.713 64.695 64.655 64.608 64.55 64.515 64.478 64.448 65.393 64.395 64.765 63.755 63.238 63.748 71.45 67.39 65.515 65.518 65.495 65.473 -9999 -9999 -9999 -9999 -9999 -9999 -9999 -9999 -9999 -9999 -9999 -9999 -9999 -9999 -9999 -9999 -9999 -9999 -9999 -9999 -9999 -9999 -9999 -9999 -9999 -9999 -9999 -9999 -9999 -9999 -9999 -9999 -9999 -9999 -9999 -9999 -9999 -9999 -9999 -9999 -9999 -9999 -9999 -9999 -9999 -9999 -9999 -9999 -9999 -9999 -9999 -9999 -9999 -9999 -9999 -9999 -9999 -9999 -9999 -9999 -9999 -9999 -9999 -9999 -9999 -9999 -9999 -9999 -9999 -9999 -9999 -9999 -9999 -9999 -9999 -9999 -9999 -9999 -9999 -9999 -9999 -9999 -9999 -9999 -9999 -9999 -9999 -9999 -9999 -9999 -9999 -9999 -9999 -9999 -9999 -9999 -9999 -9999 -9999 -9999 -9999 -9999 -9999 -9999 -9999 -9999 -9999 -9999 -9999 -9999 -9999 -9999 -9999 -9999 -9999 -9999 -9999 -9999 -9999 -9999 -9999 -9999 -9999 -9999 -9999 -9999 -9999 -9999 -9999 -9999 -9999 -9999 -9999 -9999 -9999 92.503 93.37 96.543 96.039 94.02 92.629 94.171 97.908 99.087 99.27 98.917 96.704 94.577 92.044 91.922 91.88 92.033 91.674 91.829 92.149 91.645 91.585 91.586 91.499 91.52 91.537 91.577 91.6 92.269 92.063 93.094 92.697 94.412 97.989 99.14 98.878 97.726 94.998 94.036 92.329 94.408 94.631 97.714 99.534 99.17 97.647 93.421 92.73 92.558 93.487 92.587 92.501 92.423 92.412 92.605 93.061 92.759 93.597 92.289 92.301 92.299 92.299 92.333 92.303 94.614 95.185 96.214 96.96 93.113 92.178 91.979 91.951 92.013 92.024 91.952 93.174 102.444 104.518 104.593 99.749 93.398 92.991 95.649 93.331 92.858 100.832 100.504 98.97 98.624 98.811 100.256 98.632 98.79 98.003 91.206 91.115 94.185 95.92 91.419 90.749 90.697 90.724 90.711 90.765 91.356 92.495 92.441 91.062 90.848 95.328 96.935 96.765 95.256
79.106 80.006 78.781 78.961 78.591 78.471 78.133 78.938 78.078 77.331 76.538 76.388 76.391 77.816 79.311 78.753 77.533 76.996 81.456 82.581 83.853 83.946 81.341 77.298 77.353 77.453 77.553 77.736 77.773 77.778 77.828 79.433 77.525 77.278 79.625 78.495 79.725 80.77 80.308 77.225 77.263 77.288 77.165 77.24 76.663 76.325 76.535 76.355 76.218 76.105 76.29 76.143 74.703 74.69 78.478 80.585 74.513 74.43 74.51 74.395 74.193 74.268 73.983 73.94 72.985 72.758 72.695 72.59 72.428 72.198 72.22 72.125 72.263 72.783 72.933 73.373 74.598 79.923 80.903 81.03 80.11 74.91 73.633 73.635 73.678 73.795 73.815 73.653 73.735 75.67 73.543 74.105 73.29 73.338 72.83 72.925 73.715 76.06 82.195 83.178 83.33 82.335 76.13 70.9 72.215 72.143 71.623 64.248 64.41 64.175 64.14 64.093 64.058 64.008 64.795 64.693 64.8 63.853 63.783 63.725 63.683 63.635 63.693 63.748 63.56 63.508 64.57 63.483 63.498 63.533 63.568 63.613 63.6 63.733 64.493 64.698 64.42 63.943 63.998 66.333 65.048 64.038 64.055 64.103 64.128 64.168 64.218 64.28 65.025 64.525 64.965 64.923 64.798 65.76 64.62 64.67 64.705 64.748 64.778 64.82 64.855 64.87 64.905 64.908 64.933 65.468 65.483 65.43 65.275 65.9 65.01 64.998 64.96 64.868 64.898 64.838 64.64 64.828 64.705 64.823 64.623 64.588 64.555 64.51 64.47 64.443 64.398 64.423 64.875 64.03 63.41 63.013 64.173 69.058 70.66 65.845 65.46 65.398 65.463 65.54 -9999 -9999 -9999 -9999 -9999 -9999 -9999 -9999 -9999 -9999 -9999 -9999 -9999 -9999 -9999 -9999 -9999 -9999 -9999 -9999 -9999 -9999 -9999 -9999 -9999 -9999 -9999 -9999 -9999 -9999 -9999 -9999 -9999 -9999 -9999 -9999 -9999 -9999 -9999 -9999 -9999 -9999 -9999 -9999 -9999 -9999 -9999 -9999 -9999 -9999 -9999 -9999 -9999 -9999 -9999 -9999 -9999 -9999 -9999 -9999 -9999 -9999 -9999 -9999 -9999 -9999 -9999 -9999 -9999 -9999 -9999 -9999 -9999 -9999 -9999 -9999 -9999 -9999 -9999 -9999 -9999 -9999 -9999 -9999 -9999 -9999 -9999 -9999 -9999 -9999 -9999 -9999 -9999 -9999 -9999 -9999 -9999 -9999 -9999 -9999 -9999 -9999 -9999 -9999 -9999 -9999 -9999 -9999 -9999 -9999 -9999 -9999 -9999 -9999 -9999 -9999 -9999 -9999 -9999 -9999 -9999 -9999 -9999 -9999 -9999 -9999 -9999 -9999 -9999 -9999 -9999 -9999 -9999 -9999 -9999 96.492 98.354 96.657 95.666 92.292 92.877 97.307 97.961 96.775 95.924 93.011 91.967 91.965 91.879 91.654 91.908 91.576 91.553 91.493 91.52 91.454 91.339 91.477 91.419 91.529 91.585 91.657 91.839 91.855 92.273 91.991 94.191 97.4 97.99 97.256 95.762 92.293 92.442 93.783 94.714 96.218 97.768 97.55 93.491 92.342 92.684 92.784 92.47 95.742 94.047 92.443 92.381 92.345 92.26 92.218 92.313 92.215 92.241 92.295 92.283 92.281 92.252 92.206 92.839 94.683 93.288 93.255 92.119 91.942 92.547 93.862 92.596 94.269 95.023 92.979 93.989 98.37 102.085 94.28 91.818 91.804 92.755 92.915 98.694 100.47 101.831 99.776 98.281 98.236 99.297 98.939 98.261 91.189 91.045 91.05 93.694 95.815 95.313 90.808 90.687 90.717 90.692 90.686 90.763 92.346 93.186 92.941 94.325 96.636 97.699 97.536 96.69
79.046 78.908 78.786 78.571 79.336 79.458 79.163 76.968 77.528 76.551 77.398 76.326 76.191 76.236 76.783 77.696 76.791 76.826 77.528 77.213 82.771 84.328 83.653 78.796 77.123 77.381 77.268 77.958 77.996 78.468 77.71 77.36 77.213 77.173 78.685 77.578 77.71 79.988 77.265 77.32 77.995 79.283 79.31 77.255 76.39 76.35 76.29 76.125 75.978 75.935 75.443 74.94 75.528 74.91 80.92 81.423 79.093 74.38 76.223 74.245 74.033 73.945 73.85 73.735 73.653 72.663 72.46 72.41 72.298 72.118 71.91 72.013 71.85 71.788 72.16 73.948 73.588 77.148 79.958 79.995 74.225 73.635 73.62 73.638 73.61 73.695 73.598 73.665 73.768 75.57 74.358 74.635 72.585 72.528 72.52 72.563 72.67 74.635 74.46 82.19 82.328 74.048 70.823 70.878 71.13 71 71.815 65.01 65.59 64.143 64.1 64.048 64.01 63.965 63.93 64.935 63.943 63.788 63.73 63.67 63.628 63.59 63.573 63.56 65.323 65.75 63.633 63.425 63.448 63.478 63.533 63.783 64.775 63.593 64.008 64.963 63.883 64.213 63.94 65.343 63.92 63.99 64.025 64.073 64.115 64.128 64.178 65.523 64.293 64.37 64.518 64.543 65.255 64.498 65.505 64.62 64.69 64.678 64.728 64.743 64.763 64.8 64.813 64.805 64.805 64.848 65.718 65.835 65.705 64.895 65.113 64.94 64.908 64.74 64.535 63.898 63.048 62.58 63.558 64.553 64.84 64.525 64.508 64.455 64.41 64.38 64.368 64.74 64.4 66.585 63.098 63.018 64.103 67.278 65.4 65.4 65.345 65.385 65.458 65.553 65.603 -9999 -9999 -9999 -9999 -9999 -9999 -9999 -9999 -9999 -9999 -9999 -9999 -9999 -9999 -9999 -9999 -9999 -9999 -9999 -9999 -9999 -9999 -9999 -9999 -9999 -9999 -9999 -9999 -9999 -9999 -9999 -9999 -9999 -9999 -9999 -9999 -9999 -9999 -9999 -9999 -9999 -9999 -9999 -9999 -9999 -9999 -9999 -9999 -9999 -9999 -9999 -9999 -9999 -9999 -9999 -9999 -9999 -9999 -9999 -9999 -9999 -9999 -9999 -9999 -9999 -9999 -9999 -9999 -9999 -9999 -9999 -9999 -9999 -9999 -9999 -9999 -9999 -9999 -9999 -9999 -9999 -9999 -9999 -9999 -9999 -9999 -9999 -9999 -9999 -9999 -9999 -9999 -9999 -9999 -9999 -9999 -9999 -9999 -9999 -9999 -9999 -9999 -9999 -9999 -9999 -9999 -9999 -9999 -9999 -9999 -9999 -9999 -9999 -9999 -9999 -9999 -9999 -9999 -9999 -9999 -9999 -9999 -9999 -9999 -9999 -9999 -9999 -9999 -9999 -9999 -9999 -9999 -9999 -9999 -9999 98.387 98.048 93.857 93.515 91.938 93.795 95.855 93.087 92.342 92.481 92.016 92.053 91.962 91.613 91.434 91.406 91.35 91.325 91.372 91.431 91.421 91.458 91.445 91.518 91.546 91.641 91.583 91.687 91.876 91.903 91.993 92.269 92.238 92.318 92.137 92.058 92.12 94.005 92.883 93.063 96.002 96.098 92.868 92.661 92.874 92.416 92.493 94.964 95.109 92.535 92.351 92.34 92.219 92.18 92.345 92.545 92.223 92.228 92.241 92.206 92.212 92.192 92.138 92.457 92.108 92.058 92.464 92.003 99.874 99.008 96.815 95.652 96.34 93.745 91.965 91.869 97.252 94.01 91.679 92.14 93.138 93.501 91.988 99.35 100.22 97.236 92.283 91.492 97.206 97.222 94.235 91.147 91.029 90.927 91.009 92.486 92.513 91.436 90.756 90.676 90.693 90.684 90.601 91.078 91.529 92.973 93.498 97.224 97.461 98.282 97.79
78.971 78.886 78.751 78.566 78.373 77.946 78.548 77.803 76.816 77.421 76.396 76.251 77.583 77.221 79.628 78.616 76.318 76.621 76.813 76.908 77.153 83.066 84.388 83.313 76.958 76.928 77.986 78.301 78.868 77.698 77.248 76.613 77.033 77.1 77.128 77.635 79.04 77.398 77.765 79.105 79.208 79.258 77.33 76.305 77.113 76.343 76.743 76.46 75.713 75.153 77.148 77.635 76.255 76.143 80.725 81.728 81.158 76.308 74.09 74.648 73.94 73.8 73.71 73.56 73.43 73.263 72.325 72.173 72.125 72 71.82 71.588 71.7 71.53 71.475 72.518 74.315 73.575 74.98 73.923 73.633 73.63 73.618 73.618 73.575 73.55 73.618 72.693 74.23 74.815 72.055 72.093 72.063 72.075 72.103 72.163 72.068 71.56 73.585 74.638 74.848 70.673 70.76 70.908 71.023 71.63 70.528 64.158 64.125 64.11 64.055 63.993 64.098 63.928 63.993 63.868 63.783 63.728 63.675 63.633 63.595 63.56 63.55 63.463 65.77 65.923 67.65 67.25 63.563 63.425 64.408 63.765 63.75 63.563 63.585 63.63 64.898 64.053 64.173 63.985 63.985 63.915 63.978 64.025 64.068 64.115 64.15 64.19 64.253 64.308 64.37 64.508 64.553 65.633 64.653 64.573 64.595 64.63 64.64 64.653 64.688 64.713 66.153 64.78 64.733 64.753 64.785 64.908 64.798 64.815 64.83 64.95 65.495 65.873 64.365 63.503 62.858 62.57 62.56 63.605 64.248 64.765 64.433 64.405 64.373 64.335 64.91 64.895 63.98 63.278 63.045 63.263 65.51 65.34 65.345 65.288 65.305 65.373 65.453 65.528 65.608 -9999 -9999 -9999 -9999 -9999 -9999 -9999 -9999 -9999 -9999 -9999 -9999 -9999 -9999 -9999 -9999 -9999 -9999 -9999 -9999 -9999 -9999 -9999 -9999 -9999 -9999 -9999 -9999 -9999 -9999 -9999 -9999 -9999 -9999 -9999 -9999 -9999 -9999 -9999 -9999 -9999 -9999 -9999 -9999 -9999 -9999 -9999 -9999 -9999 -9999 -9999 -9999 -9999 -9999 -9999 -9999 -9999 -9999 -9999 -9999 -9999 -9999 -9999 -9999 -9999 -9999 -9999 -9999 -9999 -9999 -9999 -9999 -9999 -9999 -9999 -9999 -9999 -9999 -9999 -9999 -9999 -9999 -9999 -9999 -9999 -9999 -9999 -9999 -9999 -9999 -9999 -9999 -9999 -9999 -9999 -9999 -9999 -9999 -9999 -9999 -9999 -9999 -9999 -9999 -9999 -9999 -9999 -9999 -9999 -9999 -9999 -9999 -9999 -9999 -9999 -9999 -9999 -9999 -9999 -9999 -9999 -9999 -9999 -9999 -9999 -9999 -9999 -9999 -9999 -9999 -9999 -9999 -9999 -9999 -9999 97.349 97.086 94.543 91.994 92.488 92.13 92.395 92.572 92.326 92.915 92.212 92.061 91.801 91.41 91.265 91.228 91.249 91.325 91.344 91.395 91.41 91.378 91.46 91.556 91.507 91.526 91.585 91.558 91.629 91.713 91.777 91.83 91.908 92.223 92.629 97.142 92.975 92.568 92.3 92.441 92.552 93.051 93.224 92.881 92.736 92.291 94.097 92.92 96.472 95.06 92.515 92.33 92.238 92.307 92.813 94.41 92.246 92.133 92.196 92.153 92.137 92.143 92.095 92.089 92.082 92.181 93.469 93.748 98.031 98.542 97.332 93.841 91.938 91.91 91.73 91.679 91.566 92.584 92.83 93.104 91.859 93.484 91.384 97.269 94.342 95.003 93.692 92.583 91.655 93.221 92.127 91.361 91.033 90.998 90.868 90.812 91.19 91.307 90.707 90.709 90.682 90.613 90.564 90.471 90.909 91.982 92.981 93.468 96.257 97.251 97.013
79.661 78.893 78.831 78.676 78.023 82.546 77.626 77.568 77.033 76.428 76.218 76.126 78.533 76.756 76.148 75.748 76.418 76.491 76.701 76.908 76.613 80.138 83.401 84.348 82.978 76.241 78.356 78.383 78.541 76.575 76.553 76.533 76.695 76.85 77.18 77.365 77.24 76.99 78.315 79.01 79.065 78.008 76.18 75.38 75.498 75.748 77.133 77.13 77.135 74.568 77.855 77.773 78.913 80.958 81.743 82.578 81.948 80.92 75.398 73.133 73.06 73.685 73.57 73.418 73.25 73.173 72.885 72.013 71.933 71.848 71.693 71.508 71.308 71.42 71.243 71.56 72.555 74.558 73.6 73.603 73.623 73.615 73.605 73.56 73.15 72.213 70.865 73.315 70.53 70.63 70.933 71.363 71.56 71.593 71.528 71.598 71.258 71.66 71.49 71.03 70.508 70.578 70.725 71.183 71.618 71.08 70.968 64.155 64.095 64.068 64 63.985 64.118 64.685 64.695 63.785 63.738 63.678 63.635 63.593 63.555 64.048 64.655 63.625 64.038 68.845 69.15 68.74 68.655 64.07 64.305 63.61 63.675 63.535 63.573 63.6 63.635 65.193 64.415 63.965 63.95 63.985 63.9 64.658 64.55 64.06 64.115 65.46 64.283 64.278 64.293 64.37 64.513 64.835 64.51 64.625 64.553 65.188 64.56 64.575 64.605 65.873 64.64 65.453 64.678 64.683 64.695 64.705 64.72 64.733 64.745 65.09 66.265 65.265 64.35 63.858 63.243 62.91 62.613 62.435 64.805 64.663 64.425 64.313 64.313 65.203 65.378 64.33 63.74 63.16 63.11 65.59 65.27 65.283 65.253 65.233 65.305 65.383 65.43 65.508 65.588 65.668 -9999 -9999 -9999 -9999 -9999 -9999 -9999 -9999 -9999 -9999 -9999 -9999 -9999 -9999 -9999 -9999 -9999 -9999 -9999 -9999 -9999 -9999 -9999 -9999 -9999 -9999 -9999 -9999 -9999 -9999 -9999 -9999 -9999 -9999 -9999 -9999 -9999 -9999 -9999 -9999 -9999 -9999 -9999 -9999 -9999 -9999 -9999 -9999 -9999 -9999 -9999 -9999 -9999 -9999 -9999 -9999 -9999 -9999 -9999 -9999 -9999 -9999 -9999 -9999 -9999 -9999 -9999 -9999 -9999 -9999 -9999 -9999 -9999 -9999 -9999 -9999 -9999 -9999 -9999 -9999 -9999 -9999 -9999 -9999 -9999 -9999 -9999 -9999 -9999 -9999 -9999 -9999 -9999 -9999 -9999 -9999 -9999 -9999 -9999 -9999 -9999 -9999 -9999 -9999 -9999 -9999 -9999 -9999 -9999 -9999 -9999 -9999 -9999 -9999 -9999 -9999 -9999 -9999 -9999 -9999 -9999 -9999 -9999 -9999 -9999 -9999 -9999 -9999 -9999 -9999 -9999 -9999 -9999 -9999 94.869 94.93 92.189 91.782 91.714 91.658 91.747 93.131 92.391 91.989 91.917 91.405 91.32 91.286 91.119 91.198 91.282 91.31 91.308 91.345 91.949 93.48 92.345 91.703 91.616 91.556 91.546 91.479 91.524 91.705 91.72 91.796 93.927 97.46 97.995 98.392 94.119 92.737 92.437 92.699 93.455 92.215 92.295 92.225 92.228 92.199 92.962 92.411 96.986 95.393 92.739 92.249 92.256 92.394 92.204 92.264 92.195 92.089 92.114 92.094 92.064 92.063 92.043 92.094 93.232 98.468 95.107 95.053 94.338 94.437 95.035 92.091 91.744 91.725 91.666 91.4 91.399 91.458 91.707 91.658 93.222 93.112 91.344 91.295 94.613 95.049 93.86 92.028 91.859 92.433 92.835 91.916 91.397 90.995 90.809 90.763 90.906 91.098 90.782 91.834 91.003 90.576 90.435 92.112 95.638 92.074 91.126 92.591 92.771 95.455 92.64
84.723 81.433 78.966 78.823 78.343 77.541 77.146 76.896 76.648 76.398 76.153 75.981 75.886 75.726 75.561 75.633 75.541 76.371 78.168 75.156 76.313 80.641 84.343 83.578 81.341 75.663 76.078 78.003 77.708 76.535 76.515 76.51 76.5 76.558 77.375 76.028 76.745 76.808 76.808 78.368 78.585 77.02 75.38 75.373 75 74.39 75.935 77.15 74.563 80.313 82.915 81.54 82.17 82.49 82.783 82.403 81.578 80.778 77.995 73.358 72.723 72.695 76.548 74.755 73.1 72.68 72.058 71.86 71.75 71.638 71.525 71.383 71.195 71.018 71.093 70.935 71.048 72.388 74.178 73.568 73.583 73.575 73.538 72.785 71.753 70.61 77.403 70.555 70.405 70.435 70.46 70.735 71.043 71.138 71.018 70.685 70.34 70.328 71.303 70.36 70.388 70.475 70.613 71.515 71.51 70.905 64.593 64.105 64.068 64.02 63.953 63.903 63.98 63.84 63.78 64.62 63.688 63.63 63.585 63.54 63.515 64.423 64.403 64.428 67.93 70.81 70.625 70.438 70.528 67.445 63.815 64.81 63.638 63.518 63.548 63.558 63.595 63.928 64.513 64.62 63.85 63.923 63.998 64.578 63.943 64 64.068 64.105 64.245 64.223 64.268 64.295 64.383 64.515 64.543 64.48 64.458 65.213 64.473 64.523 64.665 65.123 64.638 64.62 65.838 64.605 64.633 64.653 64.655 64.68 64.715 65.473 65.165 64.735 64.548 64.25 63.828 63.423 62.993 62.74 63.165 64.088 65.328 64.968 64.943 65.498 64.208 63.908 63.363 63.143 65.343 65.213 65.205 65.215 65.145 65.223 65.29 65.368 65.44 65.495 65.58 65.66 65.746 -9999 -9999 -9999 -9999 -9999 -9999 -9999 -9999 -9999 -9999 -9999 -9999 -9999 -9999 -9999 -9999 -9999 -9999 -9999 -9999 -9999 -9999 -9999 -9999 -9999 -9999 -9999 -9999 -9999 -9999 -9999 -9999 -9999 -9999 -9999 -9999 -9999 -9999 -9999 -9999 -9999 -9999 -9999 -9999 -9999 -9999 -9999 -9999 -9999 -9999 -9999 -9999 -9999 -9999 -9999 -9999 -9999 -9999 -9999 -9999 -9999 -9999 -9999 -9999 -9999 -9999 -9999 -9999 -9999 -9999 -9999 -9999 -9999 -9999 -9999 -9999 -9999 -9999 -9999 -9999 -9999 -9999 -9999 -9999 -9999 -9999 -9999 -9999 -9999 -9999 -9999 -9999 -9999 -9999 -9999 -9999 -9999 -9999 -9999 -9999 -9999 -9999 -9999 -9999 -9999 -9999 -9999 -9999 -9999 -9999 -9999 -9999 -9999 -9999 -9999 -9999 -9999 -9999 -9999 -9999 -9999 -9999 -9999 -9999 -9999 -9999 -9999 -9999 -9999 -9999 -9999 -9999 92.214 91.932 91.97 91.795 91.785 91.545 91.476 92.026 93.791 91.51 91.359 91.319 91.199 91.214 91.154 91.178 91.261 91.234 91.317 91.318 91.516 95.119 96.812 94.06 92.968 92.123 91.528 91.546 91.585 91.563 91.625 91.784 91.988 96.542 97.873 99.136 99.069 97.939 93.478 92.349 92.043 92.066 92.054 92.057 92.114 92.08 92.119 92.109 92.286 96.472 97.252 93.059 92.203 92.162 92.098 92.124 92.291 92.338 92.142 92.77 92.033 92.554 94.046 94.145 95.222 96.562 99.517 96.345 97.073 94.33 94.34 92.006 91.75 91.701 91.67 91.613 91.361 91.353 91.376 91.412 92.868 92.144 91.131 91.069 91.09 93.727 93.783 92.78 91.047 91.011 91.203 92.285 93.354 93.549 90.893 90.767 90.712 91.941 91.863 90.629 92.162 92.528 90.481 91.892 96.07 97.181 96.872 92.342 90.878 92.578 91.368 90.037
84.726 84.278 79.001 78.843 78.336 77.748 77.126 76.863 76.643 76.371 76.086 75.861 75.731 75.638 75.453 75.386 75.368 75.636 75.081 75.058 75.196 76.468 81.816 76.458 75.438 75.553 76.821 75.333 75.693 76.105 76.47 76.493 76.773 76.453 75.875 75.908 75.973 76.708 76.735 77.295 76.763 75.36 75.325 74.548 73.755 74.06 74.435 74.503 74.523 76.088 82.693 82.8 82.593 82.193 82.678 81.345 80.368 77.69 73.9 73.63 72.54 72.378 73.915 73.158 72.115 72.04 71.885 71.76 71.605 71.4 71.295 71.21 71.075 70.875 70.733 70.803 70.62 70.758 72.215 74.223 73.528 73.435 72.325 71.315 70.72 78.415 79.188 77.475 70.328 70.268 70.273 70.218 70.495 71.863 70.478 70.155 70.025 70.03 70.11 70.165 70.233 70.345 72.633 74.37 73.323 71.033 64.62 64.498 64.03 63.96 63.9 63.895 63.845 63.778 63.73 63.69 63.628 63.585 63.523 63.733 63.803 63.428 64.413 67.665 69.143 70.575 70.875 70.705 70.19 68.723 67.238 63.825 64.753 63.825 63.51 63.53 63.618 63.878 64.578 63.93 63.688 63.858 64.808 64.225 63.915 63.965 64.005 64.063 64.128 64.955 64.22 64.263 64.29 64.463 64.395 64.365 64.365 64.388 64.578 64.645 65.4 64.945 64.473 65.805 64.543 64.603 64.563 64.58 64.585 64.598 64.693 65.378 65.438 64.538 64.61 64.5 64.168 63.823 63.56 63.343 63.37 63.545 65.568 65.608 65.713 64.988 63.848 63.793 63.22 64.315 65.173 65.13 65.145 65.065 65.14 65.2 65.288 65.348 65.423 65.48 65.563 65.645 65.745 -9999 -9999 -9999 -9999 -9999 -9999 -9999 -9999 -9999 -9999 -9999 -9999 -9999 -9999 -9999 -9999 -9999 -9999 -9999 -9999 -9999 -9999 -9999 -9999 -9999 -9999 -9999 -9999 -9999 -9999 -9999 -9999 -9999 -9999 -9999 -9999 -9999 -9999 -9999 -9999 -9999 -9999 -9999 -9999 -9999 -9999 -9999 -9999 -9999 -9999 -9999 -9999 -9999 -9999 -9999 -9999 -9999 -9999 -9999 -9999 -9999 -9999 -9999 -9999 -9999 -9999 -9999 -9999 -9999 -9999 -9999 -9999 -9999 -9999 -9999 -9999 -9999 -9999 -9999 -9999 -9999 -9999 -9999 -9999 -9999 -9999 -9999 -9999 -9999 -9999 -9999 -9999 -9999 -9999 -9999 -9999 -9999 -9999 -9999 -9999 -9999 -9999 -9999 -9999 -9999 -9999 -9999 -9999 -9999 -9999 -9999 -9999 -9999 -9999 -9999 -9999 -9999 -9999 -9999 -9999 -9999 -9999 -9999 -9999 -9999 -9999 -9999 -9999 -9999 -9999 -9999 -9999 -9999 91.731 91.71 91.705 91.685 91.649 91.238 91.221 91.283 91.214 91.258 91.73 91.105 91.15 91.103 91.151 91.191 91.264 91.383 91.434 94.387 95.972 97.113 94.042 92.27 92.861 91.809 91.566 91.587 91.544 91.741 91.948 92.005 94.383 97.657 99.098 99.636 98.605 94.605 92.075 91.987 91.965 91.883 92.009 92.07 92.11 92.128 92.101 92.943 95.012 96.815 94.914 92.201 92.103 92.071 92.005 92.298 92.241 92.303 95.075 93.572 96.155 96.168 96.461 95.742 95.28 94.514 95.133 94.842 94.029 93.704 91.918 91.707 91.672 91.667 91.902 91.497 91.348 91.362 92.977 92.508 91.228 91.155 91.078 91.014 92.13 93.932 93.412 91.05 92.074 92.622 93.684 93.037 93.601 93.203 91.136 90.696 92.736 91.668 91.03 91.794 92.567 91.336 94.099 96.197 97.158 97.812 96.663 92.322 91.451 91.681 89.998
83.881 79.103 78.913 78.581 78.071 77.336 76.968 76.833 76.621 76.333 76.091 75.806 75.523 75.428 75.341 76.146 75.193 75.093 75.441 75.586 74.861 75.221 75.141 75.223 77.266 81.303 81.588 75.546 75.323 75.368 75.915 77.078 76.188 75.778 75.833 75.89 75.908 77.435 76.06 77.005 75.918 75.35 74.535 73.658 73.855 73.655 73.883 74.403 74.345 74.185 77.443 82.808 82.743 81.943 81.138 79.073 75.043 73.81 73.528 73.395 73.478 72.315 72.068 71.963 71.878 71.85 71.743 71.61 71.533 71.455 71.095 70.985 70.908 70.77 70.55 70.443 70.483 70.323 70.733 72.278 72.655 72.313 71.17 72.7 78.625 79.54 80.14 79.055 76.705 70.235 70.148 70.405 69.938 69.943 70.035 69.835 69.64 69.68 69.818 69.945 70.073 70.23 73.368 74.388 73.138 71.038 64.093 64.178 63.99 63.913 63.85 63.833 63.775 63.738 63.705 63.635 63.58 63.523 63.808 63.615 64.153 63.608 67.69 69.013 68.138 69.998 70.755 70.675 68.88 68.11 68.69 67.14 64.223 64.323 63.468 63.51 63.54 64.663 63.59 63.635 63.96 64.37 63.95 63.938 63.998 63.908 63.955 64.005 64.065 64.333 65.165 64.213 64.36 64.285 64.275 65.083 64.285 64.67 64.603 65.363 64.498 64.375 64.378 64.4 64.433 64.465 64.485 64.5 64.513 64.528 64.523 64.733 64.5 64.46 65.023 64.55 64.363 64.328 63.805 63.503 63.385 63.413 63.635 63.933 63.923 63.703 63.785 63.68 63.773 65.13 65.063 65.07 65.003 65.055 65.11 65.21 65.263 65.348 65.403 65.473 65.568 65.64 65.763 65.865 -9999 -9999 -9999 -9999 -9999 -9999 -9999 -9999 -9999 -9999 -9999 -9999 -9999 -9999 -9999 -9999 -9999 -9999 -9999 -9999 -9999 -9999 -9999 -9999 -9999 -9999 -9999 -9999 -9999 -9999 -9999 -9999 -9999 -9999 -9999 -9999 -9999 -9999 -9999 -9999 -9999 -9999 -9999 -9999 -9999 -9999 -9999 -9999 -9999 -9999 -9999 -9999 -9999 -9999 -9999 -9999 -9999 -9999 -9999 -9999 -9999 -9999 -9999 -9999 -9999 -9999 -9999 -9999 -9999 -9999 -9999 -9999 -9999 -9999 -9999 -9999 -9999 -9999 -9999 -9999 -9999 -9999 -9999 -9999 -9999 -9999 -9999 -9999 -9999 -9999 -9999 -9999 -9999 -9999 -9999 -9999 -9999 -9999 -9999 -9999 -9999 -9999 -9999 -9999 -9999 -9999 -9999 -9999 -9999 -9999 -9999 -9999 -9999 -9999 -9999 -9999 -9999 -9999 -9999 -9999 -9999 -9999 -9999 -9999 -9999 -9999 -9999 -9999 -9999 -9999 -9999 -9999 91.695 91.627 91.565 92.41 91.518 90.992 90.993 90.97 91.029 92.008 91.127 91.043 91.097 91.181 91.234 91.273 91.386 92.585 93.045 94.105 94.824 94.737 92.724 91.483 93.136 92.237 91.49 91.534 91.552 91.709 92.379 92.129 92.942 96.537 98.693 99.554 98.997 95.568 92.183 92.044 92.257 92.558 92.16 92.075 92.579 93.867 96.062 95.084 92.389 96.38 93.131 92.116 92.067 92.045 92.204 92.078 91.978 94.132 98.663 99.051 97.396 96.326 96.244 92.895 91.814 91.957 93.598 93.983 92.797 93.789 92.856 91.671 91.601 91.5 96.312 92.793 92.086 92.643 92.605 91.695 91.152 91.404 91.725 92.121 92.498 92.069 90.977 91.59 92.651 93.501 93.436 91.099 93.486 93.933 91.872 90.912 90.5 90.51 90.445 92.197 92.448 90.615 91.025 95.455 96.168 97.091 97.154 96.703 93.02 92.768 90.75
79.061 78.938 78.656 78.176 77.538 77.358 76.983 76.851 76.831 76.606 76.231 75.833 75.518 75.218 75.178 75.168 75.893 74.978 74.853 74.791 75.263 74.926 74.946 75.086 81.633 82.571 82.616 81.228 78.003 75.29 75.918 75.19 75.675 75.705 75.75 75.785 77.978 78.555 76.785 75.113 75.108 74.85 73.675 73.623 73.61 73.6 73.73 75.808 74.85 73.903 73.763 80.258 81.375 80.94 78.65 73.913 73.94 73.368 73.513 73.4 73.138 72.435 71.88 71.81 71.793 71.713 71.573 71.648 71.843 72.23 71.528 70.805 70.69 70.595 70.45 70.25 70.16 70.17 70.03 70.608 71.84 71.5 70.213 70.265 78.085 79.398 80.483 79.963 78.89 75.623 70.1 70.638 70.525 69.468 70.465 69.413 69.198 69.338 69.505 69.723 70.515 70.465 73.698 74.16 71.828 71.498 64.195 63.998 63.953 63.873 63.81 63.893 63.743 63.705 63.648 63.58 63.515 63.748 63.468 64.525 63.413 67.293 69.085 68.125 68.16 68.345 69.533 70.295 68.17 68.13 68.25 68.708 66.295 63.41 63.638 64.19 63.57 63.528 63.56 63.593 63.63 65.063 63.71 64.05 63.938 64.008 63.903 63.948 64.01 64.073 64.13 64.45 64.18 64.193 64.783 64.895 64.265 65.205 64.99 64.3 65.155 64.33 64.315 64.338 64.365 64.385 64.423 64.428 64.47 64.45 64.458 64.448 64.433 65.688 64.355 64.333 64.435 64.27 63.928 63.515 63.285 63.285 63.413 63.538 63.608 63.615 63.538 63.593 65.113 64.993 65.008 64.973 64.955 65.038 65.125 65.195 65.27 65.323 65.395 65.458 65.555 65.668 65.798 65.805 65.788 -9999 -9999 -9999 -9999 -9999 -9999 -9999 -9999 -9999 -9999 -9999 -9999 -9999 -9999 -9999 -9999 -9999 -9999 -9999 -9999 -9999 -9999 -9999 -9999 -9999 -9999 -9999 -9999 -9999 -9999 -9999 -9999 -9999 -9999 -9999 -9999 -9999 -9999 -9999 -9999 -9999 -9999 -9999 -9999 -9999 -9999 -9999 -9999 -9999 -9999 -9999 -9999 -9999 -9999 -9999 -9999 -9999 -9999 -9999 -9999 -9999 -9999 -9999 -9999 -9999 -9999 -9999 -9999 -9999 -9999 -9999 -9999 -9999 -9999 -9999 -9999 -9999 -9999 -9999 -9999 -9999 -9999 -9999 -9999 -9999 -9999 -9999 -9999 -9999 -9999 -9999 -9999 -9999 -9999 -9999 -9999 -9999 -9999 -9999 -9999 -9999 -9999 -9999 -9999 -9999 -9999 -9999 -9999 -9999 -9999 -9999 -9999 -9999 -9999 -9999 -9999 -9999 -9999 -9999 -9999 -9999 -9999 -9999 -9999 -9999 -9999 -9999 -9999 -9999 -9999 -9999 -9999 91.719 91.7 91.084 91.098 90.893 90.849 90.97 90.979 91.134 90.958 91.025 91.187 91.278 91.311 91.411 93.341 93.367 92.55 91.419 91.641 91.629 91.493 91.662 93.472 92.595 91.514 91.498 91.553 91.594 92.154 92.096 92.303 95.363 97.881 98.977 98.711 97.003 92.708 93.853 94.128 94.08 95.007 93.917 93.885 94.219 93.508 94.195 94.908 96.518 96.918 92.241 92.045 91.992 92.074 93.945 98.3 96.355 97.714 97.154 95.876 94.824 92.489 91.846 93.054 91.777 92.778 93.452 93.343 91.691 91.61 91.622 91.524 95.514 97.848 97.498 96.424 92.402 91.41 91.131 91.26 93.292 93.562 93.357 92.623 91.028 90.907 93.071 93.265 93.037 90.866 90.877 91.368 93.968 93.383 91.944 90.287 90.45 90.518 90.977 93.798 92.336 90.941 91.367 93.744 96.209 96.007 93.084 90.403 90.509 89.774
79.738 78.681 78.273 77.738 78.241 77.116 77.073 77.258 77.128 76.856 76.448 75.966 75.428 75.258 74.961 74.918 74.798 74.641 74.658 74.573 74.861 77.491 75.728 74.966 78.173 81.251 81.726 82.418 80.758 76.76 78.648 75.1 75.083 75.67 75.818 78.098 78.523 76.153 74.94 73.703 74.225 73.715 73.663 73.61 73.638 75.793 79.918 73.653 73.683 73.638 73.47 73.473 80.108 78.21 73.75 73.318 73.875 73.588 73.105 73.04 71.955 71.885 71.8 71.743 71.678 71.55 71.523 71.935 72.273 72.16 71.853 71.153 70.478 70.388 70.305 70.153 69.933 70.033 69.85 69.735 70.475 70.39 69.86 70.145 70.238 78.473 79.575 80.605 79.77 78.688 72.87 70.385 70.365 69.788 68.955 68.653 68.78 69 69.283 69.335 74.998 70.885 73.405 73.928 70.058 69.145 65.175 64.28 63.908 63.828 63.773 63.858 63.715 63.648 63.59 63.52 63.608 63.805 64.27 63.425 67.653 68.858 68.133 68.178 68.308 70.053 69.508 69.463 69.955 68.163 68.138 68.273 68.698 65.87 64.185 64.248 64.063 63.52 63.523 63.753 64.46 63.65 64.645 64.09 63.965 65.148 63.998 63.908 64.753 64.613 64.07 64.875 64.27 64.11 64.123 64.205 65.765 64.358 64.403 64.888 64.305 64.233 64.255 64.273 64.293 64.325 64.338 64.503 65.59 64.36 64.373 64.373 64.36 64.325 64.28 64.24 64.593 64.275 64.04 63.66 63.295 63.235 63.363 63.483 63.573 63.573 63.45 64.743 64.925 64.92 64.895 64.875 64.953 65.038 65.123 65.18 65.253 65.303 65.383 65.463 65.578 65.7 65.778 65.753 65.748 -9999 -9999 -9999 -9999 -9999 -9999 -9999 -9999 -9999 -9999 -9999 -9999 -9999 -9999 -9999 -9999 -9999 -9999 -9999 -9999 -9999 -9999 -9999 -9999 -9999 -9999 -9999 -9999 -9999 -9999 -9999 -9999 -9999 -9999 -9999 -9999 -9999 -9999 -9999 -9999 -9999 -9999 -9999 -9999 -9999 -9999 -9999 -9999 -9999 -9999 -9999 -9999 -9999 -9999 -9999 -9999 -9999 -9999 -9999 -9999 -9999 -9999 -9999 -9999 -9999 -9999 -9999 -9999 -9999 -9999 -9999 -9999 -9999 -9999 -9999 -9999 -9999 -9999 -9999 -9999 -9999 -9999 -9999 -9999 -9999 -9999 -9999 -9999 -9999 -9999 -9999 -9999 -9999 -9999 -9999 -9999 -9999 -9999 -9999 -9999 -9999 -9999 -9999 -9999 -9999 -9999 -9999 -9999 -9999 -9999 -9999 -9999 -9999 -9999 -9999 -9999 -9999 -9999 -9999 -9999 -9999 -9999 -9999 -9999 -9999 -9999 -9999 -9999 -9999 -9999 -9999 91.097 90.932 90.936 90.966 90.841 90.838 90.9 90.875 90.983 90.942 90.975 91.102 91.209 91.332 92.688 91.47 91.529 91.358 91.395 91.5 92.993 91.677 91.472 91.445 91.516 93.724 92.577 91.485 91.497 91.52 91.664 91.865 91.944 93.262 97.102 96.355 95.466 93.466 92.589 93.735 92.896 93.233 93.609 94.147 92.959 92.223 94.1 94.325 93.301 92.316 94.962 92.868 92.449 92.224 92.557 98.084 100.881 99.031 96.936 95.748 91.755 91.685 91.753 93.889 96.799 95.685 92.4 92.022 92.177 91.628 91.549 91.527 92.518 97.425 98.595 98.765 97.782 97.114 93.721 91.139 92.658 93.547 93.203 93.12 92.004 90.915 91.313 93.07 92.972 91.217 90.776 90.836 90.852 91.408 92.453 92.356 91.776 90.28 90.23 94.096 96.256 96.201 92.774 91.579 90.046 92.676 93.723 89.835 89.891 90.791 89.685
78.576 78.586 77.853 78.226 77.326 77.241 77.403 77.378 75.711 74.681 74.526 74.536 75.208 75.148 74.986 74.706 74.653 74.521 74.373 74.333 74.471 81.051 79.836 74.901 75.076 77.336 79.383 82.036 82.078 80.48 81.07 81.615 75.07 76.443 78.208 78.503 76.195 74.268 73.693 73.773 73.663 73.688 73.673 73.588 73.558 81.735 81.74 79.718 73.62 73.4 73.22 73.01 73.508 73.573 73.305 73.22 73.17 73.89 73.183 71.91 73.5 72.075 71.725 71.638 71.53 71.538 71.58 72.02 71.893 71.888 71.59 71.355 70.663 70.175 70.09 70.003 69.833 70.768 69.61 69.553 69.518 69.493 69.723 69.965 70.178 70.155 78.68 79.8 80.583 79.588 78.485 71.163 70.375 70.355 68.085 68.28 68.518 69.863 74.858 72.03 68.965 68.435 68.783 69.55 70.165 64.85 64.748 63.933 63.868 63.795 63.735 63.715 63.665 63.59 63.533 63.49 65.055 63.43 63.433 67.158 69.11 68.12 68.193 68.208 69.885 69.57 69.523 69.49 69.463 70.255 68.155 68.135 68.12 68.698 66.308 63.793 63.443 64.058 63.515 63.515 64.63 64.183 63.713 65.05 63.675 63.92 63.953 64.008 64.683 64.108 64.008 64.025 64.12 64.04 64.205 64.098 64.165 64.618 64.845 64.835 64.633 64.165 64.18 64.208 64.223 64.245 65.095 64.268 64.365 64.41 64.315 64.295 64.28 64.253 64.218 64.915 65.358 64.1 64.055 63.868 63.348 63.278 63.345 63.445 63.57 63.593 63.97 64.85 64.848 64.843 64.823 64.89 64.965 65.053 65.115 65.173 65.215 65.288 65.378 65.46 65.628 65.705 65.693 65.688 65.735 66.788 -9999 -9999 -9999 -9999 -9999 -9999 -9999 -9999 -9999 -9999 -9999 -9999 -9999 -9999 -9999 -9999 -9999 -9999 -9999 -9999 -9999 -9999 -9999 -9999 -9999 -9999 -9999 -9999 -9999 -9999 -9999 -9999 -9999 -9999 -9999 -9999 -9999 -9999 -9999 -9999 -9999 -9999 -9999 -9999 -9999 -9999 -9999 -9999 -9999 -9999 -9999 -9999 -9999 -9999 -9999 -9999 -9999 -9999 -9999 -9999 -9999 -9999 -9999 -9999 -9999 -9999 -9999 -9999 -9999 -9999 -9999 -9999 -9999 -9999 -9999 -9999 -9999 -9999 -9999 -9999 -9999 -9999 -9999 -9999 -9999 -9999 -9999 -9999 -9999 -9999 -9999 -9999 -9999 -9999 -9999 -9999 -9999 -9999 -9999 -9999 -9999 -9999 -9999 -9999 -9999 -9999 -9999 -9999 -9999 -9999 -9999 -9999 -9999 -9999 -9999 -9999 -9999 -9999 -9999 -9999 -9999 -9999 -9999 -9999 -9999 -9999 -9999 -9999 -9999 -9999 -9999 90.872 90.802 90.758 90.87 90.864 90.862 90.947 90.942 90.965 91.088 91.166 91.304 91.439 91.469 91.414 91.301 91.373 91.689 91.608 91.501 91.435 91.48 91.493 91.511 92.705 92.608 91.471 91.485 91.632 91.773 91.775 91.811 92.231 94.75 92.632 92.786 92.991 95.123 94.946 93.611 93.948 93.132 93.568 93.951 94.69 95.158 95.034 96.896 97.491 94.529 95.724 92.205 92.412 95.91 97.578 99.585 95.176 94.335 91.66 91.638 91.636 93.836 96.423 98.073 98.44 96.35 93.461 91.916 91.711 91.495 91.455 95.718 97.887 98.712 99.359 98.966 98.246 97.234 92.49 93.364 93.237 93.101 93.038 91.074 90.936 91.12 92.969 91.581 90.603 90.618 90.738 91.467 91.83 92.178 92.284 92.424 92.007 92.264 95.68 96.872 96.953 94.937 91.451 92.396 94.147 94.809 89.819 89.676 89.895 91.922
79.436 78.076 77.676 77.373 77.323 77.333 77.498 75.941 74.501 75.363 74.456 74.473 74.503 75.151 74.878 74.661 74.451 74.396 74.248 74.131 74.228 75.033 75.601 74.836 74.786 76.786 74.911 80.891 82.341 81.723 81.793 82.343 82.25 78.305 78.43 77.563 73.795 73.895 73.655 73.663 73.695 73.615 73.61 75.498 81.448 81.753 81.758 81.525 77.218 73.26 73.005 72.755 72.54 72.985 73.09 73.085 73.05 74.228 71.845 73.3 71.82 71.668 71.588 71.548 71.663 72.493 71.505 71.433 72.568 71.56 71.475 71.188 71.115 70.34 69.87 69.803 69.695 69.538 69.385 69.318 69.253 69.198 69.438 69.71 70.025 70.14 70.748 78.853 79.96 80.493 79.375 78.298 70.195 67.985 67.995 68.12 68.398 68.445 74.49 73.26 69.9 67.805 68.52 69.36 70.26 64.51 64.223 63.888 63.835 63.765 63.713 63.668 63.608 63.555 63.903 64.36 63.513 63.688 67.533 69.065 68.108 68.143 68.193 69.89 69.643 69.595 69.553 69.523 69.485 69.48 70.458 68.148 68.133 68.255 68.698 65.31 64.563 65.858 63.628 63.513 63.52 63.543 63.56 63.585 63.653 64.928 63.955 63.928 64.005 63.94 63.95 64.52 64.108 64.03 64.43 64.948 64.038 64.148 65.143 64.24 64.083 64.098 64.113 64.13 64.153 64.168 64.688 64.955 64.313 64.318 65.343 64.25 64.198 64.19 64.145 64.113 64.065 64.718 64.053 63.82 63.455 63.245 63.3 63.43 63.515 63.735 64.788 64.79 64.785 64.738 64.815 64.893 64.983 65.038 65.098 65.138 65.215 65.278 65.383 65.528 65.633 65.638 65.63 65.643 66.503 66.548 68.039 -9999 -9999 -9999 -9999 -9999 -9999 -9999 -9999 -9999 -9999 -9999 -9999 -9999 -9999 -9999 -9999 -9999 -9999 -9999 -9999 -9999 -9999 -9999 -9999 -9999 -9999 -9999 -9999 -9999 -9999 -9999 -9999 -9999 -9999 -9999 -9999 -9999 -9999 -9999 -9999 -9999 -9999 -9999 -9999 -9999 -9999 -9999 -9999 -9999 -9999 -9999 -9999 -9999 -9999 -9999 -9999 -9999 -9999 -9999 -9999 -9999 -9999 -9999 -9999 -9999 -9999 -9999 -9999 -9999 -9999 -9999 -9999 -9999 -9999 -9999 -9999 -9999 -9999 -9999 -9999 -9999 -9999 -9999 -9999 -9999 -9999 -9999 -9999 -9999 -9999 -9999 -9999 -9999 -9999 -9999 -9999 -9999 -9999 -9999 -9999 -9999 -9999 -9999 -9999 -9999 -9999 -9999 -9999 -9999 -9999 -9999 -9999 -9999 -9999 -9999 -9999 -9999 -9999 -9999 -9999 -9999 -9999 -9999 -9999 -9999 -9999 -9999 -9999 -9999 -9999 -9999 90.724 90.753 90.766 90.848 90.803 91.023 91.077 91.156 91.151 91.247 91.282 91.331 91.42 91.389 92.679 96.593 96.649 96.439 96.22 93.807 91.995 91.486 91.711 92.439 92.805 91.766 91.427 91.611 91.806 91.637 91.704 93.125 92.461 94.136 95.528 95.683 96.63 95.467 94.441 93.171 91.827 92.158 93.629 96.243 95.428 94.874 95.394 95.952 97.29 96.738 93.657 94.659 92.676 96.374 95.088 91.83 92.343 92.004 91.595 94.553 96.668 97.907 99.007 98.627 97.579 93.333 91.531 91.795 91.487 91.426 93.881 96.489 97.7 98.676 99.068 98.429 97.332 92.882 92.187 92.858 93.032 91.742 91.617 91.809 90.936 90.669 90.522 90.528 90.549 90.585 91.689 90.572 91.832 92.263 92.374 92.573 93.272 96.101 97.014 97.655 97.004 96.185 94.902 95.639 94.948 90.455 89.562 89.489 89.646
77.313 77.056 77.098 77.171 77.261 77.168 77.263 74.548 75.311 74.478 74.866 74.436 74.458 74.478 74.746 74.648 74.271 74.191 74.118 73.968 75.373 73.941 74.566 74.648 74.621 79.788 76.283 75.086 81.206 82.498 82.51 81.935 79.945 76.555 76.645 74.18 74.22 73.673 73.61 73.593 73.61 76.095 77.04 79.935 81.578 81.773 81.14 80.495 79.69 73.183 72.738 72.548 72.27 72.08 72.763 74.873 73.9 71.783 71.718 71.683 71.598 71.528 71.593 71.76 71.63 71.573 71.6 71.235 71.15 71.603 71.183 71.15 71.005 70.815 70.105 69.58 69.493 69.395 69.238 70.1 69.078 68.96 68.975 69.393 69.7 69.955 70.038 72.925 79.075 79.88 79.013 75.665 67.958 67.918 67.938 68.025 67.88 66.868 69.463 69.87 69.523 68.245 68.56 69.233 70.523 64.42 64.2 63.858 63.805 63.745 63.695 63.633 63.578 64.588 63.693 63.965 63.678 67.475 69.035 68.098 68.133 68.183 69.885 69.693 69.655 69.62 69.585 69.545 69.51 71.023 70.97 69.818 68.148 68.135 68.11 68.675 65.898 64.2 65.85 63.7 63.495 63.503 63.525 63.548 64.11 64.22 64.205 63.898 63.868 63.86 63.868 64.773 63.9 64.015 65.29 64.143 64.48 65.168 64.258 63.988 64.003 64.023 64.045 64.06 64.08 64.095 64.12 64.24 64.24 65.038 64.385 64.418 64.128 64.11 64.083 64.048 64.698 65.43 64.053 67.08 67.615 64.23 63.338 63.38 63.855 64.718 64.725 64.71 64.665 64.73 64.815 64.913 64.98 65.043 65.093 65.135 65.208 65.308 65.438 65.55 65.565 65.56 65.573 65.875 66.48 66.505 66.578 -9999 -9999 -9999 -9999 -9999 -9999 -9999 -9999 -9999 -9999 -9999 -9999 -9999 -9999 -9999 -9999 -9999 -9999 -9999 -9999 -9999 -9999 -9999 -9999 -9999 -9999 -9999 -9999 -9999 -9999 -9999 -9999 -9999 -9999 -9999 -9999 -9999 -9999 -9999 -9999 -9999 -9999 -9999 -9999 -9999 -9999 -9999 -9999 -9999 -9999 -9999 -9999 -9999 -9999 -9999 -9999 -9999 -9999 -9999 -9999 -9999 -9999 -9999 -9999 -9999 -9999 -9999 -9999 -9999 -9999 -9999 -9999 -9999 -9999 -9999 -9999 -9999 -9999 -9999 -9999 -9999 -9999 -9999 -9999 -9999 -9999 -9999 -9999 -9999 -9999 -9999 -9999 -9999 -9999 -9999 -9999 -9999 -9999 -9999 -9999 -9999 -9999 -9999 -9999 -9999 -9999 -9999 -9999 -9999 -9999 -9999 -9999 -9999 -9999 -9999 -9999 -9999 -9999 -9999 -9999 -9999 -9999 -9999 -9999 -9999 -9999 -9999 -9999 -9999 -9999 -9999 90.74 90.714 90.793 90.95 91.021 91.385 91.243 91.979 91.26 91.567 91.37 91.358 91.389 91.394 96.123 97.461 97.954 98.649 97.659 97.211 93.09 91.48 91.452 91.484 92.705 91.868 91.455 91.518 91.48 91.488 94.412 95.055 92.868 96.469 97.582 97.933 97.918 96.432 94.788 92.037 93.09 94.994 94.391 92.426 91.954 92.505 91.828 92.271 97.919 98.293 94.92 92.904 92.252 92.169 91.853 91.576 91.522 91.778 91.577 96.25 97.168 98.657 98.65 97.915 94.169 91.563 91.44 91.422 91.355 91.345 91.575 94.251 96.044 97.353 98.025 96.758 92.755 92.083 93.251 90.988 91.458 93.411 94.039 92.693 91.386 90.525 91.761 91.882 91.102 91.759 91.615 90.574 90.216 91.469 90.777 90.754 92.582 93.684 96.029 96.99 96.723 96.936 94.864 95.356 94.816 89.741 89.362 89.471 89.286
77.018 77.001 77.008 76.998 77.083 77.646 82.491 81.841 74.916 74.483 74.406 74.416 74.436 74.443 74.471 74.446 74.218 73.958 73.936 73.856 73.743 73.858 73.698 74.441 79.488 79.523 74.843 77.323 81.518 82.518 81.675 76.255 74.8 75.778 75.058 74.155 72.875 73.505 73.57 73.553 74.325 79.213 80.475 80.968 81.668 81.833 80.273 79.343 75.65 73.135 72.608 72.303 72.093 71.84 72.105 72.025 71.698 71.653 71.623 71.553 71.493 74.535 71.843 71.585 71.55 71.54 71.938 71.213 70.875 70.958 71.135 71.39 71.088 71.99 70.58 69.575 69.27 69.195 69.11 68.938 69.508 68.775 68.688 68.793 69.195 69.543 69.768 69.92 75.88 78.835 74.623 67.945 67.888 68.008 67.895 67.428 66.783 66.743 67.078 69.295 67.82 66.988 68.455 68.853 65.888 65.095 65.298 63.823 63.78 63.733 63.67 63.613 63.693 63.475 64.363 65.108 67.763 68.97 68.098 68.123 68.218 69.9 69.755 69.72 69.683 69.645 69.613 69.57 70.89 71.095 69.493 69.46 70.01 68.155 68.128 68.26 68.648 65.983 64.335 63.443 63.455 63.483 63.495 63.518 63.555 63.663 63.798 63.748 63.765 63.783 64.698 63.97 64.615 63.865 63.888 63.893 64.85 64.265 64.075 63.918 63.945 63.95 63.97 64.513 64.07 64.028 64.153 64.208 64.055 64.07 64.853 64.063 64.05 64.045 64.018 64.245 64.635 64.13 66.34 67.658 67.58 65.545 63.515 63.49 64.73 64.645 64.643 64.605 64.67 64.743 64.823 64.885 64.955 65.005 65.08 65.13 65.225 65.325 65.455 65.458 65.443 65.475 65.863 66.255 66.425 66.5 66.57 66.49 -9999 -9999 -9999 -9999 -9999 -9999 -9999 -9999 -9999 -9999 -9999 -9999 -9999 -9999 -9999 -9999 -9999 -9999 -9999 -9999 -9999 -9999 -9999 -9999 -9999 -9999 -9999 -9999 -9999 -9999 -9999 -9999 -9999 -9999 -9999 -9999 -9999 -9999 -9999 -9999 -9999 -9999 -9999 -9999 -9999 -9999 -9999 -9999 -9999 -9999 -9999 -9999 -9999 -9999 -9999 -9999 -9999 -9999 -9999 -9999 -9999 -9999 -9999 -9999 -9999 -9999 -9999 -9999 -9999 -9999 -9999 -9999 -9999 -9999 -9999 -9999 -9999 -9999 -9999 -9999 -9999 -9999 -9999 -9999 -9999 -9999 -9999 -9999 -9999 -9999 -9999 -9999 -9999 -9999 -9999 -9999 -9999 -9999 -9999 -9999 -9999 -9999 -9999 -9999 -9999 -9999 -9999 -9999 -9999 -9999 -9999 -9999 -9999 -9999 -9999 -9999 -9999 -9999 -9999 -9999 -9999 -9999 -9999 -9999 -9999 -9999 -9999 -9999 -9999 -9999 90.713 90.744 90.916 91.127 91.126 91.834 91.311 92.001 91.593 91.228 91.319 91.291 91.292 91.469 96.478 97.571 98.206 98.604 98.622 97.445 93.199 91.988 91.682 91.692 91.622 92.741 91.442 91.431 91.449 93.899 95.642 95.789 93.314 95.65 97.689 98.34 98.563 97.592 95.072 92.946 93.898 92.706 92.6 91.963 91.74 91.7 91.736 92.775 93.033 96.076 96.876 92.705 95.841 92.597 91.547 91.472 91.472 91.516 91.634 92.844 97.09 98.172 97.832 96.248 91.606 91.46 91.344 91.326 91.357 91.959 93.19 92.385 92.05 95.176 96.588 93.121 91.307 92.998 93.617 96.348 94.058 93.88 93.714 91.374 90.458 91.48 92.402 92.38 92.173 90.901 90.801 90.962 90.275 90.205 90.178 90.121 90.538 92.549 93.168 95.558 95.599 90.683 90.406 91.055 91.023 91.384 89.537 89.202 89.164
