ncols 386
nrows 32
xllcorner    432068
yllcorner    439398
cellsize     2
NODATA_value -9999
134.908 134.763 136.635 135.47 134.425 134.113 133.523 133.455 133.365 136.805 139.45 139.02 137.805 134.005 133.153 133.053 133.2 133.343 133.253 133.225 133.003 132.863 132.813 132.613 132.823 133.168 132.633 132.328 132.15 133.233 133.445 133.443 132.475 133.105 132.943 132.408 131.773 131.83 132.263 132.078 132.188 134.148 133.84 132.708 131.813 131.365 131.388 132.253 137.313 138.588 138.693 137.085 134.583 133.435 133.018 134.228 139.26 140.285 140.565 137.6 132.058 131.09 132.533 132.493 132.205 132.875 133.095 133.425 132.408 130.685 130.463 131.275 130.173 130.208 130.605 132.235 132.008 130.518 129.543 129.583 129.418 129.538 130.365 131.12 130.528 129.473 129.088 130.718 130.845 129.595 130.698 131.435 130.693 130.26 128.995 129.175 128.695 128.8 129.79 131.048 129.31 128.248 128.218 128.8 127.978 128.338 130.608 131.36 129.028 128.038 128.77 129.933 129.888 129.255 127.573 129.353 131.29 130.163 130.708 130.448 127.06 126.733 126.948 126.658 126.643 126.508 126.35 126.37 126.49 126.583 126.59 126.483 126.485 126.423 127 127.288 127.648 126.548 127.44 128.05 128.573 128.19 128.48 128.858 129.188 128.068 126.388 130.375 131.82 129.768 128.578 130.465 129.685 126.655 126.028 125.955 125.87 125.955 126.128 127.52 130.45 129.735 128.595 127.85 126.518 125.955 126.1 126.118 125.393 125.77 125.493 124.885 124.985 124.995 125.368 127.725 128.183 126.383 124.885 124.843 125.6 127.253 128.703 129.683 129.538 128.805 126.598 124.905 126.155 127.068 125.653 126.26 126.805 126.528 126.005 125.725 124.843 124.928 124.795 126.223 132.473 135.44 134.505 133.788 129.818 125.455 128.66 133.93 136.225 137.89 139.988 138.933 138.568 135.895 128.03 125.375 124.355 124.26 124.173 124.313 124.163 124.135 124.1 124.163 124.158 124.115 124.24 124.19 124.013 123.99 124.02 123.903 123.8 123.815 123.98 123.823 123.583 123.733 123.763 123.485 123.345 123.333 123.33 123.09 123.083 123.053 123.04 122.775 122.673 122.73 122.585 122.535 122.498 122.41 122.32 122.325 122.495 122.245 122.24 122.373 122.425 122.108 122.015 122.058 121.995 121.94 121.918 121.828 121.763 121.738 121.63 121.56 121.508 121.408 121.37 121.38 121.328 121.345 121.283 121.17 120.968 120.683 120.62 120.623 120.69 120.62 120.548 120.495 120.533 120.48 120.435 120.653 120.5 120.36 120.455 120.38 120.315 120.358 120.308 120.215 120.078 119.993 119.865 119.738 119.663 119.263 119.425 120.183 119.715 119.545 119.518 119.42 119.39 119.343 119.34 119.433 119.533 119.505 119.533 119.48 119.498 119.305 119.385 119.568 119.395 119.325 119.243 119.405 119.503 119.403 119.285 119.39 119.443 119.38 119.328 119.35 119.4 119.485 119.37 119.255 119.18 119.188 119.433 119.618 119.498 119.473 119.555 119.613 119.543 119.433 119.373 119.348 119.29 119.318 119.355 119.35 119.408 119.29 119.175 119.035 118.915 118.808 118.768 118.745 118.723 118.655 118.73 118.97 118.79 118.808 118.893 118.875 118.843 118.865 118.928 118.928 118.985 118.978 119.008 119.045 119.043 118.923 118.97 119.003 119.06 118.98
134.225 133.57 133.448 133.69 134.408 134.638 133.535 133.863 135.383 136.37 138.433 138.983 138.22 135.77 133.315 133.268 133.575 133.738 133.12 132.955 132.985 132.783 132.765 133 134.225 134.46 133.265 132.263 132.4 132.52 132.12 132.035 132.048 132.02 132.075 132.178 131.79 131.673 131.548 131.513 131.708 133.448 134.415 133.6 132.95 131.638 131.38 134.44 136.71 137.938 137.78 134.023 131.348 131.505 132.128 132.098 135.435 141.463 141.588 140.705 136.145 130.568 131.803 132.398 131.685 131.09 131.11 132.93 131.78 130.61 130.15 130.143 129.85 129.923 130.338 131.38 130.513 129.528 129.795 129.493 129.41 129.32 129.738 130.478 130.788 129.558 129.048 129.178 129.413 129.358 131.23 131.445 130.968 129.755 129.755 133.1 129.478 128.305 128.595 129.055 128.26 128.08 128.005 128.815 128.235 127.835 129.573 131.173 129.73 127.873 127.815 128.473 128.74 127.173 128.08 129.735 132.61 133.255 132.593 130.785 127.36 127.158 127.798 128 126.643 126.46 126.193 126.31 126.438 126.473 127.07 127.665 127.703 127.53 129.055 128.078 129.625 129.278 126.48 126.26 126.425 127.053 127.788 128.983 128.403 127.288 126.113 128.315 129.695 127.713 126.328 127.433 127.353 126.103 126.858 126.938 126.213 126.673 127.813 129.775 132.268 131.315 131.963 129.768 127.673 126.75 125.585 125.47 125.223 125.138 124.943 124.848 124.895 125.163 126.893 128.328 126.483 125.43 124.768 124.828 126.028 130.5 131.603 131.188 130.363 129.645 127.398 125.715 124.88 124.333 124.225 125.258 125.44 125.29 124.54 124.343 124.688 125.318 125.93 126.228 127.47 129.263 128.39 131.485 133.588 131.68 127.095 128.905 131.49 135.59 137.308 136.665 136.558 135.445 131.555 128.223 125.118 124.103 124.01 123.95 124.075 123.893 123.95 123.998 124.068 124.045 124.05 124.128 123.958 123.845 123.843 123.965 123.813 123.723 123.765 123.73 123.488 123.57 123.635 123.405 123.213 123.153 123.15 122.955 122.925 123.083 122.883 122.605 122.493 122.64 122.46 122.343 122.548 122.408 122.16 122.205 122.313 122.26 122.19 122.098 122.353 122.065 122.005 122.04 121.913 121.84 121.8 121.705 121.553 121.518 121.553 121.583 121.533 121.435 121.353 121.36 121.268 121.228 121.173 121.113 120.928 120.683 120.67 120.553 120.558 120.485 120.48 120.4 120.33 120.33 120.308 120.385 120.325 120.27 120.308 120.293 120.218 120.215 120.258 120.088 119.943 119.893 119.748 119.61 119.565 119.393 119.083 119.593 119.518 119.378 119.363 119.3 119.208 119.145 119.163 119.22 119.388 119.335 119.365 119.433 119.413 119.24 119.33 119.383 119.27 119.253 119.37 119.413 119.32 119.288 119.188 119.248 119.318 119.163 119.125 119.163 119.185 119.238 119.203 118.965 119.018 119.07 119.255 119.413 119.288 119.288 119.33 119.465 119.5 119.355 119.17 119.208 119.21 119.243 119.125 119.108 119.173 119.208 119.113 118.983 118.845 118.728 118.62 118.555 118.54 118.51 118.533 118.813 118.728 118.633 118.77 118.788 118.75 118.748 118.748 118.73 118.87 118.87 118.843 118.89 118.868 118.758 118.735 118.835 118.91 118.723
134.09 133.555 133.985 135.075 137.755 137.938 136.695 137.37 138.085 135.05 137.093 137.908 138.12 136.605 133.273 133.375 133.633 133.703 132.855 132.768 132.853 132.643 132.69 133.733 134.283 132.97 132.59 134.93 136.188 133.025 132.92 132.808 132.015 131.875 131.945 132.438 132.288 131.588 131.505 131.5 131.888 132.885 134.013 134.338 134.045 132.753 131.888 133.473 134.523 137.688 136.545 133.38 130.845 131.768 132.8 135.103 140.298 142.033 142.413 141.113 136.478 132.27 132.593 133.985 132.048 130.16 130.025 131.458 131.2 130.185 130.398 130.27 129.82 129.735 130.365 131.603 130.02 129.365 129.328 129.445 129.335 129.153 129.513 130.64 130.638 129.415 128.978 129.675 129.248 129.343 130.183 129.958 129.488 128.76 131.548 134.6 131.26 128.445 128.43 128.25 127.928 127.858 127.905 128.418 128.048 127.628 127.845 129.343 129.223 127.76 127.55 127.523 127.553 127.115 127.893 131.178 132.97 133.873 133.403 129.303 126.81 127.22 128.653 130.1 127.625 126.398 126.283 126.288 126.295 126.458 127.835 127.383 126.328 128.663 132.095 132.598 132.48 130.948 127.843 125.72 125.865 126.893 126.99 127.675 127.588 126.568 126.575 126.88 127.613 127.263 125.825 125.695 125.625 125.848 126.528 126.713 126.15 127.878 130.435 131.743 133.205 133.398 132.638 131.188 128.02 127.058 126.065 125.44 125.433 124.985 124.98 124.965 124.918 126.923 127.265 128.59 126.5 125.085 124.725 124.945 128.685 131.3 132.088 132.278 130.923 128.12 126.603 125.033 124.448 123.983 123.993 124.088 124.348 124.24 124.843 124.443 125.235 125.12 124.818 124.645 124.078 124.058 124.753 128.06 130.205 130.488 128.275 125.618 129.813 135.365 135.75 136.07 135.825 134.958 132.508 132.13 129.375 124.59 123.903 123.815 123.788 123.818 123.8 123.88 123.915 123.88 123.953 123.95 123.958 123.788 123.698 123.675 123.703 123.545 123.58 123.588 123.385 123.333 123.415 123.468 123.175 122.998 123.005 122.95 122.758 122.705 122.783 122.653 122.355 122.358 122.473 122.26 122.235 122.348 122.3 122.12 122.13 122.168 121.998 121.928 121.983 121.985 121.878 121.883 121.773 121.81 121.865 121.715 121.5 121.38 121.465 121.505 121.413 121.363 121.338 121.34 121.185 121.09 121.058 121.005 120.85 120.673 120.63 120.53 120.4 120.333 120.355 120.29 120.215 120.24 120.26 120.273 120.24 120.163 120.185 120.185 120.11 120.088 120.118 119.968 119.83 119.798 119.705 119.493 119.475 119.445 119.153 119.515 119.378 119.273 119.268 119.153 119.035 118.99 119.07 119.11 119.168 119.13 119.188 119.265 119.293 119.185 119.265 119.29 119.175 119.11 119.2 119.195 119.215 119.165 119.058 119.143 119.133 119.1 118.968 119.008 118.998 119 118.925 118.803 118.878 119.048 119.005 119.123 119.11 119.16 119.15 119.173 119.285 119.143 118.99 119.078 119.133 119.195 119.035 118.985 118.995 118.983 118.883 118.75 118.645 118.588 118.52 118.44 118.39 118.38 118.405 118.62 118.6 118.563 118.66 118.705 118.643 118.63 118.748 118.638 118.703 118.723 118.778 118.908 118.898 118.675 118.65 118.683 118.745 118.555
134.403 135.78 138.148 138.9 139.685 139.823 139.85 139.913 139.645 138.18 137.728 137.528 136.08 134.488 133.15 133.305 133.293 132.823 132.555 132.528 132.678 132.498 132.368 132.72 132.473 133.41 134.653 138.265 136.92 134.815 134.148 133.31 131.628 131.505 131.35 131.993 133.073 132.108 131.74 131.655 132.73 133.535 133.01 134.863 135.185 133.758 131.965 133.625 136.978 138.208 137.963 134.995 131.965 132.943 136.138 137.143 132.16 142.1 140.553 136.585 136.578 135.793 136.148 136.078 134.065 130.088 130.103 130.04 130.1 130.023 130.438 130.51 130.153 129.585 130.28 131.338 129.788 129.27 129.18 129.21 129.31 129.568 131.295 131.475 130.835 129.033 129.04 129.573 128.683 128.54 128.695 129.115 128.725 128.208 129.668 132.865 129.775 128.173 128.06 127.818 127.81 127.713 127.743 127.745 127.568 127.478 127.393 128.253 129.705 128.958 127.685 128.013 127.358 127.14 127.995 131.845 133.653 134.178 133.35 131.338 128.04 126.783 128.108 129.935 127.8 126.203 126.043 126.123 126.21 126.348 126.86 127.443 126.228 130.185 132.685 133.648 132.998 131.548 129.498 126.855 125.373 125.383 125.53 126.1 126.903 126.718 126.793 126.283 127.243 126.323 125.748 125.565 125.598 125.54 125.87 125.865 125.638 125.98 130.023 132.973 133.89 133.075 132.175 129.215 126.02 125.773 125.385 126.023 126.05 125.113 124.908 124.815 124.68 127.065 127.445 127.043 127.9 126.733 126.773 126.373 126.393 129.99 128.078 131.148 130.693 125.635 125.205 124.685 124.09 124.148 123.96 123.903 123.965 123.97 123.958 124.073 124.105 124.26 124.035 123.933 123.92 123.948 123.988 125.153 125.385 126.2 124.908 124.263 125.578 133.58 137.165 137.888 137.453 136.205 135.365 134.175 134.438 127.848 123.84 123.788 123.758 123.805 123.628 123.65 123.663 123.688 123.8 123.78 123.748 123.683 123.52 123.528 123.61 123.443 123.31 123.423 123.47 123.275 123.108 123.215 123.188 122.89 122.76 122.95 122.698 122.608 122.51 122.413 122.295 122.225 122.373 122.17 122.203 122.213 122.173 122.03 121.888 122.023 122.07 121.74 121.73 121.885 121.78 121.705 121.64 121.643 121.66 121.603 121.473 121.408 121.405 121.435 121.335 121.213 121.223 121.21 121.098 120.985 120.928 120.873 120.785 120.58 120.458 120.383 120.225 120.19 120.208 120.135 120.118 120.158 120.178 120.183 120.178 120.053 120.04 120.068 120.013 120 119.98 119.868 119.745 119.648 119.605 119.415 119.295 119.618 119.66 119.615 119.298 119.118 119.02 119.038 118.965 118.908 118.93 119.028 119.04 119.023 118.98 119.078 119.083 119.033 119.095 119.033 119.093 119.008 119.04 119.058 119.14 119.023 118.963 119.03 119.058 118.905 118.9 118.833 118.778 118.715 118.71 118.635 118.678 118.8 118.873 118.84 118.928 118.888 118.928 118.943 119.003 118.885 118.87 118.963 118.925 118.9 118.845 118.86 118.86 118.83 118.733 118.598 118.495 118.42 118.348 118.31 118.238 118.218 118.268 118.453 118.465 118.47 118.6 118.683 118.543 118.513 118.635 118.658 118.573 118.633 118.755 118.935 118.87 118.763 118.608 118.62 118.723 118.813
136.905 135.343 137.625 140 140.228 140.33 140.548 140.453 140.13 139.098 136.463 134.215 133.113 132.828 132.758 132.743 132.525 132.438 132.358 132.315 132.373 132.305 132.39 131.968 131.893 135.87 138.94 139.648 138.805 137.278 134.768 132.48 131.328 131.34 131.275 131.465 132.053 133.095 132.703 132.408 132.293 132.563 131.603 131.845 132.723 133.97 134.68 134.215 134.25 135.828 136.57 134.808 135.415 138.058 135.705 131.378 132.048 137.06 138.195 132.393 132.565 136.03 138.088 140.245 142.318 134.075 132.21 129.913 129.71 130.075 130.528 131.125 129.855 129.45 130.033 129.863 129.35 129.28 129.373 129.945 129.723 129.98 129.658 130.023 129.97 128.66 128.965 129.59 128.628 128.68 128.813 129.378 129.805 129.008 128.128 129.298 128.313 127.79 127.718 127.648 127.638 127.583 127.728 128.068 127.443 127.32 127.308 127.543 128.34 127.68 127.26 127.218 126.8 126.98 127.075 129.195 133.653 134.59 133.118 131.2 127.553 127.255 127.353 127.945 127.713 126.203 126.04 126.018 126.09 126.113 126.025 126.49 127.708 131.298 132.973 133.51 132.543 129.93 127.315 125.375 125.32 125.413 125.24 125.363 126.513 128.905 129.725 128.585 126.765 125.885 125.93 125.263 125.478 125.493 125.928 125.713 125.76 126.083 129.653 132.748 133.198 132.978 131.253 129.043 126.913 125.8 125.49 125.53 125.943 125.2 124.69 124.828 125.15 125.063 125.353 124.835 125.423 126.033 127.498 127.975 125.608 125.623 126.635 130.438 128.93 125.385 125.2 124.538 124.15 123.93 123.94 124.415 123.848 123.898 125.608 123.853 123.865 123.79 123.878 123.838 123.823 123.9 123.943 123.983 123.933 123.935 123.923 123.99 125.715 130.61 137.875 138.778 135.49 134.085 134.83 136.648 137.47 132.568 124.06 123.725 123.658 123.658 123.673 123.428 123.485 123.723 123.76 123.628 123.545 123.75 123.465 123.335 123.273 123.27 123.118 123.085 123.238 123.178 122.895 123.01 123 122.74 122.585 122.65 122.715 122.498 122.455 122.405 122.343 122.12 122.223 122.458 122.07 121.895 122.053 121.953 121.795 121.705 122.023 121.82 121.63 121.795 121.73 121.615 121.598 121.563 121.368 121.38 121.358 121.29 121.29 121.32 121.303 121.135 121.078 121.085 121.038 121.04 120.968 120.798 120.638 120.41 120.3 120.203 120.018 120.093 120.115 120.025 119.963 119.965 119.968 119.938 119.925 119.898 119.833 119.87 119.908 119.88 119.845 119.77 119.613 119.478 119.375 119.373 119.363 119.465 119.58 119.558 119.193 119.025 118.935 118.948 118.9 118.873 118.805 118.785 118.853 118.94 118.893 118.92 118.888 118.845 118.873 118.793 118.868 118.933 118.91 118.998 119.12 118.885 118.815 118.833 118.883 118.745 118.68 118.685 118.635 118.508 118.44 118.463 118.523 118.59 118.688 118.795 118.833 118.738 118.733 118.81 118.778 118.708 118.74 118.79 118.765 118.735 118.705 118.7 118.7 118.673 118.6 118.478 118.375 118.28 118.165 118.133 118.128 118.093 118.203 118.335 118.353 118.388 118.535 118.65 118.468 118.455 118.495 118.553 118.568 118.618 118.668 118.738 118.673 118.653 118.593 118.553 118.59 118.675
135.955 133.173 138.008 139.745 139.595 139.35 138.818 138.828 138.943 138.56 135.568 132.663 132.783 132.69 132.498 132.37 132.335 132.298 132.233 132.168 132.203 132.235 132.148 132.018 132.3 133.753 138.383 139.985 140.105 138.593 136.135 133.713 131.618 131.59 132.363 132.485 131.225 131.438 131.503 131.333 131.105 131.178 131.168 130.928 132.09 134.895 137.003 133.2 131.715 133.485 135.938 135.318 134.99 138.815 140.905 133.378 130.568 136.178 140.243 138.175 131.573 135.748 137.545 141.223 143.885 142.128 135.663 130.26 130.655 132.375 131.088 130.958 130.265 129.498 131.968 130.715 129.145 129.183 129.305 130.08 129.72 129.203 128.96 129.013 128.905 128.61 128.993 133.065 130.32 128.528 129.538 130.663 129.63 129.218 128.398 128.153 127.913 127.768 127.61 127.92 127.623 127.453 127.518 128.383 127.445 127.178 127.205 127.688 128.59 127.648 127.173 127.173 126.778 126.613 126.748 127.935 132.44 133.708 132.65 129.335 127.09 126.468 126.33 126.163 126.153 125.905 125.895 125.883 125.88 125.89 125.938 126.128 126.678 129.3 133.133 133.883 132.155 128.705 125.685 124.94 125.568 125.67 125.333 126.303 129.425 131.145 131.14 129.453 127.95 126.698 125.963 125.148 125.2 125.49 127.325 127.018 126.898 128.128 129.478 131.593 132.668 132.13 129.813 127.553 126.19 125.313 125.39 125.333 124.965 124.683 124.763 126.573 127.538 126.975 126.33 124.59 124.413 127.015 129.275 128.863 128.238 127.288 127.2 126.528 125.833 125.633 125.718 124.833 125.055 124.753 125.45 126.12 124.645 124.535 127.605 124.76 124.1 123.843 123.835 123.93 123.67 123.758 123.84 123.758 123.835 123.775 123.798 124.403 129.455 136.565 138.093 138.125 136.778 136.19 134.118 133.945 128.9 125.935 123.695 123.663 123.458 123.47 123.468 123.425 123.405 123.54 123.615 123.448 123.328 123.395 123.503 123.288 123.188 123.19 123.115 122.968 123.038 123.13 122.903 122.858 122.905 122.915 122.573 122.375 122.428 122.513 122.338 122.15 122.065 122.188 122.058 122.115 122.01 121.773 121.803 121.98 121.8 121.615 121.623 121.79 121.62 121.705 121.645 121.595 121.483 121.528 121.383 121.303 121.33 121.285 121.245 121.185 121.143 121.085 120.923 120.925 120.998 121.08 120.975 120.763 120.513 120.3 120.223 120.083 119.945 119.988 119.933 119.848 119.825 119.843 119.835 119.795 119.783 119.76 119.708 119.663 119.71 119.725 119.675 119.613 119.515 119.425 119.27 119.188 119.178 119.355 119.53 119.443 119.005 118.923 118.908 118.943 118.838 118.785 118.668 118.478 118.588 118.738 118.875 118.863 118.783 118.74 118.76 118.755 118.698 118.733 118.828 118.918 118.828 118.76 118.568 118.608 118.57 118.593 118.428 118.448 118.33 118.333 118.3 118.31 118.345 118.455 118.488 118.515 118.613 118.555 118.553 118.66 118.665 118.645 118.618 118.675 118.653 118.59 118.58 118.575 118.58 118.52 118.455 118.315 118.21 118.14 118.048 118.005 118.095 118.128 118.09 118.223 118.308 118.31 118.408 118.48 118.39 118.415 118.445 118.463 118.465 118.48 118.515 118.738 118.623 118.56 118.61 118.525 118.538 118.505
136.393 133.773 137.228 137.965 138.088 136.048 135.085 135.205 135.42 136.228 134.398 133 133.758 133.398 132.5 132.355 132.295 132.22 132.155 132.17 132.11 132.175 132.098 132.008 131.938 132.79 136.56 139.323 140.31 139.67 137.935 136.035 131.845 132.47 133.505 133.068 131.43 130.935 130.873 130.985 131.038 130.945 131.293 131.483 132.28 134.893 136.543 133.848 131.51 133.025 135.408 133.873 132.453 135.203 135.605 133.175 135.388 138.383 141.56 141.565 134.15 133.398 138.813 140.383 142.518 143.855 137.708 130.425 130.423 131.76 131.658 131.275 131.108 132.58 131.055 131.438 129.815 129.005 129.018 129.72 129.318 128.745 128.688 128.658 128.598 128.508 128.603 133.278 130.93 128.278 129.965 132.923 129.84 128.028 127.988 128.7 127.97 127.75 128.548 128.263 127.49 127.273 127.383 127.253 127.128 126.933 127.018 128.173 128.168 127.535 127.368 127.093 126.833 127.133 126.853 129.405 131.988 131.605 131.745 129.045 126.51 126.198 126.2 125.95 125.785 125.745 125.73 125.753 125.738 125.765 126.075 126.158 128.458 129.708 132.815 133.125 132.573 128.235 125.513 124.963 125.048 125.09 125.185 127.328 129.543 130.328 130.325 130.08 128.823 127.548 125.628 125.34 125.43 126.248 127.61 127.485 127.58 127.493 128.013 129.883 131.165 129.963 127.833 125.85 125.14 125.133 125.025 124.765 124.565 124.485 124.608 128.043 130.205 130.023 126.783 124.508 124.645 127.498 130.405 130.405 130.17 129.05 126.488 124.498 124.558 124.77 125.188 125.788 125.908 126.958 126.835 127.363 127.01 125.308 130.135 127.303 126.803 124.883 125.67 125.748 124.728 123.65 123.67 123.705 123.755 124.275 124.465 124.583 132.793 138.458 135.943 137.24 139.328 138.113 136.41 131.928 124.98 123.395 123.34 123.31 123.278 123.203 123.293 123.518 123.368 123.393 123.35 123.365 123.185 123.175 123.185 123.27 123.06 123.035 122.998 122.743 122.77 122.928 123.05 122.778 122.633 122.693 122.483 122.32 122.265 122.39 122.14 122.05 122 122.138 121.925 122.033 121.958 121.73 121.825 121.64 121.848 121.613 121.465 121.52 121.553 121.505 121.433 121.623 121.428 121.385 121.43 121.333 121.255 121.228 121.165 121.085 121.048 121.078 121 120.845 120.853 120.888 120.875 120.685 120.46 120.22 120.16 120.038 119.888 119.878 119.805 119.685 119.703 119.775 119.713 119.67 119.663 119.628 119.578 119.515 119.57 119.605 119.605 119.55 119.388 119.29 119.225 119.078 119.05 119.255 119.388 119.3 118.878 118.845 118.828 118.775 118.623 118.633 118.538 118.475 118.645 118.593 118.643 118.655 118.603 118.505 118.615 118.743 118.565 118.61 118.658 118.723 118.63 118.593 118.573 118.448 118.405 118.318 118.293 118.183 118.143 118.063 118.203 118.21 118.188 118.25 118.343 118.3 118.388 118.385 118.383 118.488 118.448 118.373 118.333 118.408 118.523 118.465 118.435 118.45 118.5 118.478 118.345 118.158 118.065 118.005 117.913 117.858 117.955 118.065 118.108 118.23 118.29 118.243 118.235 118.328 118.34 118.378 118.488 118.445 118.445 118.478 118.408 118.615 118.625 118.49 118.533 118.505 118.47 118.408
138.11 133.973 133.645 133.96 134.913 134.118 133.943 133.488 133.095 133.843 133.603 134.33 133.615 133.793 132.93 132.338 132.218 132.235 132.335 132.45 132.215 132.038 131.928 131.803 132.185 131.855 133.62 138.05 139.688 139.428 137.808 134.89 131.67 131.918 133.263 132.3 132.133 131.058 130.773 131.275 132.33 131.748 131.045 130.76 130.693 132.813 135.67 135.138 131.808 133.598 134.668 131.2 130.24 130.333 130.143 130.303 135.12 141.335 142.563 142.22 137.958 135.108 138.993 140.265 139.543 140.205 138.463 130.07 129.823 129.825 130.33 134.18 134.205 134.665 131.038 130.758 130.483 129.513 129.68 129.323 128.978 128.608 128.783 128.78 128.635 128.413 129.57 131.998 130.115 127.99 128.268 133.95 134.495 130.318 128.728 129.17 128.02 127.705 128.203 127.88 127.305 127.08 127.05 126.98 126.988 127.055 128.09 128.77 128.32 127.945 127.823 127.213 126.518 127.48 126.588 127.12 127.908 128.09 128.045 126.77 126.563 126.2 126.098 125.775 125.643 125.438 125.465 125.57 125.528 125.553 125.678 125.958 128.28 128.13 130.445 131.9 131.72 128.92 125.948 125.078 124.923 124.95 125.085 125.558 126.1 125.998 126.915 129.488 130.568 129.153 126.078 126.675 125.575 126.825 127.085 127.395 126.433 126.098 125.568 126.25 128.348 127.58 125.803 125.403 125.275 125.153 124.848 124.585 124.395 124.37 126.918 131.668 131.958 129.415 124.958 124.345 126.575 130.418 131.328 131.41 131.208 129.875 126.115 124.378 123.913 123.863 124.038 123.938 124.303 126.723 125.24 126.168 128.843 128.733 128.343 126.73 127.01 126.78 128.375 126.118 125.073 123.888 124.45 123.775 124.073 125.053 125.05 124.05 127.58 138.465 138.858 138.703 137.62 135.11 129.148 129.043 127.093 123.61 123.143 123.238 123.348 123.133 123.085 123.22 123.343 123.223 123.263 123.313 123.138 122.935 122.913 123.093 122.805 122.818 122.94 122.91 122.66 122.628 122.755 122.655 122.41 122.475 122.41 122.26 122.13 122.235 122.248 121.92 121.965 121.998 121.88 121.8 121.92 121.945 121.583 121.465 121.83 121.693 121.463 121.44 121.423 121.45 121.33 121.443 121.353 121.325 121.343 121.208 121.08 121.02 120.97 120.953 120.98 120.995 120.955 120.863 120.788 120.76 120.733 120.585 120.44 120.21 120.055 119.99 119.8 119.71 119.75 119.61 119.593 119.71 119.615 119.543 119.528 119.478 119.445 119.378 119.45 119.485 119.505 119.485 119.283 119.1 119.125 118.993 118.918 119.105 119.188 119.173 118.803 118.763 118.685 118.658 118.513 118.465 118.448 118.31 118.45 118.413 118.335 118.448 118.45 118.328 118.443 118.675 118.48 118.428 118.508 118.493 118.47 118.448 118.483 118.355 118.25 118.143 118.078 118.018 118.013 118.038 118.008 117.96 117.993 118.085 118.188 118.185 118.233 118.245 118.228 118.305 118.27 118.158 118.118 118.208 118.273 118.358 118.3 118.218 118.255 118.313 118.11 117.943 117.865 117.908 117.835 117.803 117.838 117.93 118.04 118.188 118.215 118.225 118.15 118.29 118.325 118.313 118.355 118.35 118.423 118.438 118.408 118.453 118.455 118.413 118.395 118.345 118.353 118.355
137.6 135.058 133.4 132.865 133.255 133.965 133.493 134.293 133.363 133.608 135.745 135.98 133.198 133.423 135.565 132.818 132.17 132.32 132.495 132.645 132.415 131.888 131.995 132.433 133.1 132.23 131.855 135.488 138.13 136.638 135.005 132.478 131.913 131.57 131.475 131.108 131.128 130.988 131.11 132.423 132.365 131.028 130.685 130.473 130.513 131.735 135.348 136.58 131.848 131.953 133.563 130.31 130.085 130.965 131.275 132.765 133.873 141.305 142.935 141.85 137.72 131.46 135.105 136.005 134.385 133.338 131.575 130.355 130.045 129.658 130.398 132.823 134.88 134.963 133.243 129.825 129.388 129.95 130.678 130.208 128.968 128.57 129.355 129.955 129.01 128.913 130.135 130.333 129.455 128 127.84 132.39 133.69 131.128 130.343 130.56 128.623 132.47 129.575 127.6 127.17 126.928 127.013 126.953 126.815 126.72 126.96 127.373 127.278 127.408 126.49 126.613 126.098 126.14 125.62 126.973 126.628 126.365 127.538 126.173 125.9 126.01 125.753 125.683 125.5 125.39 125.365 125.398 125.455 125.935 127.035 126.063 127.608 126.948 126.598 128.11 128.633 127.705 125.968 124.978 124.918 125.618 125.935 125.785 125.95 125.088 125.328 126.993 130.305 130.65 129.383 127.685 125.583 125.803 126.295 128.463 129.005 129.068 128.598 126.593 126.173 125.79 125.283 125.388 124.985 124.788 124.62 124.518 124.343 124.87 129.795 132.168 132.375 130.618 126.928 124.403 126.9 130.148 130.805 130.88 129.623 128.155 126.228 123.948 123.765 123.74 123.708 123.71 123.573 124.53 123.923 124.313 127.498 130.433 129.993 128.223 127.12 128.623 129.303 127.618 125.85 123.74 123.895 124.253 123.675 123.648 124.223 123.77 125.65 133.715 137.62 137.763 136.153 132.21 129.593 131.45 131.363 127.505 123.353 123.08 123.133 123.193 122.985 123 122.985 122.958 123.045 123.098 123.143 122.78 122.748 122.85 122.765 122.69 122.708 122.748 122.645 122.505 122.388 122.38 122.308 122.205 122.233 122.215 121.968 121.98 122.035 121.845 121.785 121.895 121.8 121.82 121.788 121.678 121.705 121.45 121.615 121.728 121.453 121.393 121.273 121.358 121.335 121.273 121.218 121.193 121.165 121.013 120.898 120.863 120.773 120.798 120.85 120.825 120.783 120.743 120.688 120.64 120.545 120.425 120.253 120.095 119.95 119.88 119.775 119.603 119.575 119.498 119.49 119.558 119.54 119.413 119.34 119.273 119.383 119.31 119.22 119.218 119.23 119.23 119.148 119.075 119.018 118.845 118.873 118.96 119.018 119.018 118.803 118.665 118.533 118.52 118.438 118.325 118.325 118.253 118.105 118.145 118.17 118.218 118.3 118.18 118.31 118.425 118.405 118.203 118.273 118.323 118.32 118.318 118.265 118.163 118.07 118 117.79 117.79 117.748 117.77 117.815 117.758 117.788 117.885 118.015 118.09 118.125 118.1 117.968 117.993 118.13 118.028 118.038 118.103 118.075 118.153 118.165 118.05 118.083 118.11 117.97 117.775 117.7 117.718 117.83 117.84 117.843 117.833 117.915 118 118.05 118.09 118.138 118.243 118.19 118.16 118.188 118.19 118.288 118.328 118.268 118.305 118.325 118.263 118.245 118.218 118.213 118.203
137.15 135.92 134.04 132.798 132.853 133 134.243 135.105 134.418 134.188 137.18 137.28 135.53 139.348 138.558 134.398 132.02 132.118 132.28 132.168 132.07 131.878 131.665 132.368 132.24 131.755 131.575 132.688 134.96 133.903 132.013 132.005 132.4 132.848 132.003 131.873 131.265 131.153 131.385 132.035 131.395 130.653 130.54 130.44 130.565 131.313 134.135 134.055 132.83 132.798 132.278 130.675 131.338 132.353 137.65 141.42 133.858 140.6 143.133 142.45 140.35 138.65 136.068 130.39 129.803 129.598 129.743 129.69 129.453 129.513 130.358 131.42 133.15 133.03 131.05 129.908 130.528 130.928 130.5 129.545 129.74 128.588 130.793 132.203 131.215 131.253 128.833 128.855 128.3 127.98 127.845 129.398 130.83 129.115 130.385 132.398 129.075 130.088 131.05 129.06 127.225 126.805 126.755 126.983 126.518 126.388 126.668 127.538 126.683 126.348 126.113 126.058 126.12 126.033 126.52 128.835 129.518 130.495 129.143 126.528 125.665 125.8 125.55 125.575 125.36 125.23 125.283 125.335 125.505 127.138 128.53 128.173 127.95 126.49 125.113 125.098 125.565 125.985 125.445 125.47 125.4 125.968 127.09 127.228 125.52 125.948 127.133 126.293 129.043 130.693 128.72 126.77 124.945 124.67 125.67 127.063 125.533 126.97 129.815 129.13 128.748 128.763 125.615 125.453 124.708 124.625 124.638 125.098 124.46 126.22 128.998 130.213 130.865 129.41 126.058 124.283 124.985 127.76 129.333 127.333 128.378 124.485 125.528 124.208 123.795 123.703 123.678 123.603 123.67 123.528 124.68 124.503 129.233 130.07 132.38 130.69 127.825 128.89 129.283 126.245 124.33 123.38 124.82 124.333 123.393 123.35 123.318 123.32 124.208 128.26 132.658 135.043 134.298 132.298 130.998 133.318 132.965 128.413 123.388 122.823 122.955 122.975 122.918 122.908 122.953 122.998 122.74 122.843 122.875 122.773 122.633 122.705 122.673 122.663 122.548 122.608 122.598 122.428 122.35 122.448 122.235 122.033 121.925 122.31 121.97 121.82 121.95 121.975 121.628 121.69 121.908 121.845 121.585 121.558 121.75 121.448 121.405 121.415 121.23 121.24 121.128 121.108 121.07 121.07 121.075 121.015 120.975 120.88 120.813 120.783 120.75 120.755 120.718 120.648 120.608 120.573 120.538 120.47 120.378 120.245 120.04 119.908 119.825 119.775 119.718 119.553 119.455 119.445 119.473 119.453 119.435 119.283 119.203 119.165 119.253 119.19 119.09 119.06 119.105 119.065 118.988 118.955 118.853 118.683 118.655 118.725 118.803 118.813 118.68 118.533 118.39 118.388 118.335 118.223 118.108 118.193 118.08 118.003 118.118 118.09 118.04 117.96 118.098 118.145 118.13 118.053 117.97 118.095 118.165 118.075 117.91 117.898 117.953 117.815 117.533 117.533 117.66 117.465 117.568 117.65 117.655 117.653 117.85 117.93 117.955 117.935 117.86 117.85 118.008 117.928 117.95 118.018 118.043 117.975 118.02 117.963 118.003 117.898 117.828 117.678 117.595 117.55 117.618 117.718 117.775 117.773 117.78 117.855 117.898 117.885 117.955 118.04 117.998 117.968 118.055 118.158 118.265 118.19 118.095 118.213 118.223 118.165 118.14 118.1 118.088 117.868
135.125 134.955 133.79 133.095 132.768 133.098 134.513 135.118 134.71 133.64 135.803 135.875 136.498 140.185 140.043 136.42 132.398 131.913 131.905 132.02 132.235 132.033 131.47 131.788 132.048 131.335 131.325 131.338 132.02 131.98 132.263 133.413 134.245 134.57 133.945 132.843 132.068 131.868 131.275 130.933 130.665 130.593 130.48 130.665 131.338 131.28 134.023 134.46 133.36 133.908 133.808 132.78 135.8 134.633 139.733 143.733 141.278 143.27 142.593 140.668 138.163 141.4 140.625 134.96 129.863 129.813 130.175 130.835 131.54 130.84 130.335 132.765 132.053 130.44 130.643 135.945 137.155 135.61 136.56 135.835 134.355 129.62 134.373 133.45 134.203 135.253 132.285 128.073 127.85 127.888 127.778 128.423 128.558 127.688 130.718 130.285 128.343 127.973 128.92 127.158 126.723 126.715 126.558 126.485 126.413 126.313 126.265 126.903 126.883 126.193 126.02 125.983 126.02 125.82 126.935 129.923 131.77 131.995 131.235 128.203 125.853 126.053 125.713 125.488 125.288 125.253 125.225 125.328 126.445 127.263 126.518 127.07 127.333 125.448 125.085 124.87 125.438 125.275 125.11 125.265 125.415 126.765 128.435 128.033 126.543 125.035 126.753 128.29 130.015 129.02 125.955 124.805 124.498 124.52 124.813 124.683 124.6 125.26 129.52 131.548 131.79 131.273 127.303 124.69 124.653 124.533 124.918 124.775 124.155 125.118 125.675 126.048 127.195 126.255 124.47 125.078 125.605 125.318 126.87 126.348 126.218 123.97 124.2 124.033 124.248 124.248 124.248 124.303 124.578 124.21 123.385 124.588 129.458 129.075 129.575 128.895 125.068 124.258 123.735 123.09 123.19 123.278 124.818 125.253 124.635 123.183 123.25 123.483 123.058 123.795 130.31 132.005 134.03 131.688 128.54 130.508 132.238 127.053 123.093 122.785 122.805 122.74 122.918 122.785 122.668 122.72 122.758 122.603 122.675 122.593 122.603 122.518 122.543 122.505 122.475 122.403 122.488 122.505 122.253 122.21 122.243 121.978 121.77 121.91 121.985 121.84 121.6 121.613 121.68 121.523 121.65 121.725 121.608 121.423 121.553 121.648 121.208 121.228 121.155 121.1 121.07 121.038 120.993 120.97 120.973 120.955 120.96 120.83 120.745 120.695 120.628 120.573 120.495 120.445 120.418 120.405 120.415 120.378 120.305 120.193 119.975 119.765 119.678 119.658 119.668 119.48 119.413 119.41 119.42 119.39 119.325 119.163 119.05 119.095 119.135 119.068 119.02 118.965 118.985 118.955 118.865 118.81 118.648 118.525 118.425 118.4 118.533 118.673 118.59 118.438 118.27 118.238 118.2 118.145 118.035 117.985 118.018 117.94 117.943 117.878 117.865 117.808 117.885 117.933 117.913 117.885 117.813 117.92 118.005 117.838 117.635 117.655 117.743 117.665 117.375 117.368 117.478 117.378 117.29 117.42 117.543 117.365 117.53 117.728 117.688 117.648 117.735 117.755 117.828 117.753 117.755 117.818 117.913 117.878 117.82 117.875 117.923 117.748 117.623 117.54 117.528 117.483 117.413 117.518 117.6 117.665 117.67 117.733 117.853 117.85 117.845 117.883 117.818 117.755 117.865 118.055 118.145 118.083 117.985 118.165 118.16 118.088 118.06 118.048 117.915 117.643
134.485 133.805 134.49 134.7 132.793 133.255 134.995 134.463 133.728 132.783 133.135 132.683 132.968 138.775 138.45 135.523 132.848 131.643 131.56 131.783 132.233 132.41 131.453 131.308 131.398 131.08 131.173 131.313 132.013 132.388 133.148 134.255 136.06 136.37 134.665 133.333 132.17 130.588 130.568 130.64 131.243 131.825 130.458 130.333 134.045 136.413 138.503 137.683 133.853 132.883 133.078 132.96 135.485 138.135 144.108 144.67 144.38 143.57 142.848 140.895 133.105 140.143 140.86 138.773 133.258 130.49 130.143 130.855 132.985 134.69 132.675 132.575 132.24 131.058 134.055 139.42 141.1 142.25 142.618 140.373 134.51 132.29 137.755 140.785 140.695 137.685 132.245 128.49 128.11 127.988 127.453 127.583 127.52 127.37 128.58 128.808 127.973 127.308 127.14 126.72 126.533 126.493 126.49 126.435 126.398 126.313 126.185 128.038 129.3 128.033 126.205 126.01 125.85 125.645 126.063 127.963 132.153 132.615 131.168 126.985 125.49 125.53 125.588 126.05 125.298 125.095 125.045 125.015 125.205 125.588 125.813 125.275 125.185 125.658 126.375 126.26 125.705 125.77 125.888 126.265 127.088 128.908 130.455 127.515 125.738 124.593 125.375 126.495 128.178 126.21 124.65 124.57 124.508 124.505 124.54 124.575 125.403 128.048 130.703 131.715 131.713 130.223 126.38 124.64 124.765 124.628 124.873 124.28 123.97 123.993 124 124.145 124.39 124.668 124.448 127.91 129.255 129.185 128.92 125.97 125.318 124.308 124.025 124.235 124.523 124.58 124.253 124.098 124.195 123.748 123.213 124.31 128.338 131.805 128.293 125.818 123.865 123.115 123.038 122.978 123.023 122.998 123.84 124.388 123.87 122.96 122.98 123.058 122.935 123.393 125.735 131.588 135.968 136.613 126.44 130.585 134.008 129.638 125.175 122.66 122.608 122.515 122.56 122.688 122.378 122.535 122.763 122.46 122.358 122.485 122.58 122.435 122.433 122.418 122.43 122.218 122.225 122.218 122.115 121.905 121.943 121.953 121.745 121.685 121.863 121.8 121.545 121.548 121.838 121.388 121.385 121.368 121.513 121.39 121.27 121.445 121.27 121.133 121.013 121.01 121.038 121.055 120.988 120.915 120.88 120.83 120.803 120.795 120.715 120.608 120.468 120.448 120.355 120.265 120.218 120.21 120.22 120.205 120.193 120.093 119.833 119.625 119.575 119.453 119.485 119.423 119.325 119.26 119.225 119.195 119.198 119.09 118.883 118.928 118.973 118.953 118.965 118.91 118.843 118.843 118.805 118.72 118.503 118.398 118.31 118.12 118.285 118.493 118.485 118.345 118.193 118.103 118.078 117.97 117.95 117.815 117.785 117.785 117.748 117.7 117.703 117.775 117.72 117.79 117.79 117.7 117.69 117.778 117.815 117.673 117.46 117.45 117.478 117.445 117.228 117.25 117.24 117.235 117.205 117.225 117.358 117.29 117.38 117.47 117.518 117.438 117.568 117.54 117.513 117.518 117.645 117.695 117.733 117.765 117.698 117.633 117.633 117.553 117.53 117.443 117.348 117.373 117.303 117.308 117.455 117.543 117.6 117.665 117.83 117.965 117.833 117.795 117.755 117.603 117.768 117.81 117.99 117.938 117.983 118.14 118.078 117.988 117.973 117.993 117.96 117.798
135.28 136.118 137.138 135.933 133.203 132.998 133.415 132.89 132.55 132.278 132.35 133.245 133.598 134.618 134.22 133.603 132.355 131.553 131.418 131.613 131.83 131.8 131.215 131.028 131.098 131.368 131.84 131.878 131.803 131.973 132.88 135.4 137.21 137.538 136.45 134.31 133.785 131.133 130.523 131.148 131.968 131.68 130.6 130.163 132.67 139.458 140.258 138.93 132.86 130.86 130.255 130.518 133.13 140.603 143.948 144.493 144.17 142.775 141.975 139.228 137.668 139.975 140.11 136.37 132.545 131.955 131.998 132.08 131.775 132.66 132.093 131.02 132.155 136.538 141.648 143.068 143.323 142.925 144.093 141.89 138.75 132.32 135.423 140.745 140.568 136.29 132.035 129.758 129.398 130.095 128.943 129.508 131.808 130.268 131.31 132.485 130.69 128.808 127.283 126.838 126.5 126.473 127.098 126.35 126.268 126.265 126.398 127.785 128.323 126.88 126.013 125.865 125.715 125.923 128.308 130.008 132.288 132.813 130.503 127.398 125.735 125.84 125.918 126.208 125.46 125.04 124.91 124.83 124.888 126.7 127.428 125.415 125.305 130.79 131.18 131.16 130.64 129.898 128.005 126.8 129.485 131.805 131.025 128.008 124.928 124.608 124.35 125.348 125.925 124.86 125.59 124.62 124.42 124.403 124.483 124.508 125.175 126.748 129.768 130.028 130.61 129.088 125.84 124.663 124.46 124.57 124.813 124.3 123.86 123.903 124.03 124.163 124.055 125.433 128.618 130.763 130.978 131.02 129.905 128.338 126.805 124.57 123.74 123.77 123.483 123.275 123.105 123.515 123.595 123.185 123.348 124.87 126.145 123.198 123.098 123.118 123.145 123.038 122.963 122.92 122.858 122.823 122.89 122.963 122.983 122.903 122.908 122.968 122.935 123.103 125.443 131.503 137.058 139.403 132.448 126.643 132.953 129.86 127.008 123.753 122.51 122.405 122.335 122.485 122.348 122.25 122.38 122.483 122.305 122.293 122.33 122.315 122.27 122.27 122.218 122.068 122.063 122.09 122.063 121.825 121.723 121.895 121.6 121.53 121.705 122 121.555 121.373 121.495 121.483 121.235 121.298 121.538 121.16 121.15 121.195 121.043 120.998 120.838 120.845 120.918 120.975 120.95 120.858 120.803 120.685 120.585 120.628 120.593 120.503 120.313 120.273 120.248 120.178 120.13 120.093 120.113 120.063 119.95 119.908 119.718 119.568 119.488 119.318 119.235 119.28 119.195 119.058 119.09 119.095 118.99 118.973 118.8 118.663 118.72 118.735 118.788 118.748 118.67 118.613 118.648 118.54 118.373 118.245 118.195 118.09 117.973 118.08 118.14 118.11 118.02 117.96 117.968 117.853 117.855 117.703 117.528 117.478 117.528 117.63 117.583 117.635 117.665 117.685 117.698 117.583 117.535 117.608 117.56 117.458 117.348 117.343 117.32 117.125 117.053 117.103 117.02 117.023 117.08 116.975 117.15 117.195 117.34 117.278 117.4 117.328 117.405 117.293 117.303 117.363 117.488 117.565 117.585 117.598 117.575 117.453 117.423 117.38 117.338 117.283 117.168 117.183 117.195 117.205 117.343 117.528 117.565 117.615 117.72 117.773 117.768 117.698 117.743 117.74 117.688 117.66 117.76 117.79 117.82 117.97 117.965 117.82 117.833 117.888 117.83 117.998
135.175 137.52 138.415 135.168 134.21 133.05 132.193 132.143 132.013 132.695 135.783 136.528 136.645 132.82 131.745 132.715 133.843 131.865 131.418 131.318 131.4 131.175 130.935 130.778 130.935 131.005 131.788 131.31 130.91 130.73 132.16 135.6 136.89 138.393 137.855 136.643 135.423 133.32 131.315 131.863 131.86 130.738 130.655 130.248 133.685 139.798 140.963 140.5 137.82 133.115 130.408 130.655 132.24 137.008 141.633 142.7 142.96 142.56 140.065 133.58 136.508 140.94 136.64 131.003 133.883 133.658 132.545 134.58 133.028 132.428 130.745 129.235 129.67 132.633 139.955 143.75 144.398 142.885 142.57 142.213 138.003 133.06 131.393 134.435 136.26 134.735 132.035 131.345 131.475 131.325 132.578 134.615 132.948 129.943 131.193 135.513 131.8 130.195 128.933 127.213 126.435 126.273 126.245 126.328 126.233 126.093 126.415 127.365 127.728 125.77 125.675 125.713 125.72 125.623 126.208 128.66 132.133 132.73 131.348 127.12 125.248 125.368 125.285 125.383 124.988 124.823 124.755 124.788 124.835 125.533 126.088 125.02 127.588 131.583 132.533 133.423 133.115 132.573 127.97 124.84 126.573 128.328 128.288 126.22 124.498 124.643 124.603 127.148 127.658 127.775 126.988 125.173 124.368 124.413 124.47 124.528 124.785 127.273 128.473 128.373 129.42 128.898 126.513 124.605 124.358 124.548 124.983 124.048 123.6 123.6 124.46 126.26 126.38 125.003 127.713 130.265 130.89 131.273 130.613 129.433 127.24 124.408 124.623 124.44 123.883 123.113 123.248 124.943 125.595 123.66 123.04 124.538 125.448 123.838 122.975 122.973 122.983 122.94 122.835 122.86 122.875 122.783 122.8 122.868 122.86 122.855 122.855 122.84 122.828 124.653 129.935 131.465 138.005 139.345 136.773 131.523 130.668 133.22 130.985 123.77 122.333 122.308 122.233 122.17 122.345 122.085 122.14 122.293 122.28 122.068 122.165 122.14 122.075 122.113 122.098 122.023 121.918 122.033 121.91 121.74 121.53 121.47 121.633 121.478 121.443 121.483 121.535 121.28 121.293 121.36 121.23 121.245 121.245 121.298 121.088 121.065 120.898 120.773 120.655 120.71 120.798 120.815 120.785 120.703 120.688 120.533 120.428 120.378 120.358 120.285 120.193 120.155 120.115 120.005 120.005 119.985 119.995 119.995 119.825 119.698 119.663 119.568 119.465 119.203 119.095 119.025 119.038 118.93 118.913 118.99 118.863 118.82 118.753 118.6 118.573 118.54 118.595 118.618 118.495 118.413 118.403 118.348 118.22 118.115 118.023 118.21 118.31 118.063 118.02 118 117.935 117.873 117.883 117.755 117.825 117.595 117.385 117.3 117.35 117.44 117.45 117.375 117.403 117.44 117.448 117.425 117.35 117.405 117.435 117.285 117.15 117.168 117.158 117.023 116.985 117.005 116.945 116.943 116.838 116.84 116.908 117.108 117.075 117.225 117.118 117.295 117.28 117.173 117.285 117.333 117.353 117.418 117.43 117.46 117.408 117.248 117.235 117.228 117.168 117.093 117.018 117.013 116.965 117.003 117.16 117.375 117.475 117.538 117.55 117.505 117.585 117.603 117.595 117.69 117.648 117.515 117.585 117.63 117.678 117.913 117.863 117.703 117.675 117.753 117.695 117.67
134.61 137.505 138.163 135.123 134.498 134.078 132.388 132.178 132.928 136.463 138.108 138.47 137.403 134.76 132.185 132.79 132.955 132.433 131.41 131.19 130.903 130.783 130.883 130.98 130.788 130.96 130.93 130.733 130.673 132.173 131.768 133.583 135.453 138.003 138.373 137.19 136.153 134.82 131.808 131.045 130.345 130.16 130.065 130.955 133.873 138.173 139.92 139.173 135.888 132.06 131.19 130.795 130.818 131.41 137.223 139.748 140.043 140.508 139.028 131.895 137.41 141.483 133.273 134.555 132.065 136.655 138.683 136.938 133.935 132.643 129.388 130.123 130.333 133.01 140.673 142.48 142.645 142.243 141.513 139.775 135.638 131.91 128.6 128.543 129.708 131.403 130.265 128.725 129.833 130.838 128.19 132.298 130.63 128.24 130.795 133.035 130.103 128.065 126.86 126.778 126.31 126.248 126.298 126.425 127.385 127.065 126.62 127.163 127.445 126.203 125.81 125.733 125.488 125.468 125.685 128.235 130.913 131.633 130.875 125.508 125.158 125.023 125.14 124.905 124.628 124.72 124.743 124.793 124.993 125.23 125.29 126.248 127.39 131.213 131.968 132.805 132.663 132.303 126.528 124.773 124.943 124.77 124.705 124.3 124.198 124.385 124.425 125.96 127.568 127.863 127.093 125.475 124.58 125.673 125.9 124.565 125.37 127.418 127.823 127.808 128.04 127.575 126.393 125.023 124.933 125.018 124.888 123.825 123.578 123.503 124.235 126.048 127.918 125.635 126.238 129.748 129.968 130.378 130.345 129.85 127.313 125.128 125.338 124.96 123.725 123.54 123.338 123.353 123.188 123.053 123.723 124.083 124.138 122.888 123.043 122.8 122.768 122.9 122.768 122.765 122.79 122.765 122.74 122.668 122.71 122.73 122.695 122.635 122.645 124.975 133.435 135.883 139.375 139.82 139.813 139.438 136.363 135.755 131.893 123.37 122.133 122.148 122.05 122.013 121.995 122.11 122.045 122.14 122.243 121.923 121.918 121.963 121.97 121.928 121.948 121.913 121.87 121.81 121.855 121.675 121.583 121.38 121.365 121.253 121.255 121.335 121.423 121.255 121.175 121.258 121.328 121.015 121.063 121.168 121.17 120.88 120.843 120.713 120.648 120.72 120.73 120.668 120.6 120.58 120.593 120.47 120.39 120.28 120.185 120.138 120.078 120.048 119.968 119.743 119.743 119.83 119.815 119.76 119.68 119.625 119.58 119.48 119.4 119.22 118.998 118.845 118.833 118.86 118.758 118.793 118.763 118.715 118.69 118.605 118.54 118.435 118.423 118.488 118.36 118.28 118.208 118.155 118.075 117.983 117.895 118.23 118.6 118.185 118.015 117.938 117.895 117.893 117.865 117.628 117.603 117.443 117.3 117.25 117.308 117.293 117.265 117.148 117.203 117.218 117.193 117.168 117.19 117.2 117.265 117.14 116.915 116.925 116.928 116.803 116.818 116.83 116.825 116.693 116.655 116.74 116.795 116.905 116.988 117.085 117.158 117.183 117.178 117.09 117.16 117.16 117.265 117.298 117.3 117.388 117.365 117.183 117.138 117.103 117.065 117.02 116.948 116.933 116.935 116.923 117.058 117.173 117.335 117.405 117.463 117.368 117.455 117.525 117.418 117.48 117.568 117.458 117.555 117.525 117.548 117.75 117.725 117.6 117.555 117.585 117.548 117.368
134.56 139.02 136.518 134.408 133.673 133.18 132.1 132.148 132.975 137.403 138.405 138.823 138.045 136.79 133.093 131.7 131.645 132.063 132.005 131.178 130.79 130.683 130.855 131.26 131.088 130.698 130.513 130.58 131.188 131.45 131.11 131.058 131.85 136.255 137.275 136.81 133.925 132.09 131.078 130.31 130.023 130.015 130.015 130.71 132.538 134.64 136.608 136.843 135.063 131.595 131.618 132.083 130.225 129.64 132.618 133.96 133.843 134.78 138.223 136.45 134.698 141.785 141.063 141.178 139.733 138.308 140.925 135.915 132.843 132.013 131.943 133.138 130.433 131.423 136.27 140.02 139.085 138.585 137.76 136.253 133.06 129.43 130 128.435 127.703 127.385 127.388 128.783 131.213 130.685 128.478 129.31 129.603 127.25 128.135 128.37 127.14 126.535 126.785 126.978 126.023 126.183 126.913 128.328 128.103 127.493 127.94 127.745 127.988 126.818 125.88 125.76 125.635 125.433 125.35 125.73 127.683 128.755 126.948 125.33 125.33 125.093 125.21 124.93 124.518 124.56 124.57 124.523 124.535 126.278 128.21 131.158 130.483 129.593 130.93 131.058 131.318 131.313 126.218 124.603 124.765 124.333 124.748 124.415 124.035 124.145 124.193 124.575 125.815 125.915 125.925 125.553 127.363 127.578 124.37 124.645 125.633 127.47 126.325 125.348 125.348 125.165 125.465 124.718 125.598 125.738 125.875 123.743 123.64 123.575 123.615 125.335 126.77 125.553 127.078 128.195 128.42 127.443 128.643 127.83 126.305 125.613 125.358 124.81 123.715 124.543 123.785 123.23 122.993 123.185 132.165 131.96 125.293 123.025 122.878 122.818 122.803 122.81 122.708 122.69 122.64 122.62 122.605 122.573 122.588 122.61 122.595 122.493 122.46 124.29 128.91 137.835 139.613 140.298 140.338 139.918 137.545 133.203 127.675 122.053 121.918 121.883 121.963 121.913 121.833 121.943 121.84 121.938 122.003 121.97 121.773 121.783 121.908 121.763 121.68 121.715 121.738 121.595 121.518 121.67 121.42 121.305 121.14 121.373 121.18 121.165 121.203 121.315 121.203 121.16 121.265 121.095 120.903 121.033 120.935 120.585 120.64 120.703 120.598 120.605 120.625 120.555 120.513 120.505 120.508 120.388 120.335 120.248 120.098 120.005 119.888 119.89 119.83 119.703 119.685 119.683 119.65 119.618 119.695 119.7 119.515 119.345 119.225 119.078 118.908 118.793 118.723 118.71 118.638 118.728 118.638 118.54 118.585 118.508 118.41 118.353 118.363 118.35 118.243 118.218 118.14 118.025 117.913 117.818 117.763 117.97 118.068 117.995 117.838 117.815 117.803 117.743 117.66 117.543 117.4 117.3 117.273 117.193 117.183 117.143 117.063 116.93 117.013 117.025 117.015 116.923 116.955 117.023 117.025 116.923 116.663 116.725 116.693 116.57 116.528 116.545 116.528 116.508 116.548 116.65 116.668 116.66 116.83 116.973 117.093 117.025 117.008 117 117.015 116.963 117.063 117.138 117.123 117.188 117.2 117.13 117.075 117.05 116.935 116.823 116.89 116.853 116.87 116.913 116.928 117.028 117.153 117.24 117.313 117.368 117.413 117.395 117.355 117.378 117.473 117.54 117.533 117.418 117.508 117.52 117.488 117.448 117.378 117.455 117.518 117.405
132.885 136.003 133.775 132.673 133.155 132.455 131.96 132.238 134.483 135.078 138.008 138.57 138.755 137.573 134.893 131.64 131.585 131.95 134.005 133.41 130.838 130.615 130.83 131.178 131.19 130.755 130.8 130.43 130.89 131.33 131.583 131.03 130.593 132.895 134.465 134.115 131.243 130.58 132.105 132.633 132.095 129.923 129.96 130.108 131.93 133.12 134.145 135.04 134.985 132.405 130.328 131.695 130.585 129.433 129.583 130.173 130.028 129.908 133.528 137.575 131.245 134.345 137.04 139.825 139.81 141.018 141.34 139.205 137.49 131.67 129.76 131.51 130.928 129.065 130.03 132.305 131.61 132.17 132.853 131.81 129.93 128.14 128.835 128.593 127.523 127.27 127.103 128.558 131.13 134.215 134.848 134.71 130.315 126.775 126.478 126.265 126.335 126.255 126.385 126.33 125.955 125.895 126.125 127.05 126.995 126.035 126.425 126.983 125.938 125.678 126.365 127.35 126.325 126.33 125.055 125.165 125.653 125.188 124.995 125.148 125.085 124.84 124.815 124.65 124.288 124.298 124.323 124.285 124.318 128.115 131.413 132.24 131.97 130.768 129.535 129.03 129.633 129.633 127.113 124.675 124.088 124.955 127.073 125.42 124.318 125.225 125.92 125.97 125.74 124.278 123.858 123.685 124.34 123.48 123.41 123.95 124.245 128.425 126.16 125.853 127.84 125.615 126.37 123.718 123.993 125.69 126.203 124.01 123.568 123.47 123.453 125.423 126.235 126.25 126.558 127.763 128.1 126.16 126.49 125.05 125.71 125.548 125.33 125.128 124.92 124.973 125.868 124.125 124.638 125.363 129.893 131.923 130.465 122.96 122.735 122.638 122.568 122.668 122.513 122.55 122.528 122.535 122.493 122.52 122.498 122.493 122.44 122.393 122.315 124.313 129.343 132.615 138.885 140.075 140.063 138.758 137.66 133.813 124.943 121.935 121.865 121.82 121.94 121.91 121.858 121.698 121.77 121.728 121.775 121.895 121.665 121.683 121.67 121.685 121.46 121.42 121.643 121.49 121.3 121.343 121.268 121.05 120.978 121.028 121.2 121.055 120.955 120.958 121.14 121.008 120.953 121.068 120.815 120.67 120.553 120.413 120.393 120.575 120.503 120.398 120.463 120.438 120.41 120.313 120.278 120.22 120.208 120.165 120.08 119.938 119.77 119.76 119.728 119.685 119.68 119.575 119.523 119.493 119.505 119.593 119.418 119.19 119.048 118.91 118.82 118.74 118.64 118.58 118.523 118.63 118.613 118.393 118.373 118.368 118.29 118.245 118.27 118.195 118.095 118.048 117.97 117.888 117.845 117.73 117.89 118.315 118.55 118.205 117.783 117.678 117.608 117.505 117.438 117.365 117.263 117.16 117.188 117.078 117.03 116.903 116.79 116.728 116.8 116.83 116.855 116.785 116.705 116.79 116.753 116.61 116.43 116.598 116.45 116.395 116.455 116.415 116.393 116.453 116.433 116.485 116.483 116.483 116.71 116.803 116.918 116.878 116.875 116.968 116.9 116.865 116.853 116.933 116.965 116.995 116.965 116.93 116.908 116.913 116.79 116.753 116.768 116.798 116.785 116.85 116.89 116.928 117.08 117.155 117.158 117.2 117.248 117.265 117.25 117.283 117.438 117.473 117.418 117.303 117.453 117.468 117.373 117.4 117.303 117.34 117.588 117.643
132.573 132.933 133.35 133.61 133.423 132.255 132.463 132.835 133.08 132.78 136.718 138.243 138.8 138.09 136.83 132.628 131.85 134.228 136.223 136.08 134.263 132.268 130.498 130.435 130.733 131.62 131.618 130.348 130.118 131.03 131.153 130.56 130.545 130.753 131.165 130.935 130.565 130.215 132.44 135.508 135.585 133.868 130.465 129.76 130.318 131.49 132.055 131.978 132.78 132.26 129.925 130.67 130.588 129.423 129.425 129.908 129.988 129.155 130.753 137.053 134.305 137 138.895 135.41 136.333 138.155 140.108 139.29 137.12 132.92 129.705 130.993 135.323 134.643 130.748 127.865 127.865 128.213 128.41 128.32 127.393 127.408 128 129.053 127.59 127.093 126.978 128.59 132.645 135.86 136.628 131.75 127.163 126.428 126.37 126.31 126.293 126.193 126.163 125.958 125.878 125.88 125.853 126.065 125.815 125.688 126.37 127.33 126.525 125.313 126.11 127.29 127.523 126.375 126.885 128.63 127.063 125.415 124.875 124.79 124.883 124.528 124.438 124.513 124.253 124.225 124.303 124.385 124.89 128.08 131.518 132.34 130.755 129.36 127.925 127.255 128.01 127.813 127.138 126.238 124.455 124.71 128.028 127.265 125.57 126.08 126.208 126.305 126.4 124.753 123.58 123.353 123.255 123.198 123.315 123.29 125.78 129.235 129.215 129.613 129.853 128.86 124.393 123.408 123.535 124.855 124.858 123.418 123.145 123.213 123.4 124.423 124.393 124.55 124.753 126.39 127.308 127.095 126.858 125.96 124.23 124.303 124.855 125.345 123.738 124.16 125.813 126.098 126.923 135.63 142.625 137.23 132.758 123.1 122.535 122.633 122.513 122.485 122.468 122.478 122.563 122.535 122.453 122.4 122.39 122.358 122.33 122.23 122.333 122.16 123.83 129.555 136.308 138.758 138.945 138.085 137.395 134.978 125.77 121.725 121.78 121.745 121.783 121.778 121.608 121.568 121.62 121.595 121.605 121.535 121.68 121.5 121.535 121.525 121.435 121.338 121.46 121.313 121.17 121.078 121.075 120.998 120.915 120.965 121.035 121.038 120.79 120.76 120.953 120.86 120.778 120.953 120.958 120.513 120.38 120.323 120.288 120.425 120.325 120.173 120.208 120.285 120.288 120.183 120.07 120.098 120.09 119.948 120.018 119.903 119.73 119.678 119.628 119.588 119.56 119.443 119.375 119.27 119.303 119.35 119.255 119.035 118.863 118.845 118.77 118.67 118.518 118.475 118.473 118.523 118.543 118.38 118.178 118.21 118.17 118.163 118.185 118.055 117.953 117.893 117.828 117.705 117.683 117.613 117.825 118.305 119.038 117.998 117.62 117.473 117.385 117.295 117.29 117.265 117.165 117.088 117.098 116.878 116.87 116.79 116.66 116.613 116.68 116.69 116.638 116.555 116.528 116.673 116.613 116.43 116.325 116.473 116.345 116.25 116.433 116.438 116.37 116.353 116.215 116.263 116.293 116.395 116.61 116.668 116.673 116.788 116.798 116.818 116.893 116.69 116.72 116.79 116.78 116.788 116.688 116.765 116.733 116.683 116.68 116.675 116.65 116.713 116.678 116.758 116.938 116.988 117.083 117.143 117.113 117.123 117.17 117.23 117.243 117.238 117.338 117.335 117.295 117.225 117.353 117.435 117.29 117.255 117.285 117.25 117.44 117.623
132.923 133.348 133.143 133.53 133.088 132.528 131.968 131.96 132.148 132.215 133.96 137.56 138.015 136.76 135.453 133.49 132.125 133.635 134.208 135.195 135.878 132.495 130.603 130.225 130.865 131.343 130.728 -9999 -9999 130.342 130.418 130.43 130.508 130.44 130.288 130.28 130.125 129.943 134.155 136.655 136.66 136.183 133.218 129.863 129.728 130.555 131.64 131.233 129.803 130.065 129.718 129.613 129.695 129.485 129.67 130.715 130.2 129.21 129.055 132.583 135.9 137.188 134.035 130.558 131.408 132.345 136.115 133.413 131.72 131.078 132.275 136.255 138.085 135.928 131.29 128.18 129.123 131.788 130.39 127.783 127.495 127.355 127.375 127.855 128.165 126.903 126.823 126.77 131.893 134.913 135.095 133.813 128.768 126.41 126.203 126.195 126.225 126.105 126.153 126.07 125.848 125.84 126.145 126.175 126.328 125.593 126.4 127.398 125.715 125.343 125.485 125.843 125.69 124.965 125.39 129.28 130.18 130.55 130.02 127.83 127.128 125.765 124.368 124.318 124.12 124.055 124.12 124.248 124.49 127.9 130.54 131.02 129.493 127.038 126.25 126.378 126.553 125.92 126.313 126.52 124.708 125.625 127.555 128.07 127.46 126.705 125.323 125.603 125.613 123.983 123.55 123.228 123.315 123.18 123.288 123.328 125.298 130.19 130.568 130.21 130.158 130.118 126.328 123.413 123.355 123.34 123.688 123.385 123.153 123.29 124.198 127.078 127.123 124.083 124.588 126.26 126.518 126.013 125.635 123.533 123.1 123.028 123.935 123.428 122.838 123.35 124.553 124.848 124.033 125.718 130.548 130.24 125.008 122.853 122.525 122.555 122.44 122.425 122.49 122.425 122.418 122.395 122.33 122.305 122.245 122.225 122.205 122.16 122.218 122.165 123.978 130.415 132.423 136.525 137.503 137.363 135.893 134.615 130.513 123.283 121.645 121.663 121.673 121.5 121.475 121.43 121.285 121.588 121.495 121.435 121.515 121.37 121.345 121.243 121.445 121.28 121.17 121.213 120.963 120.885 120.828 121.068 120.658 120.678 120.738 121.088 120.768 120.578 120.69 120.78 120.693 120.49 120.77 120.55 120.325 120.308 120.273 120.31 120.205 120.138 120.115 120.16 120.118 120.113 120 119.975 119.968 119.775 119.77 119.73 119.578 119.508 119.578 119.498 119.408 119.298 119.315 119.253 119.228 119.248 119.065 118.845 118.775 118.763 118.703 118.625 118.503 118.388 118.353 118.395 118.47 118.338 118.19 118.128 118.07 118.088 118.093 117.918 117.815 117.77 117.74 117.55 117.448 117.418 117.585 118.865 119.855 117.965 117.305 117.2 117.205 117.175 117.153 117.203 117.138 117.033 116.965 116.745 116.893 116.698 116.568 116.5 116.498 116.453 116.375 116.32 116.308 116.513 116.45 116.345 116.245 116.315 116.253 116.218 116.263 116.408 116.285 116.165 116.105 116.205 116.223 116.238 116.43 116.57 116.643 116.73 116.65 116.66 116.705 116.72 116.573 116.638 116.685 116.63 116.59 116.66 116.673 116.605 116.543 116.563 116.613 116.635 116.605 116.618 116.78 116.945 117.045 117.098 117.115 117.09 117.145 117.2 117.255 117.273 117.295 117.26 117.235 117.213 117.253 117.353 117.268 117.105 117.188 117.19 117.195 117.23
134.488 133.843 133.25 132.783 132.423 132.15 131.803 131.778 131.838 132.14 132.25 133.243 135.395 134.61 132.585 132.423 131.958 131.428 131.79 133.318 134.523 133.453 130.775 130.268 130.643 130.693 130.853 -9999 -9999 -9999 129.81 129.915 130.178 130.545 130.698 130.373 129.715 131.508 135.575 136.623 137.183 136.633 135.968 131.563 129.875 130.815 131.643 131.598 130.545 129.595 129.523 129.558 129.488 129.965 130.273 130.805 130.808 130.47 129.585 129.553 130.445 131.6 130.08 128.663 128.753 129.01 131.163 129.095 130.38 130.955 129.9 134.208 136.383 134.133 130.52 127.95 131.895 135.328 135.055 129.663 127.578 127.423 127.248 128.535 129.21 127.245 126.973 126.833 128.248 131.945 131.768 130.625 126.955 126.448 126.45 126.07 126.095 126.028 125.93 125.873 125.753 125.72 126.915 126.105 126.275 125.593 125.593 127.953 128.948 127.133 126.363 127.078 126.075 125.325 128.278 131.268 131.98 131.52 128.488 129.313 127.988 126.7 124.413 123.988 123.87 123.893 123.98 124.115 125.093 128.57 128.73 126.913 128.11 127.05 128.57 128.088 126.488 124.298 125.403 126.048 125.648 125.643 126.318 126.553 125.163 125.463 125.178 126.315 126.15 125.75 125.255 123.905 123.395 123.233 123.28 123.685 126.805 129.685 129.66 129.233 128.633 129.27 127.648 123.98 124.675 125.283 126.653 124.563 123.188 123.113 124.228 127.255 126.76 123.333 123.575 124.228 125.495 123.825 123.143 122.938 122.808 122.775 122.913 122.895 122.688 122.675 122.643 122.623 123.745 122.885 123.688 126.078 123.238 122.238 122.385 122.348 122.468 122.353 122.325 122.378 122.285 122.238 122.258 122.265 122.233 122.125 122.11 122.103 122.078 122.065 125.413 127.568 127.82 128.275 129.32 134.513 134.76 132.785 129.798 121.498 121.498 121.625 121.573 121.328 121.558 121.36 121.133 121.47 121.58 121.258 121.255 121.305 121.158 121.173 121.068 121.163 121.043 120.878 121.203 120.925 120.665 120.633 120.805 120.533 120.548 120.663 120.673 120.475 120.418 120.643 120.748 120.45 120.498 120.36 120.248 120.22 120.135 120.063 120.193 120.17 120.125 120.048 119.993 120.02 119.905 119.915 119.885 119.655 119.565 119.513 119.453 119.355 119.415 119.33 119.318 119.243 119.198 119.165 119.168 119.09 118.978 118.783 118.675 118.668 118.57 118.468 118.415 118.32 118.258 118.253 118.31 118.198 118.123 118.083 118.043 117.97 117.895 117.748 117.69 117.69 117.643 117.478 117.363 117.358 117.43 119.38 119.198 117.72 117.108 117.075 117.105 117.015 117.005 117.028 117.095 116.965 116.813 116.6 116.745 116.655 116.485 116.395 116.285 116.21 116.138 116.095 116.108 116.2 116.273 116.233 116.11 116.05 116.033 116.145 116.18 116.215 116.16 116.128 116.12 116.183 116.12 116.14 116.305 116.458 116.583 116.625 116.488 116.508 116.473 116.555 116.498 116.483 116.615 116.585 116.498 116.535 116.63 116.568 116.46 116.383 116.463 116.493 116.42 116.508 116.638 116.808 116.96 117.02 117.025 117.03 117.035 117.068 117.088 117.055 117.095 117.12 117.055 117.085 117.143 117.275 117.205 117.105 117.155 117.135 117.125 117.168
135.695 133.853 134.283 133.43 131.985 132.155 131.86 133.068 133.898 135.115 136.118 135.8 133.058 134.08 133.918 133.09 132.575 132.333 132.545 131.588 132.093 130.993 130.62 130.523 130.255 130.53 -9999 -9999 -9999 129.855 129.768 129.608 129.908 131.948 131.583 130.088 129.728 130.875 132.548 135.388 136.905 136.455 135.693 132.96 130.86 131.365 130.755 131.42 130.978 130.01 129.508 129.565 129.688 129.458 129.92 129.868 129.965 129.855 129.333 129.123 128.95 128.755 129.053 129.198 129.195 129.57 128.283 128.245 128.583 130.193 129.38 129.12 132.09 131.26 129.475 128.038 129.273 132.848 134.903 130.25 127.225 127.363 128.153 129.075 128.56 126.973 126.868 126.74 126.75 127.838 128.195 127.18 126.66 126.37 126.173 126.018 126.01 125.953 125.868 125.858 125.768 125.86 127.345 126.8 125.778 125.5 125.443 128.13 128.41 127.633 127.958 127.973 127.513 126.36 128.835 131.183 132.518 131.948 127.983 127.165 125.208 124.843 125.068 124.035 123.995 124.295 124.468 124.313 126.393 128.885 127.64 125.013 124.99 129.028 130.488 130.193 127.003 124.03 125.765 125.298 125.178 124.515 124.818 125.218 123.793 123.63 124.068 126.483 127.25 125.853 124.62 123.44 123.238 123.135 123.158 123.903 125.74 127.498 127.468 127.348 126.913 127.085 126.478 124.048 125.103 127.535 128.763 124.618 123.14 123.073 123 122.958 123.173 122.908 122.835 122.813 122.815 122.795 122.773 122.923 123.433 124.44 124.63 123.71 122.625 122.508 122.528 122.718 127.705 131.49 124.868 123.66 122.92 122.14 122.27 122.188 122.28 122.25 122.268 122.23 122.095 122.128 122.198 122.215 122.19 122.043 121.96 122.06 121.968 121.955 125.03 125.768 126.855 126.42 125.89 128.998 131.74 130.86 129.693 123.838 121.423 121.475 121.458 121.223 121.248 121.233 121.113 121.185 121.438 121.165 121.08 121.19 121.2 120.988 120.85 121.048 120.983 120.825 120.77 120.678 120.52 120.56 120.64 120.573 120.51 120.51 120.528 120.533 120.37 120.32 120.535 120.495 120.41 120.24 120.128 120.055 120.01 119.913 119.943 119.958 119.948 119.923 119.903 119.923 119.788 119.778 119.75 119.528 119.403 119.388 119.398 119.35 119.288 119.17 119.15 119.175 119.073 119.035 119.015 118.878 118.798 118.725 118.61 118.603 118.548 118.34 118.253 118.21 118.163 118.143 118.078 118.035 117.98 117.918 117.988 117.938 117.758 117.71 117.695 117.583 117.558 117.428 117.315 117.2 117.328 117.905 118.56 117.613 116.988 116.975 116.975 116.873 116.735 116.81 116.935 116.848 116.738 116.568 116.495 116.493 116.458 116.35 116.193 116.098 116.038 116.003 115.905 116.01 116.163 116.215 116.068 115.96 115.955 115.975 116.028 116.085 116.105 116.08 116.025 115.953 115.928 116.065 116.215 116.353 116.383 116.365 116.298 116.323 116.273 116.388 116.443 116.385 116.443 116.428 116.335 116.383 116.473 116.368 116.328 116.31 116.265 116.26 116.36 116.523 116.6 116.71 116.85 116.92 116.943 116.983 116.988 116.98 116.995 116.995 117.035 117.043 116.993 116.98 117.033 117.148 117.203 117.118 117.068 117.025 117.175 117.23
138.335 133.453 136.145 135.69 132.573 132.09 131.795 132.888 135.77 137.175 139.628 139.323 136.94 136.45 134.893 134.025 133.353 133.128 131.788 130.903 130.703 130.585 132.968 132.888 130.285 132.05 -9999 -9999 129.855 129.68 129.388 129.458 129.763 130.435 129.968 129.77 129.71 130.548 131.37 133.678 135.365 134.545 132.71 132.118 131.02 132.39 131.243 130.783 130.768 129.735 129.355 129.345 130.078 130.545 129.26 129.29 130.103 129.755 128.855 129.248 129.973 128.878 129.058 129.625 130.1 129.998 128.385 128.193 128.48 128.268 127.875 127.978 129.455 129.613 129.453 128.205 127.48 128.913 132.228 129.838 127.118 127.658 128.9 129.218 128.055 126.7 126.623 126.59 127.188 126.415 126.218 126.265 128.233 126.588 126.108 125.968 125.968 125.938 125.818 125.818 125.755 125.798 126.248 126.45 125.455 125.398 126.118 127.188 126.815 125.76 125.94 126.6 126.095 126.293 128.563 131.688 132.175 131.495 129.383 125.793 124.758 125.048 126.463 125.243 124.1 124.743 124.838 124.41 124.75 127.838 125.748 123.9 125.95 129.838 131.325 130.988 128.405 125.138 124.388 124.223 123.728 123.505 123.51 123.83 123.388 123.213 124.645 127.843 127.915 124.943 124.008 123.155 123.135 123.2 123.563 124.9 124.658 124.87 124.913 124.925 124.95 124.63 124.085 123.41 124.825 126.73 126.143 123.375 123.088 123.018 122.92 123.033 123.728 122.945 122.77 122.788 122.838 122.758 122.663 123.553 125.578 125.685 124.693 123.863 122.718 122.388 122.428 126.375 134.608 132.938 123.56 124.138 125.165 122.47 122.225 122.123 122.288 122.313 122.113 122.108 122.01 122.023 122.078 122.133 122.1 121.98 121.875 121.94 121.92 122.665 125.098 128.22 128.223 126.57 125.718 126.66 129.23 130.685 133.018 126.755 121.288 121.32 121.378 121.125 121.108 121.178 121.07 121.063 121.183 121.225 120.918 120.955 121.185 120.875 120.6 120.755 120.898 120.675 120.61 120.613 120.405 120.333 120.378 120.575 120.438 120.288 120.363 120.543 120.293 120.14 120.39 120.385 120.155 120.123 120.038 119.96 119.933 119.898 119.755 119.745 119.823 119.86 119.83 119.785 119.623 119.578 119.515 119.443 119.333 119.345 119.303 119.323 119.275 119.19 118.945 118.968 118.965 118.928 118.958 118.855 118.65 118.645 118.678 118.588 118.358 118.145 118.103 118.07 118.035 118.008 117.928 117.848 117.808 117.715 117.795 117.883 117.65 117.628 117.695 117.52 117.445 117.385 117.265 117.098 117.2 117.64 118.13 117.515 116.865 116.855 116.87 116.79 116.655 116.688 116.795 116.715 116.6 116.558 116.398 116.353 116.403 116.233 116.055 116.085 115.928 115.898 115.885 115.84 115.933 116.038 115.913 115.793 115.845 115.853 115.908 115.87 115.958 115.975 115.9 115.803 115.885 115.988 116.105 116.165 116.173 116.19 116.263 116.28 116.183 116.153 116.325 116.348 116.35 116.32 116.22 116.218 116.328 116.268 116.203 116.155 116.185 116.285 116.35 116.428 116.66 116.743 116.768 116.785 116.825 116.87 116.905 116.893 116.905 116.905 116.983 117 116.968 116.908 116.94 116.988 117.128 116.98 116.87 116.913 117.085 117.248
135.563 133.043 134.223 135.575 133.253 131.613 131.963 132.3 135.218 138.795 140.335 141.028 141.09 135.853 132.99 132.388 132.97 133.415 132.425 131.11 130.56 130.523 132.11 135.058 134.01 133.108 -9999 129.805 129.625 129.305 129.168 129.203 129.335 129.35 129.44 129.775 129.933 130.145 131.065 131.1 132.343 131.673 131.375 130.893 130.52 130.663 131.583 132.235 132.67 131.27 130.418 131.033 133.098 132.493 131.005 129.578 130.388 130.213 129 128.663 129.9 128.69 128.288 129.423 130.24 130.24 128.778 128.16 129.183 128.32 127.663 128.05 129.6 128.96 129.308 127.708 127.405 128.213 130.218 128.12 127.158 128.235 129.283 129.198 128.828 127.76 126.645 126.505 127.338 126.543 126.135 126.3 127.568 127.82 126.89 126.055 125.808 125.77 125.77 125.73 125.89 125.665 125.838 125.665 125.658 125.568 126.14 126.423 125.54 125.465 125.475 124.975 124.935 124.653 126.328 131.7 132.09 131.133 129.825 126.853 124.225 124.69 127.328 126.293 124.243 123.938 124.363 124.213 123.958 125.513 125.925 124.995 126.955 129.98 131.683 131.208 129.62 126.585 123.828 123.643 123.423 123.363 123.473 123.425 124.338 126.235 129.175 130.51 128.865 125.545 125.483 124.005 122.97 123.293 124.21 124.118 124.268 123.685 123.325 123.303 123.523 123.71 123.353 123.188 123.73 123.968 123.348 123.11 123.035 122.94 122.943 124.795 124.76 124.568 123.245 122.78 122.82 122.813 122.775 124.045 124.503 124.505 123.203 122.558 122.45 122.348 123.013 125.57 131.05 131.238 125.983 128.13 129.695 124.35 122.1 122.32 122.228 122.12 122.105 122.468 122.065 121.963 121.888 121.998 121.995 122.033 122.07 121.855 121.765 122.448 123.17 128.67 129.695 128.353 126.92 130.11 132.993 132.253 132.108 123.333 121.12 121.078 121.065 121.11 121.015 120.95 121.065 120.948 120.973 120.968 120.925 120.765 120.835 120.908 120.47 120.48 120.833 120.735 120.47 120.433 120.423 120.265 120.198 120.265 120.47 120.2 120.075 120.288 120.27 120.13 120.145 119.99 119.963 119.935 119.928 119.855 119.763 119.77 119.698 119.678 119.753 119.758 119.725 119.668 119.548 119.503 119.338 119.313 119.305 119.31 119.218 119.238 119.173 119.11 118.933 118.945 118.885 118.815 118.803 118.745 118.565 118.49 118.585 118.483 118.255 118.045 117.95 117.933 117.923 117.923 117.893 117.763 117.635 117.55 117.665 117.645 117.44 117.363 117.443 117.423 117.35 117.285 117.183 117.048 116.973 117.253 117.82 117.113 116.695 116.755 116.825 116.785 116.72 116.683 116.65 116.6 116.393 116.37 116.37 116.225 116.245 116.078 115.92 115.95 115.813 115.788 115.84 115.768 115.785 115.833 115.755 115.64 115.69 115.73 115.853 115.693 115.738 115.853 115.808 115.785 115.82 115.878 115.998 116.055 116.078 116.043 116.158 116.14 116.17 116.105 116.155 116.255 116.273 116.223 116.123 116.105 116.175 116.233 116.145 116.16 116.188 116.283 116.345 116.443 116.633 116.763 116.72 116.72 116.71 116.785 116.825 116.805 116.805 116.785 116.763 116.865 116.805 116.723 116.825 116.86 116.898 116.795 116.733 116.815 116.928 116.94
132.343 131.98 132.91 133.875 131.925 131.46 131.74 131.91 132.208 136.403 138.91 140.51 141.453 138.078 132.228 131.275 132.07 131.65 131.45 130.84 132.305 132.528 132.18 135.47 136.16 135.643 132.145 129.61 129.268 129.22 129.253 129.28 129.195 129.243 129.405 129.628 130.193 131.25 131.243 130.315 129.548 129.54 130.368 131.555 130.94 130.195 130.135 131.123 134.735 135.463 135.34 135.268 135.41 135.46 134.325 130.16 128.943 128.928 128.87 129.455 129.808 128.325 128.395 129.505 129.55 129.598 128.698 128.103 128.36 128.278 127.585 127.775 128.66 128.358 128.198 128.188 127.455 127.273 128.135 127.355 127.025 127.438 128.213 129.135 129.605 128.015 126.558 126.555 126.583 126.165 126.083 126.755 128.73 128.245 127.935 126.815 125.708 125.593 125.59 125.55 126.52 125.888 126.348 125.855 125.805 125.333 125.095 125.35 125.385 125.613 126.325 126.688 126.815 125.55 127.415 129.945 130.488 129.403 127.965 125.34 124.075 124.415 125.463 124.548 123.803 123.718 123.728 123.71 123.718 124.045 125.24 124.223 127.263 130.423 131.268 130.9 129.998 124.705 123.42 123.54 123.238 123.268 123.433 123.475 125.73 127.908 129.47 130.565 130.288 127.38 127.023 125.593 123.068 122.88 123.013 123.385 123.498 123.493 122.985 123.01 123.05 123.078 123.11 123.085 123.035 123.03 122.98 122.853 123.045 123.843 125.123 126.828 126.828 126.218 124.64 122.865 122.868 122.825 122.75 122.863 123.03 123.28 122.593 123.065 122.503 123.198 124.968 127.533 129.743 128.793 127.645 130.188 129.398 125.265 123.018 122.88 123.398 124.14 124.533 123.64 122.01 122.003 122.003 122.153 121.85 121.83 122.04 121.835 122.56 123.623 125.5 124.845 127.86 131.988 132.6 133.158 131.323 125.898 130.905 126.95 121.543 120.905 120.87 121.038 120.923 120.778 120.785 120.96 120.745 120.715 120.9 120.585 120.618 120.67 120.565 120.385 120.595 120.665 120.393 120.275 120.235 120.248 120.045 120.103 120.293 120.183 119.965 119.995 120.323 120.06 119.96 119.88 119.888 119.893 119.87 119.723 119.603 119.57 119.618 119.628 119.563 119.518 119.505 119.523 119.485 119.443 119.305 119.155 119.138 119.108 119.045 119.128 119.018 118.97 118.878 118.868 118.838 118.708 118.665 118.65 118.49 118.298 118.245 118.215 118.18 118.063 117.893 117.81 117.795 117.845 117.868 117.743 117.518 117.408 117.518 117.49 117.328 117.263 117.308 117.325 117.258 117.125 117.018 116.89 116.783 116.413 116.678 116.783 116.578 116.615 116.65 116.585 116.573 116.59 116.533 116.455 116.333 116.25 116.18 116.043 116.065 115.923 115.853 115.79 115.675 115.688 115.728 115.708 115.728 115.778 115.765 115.603 115.713 115.71 115.713 115.733 115.69 115.763 115.755 115.703 115.663 115.863 115.925 115.93 115.96 116.005 115.945 115.995 116.063 116.108 116.08 116.128 116.218 116.148 116.003 115.963 115.995 116.125 116.11 116.015 116.11 116.19 116.288 116.385 116.455 116.595 116.655 116.665 116.645 116.77 116.883 116.74 116.678 116.758 116.693 116.69 116.785 116.725 116.733 116.738 116.735 116.675 116.68 116.785 116.838 116.79
131.628 131.523 131.955 132.69 131.89 131.288 131.288 131.268 131.79 133.64 138.04 139.268 137.563 137.685 133.465 130.8 130.913 130.98 130.915 133.12 134.815 135.35 135.54 135.765 135.138 134.298 131.505 130.065 129.39 129.31 129.318 129.203 129.078 129.008 129.168 129.19 129.323 129.92 129.86 129.763 129.21 129.298 130.558 130.945 130.105 129.96 130.4 132.953 135.195 135.43 135.235 135.243 135.453 135.765 135.46 132.983 129.513 128.903 128.73 129.328 129.3 128.278 128.19 128.62 128.473 128.168 127.908 127.888 128.023 127.773 127.525 127.65 127.533 127.743 128.003 127.765 127.425 127.49 128.198 128.348 127.125 126.985 126.943 127.33 128.05 126.985 126.418 126.47 126.27 126.085 126.228 126.215 127.325 127.633 127.72 126.923 125.67 125.505 125.475 125.388 126.508 127.633 127.978 127.42 126.65 125.253 124.945 125.305 127.715 126.79 126.455 126.283 125.938 125.353 125.03 126.64 127.918 126.608 125.213 124.24 124.085 124.08 123.893 123.69 123.573 123.65 123.623 123.575 123.56 124.468 124.69 123.828 125.305 129.61 130.88 130.328 129.73 126.26 123.14 123.09 123.15 122.898 123.083 123.745 125.235 125.075 126.193 128.693 130.145 128.053 127.103 126.43 123.678 122.798 122.865 122.905 122.988 123.09 123.11 123.068 123.035 122.96 123.005 122.903 123.018 122.918 122.765 122.653 122.895 123.96 125.2 127.818 127.61 125.96 124.358 122.983 122.795 122.755 122.708 122.595 123.128 123.843 124.51 124.638 123.16 122.57 124.803 127.725 128.838 127.91 127.02 128.018 127.29 126.595 123.393 123.253 125.328 126.343 125.9 122.55 123.138 122.41 121.69 122.478 121.615 121.6 121.823 121.668 122.768 124.538 125.275 125.433 129.803 134.728 135.848 134.675 135.61 131.208 129.918 130.14 124.47 120.838 120.745 120.75 120.928 120.81 120.725 120.83 120.62 120.535 120.6 120.528 120.338 120.443 120.575 120.285 120.31 120.423 120.35 120.055 120.133 120.175 119.978 119.848 119.958 120.253 119.943 119.865 120.065 120.06 119.798 119.785 119.778 119.79 119.745 119.643 119.485 119.435 119.498 119.593 119.473 119.35 119.288 119.393 119.393 119.318 119.283 119.07 119.003 118.965 118.943 119.005 118.778 118.93 118.908 118.718 118.74 118.6 118.508 118.553 118.398 118.27 118.163 118.155 118.168 118.063 117.925 117.813 117.703 117.73 117.768 117.713 117.48 117.333 117.375 117.35 117.283 117.183 117.208 117.193 117.138 117.003 116.85 116.738 116.595 116.125 116.473 116.85 116.53 116.563 116.558 116.398 116.48 116.485 116.403 116.338 116.218 116.105 116.093 115.95 115.965 115.81 115.798 115.705 115.618 115.598 115.71 115.738 115.703 115.683 115.68 115.603 115.635 115.658 115.66 115.723 115.648 115.675 115.66 115.583 115.595 115.783 115.78 115.795 115.843 115.845 115.913 115.88 115.9 115.995 115.993 115.96 116.07 116.01 115.93 115.925 115.888 115.928 115.993 116.108 116.128 116.11 116.208 116.263 116.33 116.443 116.528 116.558 116.583 116.693 116.78 116.658 116.608 116.658 116.625 116.58 116.688 116.735 116.73 116.713 116.623 116.57 116.595 116.695 116.755 116.753
131.895 131.418 132.118 132.928 131.75 131.303 131.043 131.445 131.743 131.38 134.713 136.28 133.96 133.26 131.225 130.675 130.673 130.81 130.83 133.703 136.325 136.798 136.335 135.863 131.135 131.695 131.47 130.08 129.398 129.345 129.225 129.093 128.963 128.685 128.813 128.93 128.82 128.823 129.193 129.065 129.003 129.313 129.285 130.573 131.345 129.475 128.905 130.238 133 134.885 132.975 132.678 133.738 134.788 134.878 132.393 129.41 130.938 130.948 130.84 131.103 130.995 129.993 128.1 127.908 127.87 128.253 127.763 127.82 127.768 128.12 128.33 127.593 127.495 127.688 127.778 127.225 127.675 128.998 129.158 127.913 127.045 126.82 126.75 126.97 126.985 126.388 126.363 126.55 126.235 126.86 126.123 125.853 126.293 127.048 126.475 125.55 125.6 125.328 125.31 126.54 127.838 127.77 126.903 125.693 124.89 124.77 125.16 126.598 125.57 126.575 125.675 124.618 124.14 124.198 125.258 126.173 126.198 125.558 124.568 124.17 124.215 123.96 123.64 123.455 123.403 123.37 123.375 123.623 124.668 124.698 123.698 125.288 129.043 129.555 129.473 128.358 125.11 123.06 123.02 123.69 123.135 122.988 123.203 123.285 122.99 123.365 125.35 126.335 125.258 124.488 123.595 122.883 122.75 122.883 123.035 123.293 123.433 123.565 123.418 123.273 123.128 122.74 122.65 122.98 123.01 122.605 122.545 122.515 123 124.815 127.02 126.798 124.835 123.658 123.118 122.6 122.625 122.665 122.763 123.763 125.335 126.928 126.165 124.498 122.558 123.65 125.998 127.768 127.803 127.308 127.63 127.215 124.868 121.873 122.048 122.998 123 123.445 121.963 123.185 123.775 123.328 123.62 121.788 121.395 121.505 121.458 122.423 124.255 125.248 126.218 131.17 135.645 136.795 136.213 134.04 128.413 130.383 131.963 125.6 121.123 120.72 120.578 120.665 120.68 120.668 120.625 120.715 120.39 120.453 120.465 120.24 120.29 120.28 120.32 120.178 120.14 120.178 119.885 119.873 120.018 120.013 119.768 119.68 119.97 119.873 119.703 119.795 119.795 119.595 119.6 119.618 119.618 119.573 119.543 119.465 119.363 119.373 119.46 119.483 119.308 119.168 119.248 119.363 119.265 119.18 118.99 118.915 118.878 118.868 118.91 118.703 118.768 118.818 118.638 118.58 118.455 118.44 118.45 118.328 118.21 118.123 118.113 118.113 117.97 117.765 117.67 117.593 117.563 117.555 117.543 117.453 117.335 117.295 117.253 117.193 117.093 117.053 117.028 116.975 116.893 116.748 116.593 116.408 116.003 116.803 117.1 116.553 116.49 116.443 116.245 116.333 116.313 116.228 116.218 116.055 115.91 115.993 116 115.998 115.77 115.76 115.585 115.57 115.578 115.658 115.695 115.603 115.59 115.57 115.53 115.538 115.565 115.558 115.65 115.538 115.565 115.555 115.508 115.573 115.688 115.628 115.663 115.718 115.86 115.903 115.713 115.703 115.77 115.855 115.958 115.923 115.813 115.715 115.87 115.88 115.795 115.813 115.983 116.123 116.113 116.175 116.163 116.288 116.443 116.5 116.483 116.51 116.613 116.605 116.563 116.53 116.535 116.538 116.535 116.54 116.618 116.723 116.815 116.718 116.628 116.545 116.575 116.638 117.158
131.465 131.483 132.738 133.47 132.77 131.563 131.073 131.06 131.093 130.855 131.265 131.985 132.318 132.715 131.753 131.31 130.408 130.953 131.61 133.863 137.013 137 136.358 135.07 132.313 130.358 129.613 129.325 129.268 129.2 129.068 128.958 128.838 128.68 128.638 128.708 128.843 128.815 128.745 128.505 128.52 128.608 128.803 129.213 129.488 129.155 129.22 132.375 133.55 132.593 130.155 129.458 130.513 132.895 134.023 131.158 129.293 133.598 134.258 134.59 134.575 134.203 132.225 129.14 127.91 129.038 131.413 131.368 128.053 129.34 129.458 130.318 128.403 127.425 128.945 127.975 128.128 128.168 130.198 129.715 129.358 127.943 127.065 127.028 127.923 127.255 127.358 126.833 127.21 127.238 126.295 126 125.79 125.595 126.233 127.56 125.623 125.278 125.158 125.085 125.413 127.045 126.938 125.33 124.895 124.835 124.533 124.6 124.74 125.673 126.72 126.063 124.803 124.08 124.578 128.325 127.725 127.123 126.378 125.545 125.153 126.338 123.8 123.498 123.413 123.29 123.368 123.453 123.538 124.003 123.798 124.758 124.348 127.138 127.615 126.975 125.29 123.478 123.375 124.35 125.953 124.813 123.018 123.178 122.885 122.86 123.595 126.465 125.39 123.758 123.008 122.81 122.83 122.78 122.868 122.943 123.733 124.21 124.71 124.905 124.64 124.173 122.76 122.443 122.608 122.78 122.523 122.46 122.428 122.448 123.658 124.7 125.77 123.765 125.44 123.875 122.49 122.49 123.64 125.88 125.57 127.425 128.51 127.718 125.648 123.485 122.393 124.078 125.933 127.535 128.75 129.903 128.378 124.253 122.275 121.648 121.743 121.713 122.203 122.945 122.478 123.948 124.988 124.29 121.833 121.278 121.24 121.303 121.703 122.285 122.325 124.198 133.138 130.103 135.96 135.915 135.16 127.898 126.51 128.733 125.195 120.61 120.62 120.605 120.513 120.628 120.553 120.505 120.453 120.355 120.243 120.215 120.323 120.178 120.2 120.213 120.1 120.02 119.828 119.983 119.72 119.745 119.853 119.79 119.68 119.64 119.885 119.668 119.59 119.613 119.475 119.458 119.49 119.468 119.418 119.348 119.405 119.36 119.318 119.35 119.468 119.38 119.258 119.185 119.243 119.228 119.068 118.905 118.888 118.855 118.86 118.865 118.765 118.748 118.683 118.583 118.51 118.45 118.41 118.33 118.203 118.108 118.02 117.993 117.94 117.855 117.74 117.615 117.508 117.443 117.428 117.415 117.37 117.255 117.22 117.193 117.108 116.945 116.863 116.853 116.78 116.778 116.71 116.49 116.345 116.348 117.11 116.845 116.243 116.268 116.248 116.16 116.155 116.038 116.02 116.1 115.86 115.765 115.78 115.64 115.603 115.563 115.708 115.568 115.515 115.568 115.623 115.588 115.49 115.493 115.475 115.41 115.39 115.493 115.435 115.435 115.385 115.42 115.448 115.443 115.49 115.605 115.653 115.745 115.738 115.755 115.723 115.755 115.678 115.623 115.67 115.803 115.765 115.765 115.768 115.785 115.783 115.73 115.673 115.758 115.93 116.058 116.043 116.035 116.24 116.35 116.38 116.393 116.44 116.45 116.418 116.423 116.365 116.403 116.423 116.365 116.33 116.315 116.62 116.68 116.655 116.53 116.458 116.413 116.545 117.19
131.595 131.64 131.425 132.188 132.675 131.385 131.048 130.94 131.545 131.403 131.265 132.5 133.128 133.29 132.793 130.983 130.508 131.413 136.025 136.783 137.713 136.743 134.81 132.778 131.1 130.265 129.218 129.178 129.393 130.69 130 129.055 128.713 128.66 128.648 128.533 128.708 128.745 128.575 128.375 128.345 128.513 128.733 128.998 128.973 128.733 128.648 128.588 129.12 129.683 128.75 129.465 129.77 129.408 130.093 128.615 128.228 131.49 135.48 136.168 136.08 135.528 134.503 131.133 128.52 131.828 133.233 133.728 133.425 133.823 133.793 133.488 130.743 127.748 129.395 131.095 132.745 132.77 132.778 132.69 131.828 130.168 127.45 126.798 127.768 129.905 131.188 129.848 130.11 131.938 129.39 129.42 128.355 126.255 127.243 130.565 127.263 125.223 125.303 125.495 127.6 128.398 125.815 124.655 125.505 126.33 124.98 124.98 124.615 125.31 126.063 125.84 125.085 124.433 128.963 130.575 129.928 129.378 127.223 125.258 125.803 125.415 124.098 123.605 123.403 123.375 123.405 123.43 123.845 124.725 124.47 125.79 124.205 124.76 125.628 124.353 123.633 123.65 124.135 125.048 125.513 125.043 123.973 124.085 123.315 123.625 124.115 125.658 124.528 122.965 122.665 122.673 122.645 122.633 122.698 122.685 123.07 124.908 126.085 126.913 126.105 125.023 123.675 122.493 122.605 123.013 123.47 122.41 122.365 122.315 124.158 125.28 125.695 126.303 125.54 123.38 122.795 123.303 125.898 128.54 130.16 130.095 129.48 128.578 126.9 124.68 122.56 122.625 124.17 125.415 126.71 128.163 128.913 123.883 121.775 121.658 121.66 121.665 121.753 123.4 124.613 125.045 126.333 125.63 124.403 123.005 122.91 123.063 122.105 122.55 121.125 123.565 132.523 132.435 134.363 134.778 136.203 135.128 134.198 133.475 127.33 121.468 120.5 120.478 120.38 120.41 120.445 120.38 120.343 120.325 120.048 120.163 120.27 120.193 120.018 120.06 120.185 119.908 119.748 119.795 119.77 119.603 119.603 119.75 119.64 119.493 119.778 119.798 119.423 119.388 119.41 119.415 119.435 119.433 119.343 119.21 119.218 119.228 119.25 119.303 119.37 119.38 119.24 119.153 119.078 119.055 118.953 118.828 118.82 118.785 118.74 118.683 118.575 118.528 118.515 118.485 118.468 118.44 118.33 118.215 118.133 118.05 117.873 117.81 117.758 117.723 117.685 117.608 117.503 117.388 117.328 117.3 117.248 117.143 117.15 117.123 117.015 116.863 116.813 116.743 116.65 116.623 116.618 116.433 116.448 116.44 116.878 116.593 116.088 116.093 116.148 116.155 116.123 116.023 115.915 115.943 115.833 115.675 115.678 115.67 115.618 115.55 115.61 115.598 115.513 115.508 115.593 115.59 115.465 115.403 115.398 115.245 115.255 115.37 115.348 115.435 115.4 115.348 115.36 115.303 115.368 115.508 115.573 115.525 115.603 115.695 115.723 115.708 115.645 115.53 115.548 115.685 115.538 115.518 115.6 115.743 115.653 115.695 115.623 115.65 115.748 115.885 115.998 116.1 116.238 116.27 116.285 116.333 116.31 116.27 116.28 116.365 116.353 116.295 116.295 116.303 116.333 116.318 116.443 116.488 116.478 116.453 116.33 116.285 116.378 116.49
132.113 131.285 131.375 131.325 131.783 131.185 131.155 132.383 132.518 133.718 133.505 134.56 134.763 134.203 132.84 133.085 131.338 135.025 137.135 138.225 137.25 135.45 132.793 130.48 129.653 129.278 129.165 129.19 130.143 132.948 131.128 129.003 128.658 128.538 128.553 128.373 128.258 128.598 128.475 128.23 128.293 128.143 128.18 128.953 129.598 128.803 128.22 128.16 128.35 128.338 128.853 128.858 128.408 128.155 128.195 128.213 128.385 132.568 134.97 135.81 135.46 135.09 134.3 132.623 132.498 133.408 133.645 133.998 134.088 133.938 134.095 134.395 132.135 129.185 129.41 133.943 133.923 133.725 133.658 133.713 133.838 131.83 128.52 126.565 128.498 132.07 133.59 133.645 133.493 133.37 132.775 132.12 129.698 126.245 128.86 131.813 130.34 129.713 128.73 127.713 128.213 127.68 125.978 125.928 127.633 128.07 127.2 124.97 124.78 125.023 124.935 124.635 124.538 125.92 131.905 131.843 130.96 130.035 128.303 125.108 125.928 125.183 123.975 123.588 123.303 123.385 123.428 123.348 124.403 125.55 126 124.513 123.253 123.495 123.37 123.953 123.355 123.698 124.768 125.125 125.01 123.93 123.553 124.725 125.4 124.955 125.05 124.418 122.835 122.613 122.525 122.39 122.44 122.633 122.59 122.658 122.648 123.098 124.72 126.608 128.385 127.403 125.42 123.31 123.148 124.113 125.623 123.43 122.558 122.368 123.695 126.285 125.515 124.605 124.035 123.95 123.353 123.538 125.55 127.795 130.145 130.583 129.573 128.37 126.765 124.56 122.43 121.805 122.08 122.768 125.518 128.693 129.078 126.03 121.983 122.648 122.295 121.573 121.395 122.698 124.595 125.2 126.928 127.553 128.013 128.093 128.05 127.58 125.91 121.475 120.978 121.108 128.333 135.18 135.383 133.473 135.963 136.07 134.495 128.705 122.43 120.233 120.26 120.348 120.388 120.23 120.38 120.353 120.27 120.125 120.038 120.093 120.128 120.075 119.818 119.938 120.08 119.923 119.563 119.538 119.61 119.42 119.383 119.66 119.62 119.31 119.358 119.36 119.31 119.268 119.298 119.313 119.308 119.348 119.303 119.225 119.295 119.205 119.078 119.158 119.17 119.158 119.163 119.093 119.053 118.883 118.803 118.715 118.705 118.665 118.583 118.513 118.453 118.458 118.51 118.385 118.365 118.298 118.148 118.12 118.118 118.063 117.77 117.7 117.628 117.623 117.578 117.515 117.455 117.325 117.228 117.238 117.163 117.055 117.125 117.043 116.895 116.798 116.78 116.73 116.55 116.508 116.443 116.368 116.375 116.413 116.413 116.23 116.03 116.003 116.088 116.093 116.035 115.938 115.823 115.753 115.7 115.588 115.54 115.595 115.565 115.49 115.533 115.543 115.43 115.298 115.428 115.48 115.453 115.298 115.263 115.243 115.16 115.233 115.24 115.375 115.358 115.275 115.293 115.275 115.31 115.463 115.445 115.443 115.575 115.658 115.64 115.65 115.578 115.433 115.435 115.478 115.5 115.46 115.473 115.668 115.675 115.675 115.7 115.62 115.715 115.763 115.883 115.985 116.07 116.125 116.195 116.223 116.14 116.165 116.223 116.315 116.248 116.228 116.273 116.21 116.34 116.38 116.388 116.368 116.298 116.33 116.25 116.265 116.3 116.458
135.935 133.243 132.508 131.6 131.733 130.678 132.955 135.663 135.998 136.228 136.113 136.115 133.008 131.13 132.213 133.615 134.298 136.255 137.22 136.915 135.335 133.385 131.085 129.688 129.353 129.148 129.15 129.195 129.35 131.495 131.768 130.015 128.69 128.548 128.385 128.255 128.15 128.358 128.343 128.245 128.275 128.128 127.935 127.998 128.26 127.785 127.728 128 128.258 128.245 129.11 129.733 128.58 128.11 127.97 127.945 128.64 131.185 132.298 133.355 134.008 133.995 133.865 131.598 130.073 133.06 133.668 132.438 132.663 133.128 133.808 134.31 133.045 132.143 132.09 133.82 132.51 131 131.943 133.05 133.823 132.653 128.943 126.8 129.935 132.77 134.205 134.43 134.503 134.418 133.36 131.505 127.54 126.593 129.718 132.198 132.19 132.12 132.16 131.243 128.95 127.415 126.993 128.31 130.055 129.658 127.6 126.843 128.075 127.805 125.235 124.733 124.9 129.233 132.128 131.933 131.083 129.575 128.64 125.18 125.7 124.225 123.763 123.413 123.278 123.303 123.343 123.27 123.503 124.163 124.045 122.888 122.778 122.97 123.025 123.63 123.068 123.193 124.355 125.318 125.375 123.098 122.533 124.605 125.27 124.788 125.158 123.745 122.658 123.04 123.338 123.483 124.063 123.38 122.785 123.118 123.095 122.733 123.38 125.758 128.843 128.628 126.31 124.073 122.688 125.188 126.418 125.37 123.473 123.18 124.998 127.523 126.585 125.73 125.203 124.65 124.078 124.335 125.78 127.54 129.325 129.893 128.538 127.04 125.48 123.585 122.068 122.59 124.595 127.223 129.978 129.68 128.333 124.215 123.66 128.45 129.62 121.468 121.525 121.628 123.498 124.553 126.758 128.658 129.338 129.678 130.003 129.298 125.625 121.638 121.048 121.76 124.71 131.583 136.205 134.715 133.51 133.183 133.518 126.46 121.928 120.195 120.18 120.095 120.11 120.13 120.088 120.26 120.188 120.028 120.025 119.945 119.905 119.953 119.765 119.705 119.79 119.798 119.385 119.333 119.51 119.443 119.188 119.318 119.608 119.268 119.235 119.228 119.23 119.243 119.265 119.255 119.235 119.248 119.238 119.185 119.165 119.115 118.978 118.968 119.025 119.015 119.01 118.948 119.055 118.81 118.673 118.595 118.618 118.62 118.498 118.465 118.413 118.398 118.503 118.358 118.27 118.193 118.083 118.085 118.008 117.905 117.735 117.633 117.51 117.448 117.433 117.363 117.223 117.005 116.988 117.068 117.11 116.95 116.878 116.878 116.783 116.743 116.663 116.638 116.525 116.37 116.283 116.173 116.088 116.165 116.26 116.19 115.978 115.965 116.058 115.97 115.88 115.76 115.653 115.585 115.515 115.433 115.333 115.298 115.285 115.143 115.213 115.368 115.333 115.213 115.35 115.375 115.333 115.205 115.13 115.163 115.07 115.13 115.125 115.255 115.255 115.23 115.228 115.27 115.3 115.393 115.383 115.458 115.398 115.523 115.52 115.508 115.528 115.473 115.403 115.388 115.338 115.363 115.335 115.485 115.583 115.625 115.7 115.678 115.623 115.613 115.768 115.84 115.92 116.018 116.083 116.083 116.1 116.108 116.188 116.233 116.145 116.088 116.235 116.148 116.173 116.185 116.143 116.22 116.243 116.27 116.298 116.243 116.268 116.465
137.42 137.26 136.355 134.638 131.578 130.935 134.57 136.62 137.42 137.488 137.44 136.78 133.995 131.088 131.278 130.733 134.013 135.888 136.628 135.498 132.883 130.858 129.675 129.355 129.113 129.2 129.13 129.195 129.27 129.82 130.89 130.288 128.485 128.475 128.348 128.273 128.193 128.175 128.095 127.945 128.02 128.033 127.913 127.865 127.753 127.563 127.543 127.553 129.88 130.933 130.783 130.46 129.958 128.288 127.66 127.62 127.678 127.82 128.853 130.02 130.025 130.323 130.78 129.16 128.503 131.728 132.835 131.198 130.653 131.488 133.688 134.278 132.98 131.86 130.718 132.753 128.638 127.518 127.855 131.438 133.785 131.653 126.635 128.87 131.443 132.99 133.67 133.67 134.555 133.975 133.173 131.475 128.535 127.22 130.065 132.173 132.898 133.44 132.845 131.863 129.958 127.04 124.905 127.4 130.598 131.548 131.023 131.503 130.57 128.793 124.705 125.763 127.39 131.21 131.968 131.075 129.973 128.563 126.915 124.105 124.113 124.478 124.618 123.523 123.285 123.235 123.285 123.305 124.043 124.283 123.29 122.788 122.745 122.933 122.948 122.998 122.86 122.845 125.193 125.54 125.135 123.7 122.47 122.783 123.338 123.223 124.333 127.583 126.763 127.043 126.12 125.925 125.643 124.725 124.473 125.52 124.753 123.42 122.985 126.958 129.163 128.953 126.943 125.155 124.64 127.363 126.923 126.22 124.855 124.11 126.938 128.51 128.63 127.73 126.435 125.453 124.83 125.355 126.448 128.128 129.345 128.435 127.068 125.533 123.995 122.523 124.33 129.063 132.635 133.08 130.9 129.115 127.038 124.25 123.4 132.19 131.488 126.895 121.605 121.42 122.355 123.85 124.113 126.828 129.783 129.835 129.928 129.84 126.898 122.295 120.813 123.99 130.983 128.758 135.88 131.78 130.833 127.58 127.255 125.358 120.818 120.055 120.14 119.958 119.965 120.058 119.968 119.893 119.868 119.795 119.803 119.86 119.693 119.778 119.853 119.625 119.538 119.755 119.508 119.273 119.278 119.415 119.175 119.115 119.41 119.36 119.08 119.058 119.078 119.093 119.12 119.138 119.203 119.22 119.145 118.99 118.91 118.883 118.94 118.898 118.918 118.923 118.883 118.783 118.813 118.705 118.613 118.52 118.49 118.565 118.45 118.425 118.29 118.23 118.275 118.325 118.22 118.113 118.003 117.988 117.86 117.78 117.655 117.54 117.413 117.298 117.243 117.198 117.155 116.988 116.87 116.835 116.783 116.705 116.615 116.603 116.613 116.588 116.548 116.508 116.413 116.265 116.17 116.083 116.028 116.13 116.23 116.105 115.828 115.788 115.783 115.71 115.713 115.693 115.615 115.505 115.388 115.305 115.25 115.163 115.163 115.195 115.243 115.29 115.238 115.155 115.3 115.293 115.2 115.063 115.053 115.075 114.898 115.045 115.098 115.06 115.173 115.245 115.213 115.128 115.22 115.293 115.383 115.46 115.288 115.398 115.518 115.46 115.495 115.385 115.405 115.36 115.313 115.383 115.285 115.375 115.443 115.545 115.65 115.535 115.488 115.528 115.625 115.723 115.868 115.985 116.093 115.988 115.978 116.03 116.105 116.103 116.1 115.97 115.978 116.03 116.093 116.015 116.055 116.108 116.228 116.295 116.265 116.198 116.143 116.298
138.18 137.775 136.973 134.058 131.025 131.275 132.678 136.433 137.228 137 136.933 136.41 135.268 132.215 130.585 130.928 130.613 132.208 135.158 134.025 130.403 129.87 129.095 129.108 129.123 129.4 129.235 129.125 129.125 129.678 130.993 130.218 128.243 128.188 128.198 127.995 127.973 128.1 127.94 127.858 127.89 127.908 127.803 127.78 127.725 127.553 127.433 127.483 129.1 131.058 131.583 131 131.038 128.96 127.545 127.338 127.5 127.703 127.625 127.453 127.5 127.513 127.72 127.325 128.095 129.393 129.518 128.84 129.438 130.483 130.325 131.5 129.813 128.433 127.88 130.195 128.295 127.07 126.73 127.153 130.848 130.585 127.123 126.683 129.475 131.768 133.11 133.433 133.255 132.53 132.303 131.943 128.295 127.35 128.403 128.478 132.035 133.465 132.06 131.723 129.315 125.615 124.513 128.593 130.878 131.81 131.505 132.028 131.055 128.7 124.838 124.393 127.113 129.758 131.1 130.63 129.005 127.595 125.16 124.585 124.118 124.683 124.77 123.643 123.158 123.053 123.203 123.518 124.245 124.775 123.42 122.833 123.068 123.018 122.81 122.763 122.733 122.96 125.098 125.975 125.02 123.87 122.505 122.72 122.845 125.33 127.768 128.108 128.405 128.49 126.68 127.325 127.77 127.62 127.368 125.638 124.283 123.135 125.063 128.633 128.828 128.615 127.735 127.373 127.14 127.9 127.405 126.7 126 125.428 127.24 128.723 129.925 128.525 127.455 126.395 125.688 126.375 127.35 128.508 127.885 126.435 124.95 123.445 122.308 122.058 123.5 129.075 132.375 132.318 130.245 129.24 128.758 128.29 130.785 127.96 132.943 135.213 126.208 121.24 122.445 123.685 125.158 127.533 128.313 128.625 128.54 128.265 127.613 124.255 120.8 123.095 132.633 133.085 135.705 133.78 129.65 125.055 122.145 122.248 120.16 119.778 119.895 119.828 119.758 119.918 119.865 119.738 119.803 119.69 119.63 119.72 119.665 119.605 119.493 119.578 119.418 119.405 119.608 119.195 119.05 119.193 119.235 119.14 119.128 119.053 118.97 118.93 118.975 118.968 119.055 119.05 119.09 119.17 119.14 118.998 118.813 118.768 118.828 118.848 118.848 118.835 118.785 118.685 118.603 118.633 118.598 118.45 118.39 118.42 118.408 118.38 118.23 118.148 118.103 118.123 118.045 117.965 117.813 117.705 117.623 117.615 117.523 117.403 117.273 117.2 117.058 116.938 116.91 116.92 116.81 116.688 116.59 116.558 116.483 116.408 116.4 116.398 116.383 116.36 116.255 116.14 116.05 115.945 115.93 116.015 116.263 116.038 115.693 115.655 115.623 115.578 115.603 115.575 115.505 115.39 115.32 115.19 115.14 115.12 115.155 115.195 115.193 115.163 115.125 115.123 115.095 115.06 115.025 114.96 114.9 114.97 114.9 114.933 115.008 114.995 115.005 115.12 115.16 115.06 115.108 115.128 115.268 115.348 115.268 115.333 115.263 115.415 115.368 115.318 115.268 115.253 115.223 115.223 115.298 115.278 115.38 115.515 115.473 115.375 115.345 115.503 115.528 115.643 115.833 115.885 115.89 115.945 116.018 115.97 116.01 116.05 115.978 116.015 116.025 116.005 116.035 115.993 116.005 116.028 116.128 116.11 116.078 116.035 116.133 116.105
