ncols 434
nrows 32
xllcorner    432050
yllcorner    430680
cellsize     2
NODATA_value -9999
32.041 32.169 36.135 32.359 33.821 32.413 33.194 35.336 40.124 39.601 40.512 37.442 31.16 35.542 35.048 32.057 30.092 30.007 29.893 29.821 29.741 29.702 29.693 29.601 29.441 30.518 29.429 29.378 29.386 29.347 29.292 29.257 29.196 29.214 29.101 29.035 28.979 28.971 28.901 28.853 28.775 28.742 28.697 28.652 28.618 28.576 28.569 28.543 28.465 28.46 28.396 28.391 29.75 29.437 29.801 29.352 30.034 29.207 29.698 29.985 29.819 31.25 29.91 30.197 30.8 32.267 30.73 29.98 30.526 32.303 32.667 32.236 30.819 30.751 30.444 31.586 31.149 30.085 27.703 27.95 28.031 28.029 27.24 26.336 25.782 26.165 25.663 25.485 25.44 25.416 25.225 25.118 24.974 24.953 24.839 24.793 24.803 24.716 24.702 24.693 24.62 24.636 24.578 24.593 24.543 24.546 24.734 24.502 24.497 24.623 25.688 26.17 26.047 26.118 25.875 24.292 24.284 24.048 24.337 24.022 24.014 24.058 24.122 25.246 23.999 23.944 23.91 23.908 23.886 23.925 26.281 27.167 24.105 24.019 24.013 24.013 24.05 24.033 24.059 24.012 23.99 23.963 23.974 23.972 24.037 23.983 23.958 23.997 24.02 24.117 24.532 24.211 30.683 34.946 34.529 33.09 33.362 34.341 35.266 35.506 35.07 35.267 35.655 35.417 35.296 35.674 36.2 36.484 36.46 35.981 35.65 35.087 34.472 34.061 33.66 33.301 32.951 31.688 25.168 24.069 24.049 23.893 23.776 24.307 25.945 27.466 26.646 26.368 23.399 23.22 23.14 23.14 23.178 23.168 23.195 23.136 23.062 23.146 23.225 23.525 27.508 28.178 25.858 28.456 28.695 28.846 28.988 28.904 28.834 28.708 28.582 28.382 28.136 23.14 22.853 22.756 22.694 22.942 23.268 22.641 24.369 24.203 24.74 25.165 24.601 24.238 23.867 23.692 23.473 23.366 23.196 23.164 23.071 23.003 22.98 22.996 22.938 22.974 22.958 22.917 22.897 22.934 23 23.176 23.192 23.143 23.19 23.196 23.353 23.371 23.53 23.659 23.821 24.038 24.224 24.593 24.381 24.648 24.041 23.433 23.101 22.744 22.219 21.816 21.616 21.509 21.385 21.456 21.519 21.725 21.811 21.997 24.774 26.62 25.894 22.45 22.523 22.774 22.911 23.062 22.948 22.937 22.894 22.594 22.036 21.863 21.825 21.693 21.687 22.014 21.618 21.565 21.532 21.485 21.477 21.463 21.423 21.392 21.421 21.391 21.37 21.37 21.364 21.348 21.332 21.375 21.531 21.374 21.636 21.354 21.527 21.676 21.355 21.426 21.328 21.35 21.226 21.243 21.193 21.214 21.184 21.835 21.947 21.213 21.425 21.297 21.17 21.115 21.148 21.109 21.095 21.115 21.569 21.071 21.051 21.341 21.381 22.95 21.028 21.005 20.969 20.977 20.917 20.957 20.964 20.926 20.889 20.89 21.003 21.998 21.803 21.403 21.547 25.504 27.354 27.99 28.464 28.386 28.492 28.993 29.613 31.1 31.113 31.121 31.132 31.179 31.148 31.221 31.143 31.1 31.069 31.025 31.029 30.997 31.004 30.991 30.999 30.926 30.953 30.907 30.922 30.88 30.906 30.89 30.85 30.927 34.068 33.58 34.186 34.551 34.548 34.464 32.318 30.766 30.762 30.692 30.742 30.749 30.697 30.7 30.693 30.693 30.646 30.556 30.151 30.116 29.761 29.467 29.17 28.949 28.805 28.603 28.401 28.142 28.018 27.802 27.606 27.364 27.221 26.971 26.806 26.715 26.73 26.743 26.781 26.815 26.797 26.855 26.939 26.942 26.909 26.73 21.569 20.94
33.035 31.486 35.88 36.853 32.543 31.015 31.449 30.775 36.266 35.606 37.093 31.281 30.183 30.536 30.044 30.385 29.973 29.88 29.868 29.837 29.783 29.735 29.715 29.621 29.539 29.468 29.459 29.364 29.358 29.358 29.245 29.231 29.213 29.129 29.12 29.002 28.965 28.94 28.904 28.86 28.76 28.778 28.661 28.748 28.734 28.67 28.709 28.968 28.973 30.251 28.829 29.99 30.867 31.075 31.925 31.695 30.958 30.45 29.855 29.581 30.199 29.519 29.177 30.421 29.486 31.267 29.469 28.899 29.289 31.454 31.591 29.55 27.647 27.636 26.617 26.351 26.325 26.177 26.133 26.045 26.118 25.713 25.71 25.616 25.519 25.469 25.376 25.319 25.221 25.115 25.006 24.973 24.827 24.683 24.648 24.641 24.608 24.599 24.59 24.54 24.556 24.535 24.487 24.487 24.442 24.432 24.339 24.259 24.344 25.993 24.811 24.783 24.436 24.209 24.742 24.135 23.961 24.002 24 23.993 23.935 24.05 25.081 24.796 24.173 24.029 23.99 24.019 23.942 23.961 23.989 24.047 23.981 24.002 23.965 24 23.992 23.967 23.954 24.005 23.969 24.007 23.994 23.969 23.96 23.99 23.978 24.02 24.082 24.086 24.711 24.455 32.718 34.07 34.787 34.053 33.787 35.278 35.819 35.935 35.527 35.663 35.336 35.115 34.673 35.228 35.756 36.06 35.911 35.672 35.62 35.205 34.721 34.367 34.098 33.637 33.321 32.868 32.497 29.796 24.341 24.271 23.975 23.816 24.632 26.454 27.842 27.82 24.489 23.306 23.152 23.132 23.165 23.156 23.167 23.132 23.106 23.069 23.149 23.175 23.304 26.88 28.162 28.415 28.548 28.679 28.677 28.471 28.953 28.83 28.668 28.546 28.406 28.169 23.635 23.025 22.805 23.005 24.554 24.148 24.1 24.55 25.06 24.808 24.01 23.795 23.637 23.44 23.28 23.151 23.115 23.045 22.953 23.006 22.972 22.997 22.951 22.972 22.917 22.952 22.946 23.022 23.186 23.147 24.031 23.427 23.206 23.281 23.481 23.498 23.743 24.067 24.125 24.381 24.7 24.582 24.334 24.171 23.789 23.515 23.106 22.678 22.358 21.886 21.625 21.513 21.475 21.522 21.622 21.649 21.732 22.399 22.582 23.586 23.558 22.755 22.587 22.297 22.626 23.033 22.961 22.559 22.931 22.625 22.913 22.958 22.358 21.855 22.958 22.885 22.281 21.634 21.807 21.5 21.511 21.479 21.456 21.388 21.421 21.409 21.377 21.36 21.385 21.379 21.387 21.357 21.37 21.352 21.349 21.374 21.402 21.363 21.388 21.337 21.267 21.27 21.232 21.204 21.297 21.645 21.331 21.546 21.35 21.186 21.154 21.134 21.159 21.145 21.124 21.113 21.307 22.517 21.671 21.078 21.14 21.173 21.527 23.99 21.777 21.019 20.997 20.996 20.973 20.959 20.935 20.958 20.944 20.885 20.803 21.846 21.88 21.802 21.028 25.064 27.946 28.503 28.482 28.421 28.455 28.916 29.493 31.078 31.186 31.115 31.118 31.099 31.085 31.092 31.059 31.068 30.975 31.025 30.961 30.97 30.957 30.969 30.925 30.914 30.905 30.864 30.877 30.878 30.862 30.939 30.963 34.492 34.521 34.512 34.484 34.503 34.49 34.462 33.729 30.809 30.789 30.689 30.633 30.664 30.644 30.662 30.566 30.795 30.207 29.898 29.416 29.182 29.029 28.628 28.51 28.25 28.282 27.961 27.762 27.608 27.465 27.181 26.93 26.655 26.741 26.681 26.76 26.786 26.8 26.811 26.866 26.911 26.896 26.941 26.651 22.643 21.46 20.843 20.863 20.865
34.111 33.954 34.467 32.636 30.665 30.588 30.54 30.442 31.055 31.736 30.314 30.215 30.21 30.142 30.093 30.101 30.001 29.958 29.892 29.839 29.795 29.77 29.703 29.693 29.612 29.518 29.427 29.391 29.357 29.293 29.269 29.195 29.154 29.116 29.071 28.982 28.888 28.881 28.781 28.687 28.658 28.632 28.693 28.899 30.361 30.011 32.679 32.218 31.076 32.171 32.794 32.202 30.774 31.107 31.61 33.306 31.87 31.557 31.334 28.111 30.231 29.029 28.066 28.858 27.711 27.479 27.447 27.295 27.048 27.358 28.477 26.728 26.45 26.464 26.336 26.227 26.119 26.011 25.959 25.873 25.762 25.54 25.434 25.335 25.334 25.254 25.146 25.087 25.002 24.966 24.818 24.727 24.639 24.589 24.543 24.529 24.488 24.471 24.474 24.445 24.431 24.415 24.336 24.342 24.353 24.315 24.252 24.47 24.213 24.591 24.296 24.16 24.174 24.149 24.137 24.107 23.993 23.98 24.001 24.022 23.988 23.981 24.222 25.158 24.232 24.145 24.123 24.137 23.974 23.939 23.96 23.964 23.912 23.893 23.901 23.916 23.95 23.958 23.925 23.96 23.902 23.928 23.921 23.972 23.929 23.991 24.027 24.06 24.104 24.273 24.258 28.826 32.556 33.113 34.196 35.906 36.412 35.938 36.194 36.357 35.909 35.562 34.995 34.631 34.132 34.1 35.301 35.736 35.596 35.285 35.667 35.57 35.233 34.819 34.442 34.018 33.666 33.171 32.938 31.075 33.513 30.956 24.185 23.96 23.736 24.881 27.26 27.296 27.046 23.68 23.259 23.133 23.181 23.182 23.221 23.162 23.147 23.148 23.109 23.147 23.23 23.578 26.629 28.247 25.779 28.526 28.724 28.882 28.961 28.922 28.844 28.701 28.585 28.403 28.262 26.616 23.581 22.739 24.722 24.091 24.451 24.885 24.862 23.959 23.732 23.542 23.364 23.217 23.186 23.068 22.98 22.988 22.998 23.006 22.989 23.023 22.93 22.954 22.916 23.012 23.023 23.157 23.288 23.552 23.961 23.333 23.375 23.453 23.542 23.65 23.864 24.147 24.389 24.495 24.626 24.65 24.427 24.126 23.809 23.46 23.268 22.656 22.263 21.865 21.525 21.693 21.681 21.715 21.696 21.691 21.754 21.788 21.672 22.149 22.893 23.012 22.187 22.594 22.577 22.391 22.282 22.553 23.05 22.955 23.561 24.246 24.776 24.123 23.372 22.685 22.934 21.716 21.801 21.486 21.447 21.556 21.51 21.431 21.383 21.449 21.609 21.617 21.366 22.342 21.987 21.438 21.387 21.399 21.423 21.38 21.394 21.31 21.82 21.578 21.433 21.269 22.102 21.401 21.502 21.487 21.322 21.224 21.188 21.209 21.172 21.144 21.171 21.605 21.329 21.838 22.314 21.542 21.136 23.509 22.108 21.059 21.178 23.295 21.854 21.006 21.018 20.991 20.986 20.902 20.946 20.909 20.896 20.92 20.848 21.515 22.074 22.104 21.079 23.853 27.645 28.585 28.5 28.466 28.405 28.638 29.206 30.908 31.13 31.101 31.099 31.047 31.047 31.052 31.047 31.005 30.956 30.951 30.928 30.901 30.889 30.966 30.905 30.89 30.859 30.836 30.81 30.782 30.799 31.076 30.935 33.388 34.53 34.482 34.477 34.422 34.409 34.451 34.358 31.584 31.057 30.677 30.648 30.606 30.856 30.169 29.724 29.297 29.308 28.989 28.708 28.598 28.411 28.31 28.017 27.709 27.452 27.412 27.284 27.038 26.682 26.774 26.688 26.762 26.777 26.842 26.859 26.879 26.947 26.916 26.933 26.786 23.704 21.571 20.897 20.872 20.82 20.769 20.823 20.887
30.951 30.879 30.856 30.701 30.668 30.618 30.594 30.532 30.454 30.41 30.333 30.289 30.196 30.165 30.035 30.065 29.992 29.932 29.923 29.853 29.777 29.74 29.675 29.613 29.614 29.515 29.553 29.509 29.447 29.385 29.399 29.322 29.247 29.115 28.935 28.813 28.793 28.742 28.706 28.62 28.571 28.721 30.672 31.62 31.664 31.929 33.246 34.465 31.093 32.114 33.365 31.244 30.621 30.397 30.749 31.463 29.846 28.344 27.947 27.5 27.439 27.69 27.378 27.375 27.198 27.133 27.084 26.879 26.743 26.505 26.474 26.3 26.282 26.161 26.037 26.025 25.986 25.805 25.79 25.649 25.628 25.542 25.301 25.15 25.097 25 24.905 24.855 24.783 24.752 24.587 24.589 24.538 24.528 24.483 24.397 24.359 24.304 24.291 24.262 24.294 24.202 24.212 24.185 24.181 24.166 24.167 24.174 24.165 24.15 24.138 24.144 24.145 24.126 24.135 24.102 23.989 24.002 23.975 23.978 23.99 24.028 24.124 24.246 24.743 25.945 26.73 24.705 23.974 23.932 23.929 23.887 23.895 23.877 23.907 23.837 23.899 23.873 23.893 23.884 23.875 23.915 23.897 23.905 24.026 24.009 24.033 24.086 24.454 24.456 31.395 32.632 32.944 33.305 34.233 36.074 36.884 36.433 36.665 36.691 36.217 35.953 35.478 34.397 33.764 33.371 33.93 35.369 35.195 34.954 35.2 35.564 35.522 35.189 34.769 34.464 34.064 33.617 33.283 33.367 34.606 29.559 30.631 24.138 23.913 23.672 24.45 25.234 25.096 23.44 23.301 23.228 23.102 23.112 23.162 23.192 23.186 23.153 23.101 23.077 23.152 23.174 23.656 24.865 28.191 28.376 28.556 28.693 28.838 28.984 28.911 28.808 28.692 28.539 28.387 27.428 24.83 24.21 25.37 25.1 24.885 24.816 23.882 23.706 23.522 23.4 23.201 23.116 23.015 22.95 23.01 23.025 23.039 23.017 23.029 22.97 22.926 22.928 23.005 23.061 23.371 23.207 23.764 23.325 23.341 24.86 25.232 23.846 23.627 23.879 24.013 24.512 24.577 24.64 24.668 24.608 24.348 24.07 23.858 23.348 23.048 22.599 22.109 21.866 21.96 22.111 22.21 21.851 21.746 21.744 21.852 22.247 22.026 21.918 21.941 22.038 21.567 21.944 22.314 22.317 22.296 21.999 22.209 22.838 23.686 24.304 24.327 24.4 24.514 23.596 22.07 21.655 21.714 21.453 21.445 21.562 21.504 21.404 21.448 21.466 21.881 21.641 21.475 21.834 21.788 21.443 21.414 21.386 21.394 21.394 21.403 21.376 21.489 21.641 21.466 21.449 21.267 21.246 21.254 21.252 21.252 21.257 21.241 21.32 21.443 21.321 21.289 21.655 21.327 23.413 22.674 21.44 21.315 22.891 21.861 21.132 21.059 23.069 23.614 21.006 21.01 20.999 20.91 20.911 20.925 20.925 20.963 20.919 20.868 20.932 21.909 21.909 21.193 22.822 25.547 28.549 28.534 28.475 28.437 28.586 29.104 30.948 31.078 31.024 31.005 31.019 30.997 31.002 31.021 30.931 30.948 30.894 30.863 30.874 30.867 30.89 30.907 30.862 30.807 30.774 30.764 30.798 30.746 30.755 30.726 33.986 34.5 34.441 34.425 34.391 34.445 34.402 34.38 31.797 30.666 30.846 29.973 29.721 29.357 29.166 28.913 28.816 28.578 28.432 28.098 28.092 27.853 27.588 27.312 27.204 27.074 26.822 26.747 26.662 26.774 26.803 26.842 26.84 26.898 26.903 26.974 26.925 26.772 25.548 22.073 20.814 20.867 20.78 20.776 20.747 20.83 20.82 20.832 20.821
30.95 30.921 30.854 30.753 30.673 30.617 30.554 30.497 30.483 30.38 30.291 30.29 30.22 30.154 30.122 30.055 29.995 29.943 29.942 29.899 29.83 29.817 29.775 29.763 29.689 29.644 29.563 30.601 29.579 29.411 29.4 29.276 29.085 29.126 29.086 28.846 28.675 28.645 28.567 28.476 29.138 33.129 33.08 31.992 31.801 31.867 31.778 32.838 30.135 30.608 30.566 30.751 31.033 30.227 28.658 27.792 27.614 27.568 27.492 27.273 27.278 27.252 27.254 27.211 26.928 26.805 26.674 26.578 26.389 26.287 26.171 26.064 25.938 25.842 25.835 25.832 25.675 25.717 25.528 25.527 25.364 25.227 24.983 24.916 24.738 24.691 24.621 24.536 24.477 24.473 24.38 24.395 24.33 24.315 24.253 24.219 24.191 24.196 24.148 24.158 24.165 24.123 24.121 24.158 24.118 24.112 24.109 24.121 24.087 24.092 24.075 24.102 24.098 24.092 24.106 24.074 23.999 23.994 24.007 23.955 23.989 23.995 25.848 27.01 27.012 26.994 27.013 25.585 24.435 23.921 23.889 23.873 23.865 23.822 23.821 23.822 23.797 23.837 23.857 23.805 23.861 23.846 23.834 24.412 26.406 24.074 24.074 24.511 24.448 31.33 32.681 32.946 33.477 34.535 35.376 35.918 36.361 36.841 37.044 36.833 36.268 35.802 35.402 34.151 33.44 33.05 33.35 33.903 34.002 34.5 34.921 35.17 35.605 35.567 35.133 34.852 34.358 34.039 33.759 34.707 34.717 33.518 31.137 24.211 24.037 23.964 23.996 24.179 23.903 23.425 23.276 23.332 23.288 23.144 23.114 23.128 23.204 23.186 23.147 23.155 23.109 23.059 23.185 24.81 24.945 28.229 25.669 28.493 28.697 28.872 28.992 28.588 28.814 28.684 28.517 28.269 26.095 24.356 24.078 24.558 24.592 23.8 23.577 23.452 23.278 23.167 23.106 23.024 22.941 23.023 23.024 23.049 23.062 23.024 22.998 22.954 22.928 23.046 23.082 23.296 23.595 23.668 23.472 23.33 24.632 26.04 25.677 25.756 24.342 24.116 24.178 24.373 24.713 24.84 24.699 24.488 24.233 24.03 23.708 23.408 22.869 22.409 22.059 21.75 22.844 23.299 23.561 22.881 21.864 21.62 21.764 21.619 21.635 21.462 21.619 21.297 21.189 21.492 21.046 21.375 21.78 21.903 22.216 22.187 22.129 22.532 24.038 24.181 24.311 22.947 21.781 21.555 21.547 21.474 21.44 21.473 21.483 21.484 21.501 21.453 21.456 21.448 21.499 21.511 21.467 21.427 21.422 21.413 21.415 21.391 21.391 21.431 21.355 21.406 21.373 21.318 21.258 21.238 21.245 21.271 21.293 21.29 21.394 21.979 21.427 21.326 21.377 21.369 26.969 27.974 29.038 28.512 22.057 21.717 23.337 21.383 21.08 22.769 23.852 21.711 21.021 21.008 20.919 22.3 20.952 20.931 20.967 20.954 20.93 20.89 21.316 21.855 21.534 21.034 24.084 27.992 28.537 28.481 28.442 28.295 28.835 29.497 31.074 31.059 30.971 30.931 30.926 30.92 30.958 30.881 30.885 30.892 30.87 30.827 30.82 30.823 31.139 30.89 30.76 30.755 30.745 30.717 30.714 30.705 30.678 30.75 34.411 34.358 34.369 34.367 34.404 34.465 34.486 31.135 29.798 29.479 29.286 29.057 28.793 28.593 28.247 28.209 27.986 27.803 27.548 27.343 27.175 27.051 26.875 26.547 26.776 26.743 26.799 26.842 26.847 26.826 26.909 26.94 26.98 26.845 23.699 22.413 23.647 24.138 20.873 20.808 20.775 20.759 20.801 20.805 20.797 20.744 20.737 20.824
30.99 30.92 30.832 30.727 30.642 30.657 30.596 30.495 30.441 30.332 30.32 30.277 30.225 30.121 30.11 30.068 30.103 30.083 30.003 29.895 30.463 29.812 29.593 29.662 29.46 29.386 29.371 30.574 31.467 33.068 31.181 32.526 31.606 31.162 31.254 29.659 28.576 28.531 28.431 28.37 29.947 33.128 33.573 32.173 31.75 31.598 30.901 28.85 28.276 27.853 28.149 32.761 34.195 30.952 28.822 27.405 27.447 27.414 27.379 27.152 27.155 27.059 27.029 26.846 26.674 26.571 26.428 26.31 26.078 25.986 25.962 25.988 25.735 25.594 25.571 25.558 25.708 25.337 25.366 25.31 25.123 25.01 24.696 24.635 24.491 24.569 24.66 24.661 24.239 24.225 24.202 24.214 24.176 24.171 24.097 24.166 24.126 24.148 24.131 24.135 24.113 24.11 24.097 24.044 24.47 24.555 24.062 24.099 24.051 24.086 24.134 24.261 24.356 24.377 24.302 24.048 23.994 23.982 23.986 24.017 23.985 23.978 26.467 26.971 26.995 26.997 27.037 24.965 24.078 23.886 23.85 23.807 26.177 23.828 23.758 23.769 23.793 23.805 23.883 24.538 23.883 23.837 24.015 28.796 30.005 27.379 25.241 24.478 31.357 32.653 33.015 33.411 34.391 35.467 35.921 36.198 36.702 36.959 37 36.425 35.9 35.416 34.063 33.315 32.952 32.656 32.904 33.332 33.737 34.336 35.027 35.378 35.716 35.599 35.542 35.195 34.786 34.404 34.642 34.423 33.71 33.057 28.439 29.745 24.309 24.053 23.941 23.696 23.656 23.486 23.362 23.368 23.293 23.196 23.129 23.136 23.2 23.194 23.204 23.174 23.125 23.105 23.08 23.157 23.609 27.573 28.267 28.437 28.552 28.732 28.657 27.322 28.996 28.831 28.574 24.702 24.138 23.964 23.941 23.908 23.787 23.542 23.406 23.241 23.184 23.054 22.995 23.008 23.018 23.053 23.057 23.069 23.015 23.076 22.991 23.169 23.068 23.109 23.377 23.472 24.312 23.808 23.486 23.468 25.941 26.157 26.049 26.433 26.048 25.667 24.444 24.585 24.667 24.651 24.63 24.399 24.111 23.773 23.54 23.161 22.718 22.349 22.081 21.87 22.869 23.057 23.371 23.284 22.1 21.193 21.01 20.644 20.787 20.807 20.968 20.468 20.211 20.639 20.604 20.628 21.349 21.747 21.837 22.061 22.339 22.494 22.311 22.685 23.626 23.282 21.97 22.044 21.725 21.544 21.428 21.49 21.478 21.566 21.57 21.57 21.495 22.001 21.564 21.617 22.001 21.583 21.51 21.416 21.544 21.779 21.419 21.796 21.401 21.517 21.925 21.647 21.381 21.36 21.388 21.968 22.346 21.798 21.388 21.405 21.252 22.71 24.173 27.213 27.759 27.676 28.888 28.104 26.949 23.007 23.411 21.8 21.093 21.307 23.636 22.006 21.025 21.036 21.035 23.748 21.495 20.954 20.923 20.97 20.946 20.95 21.216 21.724 21.69 20.974 21.983 26.171 28.551 28.481 27.978 28.251 28.57 29.279 30.757 30.969 30.927 30.913 30.885 30.886 30.922 30.891 30.83 30.831 30.823 30.791 30.803 30.754 30.809 30.731 30.74 30.705 30.679 30.693 30.656 30.656 30.642 30.883 34.461 34.47 34.609 32.145 31.645 30.378 29.33 29.122 29.058 28.747 28.621 28.337 28.212 27.955 27.871 27.624 27.36 27.108 26.836 26.686 26.702 26.744 26.699 26.756 26.819 26.893 26.927 26.968 26.907 26.931 26.872 25.614 22.11 20.777 20.757 20.852 23.618 24.892 21.241 20.727 20.81 20.771 20.732 20.754 20.727 20.71 20.757 20.838
30.906 30.847 30.81 30.761 30.699 30.651 30.589 30.513 30.435 30.405 30.253 30.246 30.193 30.103 30.08 29.976 30.052 29.648 29.586 29.489 29.47 29.416 29.413 29.403 29.409 29.369 29.338 29.628 30.541 31.874 31.265 33.065 34.808 31.563 31.212 29.513 28.548 28.42 28.437 28.338 29.329 32.232 33.475 31.974 31.281 30.181 27.881 27.85 27.834 27.78 30.737 34.881 36.261 36.087 31.6 27.664 27.297 27.284 27.106 27.016 26.982 26.863 26.804 26.664 26.567 26.267 26.107 25.978 25.999 25.884 25.764 25.697 25.572 25.505 25.389 25.393 25.481 25.295 25.202 25.025 24.892 24.728 24.785 24.496 24.528 26.055 25.395 24.445 24.145 24.144 24.144 24.182 24.135 24.106 24.109 24.09 24.107 24.097 24.964 24.126 24.095 24.051 24.078 24.8 25.5 24.965 24.057 24.178 24.211 24.051 24.098 24.083 24.121 24.475 24.351 24.071 24.046 24.025 24.005 23.997 24.008 23.987 25.993 26.923 26.927 26.936 25.443 24.5 24.149 24.14 23.945 26.915 27.897 23.831 23.764 23.829 23.832 23.79 23.875 24.582 23.973 23.897 23.896 27.515 29.402 24.925 24.717 31.495 32.634 33.109 33.376 33.863 34.457 35.363 35.899 36.26 36.607 36.674 36.64 36.893 36.428 33.921 33.272 32.966 32.435 32.338 32.638 32.973 34.023 34.772 35.288 35.631 35.355 35.398 35.707 35.561 35.148 34.991 34.587 34.05 33.58 33.216 32.797 29.786 25.861 24.067 24.039 23.932 23.709 23.55 23.524 23.437 23.39 24.551 23.823 23.041 23.129 23.152 23.247 23.168 23.175 23.124 23.037 23.043 23.343 24.899 28.105 28.269 28.415 28.576 28.71 28.856 28.96 28.911 23.741 23.65 23.754 23.865 23.939 23.789 23.567 23.345 23.229 23.05 23.097 22.965 22.99 23.046 23.092 23.087 23.118 23.076 23.019 23.046 22.961 24.564 23.465 23.462 23.566 24.593 23.786 23.703 24.138 25.628 26.661 26.158 25.967 26.36 26.602 26.21 24.644 24.669 24.658 24.675 24.582 24.247 23.988 23.631 23.301 22.991 22.586 22.25 21.872 22.017 22.596 22.965 23.184 22.515 20.887 19.725 20.836 20.797 20.847 20.68 20.533 20.309 20.14 20.261 20.46 20.771 21.307 21.627 21.639 21.602 21.839 22.411 22.679 22.479 22.535 22.204 22.08 22.075 21.914 21.785 21.706 21.664 21.671 21.733 21.784 21.777 21.836 21.835 22.052 21.805 22.425 21.837 21.824 22.043 21.749 22.214 21.952 22.091 22.73 22.207 22.224 22.081 21.713 22.042 21.598 22.048 21.618 21.536 21.474 21.512 21.516 23.385 26.178 26.923 27.261 27.797 24.738 27.803 26.224 22.755 23.076 22.973 21.189 21.073 23.351 22.534 21.026 21.001 21.051 23.081 21.48 20.903 20.927 20.972 20.955 20.987 20.943 21.768 21.762 21.54 21.146 25.375 27.292 27.168 27.217 27.834 28.487 29.05 29.672 30.91 30.888 30.915 30.883 30.851 30.835 31.097 30.897 30.77 30.772 30.743 30.742 30.73 30.727 30.684 30.678 30.668 30.659 30.623 30.624 30.588 30.601 30.539 31.533 31.107 30.246 29.31 28.993 28.956 28.638 28.548 28.374 28.137 27.916 27.689 27.636 27.403 27.095 26.891 26.784 26.607 26.743 26.742 26.755 26.779 26.843 26.93 26.919 26.917 26.949 26.864 22.917 21.415 20.956 24.462 21.105 20.816 20.734 20.801 20.804 24.711 21.938 20.715 20.688 20.732 20.726 20.703 20.754 20.824 20.792 20.782
30.936 30.985 30.908 30.86 30.922 31.023 30.997 31.231 30.979 30.353 30.2 30.111 30.011 29.958 29.803 29.821 29.795 29.46 29.441 29.245 29.238 29.287 30.214 30.135 33.812 31.574 34.276 34.888 34.514 34.22 33.321 32.758 32.352 30.838 30.329 29.287 29.114 28.655 28.447 28.292 28.765 29.194 30.726 30.085 28.245 27.801 27.747 27.762 27.773 27.762 29.672 33.723 34.74 35.083 28.89 28.881 27.12 27.128 27.018 26.988 26.887 26.769 26.681 26.398 26.386 26.206 26.078 25.833 25.893 25.715 25.659 25.66 25.406 25.363 25.303 25.502 25.224 25.211 25.088 25.896 26.598 25.399 24.707 24.485 25.191 25.178 24.447 24.211 24.186 24.145 24.129 24.434 24.546 24.418 24.089 24.031 24.115 24.192 24.131 24.194 24.029 24.018 24 24.105 24.429 24.446 23.998 24.078 24.137 25.099 25.027 24.185 24.227 24.247 24.529 24.143 24.018 24.077 23.996 24.01 24.019 23.997 24.499 24.008 24.349 24.186 24.558 24.839 24.118 24.239 24.139 25.481 25.612 23.743 23.817 23.871 23.814 23.871 23.898 24.264 23.958 23.995 24.02 23.998 24.478 24.392 30.005 32.684 33.059 33.431 33.865 34.303 34.588 35.187 35.538 35.865 36.352 36.208 35.976 36.468 35.932 33.288 32.907 32.458 31.562 26.158 32.133 32.589 33.883 34.753 34.982 35.323 34.97 34.903 35.279 35.717 35.473 35.127 34.759 34.349 33.985 33.551 33.216 32.783 30.894 24.353 24.079 24.038 23.847 23.7 24.336 23.556 23.46 23.4 23.348 23.241 23.058 23.107 23.16 23.224 23.206 23.143 23.139 23.07 22.983 23.31 25.05 28.046 28.287 28.421 28.542 28.78 27.315 24.144 23.653 23.666 23.765 23.822 23.693 23.561 23.311 23.214 23.057 22.974 22.984 23.033 23.061 23.113 23.076 23.078 23.083 23.074 23.049 22.986 23.117 23.121 23.423 23.749 24.502 24.101 24.035 23.972 24.305 26.357 26.624 26.723 26.583 26.672 26.95 25.382 24.808 24.656 24.598 24.524 24.376 24.123 23.86 23.538 23.248 22.86 22.523 22.17 22.617 23.085 21.784 21.366 21.801 21.787 19.934 19.622 19.54 19.601 -9999 19.638 19.498 19.492 20.285 -9999 20.641 20.704 21.278 21.761 22.2 22.903 21.766 21.596 21.707 22.013 22.568 22.594 22.335 22.156 22.015 21.887 22.01 21.993 21.765 21.821 21.695 21.696 21.694 21.705 21.842 21.92 21.858 21.768 21.825 21.885 21.837 21.759 21.763 21.696 22.036 21.84 21.741 21.772 21.48 21.613 21.529 21.528 21.539 21.509 21.514 22.944 24.017 22.145 24.254 25.67 25.596 26.355 26.946 27.303 27.295 24.589 23.203 23.687 21.525 20.972 22.393 23.563 21.202 21.04 21.001 23.306 23.27 20.952 20.941 20.957 20.95 20.969 21 21.693 21.723 21.578 21.049 24.704 25.926 26.603 27.042 28.189 28.36 28.849 29.455 30.588 30.864 30.835 30.814 30.803 30.798 31.092 30.82 30.746 30.747 30.709 30.674 30.666 30.719 30.662 30.633 30.598 30.613 30.633 30.597 30.696 30.481 29.46 29.28 29.08 28.923 28.7 28.505 28.351 28.131 28.013 27.759 27.716 27.383 27.204 26.894 26.851 26.515 26.72 26.768 26.802 26.793 26.859 26.859 26.908 26.955 26.935 26.841 23.594 21.385 20.784 20.801 20.793 20.859 24.452 21.9 20.726 20.725 20.713 20.702 20.728 20.658 20.668 20.691 20.729 20.741 20.788 20.754 20.796 20.824 20.808
31.87 31.598 31.418 30.969 31.116 31.21 31.553 31.694 31.456 30.788 30.074 30 29.904 29.868 29.767 29.597 29.504 29.363 29.217 29.126 29.135 32.503 34.752 35.091 35.436 35.835 36.123 36.48 36.119 36.304 33.731 32.664 32.918 33.278 29.924 28.997 28.798 28.268 28.245 28.167 28.301 28.418 28.455 28.051 28.131 28.459 27.822 27.648 27.63 27.616 28.265 31.018 33.919 32.68 29.403 27.209 27.16 27.164 27.025 26.966 26.852 26.772 26.684 26.474 26.371 26.185 26.009 25.855 25.759 25.642 25.645 25.518 26.138 25.845 27.13 27.4 28.024 28.34 25.216 24.779 24.83 24.447 24.566 24.608 25.008 24.735 24.314 24.32 24.174 24.139 24.184 24.828 24.485 24.483 24.109 24.033 24.028 24.384 24.318 24.144 24.01 23.994 23.975 24.001 24.05 24.676 23.992 24.037 23.976 24.419 24.563 25.618 24.034 24.083 24.203 24.16 24.07 24.339 24.223 24.238 24.027 24.017 24.032 24.023 24.054 24.073 24.085 24.067 24.101 24.165 24.438 24.127 24.021 23.892 23.927 23.948 24.205 25.154 24.161 24.067 24.041 24.061 24.073 24.182 24.369 32.21 32.689 33.056 33.459 33.808 34.265 34.66 35.007 35.398 35.666 35.514 35.928 35.776 35.429 34.147 33.308 32.899 32.396 27.837 25.363 24.11 26.046 31.883 32.652 34.075 34.613 34.875 34.302 34.453 34.966 35.282 35.687 35.436 35.128 34.73 34.401 33.897 33.524 33.142 32.721 28.343 25.658 24.03 23.917 23.832 23.701 23.955 24.809 23.416 23.367 23.302 23.168 23.09 23.126 23.201 23.236 23.168 23.135 23.099 23.081 23.037 23.145 23.263 24.585 28.252 28.429 28.673 25.71 23.579 24.961 24.365 23.717 23.658 23.465 23.314 23.168 23.069 23.035 23.03 23.047 23.063 23.12 23.136 23.093 23.067 23.064 23.036 23.104 23.134 23.183 23.478 23.619 24.218 24.12 24.196 24.156 24.01 24.011 24.399 25.362 26.176 26.554 26.671 26.588 25.01 24.641 24.65 24.57 24.464 24.241 24.024 23.692 23.34 23.051 22.827 22.417 22.161 22.568 23.69 23.569 22.448 21.745 21.357 20.233 19.75 -9999 -9999 -9999 -9999 -9999 -9999 -9999 -9999 20.954 21.476 23.609 21.835 22.057 22.244 21.484 21.208 21.44 21.645 21.877 22.199 22.121 22.315 22.503 23.077 22.635 22.613 22.56 22.408 22.333 22.585 22.481 22.538 22.978 22.759 22.871 22.838 22.809 22.57 22.457 22.516 22.274 22.05 21.93 21.853 21.899 21.929 21.828 21.902 22.109 22.109 22.107 21.931 22.041 23.159 24.139 22.664 22.765 22.928 22.507 25.279 25.748 25.715 25.55 24.221 23.043 23.256 21.851 21.084 21.064 23.296 23.294 21.071 21.01 23.079 23.632 21.384 20.95 20.936 20.904 20.948 20.965 21.503 21.805 21.733 21.045 23.861 27.132 28.538 28.275 28.412 28.393 28.634 29.111 30.745 30.829 30.787 30.777 30.761 30.734 30.76 30.7 30.71 30.705 30.714 30.674 30.671 30.609 30.623 30.608 30.718 30.72 30.118 29.784 29.327 29.209 28.959 28.733 28.558 28.415 28.179 27.983 27.657 27.485 27.323 27.237 26.983 26.847 26.654 26.632 26.755 26.799 26.823 26.839 26.867 26.92 26.964 26.92 26.836 23.598 21.359 20.79 20.805 20.777 20.781 20.751 20.822 20.786 21.376 24.477 20.752 20.714 20.707 20.693 20.701 20.718 20.715 20.699 20.666 20.717 20.766 20.785 20.798 20.816 20.856
31.734 31.638 30.941 33.402 35.379 34.113 36.328 35.366 32.057 30.598 31.105 29.882 29.785 30.309 29.685 29.615 29.452 29.293 29.208 29.074 29.119 29.54 34.546 35.019 35.378 35.693 36.123 36.434 36.536 35.718 32.221 32.136 33.679 34.029 30.411 28.629 28.515 28.165 28.147 28.05 28.108 29.378 28.326 28.287 28.125 28.108 28.201 27.766 27.573 27.926 33.616 32.27 31.283 31.76 30.549 27.517 27.16 27.119 26.941 26.892 26.87 26.648 26.539 26.422 26.285 26.073 25.88 25.765 25.612 27.831 28.491 26.025 27.802 25.526 25.6 24.598 24.585 24.526 24.495 24.449 24.407 24.431 24.404 24.537 24.687 24.297 24.535 24.309 24.158 24.103 24.191 25.38 24.225 24.515 24.25 23.992 23.966 24.077 24.254 24.145 23.987 23.935 23.935 23.93 24.203 24.138 24.079 23.89 23.853 24.634 24.178 24.356 24.245 24.21 24.211 24.219 24.019 23.998 24.019 24.036 24.049 24.046 24.084 24.08 24.065 24.11 24.066 24.076 24.1 24.123 24.229 24.567 24.155 24.083 24.005 24.061 26.532 29.001 26.372 25.062 24.106 24.13 25.131 26.887 32.098 32.727 33.141 33.475 33.822 34.244 34.732 35.042 35.559 35.663 35.326 35.112 35.475 35.217 33.821 33.259 32.884 32.494 27.492 24.094 24.049 24.088 24.098 25.712 31.969 32.814 34.273 33.479 33.743 34.182 34.536 34.886 35.316 35.607 35.442 35.076 34.717 34.331 33.914 33.557 33.135 32.811 28.243 29.623 24.113 23.904 23.694 23.604 23.917 23.658 28.08 27.777 23.46 23.182 23.068 23.071 23.164 23.256 23.183 23.172 23.117 23.124 23.008 28.213 24.276 27.15 28.263 24.796 23.26 23.517 23.603 23.59 23.538 23.338 23.289 23.186 23.052 23.001 23.042 23.087 23.094 23.125 23.158 23.125 23.087 23.105 23.059 22.992 23.159 23.171 23.346 23.508 24.082 24.145 24.248 24.34 24.208 23.964 23.781 23.789 23.957 25.813 25.516 25.045 24.648 24.679 24.653 24.614 24.442 24.28 24.062 23.785 23.493 23.193 22.964 22.706 22.382 21.995 23.555 24.368 25.082 23.07 22.257 22.123 22.006 -9999 -9999 -9999 -9999 -9999 -9999 -9999 -9999 -9999 -9999 21.909 22.694 21.588 21.767 21.672 21.247 20.946 21.039 21.663 22.023 21.78 21.701 21.656 21.8 22.009 21.94 22.081 22.041 22.046 21.903 22.006 22.091 22.151 22.359 22.27 22.271 22.347 22.248 22.233 21.991 22.098 21.968 21.763 21.656 21.649 21.673 21.669 21.731 21.742 21.886 21.922 21.676 21.74 21.725 21.888 22.076 21.896 22.683 23.313 22.901 22.594 24.541 24.741 23.108 21.754 22.708 23.013 21.81 21.105 21.011 22.752 23.28 21.201 21.057 20.989 23.136 21.801 20.911 20.906 20.921 20.899 20.949 21.058 21.686 21.627 21.381 21.799 25.422 28.452 28.481 28.494 28.378 28.448 29.054 29.803 30.752 30.778 30.745 30.72 30.708 30.689 30.696 30.684 30.643 30.634 30.621 30.589 30.751 30.715 29.747 29.762 29.399 29.278 28.881 28.847 28.506 28.276 28.144 27.991 27.709 27.505 27.363 27.232 26.97 26.662 26.623 26.674 26.707 26.781 26.735 26.836 26.855 26.88 26.912 26.993 26.693 23.727 22.755 20.84 20.806 20.844 20.774 20.762 20.745 20.758 20.715 20.71 20.763 20.679 21.066 20.717 20.669 20.694 20.709 20.767 20.685 20.727 20.793 20.819 20.832 20.783 20.768 20.92 20.844 20.841
30.532 30.288 30.864 31.437 36.547 36.954 37.16 36.655 32.689 30.424 32.267 30.382 29.792 29.721 29.648 29.488 29.426 29.297 29.226 29.154 29.109 29.257 33.329 34.924 35.379 35.649 36.049 36.413 35.246 33.925 33.819 34.148 31.797 32.018 29.426 28.547 28.703 28.114 28.116 27.969 28.022 28.51 28.829 28.011 28.084 28.014 28.171 28.19 27.804 30.367 38.843 37.641 29.932 30.448 27.393 26.905 26.905 26.943 26.946 27.427 27.918 28.118 26.979 26.344 26.29 26.055 25.872 25.819 27.094 25.722 24.909 24.855 24.762 24.714 24.69 24.634 24.546 24.505 24.649 24.411 24.947 24.799 24.851 24.375 24.278 24.283 24.56 24.556 24.163 24.096 24.082 24.576 24.186 24.214 24.22 23.986 23.933 24.071 24.145 24.743 23.917 23.912 23.935 23.93 23.938 24.052 23.856 23.862 23.882 23.857 23.917 23.951 24.046 24.159 24.006 24.033 24.018 24.039 24.037 24.046 24.042 24.036 24.065 24.067 24.061 24.103 24.08 24.145 24.118 24.156 25.012 24.339 25.903 24.884 24.089 26.74 28.571 29.243 29.178 27.707 24.361 27.429 28.982 29.655 32.237 32.759 33.176 33.607 33.934 34.361 34.831 35.213 35.517 35.355 34.916 34.532 34.332 33.764 33.256 32.917 32.397 29.849 24.199 24.083 24.049 24.302 24.126 24.14 24.751 32.07 32.669 33.03 33.44 33.847 34.106 34.582 34.984 35.311 35.674 35.532 35.03 34.757 34.277 33.97 33.534 33.169 32.747 30.982 25.913 24.165 23.89 23.669 23.554 23.95 25.646 28.763 26.994 24.951 23.393 23.115 23.188 23.264 23.353 23.253 23.156 23.132 23.056 23.042 23.072 23.287 23.719 23.352 23.429 23.452 23.449 23.379 23.314 23.196 23.895 23.038 22.974 23.064 23.091 23.148 23.147 23.143 23.174 23.154 23.08 23.038 23.128 23.166 23.178 23.419 23.389 23.964 23.931 24.227 24.34 24.18 24.093 24.188 23.91 23.993 24.138 24.178 24.401 24.458 24.592 24.635 24.614 24.531 24.43 24.227 23.96 23.654 23.28 23.019 22.83 22.652 22.379 21.96 22.985 23.887 22.897 23.127 22.846 22.205 22.333 -9999 -9999 19.783 -9999 -9999 -9999 -9999 -9999 -9999 -9999 -9999 22.348 21.436 20.924 22.637 21.046 20.71 21.225 22.031 22.343 21.999 21.866 21.663 21.762 21.641 21.757 21.97 22.489 23.857 22.953 21.387 21.43 21.444 21.49 21.616 21.597 21.819 21.735 21.735 21.604 21.676 21.645 21.508 21.309 21.374 21.313 21.326 21.342 21.424 21.415 21.367 21.249 21.195 21.308 21.219 21.352 21.917 22.912 23.78 22.496 22.478 22.332 21.82 22.131 23.132 24.243 22.03 22.836 21.173 21.013 21.083 23.792 21.439 21.107 21.011 20.895 20.892 20.903 20.91 20.884 20.965 20.936 20.95 21.491 21.891 21.607 21.065 24.396 27.631 28.499 28.481 28.417 28.336 28.814 29.379 30.753 30.726 30.669 30.644 30.672 30.653 30.649 30.62 30.61 30.587 30.506 30.12 30.137 29.341 29.205 28.988 28.782 28.667 28.391 28.224 27.934 27.872 27.583 27.382 27.217 26.849 26.657 26.662 26.684 26.715 26.732 26.758 26.807 26.841 26.857 26.901 26.914 26.751 23.648 21.451 20.834 20.825 20.84 20.807 20.783 20.773 20.773 20.728 20.703 20.73 20.703 20.708 20.674 20.709 20.692 20.728 20.813 20.751 20.724 20.781 20.79 20.819 20.778 20.818 20.771 20.803 20.81 20.824 20.832 20.798
30.323 30.719 31.187 34.538 36.524 37.198 37.638 36.859 33.137 30.208 32.35 29.934 29.738 29.685 29.632 29.528 29.462 29.319 29.227 29.124 29.133 29.487 34.428 34.929 35.304 35.525 35.996 36.227 36.655 33.533 35.851 32.236 30.715 33.498 30.584 29.779 33.116 28.119 27.976 27.964 27.989 30.195 29.385 29.218 28.183 28.198 28.369 28.14 28.368 37.539 37.848 32.868 27.817 27.217 27.131 27.004 27.362 27.576 28.002 27.858 29.004 27.928 27.911 26.367 26.198 25.954 25.889 25.82 25.99 25.333 24.851 24.804 24.76 24.799 24.668 26.206 24.723 26.695 27.44 27.006 27.745 26.872 24.769 24.202 24.194 24.234 24.678 24.577 24.259 24.143 24.083 24.136 24.217 24.851 24.27 23.979 23.931 24.005 24.906 24.456 24.152 23.903 23.877 23.973 24.267 24.073 23.958 24.139 23.888 23.897 24.245 23.973 23.956 24.01 24.002 24.035 24.057 24.041 24.064 24.073 24.053 24.094 24.069 24.077 24.088 24.11 24.119 24.107 24.18 24.616 24.643 25.377 26.656 34.33 30.338 29.16 29.315 29.591 29.537 29.053 28.538 29.019 29.238 29.4 30.439 32.216 32.778 33.067 33.535 33.961 34.424 34.806 35.191 34.888 34.519 34.092 33.779 33.245 32.799 32.455 31.399 30.823 28.362 24.156 24.058 24.11 24.259 24.078 24.135 26.116 32.179 32.701 32.95 33.442 33.786 34.163 34.57 35.012 35.355 35.696 35.348 35.116 34.678 34.249 33.907 33.528 33.115 32.699 31.529 25.115 23.983 23.906 23.665 26.154 29.355 29.606 30.249 29.721 26.661 23.28 23.093 23.154 23.202 23.346 23.765 23.153 23.139 23.084 23.055 23.067 23.174 23.208 23.311 23.29 23.299 23.281 23.156 23.143 22.994 23.015 23.073 23.125 23.186 23.191 23.16 23.162 23.173 23.156 23.073 23.056 23.186 23.24 23.397 23.374 23.687 24.024 24.294 24.269 24.166 24.095 24.119 23.92 23.856 23.976 24.204 24.462 24.544 24.655 24.656 24.668 24.549 24.43 24.256 24.258 23.88 23.587 23.281 22.933 22.726 22.532 22.277 21.839 22.425 23.055 22.763 22.718 23.144 23.437 22.355 20.829 -9999 19.68 -9999 -9999 -9999 -9999 -9999 -9999 -9999 -9999 -9999 -9999 21.194 -9999 -9999 21.518 21.396 21.943 22.175 21.989 21.431 21.564 21.672 21.762 21.943 23.142 24.106 23.673 21.859 21.199 21.224 21.263 21.26 21.363 21.454 21.53 21.535 21.511 21.486 21.428 21.264 21.013 20.507 20.616 20.822 20.976 21.127 21.075 21.214 21.121 21.066 21.009 20.914 20.821 20.769 20.706 22.266 23.422 22.224 22.778 21.686 21.714 21.985 22.801 22.997 21.994 22.626 21.585 21.022 20.995 23.179 22.6 21.009 21.078 20.938 20.908 20.88 20.924 20.897 20.901 20.945 20.956 21.338 21.713 21.724 21.077 21.841 26.184 28.482 28.449 28.453 28.414 28.675 29.263 30.605 30.625 30.654 30.67 30.6 30.641 30.593 30.757 30.792 30.033 29.446 29.178 29.039 28.656 28.689 28.344 28.226 27.952 27.729 27.509 27.376 27.226 26.961 26.759 26.722 26.661 26.666 26.73 26.744 26.787 26.833 26.833 26.883 26.667 26.816 25.466 23.312 20.805 20.884 20.864 20.841 20.843 20.71 20.678 20.75 20.767 20.767 20.716 20.697 20.743 20.751 20.644 20.708 20.71 20.732 20.723 20.801 20.774 20.775 20.798 20.756 20.784 20.783 20.809 20.802 20.861 20.748 20.811 20.757 20.819
30.232 30.3 31.219 30.655 36.29 37.198 37.603 36.962 33.562 30.229 31.614 30.179 29.751 29.629 29.627 29.528 29.422 29.355 29.253 29.128 29.06 29.189 30.32 34.881 35.271 35.604 35.963 36.215 36.642 36.496 34.161 31.556 30.717 30.751 34.534 33.492 30.271 28.037 27.95 27.881 28.03 38.669 36.14 37.897 30.311 28.189 27.877 28.219 27.675 35 35.648 31.948 27.734 27.338 27.341 27.324 27.6 27.165 27.231 27.196 27.227 27.475 27.236 26.36 26.093 25.896 25.835 25.804 26.352 26.489 24.853 24.829 26.718 27.852 25.736 26.946 25.461 26.415 25.392 26.38 26.318 24.576 24.181 24.231 24.23 24.243 24.538 24.534 24.422 24.116 24.054 24.254 24.406 24.399 24.27 23.945 23.915 24.07 24.135 24.163 25.017 23.937 24.725 25.254 24.852 24.608 24.156 24.542 25.373 24.727 26.058 24.645 24.002 24.012 24.012 24.03 24.045 24.068 24.046 24.057 24.077 24.1 24.07 24.092 24.114 24.112 24.133 24.157 24.184 25.06 24.857 31.203 35.693 35.059 33.96 30.484 29.55 29.921 29.715 29.514 29.938 29.924 29.544 29.631 29.405 29.776 32.236 32.61 33.221 33.546 33.949 34.432 34.821 34.383 34.123 33.639 33.241 32.869 32.493 31.522 31.15 31.143 30.749 24.522 24.051 24.049 24.097 24.256 24.07 24.063 26.056 32.059 32.708 33.113 33.48 33.792 34.241 34.556 34.99 35.401 35.738 35.441 35.049 34.671 35.089 34.276 33.558 33.103 32.835 28.161 24.21 24.056 23.901 24.363 29.005 29.309 29.873 29.402 28.959 24.136 23.171 23.108 23.153 23.307 23.274 23.182 23.165 23.118 23.124 23.081 23.084 23.139 23.224 23.142 23.106 23.138 23.137 22.957 23.026 23.063 23.121 23.144 23.181 23.231 23.16 23.146 23.137 23.093 23.115 23.214 25.122 25.99 24.161 23.909 24.003 24.178 24.342 24.263 24.072 23.836 23.984 23.963 24.055 24.241 24.273 24.439 24.612 24.781 24.683 24.602 24.654 24.498 24.452 24.47 23.897 23.465 23.041 22.818 22.593 22.447 22.281 21.878 21.99 23.256 22.788 22.402 22.369 22.564 20.602 20.334 -9999 -9999 -9999 -9999 -9999 -9999 -9999 -9999 -9999 -9999 -9999 -9999 -9999 -9999 -9999 22.437 22.407 23.861 21.91 21.808 21.728 22.107 22.207 22.387 22.364 22.924 24.032 24.225 21.786 20.77 21.125 21.428 21.433 21.479 21.326 21.185 21.296 21.358 21.511 21.413 21.224 20.827 20.484 20.382 20.622 20.763 20.778 20.818 20.906 20.946 21.007 20.993 20.403 20.42 20.402 20.794 21.274 22.205 22.418 21.926 20.873 21.192 21.748 22.155 22.537 21.854 22.834 21.625 21.131 21.001 21.587 21.963 21.609 21.009 21.038 20.925 20.886 20.905 20.877 20.887 20.916 20.962 20.982 21.76 21.668 21.179 21.761 25.498 28.459 28.51 28.503 28.056 28.528 29.011 29.86 30.647 30.589 30.645 30.794 30.83 29.624 29.649 29.138 29.017 28.808 28.613 28.476 28.132 28.026 27.827 27.577 27.369 27.24 26.843 26.837 26.631 26.646 26.698 26.745 26.767 26.8 26.84 26.835 26.822 26.868 26.8 24.848 21.434 21.064 24.166 21.27 20.816 20.805 20.804 20.782 20.768 20.763 20.77 20.661 20.643 20.714 20.683 20.695 20.629 20.773 20.706 20.746 20.739 20.725 20.794 20.848 20.765 20.756 20.792 20.767 20.833 20.806 20.858 20.787 20.826 20.781 20.803 20.861 22.436
30.242 30.185 31.038 31.102 35.596 36.954 37.647 37.087 33.998 31.252 30.567 30.895 29.75 29.705 29.631 29.522 29.494 29.407 29.296 29.156 29.098 29.12 32.912 34.85 35.184 35.525 35.908 36.196 36.312 32.126 34.073 35.597 35.922 36.186 32.861 34.274 31.146 28.467 27.905 27.805 28.414 35.129 36.235 36.97 28.5 27.61 27.551 27.46 27.416 27.361 27.249 27.245 27.23 27.243 27.24 27.234 27.946 27.221 27.209 27.187 27.236 27.218 27.084 26.161 26.055 25.893 25.776 25.731 25.851 28.282 24.911 24.764 24.735 24.734 24.693 24.584 24.54 24.474 24.695 24.345 24.312 24.299 24.227 24.235 24.828 24.43 24.366 24.251 24.202 24.117 24.073 24.342 24.277 24.255 24.268 23.941 23.943 23.971 24.268 24.83 25.003 24.114 24.353 25.078 24.967 24.842 24.116 24.355 24.627 25.424 24.276 24.084 23.998 23.998 24.029 24.027 24.033 24.067 24.097 24.076 24.625 24.132 24.082 24.116 24.147 24.181 24.159 24.17 24.769 24.946 26.247 35.606 35.148 34.411 33.896 33.291 30.454 30.203 29.947 29.812 29.984 30.125 29.828 29.971 29.729 29.408 31.424 32.322 32.791 33.187 33.509 34.044 34.377 34.109 33.643 33.376 32.846 32.385 31.229 31.103 31.409 31.412 31.115 30.864 25.555 25.303 24.048 24.033 24.417 24.061 24.105 26.065 32.085 32.697 33.161 33.376 33.876 34.262 34.623 35.024 35.368 35.645 35.463 35.269 35.636 35.565 34.821 33.581 33.106 32.739 28.075 28.196 24.134 23.885 24.566 27.002 29.463 29.165 27.223 27.364 24.213 23.291 23.113 23.123 23.28 25.044 23.262 23.184 23.154 23.083 23.075 23.045 23.039 22.985 23.065 23.04 23.074 23.026 23.043 23.143 23.181 23.217 23.179 23.163 23.139 23.119 23.128 23.167 23.238 23.353 27.847 25.558 28.103 24.436 24.132 24.274 24.282 24.16 24.034 23.953 25.409 24.122 26.105 24.589 24.471 24.582 24.628 24.848 24.767 24.848 24.789 25.225 25.024 24.202 23.629 23.43 22.961 22.744 22.533 22.369 22.158 21.897 21.79 21.726 21.788 21.744 22.299 22.029 20.867 -9999 -9999 -9999 -9999 -9999 -9999 -9999 -9999 -9999 -9999 -9999 -9999 -9999 -9999 -9999 -9999 -9999 22.023 22.113 22.559 21.545 21.842 21.842 21.762 22.517 21.692 21.12 22.081 22.52 20.972 20.529 21.029 21.193 21.469 21.462 21.175 21.318 21.857 21.741 21.297 21.36 20.942 20.608 20.474 20.003 20.045 20.771 20.382 20.792 20.026 20.332 20.665 20.643 20.445 20.378 20.326 20.281 20.782 27.837 21.516 21.112 20.203 20.741 21.425 21.882 22.163 22.431 21.719 21.353 21.098 21.078 21.509 23.338 22.397 21.022 21.001 20.913 20.92 20.908 20.968 20.881 20.899 20.945 20.927 21.704 22 21.71 21.118 24.469 27.688 27.426 27.195 27.767 28.377 28.904 29.593 30.809 30.517 29.691 29.41 29.188 29.012 28.923 28.621 28.48 28.283 28.099 27.729 27.671 27.378 27.141 26.97 26.709 26.628 26.578 26.695 26.723 26.758 26.791 26.828 26.852 26.868 26.908 26.206 25.812 25.011 23.812 24.387 20.787 20.737 23.494 22.29 20.765 20.732 20.782 20.739 20.775 20.731 20.779 20.769 20.719 20.732 20.669 20.711 20.751 20.786 20.739 20.754 20.749 20.806 20.796 20.775 20.772 20.798 20.795 20.769 20.794 20.784 20.742 20.824 20.827 20.99 21.019 23.241 24.442
30.279 30.225 30.885 30.999 35.379 36.967 37.666 37.196 35.499 31.266 30.663 30.805 29.803 29.737 29.631 29.56 29.437 29.383 29.279 29.176 29.135 29.126 31.911 33.799 35.081 35.54 35.744 36.198 36.459 33.33 31.165 38.448 38.869 33.177 36.884 33 30.082 29.113 27.866 27.798 27.672 27.693 27.652 27.637 27.567 27.501 27.464 27.443 27.374 27.362 27.299 27.261 27.233 27.214 27.192 27.126 27.203 27.193 27.164 27.168 27.176 27.252 26.636 28.254 29.252 28.398 26.913 25.666 25.508 26.381 24.929 24.811 24.715 24.724 24.629 24.682 24.909 24.605 24.48 24.416 24.299 24.409 24.439 24.299 25.061 25.232 24.509 25.342 25.161 24.147 24.089 24.26 24.767 24.334 24.076 23.975 23.999 24.012 24.12 24.489 24.731 24.044 24.036 24.197 24.277 24.306 24.437 24.058 23.997 23.979 24 23.985 24.029 24.016 24.009 24.053 24.045 24.057 24.065 24.866 24.964 24.74 24.187 24.163 24.142 24.192 24.167 24.194 24.634 30.571 33.752 35.067 34.396 33.701 33.275 34.842 35.367 33.014 29.621 29.551 29.813 29.931 30.129 30.312 30.041 29.697 29.382 31.409 32.28 32.868 33.165 33.623 34.006 33.774 33.411 32.972 32.588 32.053 31.269 31.329 31.536 31.694 31.364 31.099 30.742 28.28 24.093 24.02 24.132 24.201 24.085 24.09 24.897 31.99 32.696 33.106 33.531 33.828 34.21 34.555 35.025 35.348 35.666 35.78 36.054 35.926 35.51 35.358 33.505 33.04 32.727 30.932 25.557 23.981 23.855 23.606 24.702 24.467 27.949 28.004 27.028 23.762 23.116 23.111 23.126 23.254 23.229 23.234 23.168 23.17 23.117 23.101 23.037 23.034 23.029 23.08 23.085 23.079 23.103 23.153 23.195 23.223 23.168 23.144 23.154 23.133 23.149 23.238 23.367 25.178 27.471 29.34 29.22 25.087 24.44 24.3 24.143 23.897 23.751 23.811 25.707 26.206 26.523 25.582 24.964 24.638 24.649 24.675 24.714 25.519 25.322 24.585 25.064 24.196 23.356 23.135 22.914 22.617 22.481 22.299 22.131 21.848 21.603 21.789 21.078 20.044 20.395 21.05 22.778 -9999 -9999 -9999 -9999 -9999 -9999 -9999 -9999 -9999 -9999 -9999 -9999 -9999 -9999 -9999 -9999 -9999 -9999 -9999 22.273 21.3 21.34 21.19 21.466 22.243 22.34 21.222 21.271 21.415 19.793 20.567 21.048 21.296 21.475 21.312 21.152 21.333 22.074 21.973 21.492 21.198 20.727 19.782 19.913 -9999 19.751 19.939 19.884 19.664 19.679 19.644 19.706 20.061 20.593 19.908 19.575 20.118 21.092 24.087 23.72 20.365 20.608 21.022 20.917 21.407 21.977 22.336 22.577 22.972 22.933 21.228 21.014 22.87 22.083 21.033 20.944 20.911 20.954 20.885 20.861 20.897 20.857 20.867 20.837 21.036 21.946 21.982 21.086 21.824 25.609 26.223 26.81 27.377 27.972 28.554 29.187 29.785 29.256 28.978 28.908 28.582 28.526 28.157 28.026 27.9 27.574 27.421 27.174 27.088 26.826 26.593 26.64 26.708 26.713 26.75 26.765 26.787 26.813 26.923 26.898 26.557 22.713 22.715 20.868 24.508 24.145 23.477 24.462 21.425 20.697 21.542 24.399 20.674 20.765 20.763 20.708 20.714 20.775 20.745 20.768 20.685 20.726 20.735 20.788 20.783 20.761 20.775 20.802 20.79 20.783 20.728 20.779 20.809 20.825 20.813 21.46 20.812 20.797 20.886 27.076 27.43 21.633 25.536 27.051 27.409
30.255 30.198 31.075 30.978 34.095 36.751 37.418 37.256 36.521 31.448 30.207 31.396 29.8 29.749 29.668 29.582 29.46 29.417 29.318 29.198 29.149 29.155 29.311 33.691 35.101 35.462 35.803 36.157 36.454 35.906 31.799 29.113 31.934 28.093 28.049 28.011 28.557 27.91 27.841 27.781 27.759 27.703 27.636 27.609 27.513 27.507 27.406 27.392 27.363 27.327 27.28 27.22 27.199 27.198 27.174 27.12 27.16 27.146 27.151 27.185 27.231 27.208 27.294 27.58 28.652 28.561 27.31 25.561 25.564 26.857 24.86 24.814 24.756 24.755 24.71 25.154 25.049 24.894 24.61 24.416 24.394 24.677 24.773 24.438 24.966 25.323 24.559 24.648 24.682 24.137 24.11 24.303 24.603 24.264 24.632 24.037 24.012 24.014 24.08 24.223 24.521 24.044 24.006 23.987 24.17 24.468 24.229 23.974 23.98 24.024 24.048 24.01 24.026 24.028 24.044 24.058 24.082 24.08 24.787 25.038 24.73 24.29 24.245 24.17 24.196 24.4 24.396 24.229 28.713 34.213 34.87 34.434 33.732 33.429 35.274 35.325 34.643 33.324 29.55 29.395 29.585 29.744 29.958 30.17 30.298 30.047 29.647 29.37 31.466 32.422 32.758 33.135 33.658 33.992 33.618 33.276 32.803 32.37 31.237 31.224 31.413 31.753 31.656 31.439 31.099 30.812 28.824 25.424 24.038 24.133 24.206 24.152 24.073 27.648 32.298 32.748 33.089 33.479 33.834 34.211 34.681 35.215 35.633 36.065 36.491 36.237 36.086 36.714 35.847 33.504 33.072 32.722 31.423 24.339 24.054 23.854 23.636 24.689 25.14 29.729 29.242 25.973 24.145 23.147 23.063 23.14 23.194 23.227 23.231 23.19 23.221 23.152 23.089 23.061 23.014 23.053 23.02 23.045 23.179 23.199 23.234 23.226 23.164 23.182 23.151 23.186 23.248 23.373 23.582 24.054 26.129 27.808 26.894 24.158 24.477 24.545 24.174 23.524 23.625 24.687 26.452 26.395 26.25 26.396 25.091 24.639 24.66 24.69 24.745 25.197 24.666 25.56 24.365 23.957 23.574 23.053 22.753 22.617 22.418 22.369 22.219 21.872 22.272 22.162 21.42 21.048 20.975 23.619 22.629 22.495 -9999 -9999 -9999 -9999 -9999 -9999 -9999 -9999 -9999 -9999 -9999 -9999 -9999 -9999 -9999 -9999 -9999 -9999 -9999 21.82 21.032 20.942 22.695 21.391 22.1 22.833 22.094 21.539 -9999 21.852 22.191 21.032 21.111 20.685 20.515 21.123 21.764 22.007 21.577 21.066 21.321 -9999 -9999 -9999 -9999 19.693 19.663 19.638 -9999 -9999 -9999 -9999 19.963 19.69 -9999 -9999 -9999 -9999 -9999 19.701 19.748 20.631 20.852 21.294 21.765 22.121 23.041 23.494 24.799 21.558 21.213 22.754 23.652 21.504 21.031 20.989 20.893 20.818 20.872 20.93 20.916 20.881 20.845 20.784 21.941 22.045 21.294 21.011 24.693 26.119 26.727 27.202 27.857 28.349 28.953 28.796 28.668 28.384 28.216 28.008 27.833 27.517 27.421 27.201 27.108 26.696 26.707 26.656 26.718 26.733 26.744 26.752 26.774 26.794 26.842 26.907 26.609 26.003 25.006 21.891 20.794 20.745 20.754 23.432 24.837 21.084 24.434 21.193 20.678 20.679 20.673 20.696 20.654 20.7 20.775 20.704 20.757 20.704 20.762 20.776 20.8 20.766 20.725 20.814 20.715 20.782 20.729 20.729 20.8 20.745 20.821 25.559 26.216 23.5 27.467 23.02 23.709 22.002 26.403 28.796 23.941 25.699 27.122 25.686
30.253 30.197 30.906 31.184 32.014 36.58 37.228 37.047 36.293 33.942 30.246 31.171 29.879 29.763 29.643 29.53 29.476 29.42 29.296 29.231 29.135 29.154 29.518 34.686 35.008 35.399 35.709 36.131 36.47 33.71 28.31 28.214 28.189 28.109 28.087 28.049 28.011 27.907 27.866 27.821 27.761 27.704 27.681 27.576 27.599 27.495 27.387 27.337 27.346 27.31 27.272 27.179 27.207 27.197 27.171 27.135 27.105 27.13 27.163 27.186 27.22 27.311 28.439 27.855 27.95 28.394 27.796 25.59 25.77 27.788 24.963 24.828 24.902 24.835 24.756 24.789 25.013 24.721 24.598 24.463 24.409 24.642 24.838 24.597 24.944 25.375 24.296 24.471 24.552 24.189 24.11 24.088 24.581 24.5 24.314 24.1 24.061 24.025 24.089 24.214 24.203 24.08 24.015 23.993 23.983 24.018 24.021 24.013 24.017 24.006 24.031 24.068 24.033 24.025 24.054 24.075 24.098 25.455 24.858 24.45 24.673 26.472 26.501 24.176 24.21 25.651 25.617 30.868 34.91 34.922 34.307 33.561 33.859 35.709 35.254 34.675 33.942 33.533 34.48 30.25 29.471 29.583 29.831 30 30.139 30.27 29.995 29.67 29.288 31.407 32.262 32.801 33.212 33.655 33.938 33.569 33.188 32.722 32.278 31.26 31.139 31.363 31.709 31.661 31.422 31.073 29.808 26.737 24.081 24.065 24.234 24.291 24.102 24.249 26.458 32.206 32.693 33.154 33.511 33.829 34.87 35.728 36.123 36.545 36.854 36.62 36.55 36.606 35.403 34.36 33.419 33.012 31.276 28.375 24.296 24.02 23.864 23.729 26.76 29.117 29.704 27.944 25.135 23.309 23.188 23.092 23.138 23.203 23.25 23.183 23.195 23.217 23.141 23.105 23.09 23.052 23.057 23.152 23.215 23.187 23.154 23.156 23.174 23.173 23.18 23.256 23.473 23.602 23.412 26.327 28.092 25.102 24.695 24.369 24.48 24.49 24.062 23.532 23.538 23.706 25.29 24.237 24.832 25.546 24.487 24.562 24.622 24.595 24.43 24.548 24.35 24.074 24.206 23.336 23.056 22.888 22.628 22.454 22.348 22.334 22.107 21.83 22.039 22.231 21.691 21.442 21.478 24.436 23.484 22.644 -9999 -9999 -9999 -9999 -9999 -9999 -9999 -9999 -9999 -9999 -9999 -9999 -9999 -9999 -9999 -9999 -9999 -9999 -9999 -9999 -9999 21.715 21.988 23.321 21.873 22.357 22.129 21.735 -9999 -9999 21.487 20.714 20.679 20.347 20.219 20.511 21.182 21.274 21.363 21.016 21.95 -9999 -9999 -9999 -9999 -9999 -9999 -9999 -9999 -9999 -9999 -9999 -9999 -9999 -9999 -9999 -9999 -9999 -9999 -9999 19.667 20.009 20.697 20.821 21.408 21.914 22.219 23.277 23.813 22.824 21.141 22.497 25.273 25.423 22.002 21.052 20.916 20.845 20.88 20.898 20.879 20.934 20.904 20.839 21.539 21.737 21.484 21.114 23.989 25.727 26.439 27.381 27.701 28.192 28.504 28.349 27.981 27.885 27.62 27.384 27.227 26.968 26.861 26.667 26.68 26.7 26.753 26.788 26.804 26.824 26.822 26.886 26.866 26.783 23.557 22.46 20.747 20.784 24.062 24.106 20.89 20.767 20.734 21.505 24.904 22.71 21.341 20.681 20.656 20.754 20.705 20.691 20.685 20.684 20.71 20.744 20.72 20.752 20.712 20.72 20.718 20.688 20.762 20.757 20.722 20.759 20.835 20.898 22.025 20.89 23.794 28.766 30.664 23.594 25.156 22.576 23.344 24.679 26.045 27.97 22.524 21.512 21.779 23.895
30.295 30.245 30.242 30.311 34.241 36.408 36.532 36.388 36.365 33.127 34.387 31.515 29.868 29.781 29.699 29.569 29.504 29.428 29.327 29.211 29.1 29.143 29.185 33.621 34.928 35.322 35.656 36.023 36.494 32.723 28.31 28.247 28.204 28.137 28.082 28.06 27.991 27.902 27.818 27.781 27.794 27.683 27.662 27.574 27.493 27.492 27.391 27.324 27.319 27.269 27.304 27.356 27.243 27.164 27.161 27.149 27.142 27.197 27.188 27.168 27.184 27.218 27.191 28.085 27.899 28.126 27.639 25.898 25.856 25.249 24.983 24.874 24.882 24.9 25.007 34.652 27.255 24.661 24.602 24.44 24.409 24.552 24.744 24.649 24.658 24.807 24.365 24.566 24.562 24.217 24.153 24.149 24.424 24.702 24.342 24.137 24.103 24.074 24.059 24.044 24.011 24.014 24.038 24.003 24.028 24.011 24.029 24.024 24.036 24.06 24.073 24.076 24.068 24.087 24.101 25.543 25.441 25.418 25.727 24.984 24.94 35.416 29.719 26.28 24.472 24.408 31.268 35.49 34.78 34.284 33.654 33.374 35.181 35.169 34.528 33.982 33.449 34.74 35.404 33.526 30.303 29.487 29.57 29.745 29.951 30.193 30.278 29.989 29.643 29.313 31.302 32.354 32.945 33.123 33.614 33.236 32.825 32.339 30.757 30.684 30.937 31.2 31.429 31.627 31.569 31.349 31.141 29.695 25.935 24.178 24.232 24.258 24.41 24.169 24.103 28.77 32.258 32.691 33.123 33.488 34.916 35.518 35.981 36.352 36.706 36.985 36.775 36.404 35.868 35.459 34.115 33.51 33.028 32.676 28.003 24.276 23.996 23.7 26.801 27.138 27.348 25.26 23.323 23.292 23.434 23.291 23.1 23.16 23.214 23.189 23.241 23.219 23.197 23.164 23.149 23.075 23.079 23.168 23.156 23.154 23.149 23.138 23.218 23.239 23.347 23.474 23.649 23.704 23.66 25.004 26.977 24.502 24.121 24.154 24.413 24.466 23.914 23.403 23.424 23.542 23.697 23.968 24.161 24.355 24.493 24.475 24.48 24.431 24.509 24.048 24.383 23.829 23.35 23.29 22.958 22.715 22.601 22.365 22.263 22.188 22.085 21.793 21.858 21.72 21.675 21.763 21.219 20.977 22.633 22.622 -9999 -9999 -9999 -9999 -9999 -9999 -9999 -9999 -9999 -9999 -9999 -9999 -9999 -9999 -9999 -9999 -9999 -9999 -9999 -9999 -9999 -9999 -9999 22.566 22.116 21.796 20.764 -9999 -9999 -9999 -9999 21.342 20.871 20.219 20.268 20.343 20.725 20.617 20.658 22.219 22.239 -9999 -9999 19.88 -9999 -9999 -9999 -9999 -9999 -9999 -9999 -9999 -9999 -9999 -9999 -9999 -9999 -9999 -9999 -9999 -9999 20.493 20.367 20.08 20.75 21.43 21.982 22.085 23.108 23.419 23.885 25.171 25.243 26.229 23.168 21.107 20.891 20.914 20.872 20.913 20.942 20.957 20.88 20.81 21.436 21.708 21.532 20.989 22.026 25.626 26.282 27.097 27.471 27.979 27.895 31.345 27.45 27.326 27.076 26.812 26.682 26.628 26.709 26.725 26.704 26.765 26.829 26.882 26.873 26.873 26.889 26.277 22.626 21.397 20.785 20.773 20.768 20.74 22.808 24.843 21.193 20.666 20.642 20.713 21.359 20.672 20.623 20.71 20.682 20.718 20.658 20.661 20.789 20.745 20.734 20.785 20.78 20.704 20.72 20.753 20.754 20.784 20.675 20.717 20.765 20.76 20.701 22.037 26.748 28.073 28.119 28.407 27.185 31.99 25.906 21.803 24.307 25.376 26.807 27.806 23.433 21.151 25.581 26.397
30.292 30.381 30.257 30.25 33.128 33.165 32.055 36.605 36.71 36.721 36.38 30.837 29.856 29.808 29.721 29.557 29.471 29.425 29.344 29.216 29.101 29.074 29.18 32.762 34.897 35.273 35.67 36.047 36.427 35.144 31.491 28.234 28.172 28.145 28.126 28.03 27.977 27.92 27.858 27.824 27.788 27.71 27.634 27.571 27.525 27.505 27.427 27.406 27.344 27.303 28.42 28.594 27.267 27.202 27.192 27.126 27.144 27.122 27.149 27.211 27.171 27.193 27.351 27.712 28.42 28.195 27.648 26.24 25.694 25.584 25.258 24.867 24.818 25.037 24.787 25.232 25.041 24.915 25.061 24.502 24.463 24.566 24.647 24.551 24.392 24.495 24.39 24.321 24.387 24.192 24.142 24.139 24.128 24.139 24.116 24.08 24.083 24.081 24.071 24.06 24.006 24.024 24.019 24.008 24.045 24.018 24.031 24.03 24.061 24.078 24.075 25.37 24.155 24.098 24.119 24.482 25.192 25.784 24.876 30.979 34.792 35.167 34.676 33.839 27.183 31.526 35.459 34.933 34.316 33.778 34.848 35.58 35.103 34.556 34.01 33.346 33.093 35.401 34.893 34.275 32.801 29.882 29.451 29.573 29.755 29.997 30.149 30.278 29.983 29.639 29.379 31.388 32.584 32.798 33.059 32.699 28.277 30.282 29.089 30.413 30.747 30.954 31.152 31.495 31.705 31.559 31.354 31.058 30.637 28.237 24.184 24.072 24.291 24.277 24.105 24.114 29.618 32.432 32.801 33.146 33.565 34.962 35.53 36.174 36.787 36.833 36.923 36.614 36.273 35.851 35.482 34.065 33.449 32.997 32.542 29.314 24.209 23.908 23.689 23.547 23.537 23.486 23.319 23.321 23.342 23.246 23.081 23.055 23.186 23.205 23.284 23.224 23.202 23.225 23.118 23.122 23.1 23.134 23.14 23.111 23.133 23.117 23.138 23.315 23.523 23.478 23.619 24.665 25.257 23.275 23.207 23.666 24.014 24.154 24.229 24.123 23.809 23.517 23.315 23.471 23.629 23.788 24.036 24.2 24.246 24.253 24.185 24.212 23.903 23.791 23.555 23.411 23.219 22.977 22.906 23.247 22.485 22.233 22.175 22.042 21.861 21.578 21.317 21.317 21.172 21.215 20.885 20.624 20.267 21.823 -9999 -9999 -9999 -9999 -9999 -9999 -9999 -9999 -9999 -9999 -9999 -9999 -9999 -9999 -9999 -9999 -9999 -9999 -9999 -9999 -9999 -9999 -9999 -9999 22.053 21.767 -9999 -9999 -9999 -9999 -9999 -9999 -9999 -9999 20.468 20.165 20.593 20.455 21.32 21.889 -9999 -9999 20.277 19.697 19.674 -9999 -9999 -9999 -9999 -9999 -9999 -9999 -9999 -9999 -9999 -9999 -9999 -9999 -9999 -9999 -9999 -9999 20.255 20.161 20.547 20.66 21.247 21.959 22.438 22.715 24.302 25.386 26.253 27.303 25.278 21.178 21.002 20.939 20.905 20.902 20.855 20.912 20.89 20.863 20.811 21.822 21.808 21.416 21.185 24.611 25.992 26.594 27.206 27.341 27.293 30.002 26.839 26.64 26.698 26.668 26.685 26.724 26.746 26.761 26.809 26.876 26.886 26.697 25.839 25.715 22.974 20.785 20.786 20.789 20.736 20.695 20.721 20.735 21.459 24.009 23.86 20.676 20.691 20.67 20.674 20.714 20.692 20.718 20.69 20.67 20.682 20.695 20.741 20.755 20.698 20.8 20.747 20.738 20.762 20.692 20.722 20.695 20.712 20.786 20.739 20.724 20.695 25.371 29.012 29.048 29.232 23.211 22.207 26.068 28.126 23.062 24.945 27.892 28.583 28.559 26.229 24.364 26.025 26.28
30.286 30.252 30.23 30.248 30.292 31.062 34.328 36.734 37.365 37.333 36.588 31.574 29.907 29.788 29.733 29.611 29.469 29.44 29.34 29.211 29.132 29.112 29.189 32.911 34.93 35.208 35.576 35.968 36.232 36.487 28.959 28.259 28.195 28.172 28.078 28.026 27.984 27.929 27.902 27.841 27.78 27.661 27.687 27.538 27.522 27.473 27.434 27.423 27.412 27.336 27.806 28.261 27.268 27.218 27.217 27.189 27.144 27.148 27.126 27.199 27.225 27.204 27.266 27.222 27.274 28.753 27.623 25.949 25.32 25.22 25.054 24.898 24.85 24.836 24.935 25.319 24.883 25.017 24.746 24.546 24.518 24.498 24.449 24.421 24.335 24.293 24.31 24.236 24.22 24.198 24.161 24.113 24.146 24.155 24.147 24.116 24.105 24.099 24.099 24.056 24.072 24.078 24.039 24.047 24.052 24.046 24.055 24.072 24.093 24.186 25.701 26.292 25.047 24.837 24.1 24.12 24.123 24.554 26.343 34.583 35.135 34.636 34.022 33.502 35.561 35.465 34.876 34.23 33.794 33.313 35.401 35.195 34.479 33.899 33.359 34.894 35.438 34.768 34.316 33.674 34.727 35.358 29.358 29.439 29.608 29.798 29.962 30.196 30.219 29.875 29.584 29.344 30.873 32.531 32.712 32.254 28.133 24.142 25.291 30.085 29.938 30.651 30.913 31.208 31.441 31.728 31.574 31.332 31.105 30.888 25.44 24.049 24.071 24.512 24.22 24.049 24.219 31.551 32.396 32.741 33.147 33.503 35.562 36.84 36.62 36.416 36.628 36.566 36.03 35.754 34.557 33.627 33.253 32.836 31.854 26.558 24.081 24.028 23.832 23.683 23.524 23.695 23.378 23.379 23.388 23.389 23.251 23.046 23.08 23.151 23.199 23.249 23.262 23.243 23.219 23.162 23.154 23.145 23.087 23.127 23.14 23.149 23.233 23.379 23.603 24.311 23.317 25.697 25.76 23.856 24.128 25.485 24.429 23.967 24.098 23.695 23.575 23.373 23.247 23.282 23.413 23.575 23.799 23.946 24.027 23.967 23.862 23.797 23.804 23.6 23.329 23.177 24.112 23.574 23.217 22.705 22.343 22.147 22.043 21.922 21.574 21.368 21.12 20.931 20.769 20.449 20.56 20.204 20.181 -9999 -9999 -9999 -9999 -9999 -9999 -9999 -9999 -9999 -9999 -9999 -9999 -9999 -9999 -9999 -9999 -9999 -9999 -9999 -9999 -9999 -9999 -9999 -9999 -9999 -9999 -9999 -9999 -9999 -9999 -9999 -9999 -9999 -9999 -9999 -9999 20.296 20.479 20.681 -9999 -9999 -9999 -9999 -9999 19.96 -9999 -9999 -9999 -9999 -9999 -9999 -9999 -9999 -9999 -9999 -9999 -9999 -9999 -9999 -9999 -9999 -9999 19.761 19.676 20.377 20.486 20.625 21.29 21.983 22.175 23.394 26.333 28.205 26.603 26.433 22.986 21.129 21.017 20.976 20.897 20.936 20.89 20.914 20.821 20.84 20.857 21.218 21.704 21.219 20.995 24.3 25.87 26.341 26.886 26.87 26.562 26.452 26.266 26.913 26.785 26.81 26.82 26.835 26.857 26.892 26.704 26.619 22.513 22.206 24.675 23.773 24.886 20.866 20.684 20.701 20.684 20.719 20.668 20.654 20.628 20.636 20.699 20.691 20.675 20.688 20.728 20.686 20.739 20.691 20.699 20.65 20.685 20.702 20.709 20.702 20.69 20.701 20.741 20.764 20.683 20.685 20.725 20.658 20.734 20.73 20.733 20.764 20.703 24.444 26.106 27.375 26.146 23.3 21.675 25.05 25.809 28.09 28.608 28.655 28.634 28.642 22.446 20.894 25.745 26.149
30.275 30.264 30.23 30.214 30.619 31.618 31.54 36.564 37.442 37.398 36.77 32.758 29.889 29.803 29.722 29.576 29.509 29.423 29.361 29.275 29.16 29.048 29.421 30.396 34.784 35.209 35.58 35.81 36.207 36.43 30.11 28.241 28.241 28.161 28.108 28.063 27.995 27.939 27.88 27.816 27.774 27.751 27.647 27.586 27.57 27.523 27.47 27.406 27.425 27.36 27.332 27.232 27.211 27.231 27.205 27.21 27.141 27.171 27.197 27.21 27.217 27.237 27.26 27.243 27.23 27.642 27.558 26.55 25.27 25.457 25.139 24.955 24.931 24.881 24.819 24.793 24.763 24.654 24.628 24.587 24.513 24.506 24.442 24.406 24.397 24.318 24.304 24.264 24.203 24.166 24.166 24.125 24.137 24.157 24.126 24.163 24.097 24.122 24.109 24.084 24.127 24.083 24.072 24.049 24.051 24.074 24.04 24.067 24.091 25.377 25.04 25.926 32.683 32.487 24.291 24.124 24.271 25.813 34.897 35.204 34.575 34.025 33.328 34.602 35.352 34.811 34.32 33.714 34.66 35.387 35.124 34.546 33.978 33.416 35.118 35.455 34.85 34.322 33.668 33.219 35.168 35.17 33.685 30.414 29.495 29.667 29.776 29.99 30.138 30.201 29.922 29.577 29.267 30.872 32.1 29.397 27.416 26.693 24.18 25.101 24.637 26.812 30.565 30.928 31.2 31.467 31.678 31.603 31.351 31.029 29.719 27.312 24.27 24.047 24.153 24.111 24.127 24.505 31.772 32.846 32.862 33.163 34.046 35.847 36.173 35.961 36.313 36.121 35.706 34.578 33.782 33.191 32.746 32.385 28.06 24.794 24.002 24.017 23.902 23.737 23.603 23.494 23.502 23.409 23.412 23.398 23.349 23.424 23.084 23.101 23.168 23.287 23.24 23.213 23.213 23.191 23.188 23.201 23.096 23.12 23.144 23.072 23.183 23.465 23.554 23.477 23.308 23.687 23.454 23.317 23.132 23.224 23.463 23.784 23.855 23.38 23.309 23.237 23.142 23.161 23.218 23.411 23.567 23.657 23.724 23.559 23.556 23.429 23.382 23.186 23.065 23.207 25.936 26.283 24.847 22.709 22.285 22.085 21.924 21.683 21.36 21.127 20.988 20.815 20.439 20.112 20.074 20.072 -9999 -9999 -9999 -9999 -9999 -9999 -9999 -9999 -9999 -9999 -9999 -9999 -9999 -9999 -9999 -9999 -9999 -9999 -9999 -9999 -9999 -9999 -9999 -9999 -9999 -9999 -9999 -9999 -9999 -9999 -9999 -9999 -9999 -9999 -9999 -9999 -9999 -9999 -9999 -9999 -9999 -9999 -9999 -9999 -9999 -9999 -9999 -9999 -9999 -9999 -9999 -9999 -9999 -9999 -9999 -9999 -9999 -9999 -9999 -9999 -9999 -9999 -9999 -9999 19.876 20.045 20.424 20.915 21.536 21.987 22.069 22.598 27.284 29.984 31.559 28.794 23.223 21.234 21.002 20.955 20.955 20.9 20.947 20.875 20.867 20.867 20.829 21.017 21.897 21.734 21.192 23.763 25.573 26.18 26.385 26.181 26.063 25.855 25.719 26.707 26.87 26.863 26.925 26.87 23.653 21.392 20.786 20.782 20.792 20.819 24.832 24.006 24.87 21.421 20.668 20.722 20.631 20.667 20.698 20.686 20.65 20.698 20.749 20.677 20.694 20.692 20.674 20.704 20.717 20.738 20.737 20.709 20.731 20.712 20.665 20.671 20.713 20.684 20.715 20.65 21.082 24.287 24.316 20.848 20.687 20.751 20.711 20.742 20.747 22.998 25.923 24.004 27.695 24.289 28.574 28.585 24.68 28.442 28.715 28.518 22.994 21.579 20.884 20.904 24.416 26.02
30.258 30.239 30.213 30.091 30.318 31.657 31.939 36.538 37.328 37.531 36.879 34.729 30.306 29.781 29.74 29.6 29.53 29.452 29.381 29.303 29.175 29.1 29.129 31.882 34.862 35.132 35.474 35.806 36.177 35.712 29.536 28.193 28.251 28.134 28.111 28.144 28.051 27.967 27.896 27.87 27.784 27.717 27.668 27.62 27.577 27.543 27.506 27.393 27.422 27.369 27.316 27.316 27.265 27.277 27.268 27.198 27.163 27.129 27.198 27.198 27.201 27.229 27.255 27.296 27.258 28.465 28.325 26.335 25.391 25.503 25.486 25.118 24.922 24.892 24.79 24.743 24.723 24.645 24.642 24.544 24.525 24.467 24.403 24.411 24.338 24.321 24.293 24.233 24.225 24.208 24.16 24.126 24.115 24.111 24.121 24.11 24.13 24.146 24.107 24.133 24.086 24.181 25.43 24.117 24.07 24.1 24.06 24.08 24.441 25.705 25.989 31.07 35.528 34.953 32.279 24.459 26.15 33.007 35.19 34.403 34.085 33.429 34.571 35.516 34.779 34.329 33.647 34.75 35.491 35.191 34.594 33.854 33.592 35.078 35.429 34.855 34.342 33.528 34.778 35.721 35.066 34.551 33.887 32.721 30.118 29.521 29.611 29.809 30.027 30.15 30.153 29.937 29.586 29.309 29.032 28.677 28.27 27.37 25.167 24.078 24.079 24.048 28.202 30.597 31.089 31.217 31.476 31.664 31.597 31.299 31.023 29.579 25.128 24.059 24.118 24.132 24.149 28.271 32.211 32.128 32.38 32.718 33.192 34.218 35.156 35.533 35.993 35.707 35.271 33.859 33.191 32.76 32.415 26.791 24.028 24.013 23.989 23.982 23.924 23.82 23.693 23.564 23.522 24.622 23.457 23.4 23.462 23.359 23.282 23.101 23.139 23.163 23.24 23.304 23.303 23.231 23.248 23.224 23.14 23.088 23.105 23.076 23.201 23.323 23.266 24.115 23.289 23.267 23.098 23.119 23.147 23.249 23.416 23.612 23.483 23.275 23.206 23.245 23.105 23.102 23.194 23.321 23.348 23.41 23.351 23.307 23.375 23.564 23.421 25.28 23.828 23.061 23.587 23.605 24.736 22.7 22.204 22.118 21.826 21.65 21.36 21.137 20.866 20.7 20.465 20.006 19.961 19.918 20.003 -9999 -9999 -9999 -9999 -9999 -9999 -9999 -9999 -9999 -9999 -9999 -9999 -9999 -9999 -9999 -9999 -9999 -9999 -9999 -9999 -9999 -9999 -9999 -9999 -9999 -9999 -9999 -9999 -9999 -9999 -9999 -9999 -9999 -9999 -9999 -9999 -9999 -9999 -9999 -9999 -9999 -9999 -9999 -9999 -9999 -9999 -9999 -9999 -9999 -9999 -9999 -9999 -9999 -9999 -9999 -9999 -9999 -9999 -9999 -9999 -9999 -9999 -9999 -9999 20.023 20.326 21.249 21.373 21.776 22.133 23.732 26.484 29.912 31.707 30.682 26.746 21.411 20.986 20.969 20.914 20.864 20.896 20.921 20.929 20.856 20.844 20.814 21.819 21.856 21.117 21.122 25.321 26.034 25.808 25.581 25.413 25.094 22.746 21.996 26.942 22.91 22.396 21.36 20.785 20.765 20.796 20.783 20.765 20.842 24.87 22.068 22.578 21.185 20.666 20.668 20.715 20.677 20.688 20.699 20.698 20.688 20.648 20.744 20.76 20.734 20.721 20.763 20.736 20.71 20.712 20.716 20.66 20.669 20.653 20.61 20.685 20.744 24.425 24.48 24.786 22.554 22.7 21.115 20.728 20.719 20.754 20.835 20.908 22.148 23.642 25.646 29.526 29.689 30.318 31.38 30.26 26.546 24.478 21.594 20.865 20.814 20.854 20.959 21.77 25.722
30.256 30.191 30.165 30.139 30.142 31.39 30.935 36.447 37.145 37.441 36.853 35.009 29.997 29.776 29.72 29.602 29.507 29.434 29.397 29.323 29.174 29.09 29.131 30.924 34.613 35.038 35.418 35.814 36.101 36.444 31.231 28.301 28.208 28.131 28.115 28.088 28.07 28.019 27.934 27.905 27.851 27.769 27.698 27.648 27.544 27.563 27.505 27.464 27.428 27.358 27.331 27.34 27.315 27.252 27.254 27.21 27.2 27.167 27.201 27.212 27.206 27.224 27.485 27.262 27.441 28.461 28.518 26.503 25.247 25.24 25.069 25.09 24.913 24.851 24.811 24.758 24.738 24.656 24.595 24.56 24.505 24.477 24.43 24.363 24.388 24.315 24.297 24.264 24.204 24.187 24.118 24.166 24.125 24.061 24.101 24.101 24.112 24.17 24.356 24.123 25.329 25.922 26.068 24.238 24.098 24.124 24.104 24.075 24.094 24.484 28.559 34.562 34.776 34.262 33.266 27.837 34.479 35.063 34.517 34.046 33.472 35.541 35.608 34.812 34.253 33.73 33.191 35.774 35.103 34.466 34.011 33.465 35.589 35.289 34.684 34.196 33.611 33.216 35.177 35.067 34.466 34.014 33.19 34.979 34.255 30.174 29.465 29.619 29.825 29.959 30.11 30.234 29.928 29.605 29.32 28.956 28.626 28.296 27.798 25.859 24.077 24.079 24.047 25.334 30.531 30.991 31.22 31.475 31.71 31.617 31.364 31.096 30.717 27.545 24.184 24.532 29.398 31.963 31.328 24.973 30.236 32.403 33.663 34.505 34.847 35.187 35.531 35.285 33.998 33.243 32.724 32.336 27.795 24.007 23.974 23.946 23.979 23.956 23.908 23.874 23.747 23.617 23.604 23.568 24.678 23.574 23.524 23.436 23.329 23.325 23.149 23.185 23.211 23.255 23.312 23.263 23.219 23.198 23.19 23.158 23.1 23.069 23.189 23.71 24.261 23.671 23.319 23.283 23.107 25.344 23.303 23.235 23.267 23.276 23.341 23.188 23.142 23.165 23.041 23.015 23.081 23.124 23.139 23.133 24.307 25.306 24.469 23.539 25.089 25.182 25.119 23.306 24.346 24.568 24.957 22.925 22.083 21.897 21.635 21.553 21.319 21.042 20.812 20.655 20.332 20.196 20.205 20.102 20.11 21.267 -9999 -9999 -9999 -9999 -9999 -9999 -9999 -9999 -9999 -9999 -9999 -9999 -9999 -9999 -9999 -9999 -9999 -9999 -9999 -9999 -9999 -9999 -9999 -9999 -9999 -9999 -9999 -9999 -9999 -9999 -9999 -9999 -9999 -9999 -9999 -9999 -9999 -9999 -9999 -9999 -9999 -9999 -9999 -9999 -9999 -9999 -9999 -9999 -9999 -9999 -9999 -9999 -9999 -9999 -9999 -9999 -9999 -9999 -9999 -9999 -9999 -9999 -9999 -9999 19.812 21.326 21.368 21.618 21.988 22.336 24.325 28.731 30.218 31.444 25.438 21.405 21.084 20.976 20.956 20.923 20.971 20.946 20.857 20.888 20.873 20.782 21.074 21.047 21.01 20.983 24.195 25.288 24.994 22.19 22.052 20.903 20.867 21.104 21.424 20.786 20.776 20.693 20.743 20.798 20.765 20.672 20.653 20.642 21.435 21.79 20.694 20.681 20.631 20.677 20.697 20.656 20.729 20.716 20.728 20.725 20.774 20.789 20.77 20.783 20.725 20.664 20.701 20.676 20.609 20.666 20.638 20.637 20.674 20.656 20.672 23.614 24.811 22.669 21.516 20.719 20.761 20.706 23.077 21.852 21.072 21.151 22.835 21.335 24.886 28.895 31.213 31.404 31.667 31.671 27.378 22.613 20.962 20.853 20.88 20.882 20.872 20.904 21.157 24.506
30.264 30.216 30.142 30.138 30.167 31.201 31.226 36.185 37.075 37.598 37.008 33.075 30.358 29.777 29.704 29.618 29.508 29.449 29.364 29.294 29.141 29.075 29.149 29.506 34.193 35.032 35.312 35.77 36.148 36.391 35.387 29.221 28.198 28.153 28.12 28.079 28.077 28.027 27.931 27.903 27.855 27.784 27.718 27.636 27.604 27.559 27.511 27.461 27.431 27.379 27.383 27.38 27.386 27.326 27.285 27.236 27.172 27.147 27.205 27.211 27.226 27.24 27.421 28.454 28.204 28.487 28.436 27.21 25.322 25.344 25.077 24.927 24.931 24.845 24.836 24.774 24.701 24.618 24.568 24.556 24.514 24.433 24.407 24.347 24.33 24.3 24.294 24.258 24.217 24.267 24.681 24.143 24.256 24.1 24.069 24.067 24.085 24.113 24.25 24.336 24.491 24.53 25.068 26.045 24.231 24.165 24.15 24.269 24.22 31.799 35.397 34.643 34.1 33.681 34.804 35.715 34.903 34.613 33.873 33.348 35.57 35.343 34.936 34.099 33.742 33.066 35.111 35.066 34.543 34.027 33.318 34.388 35.315 34.858 34.248 33.633 33.239 35.314 35.022 34.511 33.942 33.316 34.46 35.328 34.762 33.5 29.726 29.484 29.66 29.865 29.99 30.134 30.221 29.954 29.649 29.161 28.952 28.622 28.343 27.84 24.069 24.112 24.152 24.142 27.361 30.609 30.958 31.245 31.418 31.753 31.586 31.302 31.038 30.598 25.494 30.283 31.474 31.388 25.41 24.112 24.067 30.541 32.301 33.044 34.448 34.848 34.908 33.602 33.155 32.798 32.392 26.38 24.049 23.963 23.908 23.965 23.978 23.914 23.916 23.903 23.821 23.777 24.036 24.295 23.572 23.585 23.866 23.48 23.438 23.304 23.304 23.293 23.191 23.187 23.214 23.288 23.325 23.254 23.223 23.154 23.088 23.033 23.289 23.926 24.642 26.734 26.459 24.59 25.109 26.423 24.058 23.396 23.295 23.165 23.209 23.149 23.054 23.031 23.024 23.016 23.06 23.053 24.849 23.762 26.165 26.418 24.718 25.341 24.052 24.818 23.612 24.981 25.332 23.338 24.299 22.255 21.925 21.817 21.653 21.502 21.344 21.046 20.725 20.558 20.169 19.974 20.053 20.467 20.2 20.093 -9999 -9999 -9999 -9999 -9999 -9999 -9999 -9999 -9999 -9999 -9999 -9999 -9999 -9999 -9999 -9999 -9999 -9999 -9999 -9999 -9999 -9999 -9999 -9999 -9999 -9999 -9999 -9999 -9999 -9999 -9999 -9999 -9999 -9999 -9999 -9999 -9999 -9999 -9999 -9999 -9999 -9999 -9999 -9999 -9999 -9999 -9999 -9999 -9999 -9999 -9999 -9999 -9999 -9999 -9999 -9999 -9999 -9999 -9999 19.566 19.568 -9999 -9999 -9999 19.735 19.922 20.521 21.311 21.655 21.956 22.481 24.888 27.466 27.86 23.567 21.586 21.191 21.047 21.006 21.074 21.152 21.005 20.924 20.901 20.878 20.82 20.86 20.934 20.96 20.913 21.576 22.162 21.097 20.858 20.811 20.861 20.775 20.778 20.713 20.755 20.77 20.963 20.833 20.71 20.731 20.681 20.65 20.677 20.684 20.685 20.694 20.632 20.642 20.659 20.72 20.742 20.705 20.737 20.721 20.686 20.734 20.726 20.692 20.698 20.733 20.678 20.653 20.653 20.651 20.638 20.664 20.684 20.7 20.656 20.669 20.664 20.73 20.778 20.758 20.823 20.929 21.022 24.225 25.173 24.506 24.891 25.382 30.048 29.803 31.509 31.753 31.722 27.353 25.803 23.618 22.324 20.985 20.969 20.896 20.893 20.86 21.438 21.512 21.819
30.236 30.186 30.171 30.941 31.024 31.022 30.649 35.417 36.972 37.31 36.989 36.378 31.824 29.944 29.692 29.597 29.49 29.411 29.342 29.276 29.223 29.15 29.153 29.268 34.443 35.058 35.321 35.671 35.985 36.384 35.707 30.666 28.566 28.206 28.159 28.125 28.079 28.03 27.982 27.924 27.853 27.816 27.736 27.675 27.625 27.581 27.54 27.506 27.44 27.415 27.368 27.37 27.315 27.308 27.274 27.229 27.194 27.214 27.317 27.415 27.254 27.225 27.228 27.535 28.49 28.64 27.478 26.721 25.638 25.216 25.052 24.889 24.836 24.793 24.771 24.722 24.659 24.585 24.575 24.563 24.522 24.423 24.351 24.311 24.259 24.27 24.263 24.269 24.217 25.006 30.161 26.291 34.362 24.497 24.065 24.044 24.204 24.488 24.094 24.155 24.213 28.04 31.651 35.087 30.649 24.461 24.264 26.616 32.728 35.319 34.704 34.18 33.653 35.534 35.739 35.019 34.479 33.915 33.383 34.341 34.957 34.86 34.166 33.501 33.209 34.692 35.143 34.432 34.066 33.315 34.631 35.434 34.694 34.102 33.629 35.208 35.674 35.102 34.572 33.862 33.298 35.008 35.35 34.661 34.08 33.581 34.104 29.702 29.479 29.65 29.81 29.928 30.241 30.265 29.902 29.605 29.289 28.95 28.57 28.285 27.128 24.101 24.156 24.159 24.091 24.584 30.544 30.971 31.23 31.533 31.717 31.564 31.33 31.016 31.083 31.33 30.511 24.925 24.019 24.034 24.022 24.071 27.554 32.456 33.121 33.665 33.529 33.162 32.83 32.132 25.024 24.012 23.998 23.926 23.957 23.971 23.949 23.904 23.916 23.906 24.209 24.21 28.995 26.637 23.646 23.499 23.533 23.575 23.489 23.395 23.347 24.175 23.145 23.169 23.213 23.241 23.353 23.397 23.225 23.172 23.125 23.063 23.492 23.567 24.059 28.012 27.216 25.148 24.082 24.29 23.792 23.405 23.472 23.19 23.14 23.217 23.013 23.031 22.998 22.955 23.721 26.442 24.058 26.878 28.462 27.466 23.522 23.626 24.068 22.597 22.534 22.23 22.42 22.157 22.373 21.907 21.839 21.711 21.625 21.432 21.241 21.026 20.872 20.468 20.111 20.063 20.018 19.862 20.017 -9999 -9999 -9999 -9999 -9999 -9999 -9999 -9999 -9999 -9999 -9999 -9999 -9999 -9999 -9999 -9999 -9999 -9999 -9999 -9999 -9999 -9999 -9999 -9999 -9999 -9999 -9999 -9999 -9999 -9999 -9999 -9999 -9999 -9999 -9999 -9999 -9999 -9999 -9999 -9999 -9999 -9999 -9999 -9999 -9999 -9999 -9999 -9999 -9999 -9999 -9999 -9999 -9999 -9999 -9999 -9999 -9999 -9999 -9999 -9999 19.558 19.554 -9999 -9999 -9999 -9999 20.386 20.527 20.88 20.562 20.659 21.723 21.851 24.041 25.434 24.842 22.57 22.536 21.474 21.189 21.211 21.182 21.075 20.903 20.908 20.92 20.878 20.871 20.873 20.885 20.807 20.769 20.784 20.844 20.806 20.784 20.839 20.843 20.855 20.717 20.707 20.689 20.707 20.921 20.874 20.746 20.649 20.654 20.665 20.675 20.665 20.691 20.745 20.669 20.776 20.697 20.767 20.729 20.69 20.725 20.749 20.675 20.645 20.655 20.671 20.785 20.811 20.663 20.631 20.672 20.68 20.663 20.681 20.727 20.706 20.739 20.724 20.849 20.848 20.902 21.025 21.123 21.218 25.96 24.342 23.352 27.709 31.134 31.515 31.629 30.889 31.489 26.005 23.722 22.307 21.731 21.032 21.033 21.02 21.006 20.932 20.959 21.728 21.744 21.67
30.258 30.195 30.189 31.047 30.683 30.492 30.883 35.474 36.561 36.639 36.598 36.358 32.451 29.798 29.7 29.613 29.5 29.433 29.323 29.259 29.187 29.128 29.144 29.202 33.065 34.955 35.236 35.537 35.988 36.329 35.37 31.321 28.207 28.194 28.166 28.154 28.053 28.077 28.021 27.958 27.89 27.886 27.761 27.713 27.676 27.63 27.564 27.518 27.484 27.478 27.388 27.37 27.325 27.324 27.29 27.337 27.46 27.21 27.201 28.06 27.371 27.235 27.752 27.949 27.891 26.927 26.902 26.087 25.137 24.973 25.101 24.827 24.778 24.731 24.689 24.645 24.604 24.591 24.538 24.474 24.403 24.417 24.343 24.32 24.293 24.279 24.231 24.233 24.584 24.668 33.127 35.483 34.288 26.202 24.212 24.08 25.088 28.168 25.103 24.17 24.222 28.509 35.502 34.929 31.214 26.341 26.912 33.997 35.286 34.772 34.062 33.576 33.142 35.417 35.134 34.447 33.908 33.251 34.456 35.203 34.655 34.178 33.605 34.621 35.506 35.001 34.51 33.702 34.643 35.543 35.278 34.702 34.169 33.662 34.737 35.529 35.083 34.488 33.883 33.468 35.65 35.255 34.684 34.163 33.5 33.077 35.317 33.805 29.729 29.457 29.656 29.846 30.017 30.181 30.248 29.844 29.595 29.215 28.949 28.604 28.314 26.977 24.916 24.157 24.193 24.141 25.227 30.65 30.993 31.239 31.469 31.675 31.502 31.338 31.56 30.971 24.853 24.013 24.017 23.964 23.984 24.039 24.321 30.164 32.448 32.925 33.094 32.744 32.356 26.811 24.184 23.992 23.99 23.947 23.987 24.007 23.959 23.944 23.909 24.014 24.436 28.235 30.095 30.237 25.654 27.533 23.613 23.652 23.574 23.48 23.454 23.347 23.232 23.194 23.236 23.212 23.258 23.729 23.33 23.162 23.172 23.128 23.172 23.229 23.501 25.035 25.952 24.372 23.447 23.589 23.338 23.104 23.127 23.119 23.05 23.056 23.024 23 22.897 22.888 23.754 27.398 24.158 24.115 27.465 26.287 24.828 22.918 22.926 22.379 23.547 23.588 22.397 22.224 21.955 21.759 21.724 21.643 21.492 21.317 21.22 21.061 20.875 20.429 20.211 20.084 19.951 19.961 19.896 -9999 -9999 -9999 -9999 -9999 -9999 -9999 -9999 -9999 -9999 -9999 -9999 -9999 -9999 -9999 -9999 -9999 -9999 -9999 -9999 -9999 -9999 -9999 -9999 -9999 -9999 -9999 -9999 -9999 -9999 -9999 -9999 -9999 -9999 -9999 -9999 -9999 -9999 -9999 -9999 -9999 -9999 -9999 -9999 -9999 -9999 -9999 -9999 -9999 -9999 -9999 -9999 -9999 -9999 -9999 -9999 -9999 -9999 -9999 -9999 -9999 -9999 -9999 -9999 -9999 -9999 19.838 19.658 20.566 20.352 20.45 21.293 21.66 22.948 22.59 24.349 24.786 23.427 22.221 21.382 21.246 21.145 21.106 21.02 20.923 20.887 20.911 20.857 20.857 20.799 20.78 20.712 20.671 20.794 20.836 20.84 20.813 20.772 20.727 20.749 20.7 20.66 20.612 20.679 21.024 20.699 20.701 20.711 20.668 20.73 20.67 20.698 20.73 20.711 20.728 20.722 20.698 20.698 20.711 20.694 20.684 20.691 20.696 20.649 20.858 24.709 22.087 20.661 20.653 20.684 20.917 20.709 20.737 20.716 20.751 20.82 20.885 20.927 21.066 21.025 21.049 22.265 25.661 26.199 25.614 25.998 26.452 31.661 31.769 31.596 31.318 23.813 22.351 21.45 21.181 21.128 21.089 21.154 21.087 20.954 20.911 20.858 21.36 21.302 21.578
32.577 30.22 30.203 30.188 30.23 30.21 30.721 32.429 35.147 34.773 31.881 31.538 30.077 31.053 29.652 29.519 29.486 29.4 29.349 29.272 29.16 29.089 29.097 29.183 33.001 34.947 35.253 35.532 35.933 36.211 36.431 28.465 28.242 28.201 28.15 28.131 28.097 28.018 27.994 27.966 27.915 27.842 27.826 27.763 27.752 27.78 27.637 27.557 27.447 27.479 27.411 27.384 27.326 27.4 27.281 27.248 28.205 27.195 27.233 27.896 27.36 27.987 28.567 28.295 27.939 27.101 26.204 25.054 25.062 25.062 25.101 24.948 24.719 24.663 24.628 24.584 24.581 24.553 24.463 24.459 24.425 24.383 24.335 24.326 24.224 24.222 24.316 24.216 24.314 27.238 37.096 36.778 36.594 34.88 25.271 25.001 27.584 28.966 28.985 25.675 31.343 34.691 35.026 34.33 33.948 33.464 35.764 35.189 34.627 34.225 33.584 33.282 35.536 34.933 34.37 33.809 33.381 35.375 35.218 34.686 34.004 33.545 34.688 35.622 34.91 34.57 33.837 33.423 35.257 35.247 34.716 34.075 33.48 34.629 35.163 35.139 34.296 33.736 33.245 34.381 35.265 34.701 34.203 33.437 34.643 35.286 35.001 34.463 33.429 29.417 29.525 29.641 29.83 30.008 30.182 30.208 29.892 29.554 29.244 28.908 28.644 28.112 24.14 24.152 24.203 24.245 24.255 28.77 30.748 30.998 31.235 31.481 31.686 31.671 31.327 31.029 30.291 24.26 23.992 23.988 23.959 24.051 24.095 24.115 30.495 32.568 32.603 31.571 24.876 24.048 23.997 23.984 23.906 23.857 23.896 23.94 23.941 23.939 24.524 25.886 28.368 30.111 30.554 30.485 30.242 28.302 24.902 23.591 23.623 23.555 23.5 23.408 23.337 23.585 23.202 23.177 23.273 23.303 23.275 23.307 23.219 23.151 23.123 23.214 23.361 25.258 26.734 24.351 23.41 23.464 23.276 23.189 23.198 23.194 23.064 23.106 22.968 22.9 22.809 22.818 23.013 24.023 24.65 25.162 26.144 25.28 22.859 22.623 22.644 22.576 24.292 23.441 22.521 22.01 21.79 21.663 21.615 21.49 21.435 21.312 21.175 21.086 20.853 20.47 20.27 20.128 19.948 19.896 19.852 19.844 -9999 -9999 -9999 -9999 -9999 -9999 -9999 -9999 -9999 -9999 -9999 -9999 -9999 -9999 -9999 -9999 -9999 -9999 -9999 -9999 -9999 -9999 -9999 -9999 -9999 -9999 -9999 -9999 -9999 -9999 -9999 -9999 -9999 -9999 -9999 -9999 -9999 -9999 -9999 -9999 -9999 -9999 -9999 -9999 -9999 -9999 -9999 -9999 -9999 -9999 -9999 -9999 -9999 -9999 -9999 -9999 -9999 -9999 -9999 -9999 -9999 -9999 -9999 -9999 -9999 19.584 19.546 19.701 20.495 20.38 20.558 21.494 21.742 21.877 22.411 23.389 23.219 24.69 24.129 23.259 22.402 21.657 21.631 20.876 20.86 20.919 20.857 20.906 20.862 20.749 20.741 20.712 20.842 20.895 20.844 20.819 20.794 20.797 20.768 20.756 20.687 20.69 20.718 20.712 20.708 20.737 20.655 20.653 20.678 20.724 20.745 20.719 20.748 20.708 20.618 20.658 20.669 20.651 20.641 20.61 20.741 21.585 23.972 25.316 25.173 21.968 21.105 20.931 20.818 24.038 21.576 20.878 20.954 20.979 20.993 21.012 20.98 21.13 21.738 21.668 23.854 25.408 23.347 26.104 26.314 26.314 29.089 31.488 31.546 25.99 21.884 21.148 21.105 21.155 21.174 21.153 21.081 21.084 21.014 20.952 21.169 21.797 21.863 21.863
36.809 30.255 30.186 30.124 30.528 30.198 30.183 30.15 30.087 30.092 29.999 29.908 29.806 29.718 29.581 29.498 29.474 29.413 29.287 29.251 29.211 29.126 29.066 29.171 29.295 34.772 35.173 35.485 35.912 36.223 36.438 29.662 28.276 28.205 28.158 28.083 28.096 28.05 28.018 27.988 27.892 27.888 27.822 27.772 28.599 27.791 27.634 27.595 27.504 27.44 27.439 27.362 27.508 27.692 27.343 27.286 27.656 27.31 27.324 27.385 28.284 28.749 28.845 29.335 27.869 27.244 25.955 24.959 25.033 25.015 25.002 24.714 24.685 24.604 24.609 24.587 24.495 24.463 24.439 24.404 24.391 24.358 24.346 24.278 24.276 24.228 24.206 24.248 32.164 36.422 37.097 36.911 36.79 36.562 34.805 31.708 28.99 29.027 28.846 30.11 34.921 35.004 34.368 33.918 33.264 34.784 35.198 34.777 34.115 33.509 34.733 35.569 34.911 34.333 33.922 33.339 35.44 35.226 34.724 33.965 33.573 34.677 35.566 35.015 34.372 33.934 33.231 35.39 35.202 34.597 34.127 33.446 33.166 35.136 34.907 34.483 33.798 33.384 34.897 35.325 34.649 34.059 33.552 35.206 35.605 34.865 34.572 33.821 33.397 31.983 29.432 29.441 29.644 29.84 30.057 30.412 30.172 29.885 29.478 29.233 28.928 25.23 24.057 24.141 24.183 24.239 24.213 24.199 29.288 30.592 31.04 31.351 31.551 31.68 31.509 31.242 31.012 30.663 24.324 23.993 24.009 24.037 24.054 24.086 24.102 30.521 32.165 26.382 24.074 24.072 24.061 23.974 23.941 23.924 23.893 23.866 23.915 25.273 24.976 26.886 29.735 30.2 30.462 30.821 30.575 30.129 29.039 23.687 23.51 23.555 23.563 23.492 23.467 23.299 23.24 23.197 23.191 23.249 23.277 23.262 23.257 23.205 23.127 23.159 23.255 23.303 25.452 23.387 23.307 23.291 23.375 23.177 23.128 23.151 22.962 22.947 22.92 22.875 22.811 22.777 22.853 22.991 24.93 26.409 25.521 24.985 23.489 22.888 22.859 22.187 22.703 22.717 21.995 21.778 21.711 21.623 21.534 21.417 21.305 21.193 21.142 21.05 20.849 20.638 20.353 20.142 20.106 19.853 19.969 19.879 -9999 -9999 -9999 -9999 -9999 -9999 -9999 -9999 -9999 -9999 -9999 -9999 -9999 -9999 -9999 -9999 -9999 -9999 -9999 -9999 -9999 -9999 -9999 -9999 -9999 -9999 -9999 -9999 -9999 -9999 -9999 -9999 -9999 -9999 -9999 -9999 -9999 -9999 -9999 -9999 -9999 -9999 -9999 -9999 -9999 -9999 -9999 -9999 -9999 -9999 -9999 -9999 -9999 -9999 -9999 -9999 -9999 -9999 -9999 -9999 -9999 -9999 -9999 -9999 -9999 -9999 19.54 19.552 20.225 20.27 20.351 21.115 21.538 21.722 22.041 22.484 23.363 23.995 24.956 24.645 24.334 24.052 21.719 20.961 20.988 21.048 21.05 21.07 21.095 20.906 20.892 20.827 20.876 20.864 20.825 20.871 20.824 20.85 20.776 20.756 20.705 20.74 20.707 20.716 20.705 20.706 20.708 20.736 20.699 20.744 20.684 20.697 20.727 20.651 20.68 20.67 20.675 20.647 22.437 24.694 24.894 25.312 22.842 21.547 20.724 21.516 22.093 22.228 20.905 24.798 23.653 21.355 22.792 21.853 21.134 21.171 21.202 24.275 25.287 25.528 25.252 26.34 22.226 25.804 26.164 22.162 25.453 31.212 31.587 31.384 21.531 21.128 21.183 21.207 21.1 21.107 21.04 21.113 23.22 21.006 20.95 21.295 21.54 21.772
35.235 30.314 30.336 30.18 30.154 30.158 30.116 30.12 30.049 29.992 29.954 29.835 29.795 29.717 29.563 29.515 29.453 29.355 29.32 29.23 29.202 29.123 29.094 29.149 29.272 34.698 35.094 35.48 35.812 36.194 36.437 31.828 28.618 28.18 28.188 28.175 28.35 28.087 28.043 28.028 27.945 27.906 27.85 27.807 27.856 27.873 27.681 27.69 27.53 27.495 27.592 27.403 27.606 27.446 27.441 27.397 27.346 27.328 27.364 27.468 28.513 28.532 31.103 31.432 27.852 26.541 24.919 24.825 24.809 24.805 24.87 25.186 24.843 24.59 24.551 24.477 24.461 24.429 24.411 24.393 24.364 24.329 24.318 24.346 24.269 24.217 24.209 25.856 36.447 37.483 37.264 37.079 36.9 36.798 36.565 35.173 29.17 28.185 25.87 35.753 34.892 34.409 33.797 33.331 34.873 35.149 34.681 34.077 33.524 35.08 35.582 34.937 34.354 33.849 33.375 35.608 35.12 34.684 34.02 33.539 33.13 35.427 34.905 34.372 33.776 33.25 34.765 35.207 34.683 34.158 33.531 34.632 35.528 34.897 34.471 33.694 33.96 35.728 35.233 34.7 33.883 33.665 34.633 35.484 35.027 34.341 33.861 33.205 35.643 35.181 33.533 29.42 29.484 29.663 29.862 30.112 30.315 30.136 29.848 29.579 29.229 28.412 24.254 24.081 24.148 24.18 24.185 24.203 24.106 26.709 30.801 31.042 31.28 31.556 31.655 31.534 31.262 31.054 26.88 28.497 24.085 24.068 24.064 24.08 24.069 24.293 26.256 24.109 24.099 24.097 24.094 24.03 23.965 23.942 23.884 23.876 25.395 25.44 24.849 25.887 26.962 29.831 30.288 30.663 30.778 30.513 29.183 26.467 23.778 23.567 23.665 23.549 23.406 23.448 23.442 23.195 23.17 23.249 23.298 23.322 23.303 23.242 23.19 23.129 23.12 23.231 23.314 23.406 23.363 23.515 23.284 23.268 23.262 23.102 22.977 22.901 22.831 22.796 22.776 22.763 22.759 24.376 24.16 26.481 25.609 23.96 22.92 23.882 23.103 22.303 22.042 21.96 21.916 21.778 21.701 21.579 21.43 21.393 21.309 21.214 21.104 20.981 20.811 20.617 20.383 20.104 20.039 19.91 19.799 19.9 -9999 -9999 -9999 -9999 -9999 -9999 -9999 -9999 -9999 -9999 -9999 -9999 -9999 -9999 -9999 -9999 -9999 -9999 -9999 -9999 -9999 -9999 -9999 -9999 -9999 -9999 -9999 -9999 -9999 -9999 -9999 -9999 -9999 -9999 -9999 -9999 -9999 -9999 -9999 -9999 -9999 -9999 -9999 -9999 -9999 -9999 -9999 -9999 -9999 -9999 -9999 -9999 -9999 -9999 -9999 -9999 -9999 -9999 -9999 -9999 -9999 -9999 -9999 -9999 -9999 -9999 -9999 19.561 19.819 20.508 20.459 20.557 20.901 21.721 22.082 21.953 22.206 22.745 23.588 24.176 24.265 23.583 23.293 21.463 21.19 21.529 21.183 21.045 21.194 21.381 21.541 21.505 21.543 21.611 20.901 20.874 20.88 20.785 20.79 20.791 20.755 20.768 20.764 20.785 20.763 20.796 20.807 20.706 20.812 20.85 20.802 20.632 20.669 20.637 20.674 20.616 20.656 20.777 23.872 24.178 22.11 21.221 20.728 20.743 20.728 20.9 21.271 21.067 20.876 24.609 24.101 21.178 22.853 22.546 23.399 23.063 22.048 23.046 24.062 22.993 23.285 21.767 21.263 21.171 21.254 21.234 21.176 23.488 26.143 22.285 21.207 21.187 21.143 21.06 21.104 21.107 21.06 21.018 23.485 21.778 22.837 21.95 20.963 26.462
34.202 35.491 36.935 30.493 30.235 30.067 30.043 30.044 30.028 29.961 29.892 29.918 29.812 29.741 29.562 29.497 29.43 29.385 29.306 29.258 29.166 29.098 29.133 29.112 29.197 33.745 35.056 35.436 35.687 36.135 36.494 32.454 29.688 28.269 28.178 28.248 28.374 28.066 28.077 28.013 27.972 27.929 27.876 27.785 27.805 27.827 28.789 28.721 27.95 27.966 27.801 27.713 28.087 27.491 27.46 27.411 27.425 27.387 27.466 28.092 28.052 27.346 27.705 26.734 25.097 24.826 24.806 24.869 24.945 24.796 25.201 24.731 24.58 24.53 24.502 24.434 24.421 24.383 24.368 24.315 24.316 24.326 24.334 25.619 24.726 24.243 25.88 36.755 37.841 37.617 37.487 37.266 37.167 36.94 36.775 36.641 36.071 31.796 36.01 35.02 34.474 33.898 33.438 35.492 35.268 34.645 34.094 33.567 34.638 35.525 34.966 34.285 33.818 33.223 35.795 35.301 34.59 34.144 33.398 34.68 35.411 34.896 34.335 33.78 33.232 35.394 35.241 34.611 34.021 33.758 34.182 35.54 34.862 34.297 33.751 33.467 35.256 35.108 34.718 34.072 33.423 33.631 35.294 34.972 34.298 33.705 33.149 34.394 35.191 34.696 34.017 32.293 30.093 29.517 29.725 29.833 29.992 30.213 30.185 29.824 29.535 29.229 25.656 24.902 24.108 24.123 24.156 24.199 24.173 24.115 28.478 30.588 31.055 31.244 31.556 31.723 31.514 31.231 30.981 29.031 25.277 24.033 24.103 24.1 24.046 24.087 24.126 24.131 24.111 24.093 24.073 24.062 24.028 23.956 23.933 24.963 25.622 24.539 24.668 24.586 25.754 25.328 29.706 30.248 30.658 30.847 30.498 30.132 26.431 23.444 23.577 23.538 23.462 23.507 23.4 23.222 23.143 23.149 23.173 23.247 23.243 23.28 23.245 23.154 23.094 23.133 23.234 23.399 24.863 27.164 24.377 23.378 23.347 23.266 22.976 22.879 22.794 22.764 22.722 22.719 22.723 22.717 22.795 24.848 24.688 26.277 24.597 22.639 24.526 23.854 22.216 22 21.884 21.81 21.691 21.563 21.449 21.414 21.272 21.163 21.154 21.019 20.806 20.661 20.374 20.229 20.153 20.117 20.081 19.996 19.972 -9999 -9999 -9999 -9999 -9999 -9999 -9999 -9999 -9999 -9999 -9999 -9999 -9999 -9999 -9999 -9999 -9999 -9999 -9999 -9999 -9999 -9999 -9999 -9999 -9999 -9999 -9999 -9999 -9999 -9999 -9999 -9999 -9999 -9999 -9999 -9999 -9999 -9999 -9999 -9999 -9999 -9999 -9999 -9999 -9999 -9999 -9999 -9999 -9999 -9999 -9999 -9999 -9999 -9999 -9999 -9999 -9999 -9999 -9999 -9999 -9999 -9999 -9999 -9999 -9999 -9999 -9999 20.167 19.852 20.458 20.272 20.433 21.759 21.992 21.855 21.949 21.97 21.848 22.556 22.689 22.381 22.304 22.356 22.65 22.641 22.117 21.248 21.384 21.838 21.77 21.757 21.697 21.717 21.714 21.546 21.345 21.199 20.846 20.856 20.803 20.812 20.842 20.661 20.722 20.716 23.195 21.84 20.893 20.745 20.863 20.728 21.103 20.644 20.73 20.614 20.698 20.738 20.781 20.857 20.933 21.051 20.948 22.219 21.097 21.307 21.579 21.259 21.342 23.216 24.782 21.746 21.257 22.408 22.945 21.818 23.079 23.859 21.773 21.287 21.212 21.235 21.291 21.367 23.349 22.94 21.305 21.287 21.277 21.203 21.19 21.118 21.118 21.092 21.041 21.074 21.066 21.054 22.844 22.509 23.469 22.099 27.038 30.404
33.741 32.37 36.931 36.938 37.496 31.991 32.939 34.485 34.495 31.108 31.173 31.821 31.866 31.58 29.56 29.453 29.4 29.303 29.293 29.175 29.115 29.12 29.067 29.121 29.333 33.647 34.981 35.353 35.704 36.04 36.405 32.717 28.581 28.28 28.207 28.189 28.102 28.135 28.136 27.997 27.995 27.929 27.925 27.842 27.806 27.797 28.203 28.375 27.767 27.724 28.407 27.523 27.748 27.514 27.486 27.443 27.403 27.695 29.937 28.211 28.022 27.706 26.71 25.028 25.029 24.838 24.722 24.991 24.998 24.91 24.989 24.581 24.514 24.497 24.457 24.439 24.371 24.326 24.323 24.302 24.301 24.312 24.277 24.287 24.364 24.95 36.73 38.082 37.956 37.784 37.585 37.424 37.3 37.078 36.981 36.791 36.774 38.401 34.942 34.323 33.79 34.787 35.812 35.145 34.58 34.048 33.468 33.047 35.494 34.985 34.334 33.726 33.266 34.936 35.254 34.759 33.98 33.514 34.626 35.574 34.803 34.336 33.714 34.595 35.785 35.068 34.734 33.991 33.494 34.627 35.412 34.901 34.32 33.695 33.142 35.659 35.231 34.531 34.066 33.327 34.482 35.309 34.831 34.348 33.746 33.378 35.352 35.102 34.571 34.018 33.363 34.471 33.549 29.536 29.478 29.678 29.862 30.027 30.2 30.177 29.864 29.53 29.161 26.308 24.082 24.12 24.279 24.149 24.141 24.159 24.066 26.813 30.764 31.011 31.339 31.59 31.733 31.479 31.255 30.995 29.978 24.672 24.049 24.115 24.067 24.117 24.125 24.141 24.081 24.071 24.124 24.07 24.066 24.055 25.031 25.654 24.541 24.129 24.042 24.062 24.046 23.73 24.785 29.647 30.182 30.659 30.757 30.455 29.926 27.89 23.69 23.633 23.734 23.525 23.492 23.385 23.18 23.155 23.151 23.186 23.229 23.292 23.26 23.26 23.173 23.099 23.161 23.298 24.674 27.595 23.941 23.671 23.608 23.17 22.975 22.943 22.873 22.83 22.769 22.744 22.716 22.689 23.198 24.221 24.833 25.804 24.279 22.764 23.71 22.895 22.26 22.121 21.932 21.87 21.76 21.664 21.526 21.403 21.241 21.157 21.029 20.996 20.923 20.735 20.507 20.294 20.225 20.255 20.125 20.083 20.043 20.092 20.19 -9999 -9999 -9999 -9999 -9999 -9999 -9999 -9999 -9999 -9999 -9999 -9999 -9999 -9999 -9999 -9999 -9999 -9999 -9999 -9999 -9999 -9999 -9999 -9999 -9999 -9999 -9999 -9999 -9999 -9999 -9999 -9999 -9999 -9999 -9999 -9999 -9999 -9999 -9999 -9999 -9999 -9999 -9999 -9999 -9999 -9999 -9999 -9999 -9999 -9999 -9999 -9999 -9999 -9999 -9999 -9999 -9999 -9999 -9999 -9999 -9999 -9999 -9999 -9999 19.653 19.568 19.557 19.717 20.631 20.944 21.676 22.023 22.024 22.085 21.935 21.845 21.826 22.158 22.175 23.138 24.382 24.094 22.488 22.409 22.552 22.676 23.228 23.084 22.782 22.34 22.712 22.09 21.671 21.327 21.068 21.312 21.5 21.44 21.201 20.888 20.63 20.792 23.822 25.266 26.396 21.615 21.159 20.963 22.146 21.679 21.174 20.754 20.612 20.692 20.832 20.789 21.173 23.287 21.596 22.796 22.628 22.326 22.145 22.235 21.048 22.449 21.229 24.75 21.294 21.383 21.527 21.324 21.303 21.33 21.497 21.273 21.286 21.259 21.308 21.333 21.304 21.676 22.586 22.963 22.564 21.288 21.293 21.187 21.162 21.154 21.14 21.075 21.102 21.048 20.981 21.018 23.047 22.309 28.107 31.181 31.575
30.924 31.623 33.696 35.651 35.001 37.13 35.682 36.446 37.384 35.33 29.933 30.565 31.718 30.669 29.928 29.448 29.421 29.347 29.226 29.208 29.126 29.129 29.073 29.149 31.497 34.564 34.989 35.373 35.723 36.038 36.381 36.557 28.508 29.149 28.298 28.206 28.167 28.16 29.363 28.07 28.004 27.922 27.922 27.898 27.874 27.758 27.73 27.697 27.528 27.481 27.5 27.46 27.466 27.516 27.486 27.535 27.62 27.619 27.679 27.878 27.677 27.344 25.103 24.921 24.96 24.735 24.711 24.995 26.462 25.629 24.909 24.518 24.5 24.442 24.432 24.382 24.355 24.341 24.288 24.292 24.256 24.271 24.26 24.209 34.799 43.238 39.968 38.312 38.124 37.978 37.807 37.587 37.406 37.232 37.082 36.95 36.743 37.066 34.506 33.89 33.208 34.804 35.184 34.688 34.153 33.439 34.535 35.204 34.89 34.401 33.772 33.402 35.395 35.164 34.675 34.115 33.483 34.659 35.6 34.901 34.308 33.758 33.321 35.488 35.196 34.728 34.03 33.398 33.045 35.347 34.778 34.311 33.692 33.212 35.354 35.163 34.526 34 33.407 35.369 35.553 34.742 34.332 33.63 34.697 35.705 35.085 34.581 33.873 33.438 35.059 35.448 34.885 31.753 29.47 29.531 29.689 29.824 30.004 30.206 30.12 29.848 29.478 29.108 27.54 24.086 24.102 24.156 24.163 24.169 24.095 24.048 26.087 30.721 31.052 31.399 31.504 31.654 31.512 31.275 30.985 27.635 24.274 24.088 24.114 24.098 24.09 24.1 24.049 24.02 24.08 24.052 24.108 24.637 25.251 24.449 24.262 24.248 24.049 24.003 24.186 24.095 23.678 27.726 29.864 30.281 30.753 30.917 30.443 30.06 28.352 23.692 23.606 25.748 23.609 23.437 23.239 23.154 23.111 23.166 23.187 23.268 23.248 23.312 23.231 23.212 23.103 23.215 23.41 24.132 23.438 23.501 23.241 23.004 22.98 22.932 22.91 22.849 22.83 22.771 22.77 22.703 22.691 22.7 22.79 23.022 23.865 22.697 22.932 22.513 22.261 22.161 22.011 21.94 21.821 21.765 21.652 21.52 21.352 21.255 21.154 21.094 21.01 20.765 20.561 20.454 20.233 20.308 20.127 20.038 20.123 20.212 20.249 -9999 -9999 -9999 -9999 -9999 -9999 -9999 -9999 -9999 -9999 -9999 -9999 -9999 -9999 -9999 -9999 -9999 -9999 -9999 -9999 -9999 -9999 -9999 -9999 -9999 -9999 -9999 -9999 -9999 -9999 -9999 -9999 -9999 -9999 -9999 -9999 -9999 -9999 -9999 -9999 -9999 -9999 -9999 -9999 -9999 -9999 -9999 -9999 -9999 -9999 -9999 -9999 -9999 -9999 -9999 -9999 -9999 -9999 -9999 -9999 -9999 -9999 -9999 -9999 19.538 19.536 19.536 20.231 20.397 21.195 21.585 21.946 22.18 22.007 21.792 21.794 21.893 22.332 22.204 22.651 23.647 23.961 22.406 23.228 23.99 23.254 22.802 22.669 22.259 22.402 23.023 22.859 22.471 22.042 21.511 22.185 22.44 21.914 21.469 20.99 20.821 21.475 25.303 25.211 26.982 24.375 23.235 22.573 22.842 22.73 23.202 24.729 21.859 20.8 20.95 21.089 22.805 24.656 26.851 30.368 25.127 28.96 24.738 23.623 23.702 23.913 22.796 22.166 25.843 24.478 21.332 21.32 21.302 21.308 21.29 21.308 21.29 21.259 21.309 21.357 21.324 21.348 21.302 21.844 21.522 21.334 21.262 21.211 21.21 21.228 21.199 21.158 21.115 21.12 21.119 21.085 21.069 23.497 25.013 31.062 31.472
