ncols 442
nrows 32
xllcorner    432108
yllcorner    433438
cellsize     2
NODATA_value -9999
75.958 75.862 74.684 67.363 66.734 66.217 66.721 66.14 65.904 65.851 65.783 65.926 66.108 66.381 71.114 73.758 75.248 75.991 75.345 75.206 68.13 66.429 66.939 65.791 65.707 65.814 65.844 66.198 65.926 66.002 67.292 72.307 75.001 75.663 75.438 75.28 73.794 67.057 66.042 65.884 65.637 65.685 65.689 65.665 65.569 65.564 65.694 68.842 69.829 69.841 69.871 69.847 69.866 69.81 69.784 69.597 68.819 67.996 68.397 65.687 65.638 65.568 65.623 65.574 65.63 65.7 65.707 65.826 66.798 66.543 65.739 65.807 66.663 66.011 66.254 68.945 71.665 74.86 74.977 76.082 76.675 76.532 77.086 76.36 75.705 75.169 74.295 69.802 69.583 66.677 65.955 66.704 67.263 66.4 65.878 65.806 65.754 65.853 65.919 65.869 65.82 65.881 65.887 66.974 65.845 65.852 66.356 66.075 65.657 65.799 65.648 65.59 65.627 66.792 66.725 66.064 65.719 71.058 72.094 72.771 71.841 70.12 66.196 65.201 65.392 65.609 65.65 68.497 74.182 67.004 66.028 65.432 66.513 65.375 65.306 64.887 65.892 69.271 68.968 68.893 68.691 67.371 64.847 64.528 64.599 65.169 64.673 64.519 64.378 64.268 64.287 64.652 65.414 65.467 65.732 65.008 64.307 63.948 63.876 63.799 63.853 63.824 63.843 63.838 64.032 63.989 64.111 64.102 64.151 64.117 65.02 65.711 64.726 63.52 63.409 63.475 63.717 63.305 63.169 63.176 63.151 63.018 63.264 -9999 -9999 63.483 63.291 63.051 63.576 63.999 63.846 63.87 64.789 63.204 62.83 62.734 64.222 67.748 69.485 67.507 64.562 62.844 62.658 62.589 62.307 62.082 62.173 63.205 63.639 63.51 -9999 61.839 61.764 61.641 61.577 61.563 61.755 62.02 62.294 62.266 62.052 61.888 61.936 61.833 62.509 63.868 64.803 66.541 68.947 66.269 62.521 61.666 61.563 61.645 62 61.962 62.504 63.193 65.331 65.923 -9999 -9999 -9999 -9999 62.046 61.559 61.341 62.383 -9999 -9999 -9999 -9999 64.773 63.274 61.925 61.585 61.506 61.516 61.547 61.574 61.606 61.515 61.505 61.67 62.093 62.272 62.44 62.738 62.183 61.771 61.843 62.558 63.045 64.188 65.928 65.929 63.636 62.491 62.28 62.831 63.251 63.196 62.678 62.764 62.788 62.891 62.951 63.057 63.735 64.786 64.936 64.992 65.171 -9999 -9999 -9999 -9999 63.568 63.584 63.647 63.821 63.832 63.678 63.615 63.576 63.515 63.581 63.641 63.775 63.829 63.701 63.752 63.816 64.307 64.742 64.885 64.491 64.105 63.852 63.983 64 63.623 63.923 64.038 64.07 64.079 64.243 64.486 65.666 66.876 65.695 65.452 65.312 64.737 64.793 65.879 65.46 64.996 64.955 65.01 65.682 65.891 65.78 -9999 -9999 -9999 -9999 -9999 -9999 -9999 -9999 -9999 -9999 -9999 -9999 -9999 -9999 -9999 -9999 -9999 -9999 -9999 -9999 -9999 -9999 -9999 -9999 -9999 -9999 -9999 -9999 -9999 -9999 -9999 -9999 -9999 -9999 -9999 -9999 -9999 -9999 -9999 -9999 -9999 -9999 -9999 -9999 -9999 -9999 -9999 -9999 -9999 -9999 -9999 -9999 -9999 -9999 -9999 -9999 -9999 -9999 -9999 -9999 -9999 -9999 -9999 -9999 -9999 -9999 -9999 -9999 -9999 -9999 -9999 -9999 -9999 -9999 -9999 -9999 -9999 -9999 -9999 -9999 -9999 -9999 -9999 -9999 -9999 -9999 -9999 -9999 -9999 -9999 -9999 -9999 -9999 -9999 -9999 -9999 66.015 65.533 65.511
75.971 76.535 75.799 69.564 66.311 66.723 66.02 65.816 65.819 65.792 65.736 65.694 65.816 66.504 66.231 72.408 75.248 75.543 75.248 74.255 70.801 66.432 66.221 65.811 65.605 65.666 65.665 66.534 65.873 65.948 66.295 67.643 74.709 75.158 75.675 74.93 73.841 69.34 66.095 66.238 65.605 65.575 65.576 65.606 65.515 65.485 65.662 66.914 69.688 69.865 69.819 69.796 69.782 69.766 69.888 69.242 68.767 66.845 67.941 65.483 65.509 65.53 65.568 65.572 65.633 66.223 65.963 65.935 65.826 65.906 65.794 65.95 65.801 66.324 69.635 73.555 74.274 75.018 75.162 76.025 76.858 76.302 75.68 74.878 72.069 71.723 67.004 67.14 66.204 66.9 67.354 66.616 66.175 65.734 65.683 65.78 65.789 65.787 65.785 65.811 65.792 65.761 65.855 66.938 66.271 66.161 66.075 66.838 65.617 65.595 65.591 65.508 65.457 65.565 65.527 65.471 65.708 69.233 71.739 73.552 72.364 71.252 68.869 65.184 65.169 65.245 65.227 70.774 74.427 70.847 65.413 65.217 64.771 66.068 64.825 65.414 65.73 70.156 70.2 70.048 69.215 69.445 66.755 64.624 64.53 64.725 65.594 64.587 64.376 64.234 64.196 64.265 64.587 64.833 64.798 64.379 63.982 63.941 63.881 63.889 63.901 63.853 63.987 64.221 64.698 64.927 64.758 64.535 64.291 63.866 64.102 64.948 64.232 63.579 63.381 63.717 65.171 64.943 63.702 63.157 63.14 63.016 63.691 64.393 64.352 63.611 63.231 63.09 63.517 -9999 64.459 64.851 65.069 64.427 63.22 62.594 63.291 66.355 69.036 69.182 68.586 63.162 62.769 62.893 62.309 62.091 62.824 64.537 64.186 63.919 -9999 61.893 61.766 61.73 61.572 61.532 61.716 62.025 62.353 62.323 62.322 62.264 61.818 61.556 61.628 62.12 63.232 66.694 70.578 68.627 64.188 61.99 61.496 61.47 61.6 61.757 61.64 62.935 67.807 67.39 65.599 -9999 -9999 -9999 -9999 -9999 -9999 -9999 -9999 -9999 -9999 67.762 66.789 63.55 61.864 61.779 61.394 61.358 61.503 61.496 61.62 61.577 61.518 61.579 61.911 62.244 62.343 62.367 62.566 61.892 61.906 62.815 63.096 64.23 67.459 68.94 65.422 63.023 62.018 62.271 62.573 62.858 62.956 63.161 63.51 63.213 63.08 63.395 64.48 64.794 64.937 65.037 -9999 -9999 -9999 -9999 63.757 63.561 63.468 63.566 63.801 64.054 63.713 63.571 63.687 63.626 63.67 63.931 63.786 64.004 63.753 63.805 -9999 64.262 64.284 64.101 63.899 63.777 63.657 63.823 64.833 64.033 63.882 64.009 64.137 64.474 64.663 64.456 64.65 66.011 66.846 65.802 65.198 64.605 64.676 65.438 65.312 65.055 64.906 65.161 65.58 65.989 65.806 -9999 -9999 -9999 -9999 -9999 -9999 -9999 -9999 -9999 -9999 -9999 -9999 -9999 -9999 -9999 -9999 -9999 -9999 -9999 -9999 -9999 -9999 -9999 -9999 -9999 -9999 -9999 -9999 -9999 -9999 -9999 -9999 -9999 -9999 -9999 -9999 -9999 -9999 -9999 -9999 -9999 -9999 -9999 -9999 -9999 -9999 -9999 -9999 -9999 -9999 -9999 -9999 -9999 -9999 -9999 -9999 -9999 -9999 -9999 -9999 -9999 -9999 -9999 -9999 -9999 -9999 -9999 -9999 -9999 -9999 -9999 -9999 -9999 -9999 -9999 -9999 -9999 -9999 -9999 -9999 -9999 -9999 -9999 -9999 -9999 -9999 -9999 -9999 -9999 -9999 -9999 -9999 -9999 -9999 -9999 -9999 -9999 65.42 65.136
75.836 75.851 75.725 73.706 66.642 66.958 65.91 65.648 65.674 65.681 65.693 65.611 65.666 65.879 66.234 67.606 74.487 74.783 75.501 74.9 74.109 69.03 65.982 66.573 65.583 65.55 65.569 65.993 65.53 66.135 66.121 66.137 73.397 75.06 75.698 76.279 74.93 72.244 66.914 65.76 65.556 65.474 65.482 65.522 65.485 65.447 65.61 66.69 68.379 69.808 69.755 69.737 69.53 67.322 67.682 66.269 66.753 65.807 65.465 65.524 65.5 65.573 65.627 65.943 66.322 66.415 65.736 65.678 65.712 65.859 66.399 67.687 73.555 73.537 74.235 75.259 75.079 75.698 75.681 75.193 75.302 74.934 73.132 70.856 66.674 65.891 66.177 67.391 66.886 66.921 66.167 65.679 65.67 65.71 65.767 65.772 65.744 65.709 65.687 65.662 65.797 66.716 66.456 66.569 65.972 65.97 68.663 71.037 71.08 65.533 65.494 65.473 65.34 65.356 65.504 65.482 65.639 68.979 71.46 72.107 72.198 71.464 70.337 66.064 65.223 66.084 65.957 65.693 68.646 67.356 65.204 65.197 64.448 65.927 65.219 64.915 69.187 71.821 71.39 71.218 70.918 64.853 64.498 64.64 65.998 66.955 66.988 64.737 64.4 64.244 64.208 64.181 64.213 64.246 64.218 64.114 63.966 63.909 63.933 63.959 63.931 64.005 64.39 64.453 65.001 65.362 65.307 64.573 64.788 64.382 63.767 64.022 65.168 63.88 63.451 64.84 67.523 67.22 64.731 63.291 63.138 63.131 64.232 65.675 64.674 63.875 63.494 63.263 -9999 -9999 64.635 64.879 64.902 64.7 63.33 62.679 62.827 65.191 68.832 68.36 67.921 64.214 64.836 64.146 62.672 62.056 62.157 63.484 63.99 63.782 -9999 62.57 62.01 61.71 61.571 61.474 61.743 62.456 62.275 62.106 62.216 62.12 61.773 61.498 61.524 62.022 62.796 65.273 67.869 67.987 -9999 63.339 61.43 61.251 61.138 61.394 61.479 62.441 65.517 66.034 -9999 -9999 -9999 -9999 -9999 -9999 -9999 -9999 -9999 -9999 68.899 69.117 69.16 66.591 63.332 62.313 61.485 61.121 61.338 61.265 61.488 61.565 61.547 61.646 62.093 62.323 62.338 62.248 62.17 61.758 61.741 61.996 62.489 63.077 65.441 66.958 64.73 62.794 62.031 62.069 62.139 62.257 63.031 63.368 63.673 63.706 63.413 63.454 63.634 64.287 -9999 -9999 -9999 -9999 -9999 63.875 63.79 63.646 63.435 63.523 63.706 63.858 63.856 64.129 63.951 63.879 63.9 64.084 63.739 63.896 63.887 -9999 63.961 63.893 63.743 63.701 63.945 63.957 63.824 63.912 64.135 64.31 64.135 64.089 64.2 64.553 64.953 64.433 64.422 64.56 65.073 66.963 67.776 66.053 64.812 65.069 66.078 65.903 65.184 64.95 65.338 65.653 -9999 -9999 -9999 -9999 -9999 -9999 -9999 -9999 -9999 -9999 -9999 -9999 -9999 -9999 -9999 -9999 -9999 -9999 -9999 -9999 -9999 -9999 -9999 -9999 -9999 -9999 -9999 -9999 -9999 -9999 -9999 -9999 -9999 -9999 -9999 -9999 -9999 -9999 -9999 -9999 -9999 -9999 -9999 -9999 -9999 -9999 -9999 -9999 -9999 -9999 -9999 -9999 -9999 -9999 -9999 -9999 -9999 -9999 -9999 -9999 -9999 -9999 -9999 -9999 -9999 -9999 -9999 -9999 -9999 -9999 -9999 -9999 -9999 -9999 -9999 -9999 -9999 -9999 -9999 -9999 -9999 -9999 -9999 -9999 -9999 -9999 -9999 -9999 -9999 -9999 -9999 -9999 -9999 -9999 -9999 -9999 -9999 -9999 -9999 65.232
75.64 75.97 75.704 74.785 68.391 66.197 65.906 65.72 65.528 65.561 65.558 65.554 65.549 65.702 65.892 65.968 71.149 75.005 75.152 75.132 74.586 72.838 67.267 66.03 65.637 65.426 65.463 65.469 65.458 65.535 66.706 65.959 69.157 74.29 74.954 75.498 75.366 73.907 66.077 66.289 65.916 65.427 65.372 65.439 65.444 65.327 65.369 65.447 66.125 69.531 67.655 68.342 67.356 65.91 65.44 65.357 65.307 65.309 65.452 65.547 65.474 65.588 66.778 67.281 65.716 65.653 65.543 65.76 65.65 65.843 71.864 74.271 74.909 75.02 75.198 75.769 75.315 76.359 75.221 74.336 73.386 70.017 66.088 66.386 66.281 66.919 65.909 65.895 65.579 65.55 65.626 65.625 65.705 65.768 65.886 66.309 65.699 65.605 65.777 65.69 66.093 65.903 68.286 66.724 70.551 73.021 73.677 74.161 74.763 66.103 65.385 65.357 65.289 65.211 66.136 66.455 69.308 69.503 70.87 70.946 71.083 70.796 68.335 66.76 66.574 66.187 65.37 64.929 64.87 65.209 64.826 64.612 64.393 64.893 65.316 64.893 71.007 71.758 72.876 72.286 67.661 64.651 64.633 64.476 65.159 71.245 67.548 64.571 64.363 64.252 64.181 64.208 64.19 64.107 64.126 64.085 64.08 64.077 64.041 64.064 64.215 64.144 64.408 64.169 64.793 65.444 64.525 63.715 64.325 64.263 63.64 63.772 64.227 63.486 63.334 64.653 68.386 68.601 -9999 64.14 63.301 63.372 63.741 64.738 64.159 63.677 63.469 63.339 -9999 -9999 63.815 -9999 -9999 -9999 63.142 62.54 62.56 63.235 64.402 65.749 -9999 65.321 64.915 64.117 62.909 62.149 61.921 62.335 62.24 62.835 63.805 -9999 63.127 62.081 61.617 61.64 61.734 61.798 61.714 61.683 61.882 -9999 61.58 61.463 61.483 62.228 63.971 64.427 68.418 67.922 66.341 -9999 -9999 61.252 61.204 61.255 61.397 61.635 62.764 -9999 -9999 -9999 -9999 -9999 -9999 -9999 -9999 -9999 -9999 65.669 67.699 69.092 69.506 68.466 65.167 62.591 61.869 61.383 61.262 61.246 61.275 61.484 -9999 62.291 62.181 62.287 62.356 -9999 62.041 62.055 61.847 62.153 62.451 62.235 62.746 62.78 62.679 61.897 61.994 62.049 62.113 63.199 64.191 63.884 63.697 63.526 63.478 63.481 63.612 -9999 -9999 -9999 -9999 -9999 64.031 64.056 63.88 63.645 63.623 63.653 63.662 63.941 64.197 64.389 64.243 64.497 64.349 63.981 63.842 64.058 64.103 64.194 64.146 63.86 63.739 63.796 64.227 64.354 64.073 64.323 64.721 64.651 64.246 64.143 64.145 64.156 64.13 64.343 64.445 64.528 64.609 65.351 66.519 65.583 65.548 65.478 67.339 67.233 66.039 65.31 65.312 -9999 -9999 -9999 -9999 -9999 -9999 -9999 -9999 -9999 -9999 -9999 -9999 -9999 -9999 -9999 -9999 -9999 -9999 -9999 -9999 -9999 -9999 -9999 -9999 -9999 -9999 -9999 -9999 -9999 -9999 -9999 -9999 -9999 -9999 -9999 -9999 -9999 -9999 -9999 -9999 -9999 -9999 -9999 -9999 -9999 -9999 -9999 -9999 -9999 -9999 -9999 -9999 -9999 -9999 -9999 -9999 -9999 -9999 -9999 -9999 -9999 -9999 -9999 -9999 -9999 -9999 -9999 -9999 -9999 -9999 -9999 -9999 -9999 -9999 -9999 -9999 -9999 -9999 -9999 -9999 -9999 -9999 -9999 -9999 -9999 -9999 -9999 -9999 -9999 -9999 -9999 -9999 -9999 -9999 -9999 -9999 -9999 -9999 -9999 -9999 -9999
75.58 75.623 75.392 74.907 74.95 67.038 66.036 65.792 65.447 65.497 65.531 65.502 65.437 65.528 65.919 66.241 67.53 74.875 75.005 76.551 75.577 75.172 70.29 65.824 65.686 65.414 65.427 65.416 65.399 65.36 65.443 65.862 65.902 72.341 74.701 75.366 75.376 74.203 71.422 66.61 65.623 65.45 65.329 65.323 65.353 65.3 65.305 65.256 65.333 66.631 66.026 66.746 65.974 65.441 65.183 65.258 65.327 65.361 65.337 65.498 65.445 65.384 65.639 66.075 65.74 65.903 65.738 65.625 71.385 71.359 74.111 74.673 75.007 75.526 75.298 75.423 75.111 74.773 72.645 70.031 66.175 65.949 65.724 65.748 66.167 66.086 65.489 65.547 65.567 65.578 65.66 65.682 65.631 65.58 65.912 65.993 65.668 65.996 66.489 65.873 66.052 68.57 73.225 73.216 73.736 74.398 74.812 75.459 75.812 71.457 65.29 65.333 65.242 65.108 65.302 66.959 66.878 65.376 70.327 68.176 66.753 66.449 64.86 66.281 66.377 65.039 65.812 64.742 64.686 65.479 65.874 64.879 65.36 64.432 65.854 64.49 69.032 70.771 70.912 70.969 65.016 64.663 64.802 65.269 65.379 64.96 67.317 64.387 64.291 64.149 64.189 64.201 64.141 64.126 64.139 64.149 64.226 64.202 64.406 64.98 65.869 64.697 63.96 63.62 63.914 64.04 63.398 63.39 63.434 63.479 63.497 63.453 63.451 63.294 63.273 64.342 66.198 67.962 68.059 -9999 63.492 63.302 63.297 63.239 63.224 63.33 63.433 63.381 -9999 62.973 62.973 63.142 -9999 -9999 62.672 62.514 62.479 62.564 62.784 64.188 65.644 66.147 64.656 63.361 62.912 62.456 62.066 62.095 62.253 62.761 65.215 65.405 65.885 64.46 62.266 61.651 61.556 61.548 61.487 61.55 61.584 -9999 61.653 61.527 61.446 61.654 61.843 62.371 64.658 65.711 -9999 -9999 -9999 61.376 61.202 61.28 61.446 61.599 61.845 62.603 -9999 -9999 -9999 -9999 -9999 -9999 -9999 -9999 64.501 64.703 65.953 69.08 69.172 69.023 66.891 63.946 62.231 -9999 -9999 61.298 61.52 62.028 62.688 62.717 62.196 62.8 62.264 62.041 61.951 61.949 62.071 62.312 62.328 61.921 61.478 61.543 61.677 61.859 61.906 62.137 63.038 64.287 64.551 64.367 63.69 63.513 63.494 63.475 -9999 -9999 64.956 64.937 -9999 63.95 64.02 64.367 64.078 63.823 63.783 63.967 63.944 64.121 64.266 64.271 64.57 64.706 65.102 64.111 63.889 63.904 64.026 64.213 64.635 63.97 63.836 64.026 64.22 64.46 64.16 64.138 65.255 64.266 63.978 64.339 64.243 64.301 64.252 64.294 64.401 64.361 64.425 64.549 65.01 65.503 65.69 66.015 67.04 67.509 67.394 66.357 66.562 -9999 -9999 -9999 -9999 65.494 -9999 -9999 -9999 -9999 -9999 -9999 -9999 -9999 -9999 -9999 -9999 -9999 -9999 -9999 -9999 -9999 -9999 -9999 -9999 -9999 -9999 -9999 -9999 -9999 -9999 -9999 -9999 -9999 -9999 -9999 -9999 -9999 -9999 -9999 -9999 -9999 -9999 -9999 -9999 -9999 -9999 -9999 -9999 -9999 -9999 -9999 -9999 -9999 -9999 -9999 -9999 -9999 -9999 -9999 -9999 -9999 -9999 -9999 -9999 -9999 -9999 -9999 -9999 -9999 -9999 -9999 -9999 -9999 -9999 -9999 -9999 -9999 -9999 -9999 -9999 -9999 -9999 -9999 -9999 -9999 -9999 -9999 -9999 -9999 -9999 -9999 -9999 -9999 -9999 -9999 -9999 -9999 -9999 -9999 -9999 -9999
73.58 75.047 75.498 75.27 74.961 67.683 66.435 65.88 65.464 65.356 65.398 65.433 65.354 65.401 65.422 65.74 65.925 72.766 74.423 75.653 75.578 75.196 74.496 66.033 65.809 65.81 65.649 65.573 65.324 65.293 65.261 65.665 65.547 66.376 73.524 74.8 75.395 74.455 74.693 70.785 65.755 65.678 65.308 65.184 65.272 65.209 65.152 65.153 65.203 65.358 65.194 66.117 66.287 65.23 65.234 65.254 65.363 65.376 65.964 65.387 65.413 65.813 65.588 65.95 65.598 65.887 71.413 73.353 73.939 74.359 75.194 75.621 75.371 74.955 74.664 74.003 73.225 70.312 66.423 66.264 65.609 65.514 65.451 65.436 65.429 65.524 65.525 65.508 65.56 65.604 65.621 65.58 65.52 65.562 65.585 65.753 65.883 66.296 65.919 67.693 69.514 73.376 73.818 75.108 75.01 75.17 75.483 75.493 74.882 74.284 65.539 65.187 65.188 65.137 65.057 66.005 65.167 65.577 66.423 66.365 66.745 65.725 66.004 64.709 64.946 65.144 65.92 64.825 64.846 65.022 66.111 65.324 66.822 65.736 65.097 65.251 67.991 68.565 69.393 69.722 64.724 64.471 64.977 65.051 64.911 64.385 64.29 64.149 64.226 64.181 64.212 64.204 64.14 64.121 64.146 64.176 64.441 64.188 66.244 66.698 66.407 65.842 64.443 63.806 63.553 63.392 63.319 63.338 63.3 63.319 63.251 63.172 63.218 63.144 63.086 63.352 64.954 69.262 68.742 66.932 -9999 63.013 62.719 62.783 62.97 63.241 63.002 63.142 63.18 62.933 62.242 62.378 62.536 62.256 -9999 62.568 62.517 62.691 63.149 64.969 66.196 67.518 65.661 62.977 63.68 62.684 62.484 62.322 62.551 64.008 66.287 66.358 68.573 67.267 64.137 62.011 61.395 61.408 61.446 61.478 61.432 61.93 62.076 61.987 61.708 61.382 61.521 61.917 62.34 64.271 65.458 -9999 -9999 61.831 61.266 61.343 61.467 61.588 61.82 -9999 -9999 -9999 -9999 -9999 -9999 -9999 -9999 -9999 62.836 63.046 63.7 66.872 68.267 -9999 -9999 -9999 -9999 -9999 -9999 -9999 61.775 62.403 63.082 63.271 62.754 62.489 61.863 61.839 61.84 -9999 62.142 62.21 61.982 61.539 61.352 61.448 61.648 61.918 62.328 63.319 64.324 64.497 64.215 63.677 63.576 63.486 63.509 -9999 -9999 64.898 65.447 65.502 64.462 63.873 63.688 64.049 64.233 63.997 63.899 64.063 64.116 64.53 65.066 65.961 67.646 67.881 66.911 64.524 63.958 63.969 63.983 64.077 63.932 63.943 63.827 63.961 64.002 64.083 64.147 64.002 64.12 64.153 64.068 64.48 64.366 64.192 64.336 64.344 64.376 64.427 64.43 64.634 64.98 65.365 65.317 66.157 66.839 67.085 66.984 67.245 67.975 69.091 69.168 67.373 65.656 65.469 65.46 -9999 -9999 -9999 -9999 -9999 -9999 -9999 -9999 -9999 -9999 -9999 -9999 -9999 -9999 -9999 -9999 -9999 -9999 -9999 -9999 -9999 -9999 -9999 -9999 -9999 -9999 -9999 -9999 -9999 -9999 -9999 -9999 -9999 -9999 -9999 -9999 -9999 -9999 -9999 -9999 -9999 -9999 -9999 -9999 -9999 -9999 -9999 -9999 -9999 -9999 -9999 -9999 -9999 -9999 -9999 -9999 -9999 -9999 -9999 -9999 -9999 -9999 -9999 -9999 -9999 -9999 -9999 -9999 -9999 -9999 -9999 -9999 -9999 -9999 -9999 -9999 -9999 -9999 -9999 -9999 -9999 -9999 -9999 -9999 -9999 -9999 -9999 -9999 -9999 -9999 -9999 -9999 -9999 -9999 -9999
73.688 74.867 75.2 75.473 75.824 74.628 66.902 65.735 65.597 65.248 65.467 65.327 65.233 65.256 65.292 65.573 65.839 68.432 74.691 74.924 75.492 75.224 75.003 67.379 65.708 65.985 65.578 65.826 65.256 65.224 65.159 65.313 65.547 65.767 71.046 73.968 74.817 75.051 74.786 72.669 65.228 65.308 65.254 65.072 65.134 65.163 65.194 65.128 65.069 65.016 65.146 65.509 65.163 65.217 65.196 65.291 65.261 65.547 65.604 65.468 65.897 65.443 65.448 65.507 68.754 74.061 74.143 74.711 74.588 75.416 75.397 75.458 75.699 74.078 73.04 66.506 66.701 65.884 65.592 65.538 65.4 65.302 65.332 65.367 65.419 65.456 65.506 65.514 65.488 65.486 65.494 65.508 65.918 66.296 65.907 65.947 66 67.296 72.219 73.786 75.068 74.663 74.779 75.344 75.645 75.446 74.742 74.186 73.434 71.16 65.242 65.108 65.12 65.096 65.03 65.036 65.265 65.694 65.426 65.221 68.752 69.758 70.839 69.962 65.358 64.834 65.297 64.787 64.997 67.558 70.655 71.743 70.536 69.354 65.691 65.984 64.784 64.435 64.483 66.269 64.925 64.869 65.161 64.335 64.277 64.085 64.109 64.294 64.186 64.222 64.192 64.185 64.076 64.072 64.039 64.096 64.055 64.746 67.004 67.287 71.1 66.378 65.7 63.63 63.453 63.46 64.167 64.372 64.456 63.797 63.403 63.208 63.102 62.962 62.887 63.036 63.639 65.786 66.524 -9999 -9999 63.188 62.782 62.799 62.885 63.006 62.672 62.839 63.369 63.539 62.553 62.32 62.252 62.159 -9999 -9999 -9999 63.459 64.404 66.578 66.129 67.899 66.037 63.998 63.124 62.281 62.465 62.645 -9999 63.311 63.759 64.533 67.294 67.79 66.706 62.645 62.21 61.872 61.435 61.455 61.338 61.66 62.383 62.648 63.026 61.618 61.435 62.22 63.708 66.497 66.461 65.486 -9999 -9999 -9999 -9999 -9999 61.574 -9999 -9999 -9999 -9999 -9999 -9999 -9999 62.758 61.788 61.626 61.822 61.51 62.497 65.312 67.523 67.732 -9999 -9999 66.208 -9999 -9999 61.97 61.715 61.998 62.78 63.132 62.41 61.729 61.675 61.736 -9999 -9999 -9999 62.003 61.844 61.757 61.579 61.359 61.654 62.376 63.333 63.571 64.118 63.927 63.513 63.419 63.501 63.495 -9999 -9999 -9999 64.831 65.555 65.783 64.244 63.762 63.696 63.941 64.284 64.181 64.079 64.447 64.432 65.123 65.565 68.238 70.565 71.513 68.737 65.383 64.252 64.211 64.502 63.965 63.941 63.928 63.875 63.968 64.204 65.675 65.343 64.34 64.332 64.572 64.728 64.884 64.988 64.635 64.47 64.555 64.548 64.56 64.741 64.795 64.832 64.965 64.93 65.638 66.595 66.59 66.345 66.887 68.675 69.869 69.809 67.034 65.565 65.336 65.408 65.482 -9999 -9999 -9999 -9999 -9999 -9999 -9999 -9999 -9999 -9999 -9999 -9999 -9999 -9999 -9999 -9999 -9999 -9999 -9999 -9999 -9999 -9999 -9999 -9999 -9999 -9999 -9999 -9999 -9999 -9999 -9999 -9999 -9999 -9999 -9999 -9999 -9999 -9999 -9999 -9999 -9999 -9999 -9999 -9999 -9999 -9999 -9999 -9999 -9999 -9999 -9999 -9999 -9999 -9999 -9999 -9999 -9999 -9999 -9999 -9999 -9999 -9999 -9999 -9999 -9999 -9999 -9999 -9999 -9999 -9999 -9999 -9999 -9999 -9999 -9999 -9999 -9999 -9999 -9999 -9999 -9999 -9999 -9999 -9999 -9999 -9999 -9999 -9999 -9999 -9999 -9999 -9999 -9999 -9999
68.924 73.878 75.644 75.668 75.307 74.937 68.553 65.845 66.473 65.504 66.561 65.191 65.227 65.154 65.171 65.386 65.766 65.701 67.964 74.726 75.119 74.804 74.185 72.709 66.584 66.163 65.947 65.087 65.17 65.124 65.132 65.074 66.178 65.567 65.815 74.423 74.686 75.257 75.15 72.902 68.605 65.927 65.162 65.031 65.041 65.068 65.153 65.104 65.071 65.089 65.104 65.156 65.158 65.169 66.211 65.668 65.249 65.336 65.392 65.442 65.678 66.649 70.838 72.087 74.849 74.866 75.114 75.224 75.04 74.832 74.573 75.043 73.395 70.401 67.621 65.424 65.99 65.447 66.291 65.256 65.222 65.22 65.302 65.378 65.416 65.431 65.383 65.418 65.413 65.787 66.207 65.977 67.654 66.225 66.154 68.105 74.718 75.24 75.529 74.951 75.281 75.34 75.585 75.065 75.096 74.226 73.183 71.797 69.167 66.176 65.213 65.061 65.06 65.033 64.964 64.903 64.954 65.037 64.804 68.179 69.273 70.338 71.5 72.631 71.596 65.118 64.617 65.023 67.627 70.18 71.549 72.004 71.003 69.783 66.883 65.934 65.285 64.366 64.411 64.348 65.254 64.47 64.284 64.163 64.16 64.144 64.505 64.833 67.282 64.29 64.312 64.226 64.013 63.93 63.885 63.928 63.942 64.425 65.288 67.146 67.947 70.997 66.114 64.654 63.585 63.817 64.315 64.297 64.424 63.971 63.165 63.122 63.029 62.841 62.763 62.775 62.707 63.023 63.992 64.518 64.344 63.816 64.65 63.495 63.024 63.173 63.294 62.774 63.105 63.328 62.815 62.361 62.187 62.116 61.983 -9999 -9999 -9999 63.99 63.694 63.993 63.352 63.391 63.087 62.5 62.345 62.652 62.778 62.654 62.232 61.914 61.93 64.178 67.612 69.049 64.989 65.13 62.703 61.415 61.421 61.248 61.442 62.401 62.918 63.288 61.655 61.456 62.285 64.286 65.832 65.163 64.274 -9999 -9999 -9999 -9999 -9999 -9999 -9999 -9999 -9999 -9999 65.797 66.198 -9999 63.293 61.683 61.466 61.381 61.668 62.047 64.332 67.35 66.244 -9999 67.633 67.826 66.547 63.632 61.96 61.465 61.468 61.777 61.971 61.684 61.584 61.583 61.538 61.627 -9999 -9999 -9999 62.342 62.614 62.097 61.962 62.066 62.887 63.738 63.448 63.592 63.623 63.5 63.397 63.392 63.422 63.557 63.702 63.992 64.398 64.576 64.354 63.86 63.74 63.811 64.003 64.593 64.534 64.289 64.459 64.613 65.546 66.931 69.531 70.853 70.316 68.107 65.165 64.505 65.03 65.568 64.452 64.146 64.06 63.988 65.239 66.508 66.813 66.888 66.242 65.764 65.279 65.383 65.336 65.626 65.349 64.808 64.682 64.658 64.842 64.934 64.799 64.715 64.815 64.747 64.947 65.73 66.255 66.199 66.152 67.807 69.679 68.75 65.708 65.544 65.707 65.509 -9999 -9999 -9999 -9999 -9999 -9999 -9999 -9999 -9999 -9999 -9999 -9999 -9999 -9999 -9999 -9999 -9999 -9999 -9999 -9999 -9999 -9999 -9999 -9999 -9999 -9999 -9999 -9999 -9999 -9999 -9999 -9999 -9999 -9999 -9999 -9999 -9999 -9999 -9999 -9999 -9999 -9999 -9999 -9999 -9999 -9999 -9999 -9999 -9999 -9999 -9999 -9999 -9999 -9999 -9999 -9999 -9999 -9999 -9999 -9999 -9999 -9999 -9999 -9999 -9999 -9999 -9999 -9999 -9999 -9999 -9999 -9999 -9999 -9999 -9999 -9999 -9999 -9999 -9999 -9999 -9999 -9999 -9999 -9999 -9999 -9999 -9999 -9999 -9999 -9999 -9999 -9999 -9999 -9999 -9999
67.085 73.199 75.077 75.308 75.479 74.458 71.957 66.592 66.003 65.499 65.663 65.215 65.153 65.13 65.386 65.153 65.803 65.638 65.649 71.924 74.396 74.695 74.649 74.181 68.658 66.146 65.895 65.235 66.078 65.132 65.104 64.987 66.163 66.167 65.58 71.315 74.022 74.703 74.302 73.449 71.762 65.581 66.225 64.989 64.938 65.095 65.119 65.067 65.051 65.076 65.108 65.201 65.541 65.148 65.834 65.222 65.498 65.426 65.399 66.939 67.843 71.396 73.977 74.04 74.727 75.165 75.043 74.855 74.392 74.085 73.255 69.747 66.418 66.269 65.592 65.281 65.228 65.368 65.119 65.125 65.21 65.293 65.272 65.294 65.33 65.311 65.329 65.371 65.678 67.439 66.947 65.964 66.705 67.345 72.616 73.973 74.712 75.255 75.389 75.613 75.451 74.994 74.374 73.822 72.834 71.178 65.832 65.909 65.368 65.437 65.384 65.377 64.99 64.991 64.938 64.769 64.934 65.266 64.763 66.872 70.112 71.355 73.245 72.083 70.732 69.698 66.686 65.69 67.077 69.145 71.014 71.817 71.538 69.663 69.005 64.684 65.15 64.31 65.074 64.433 64.163 64.137 64.148 64.046 64.098 64.144 64.882 64.452 64.262 64.345 64.235 64.193 64.074 63.886 63.788 63.755 63.79 64.323 64.38 66.718 67.657 70.717 66.351 65.697 63.322 63.354 63.383 64.241 63.734 63.787 63.151 63.28 63.084 62.881 62.634 62.615 62.644 62.927 64.646 64.358 64.399 64.256 64.221 63.03 62.947 62.755 62.636 62.498 62.483 62.84 62.781 62.353 62.037 61.901 61.82 61.793 61.855 62.834 63.3 62.99 62.682 62.168 62.329 62.191 62.17 62.295 62.778 63.365 63.169 62.156 61.857 61.598 62.124 64.538 66.349 65.104 64.36 62.24 61.675 61.352 61.215 61.24 61.966 62.909 62.825 61.898 61.327 62.113 63.432 62.927 62.173 63.146 -9999 -9999 -9999 -9999 -9999 -9999 -9999 62.708 62.92 63.83 66.536 67.894 65.973 63.487 61.193 61.37 61.47 61.341 61.436 62.582 63.634 64.842 66.465 67.658 69.274 67.89 63.951 61.839 61.198 61.356 61.556 61.532 61.58 61.609 61.629 61.386 61.798 -9999 62.674 62.735 62.662 62.863 63.441 62.92 63.158 63.331 63.497 63.527 63.528 63.617 63.533 63.38 63.328 63.505 63.712 63.735 63.796 63.903 63.921 63.754 63.585 63.846 63.865 64.021 64.488 64.943 64.706 64.629 64.931 65.544 66.355 67.659 69.841 69.335 67.692 64.609 64.329 64.768 65.044 64.928 64.601 64.086 64.385 65.526 67.152 67.852 68.2 67.438 66.972 65.909 65.35 65.646 65.81 65.654 64.993 64.865 64.822 64.904 65 64.645 64.475 65.196 65.04 64.91 -9999 -9999 66.043 65.956 66.17 66.738 65.436 64.944 65.162 65.507 -9999 -9999 -9999 -9999 65.745 65.816 65.927 65.971 -9999 -9999 -9999 -9999 -9999 -9999 -9999 -9999 -9999 -9999 -9999 -9999 -9999 -9999 -9999 -9999 -9999 -9999 -9999 -9999 -9999 -9999 -9999 -9999 -9999 -9999 -9999 -9999 -9999 -9999 -9999 -9999 -9999 -9999 -9999 -9999 -9999 -9999 -9999 -9999 -9999 -9999 -9999 -9999 -9999 -9999 -9999 -9999 -9999 -9999 -9999 -9999 -9999 -9999 -9999 -9999 -9999 -9999 -9999 -9999 -9999 -9999 -9999 -9999 -9999 -9999 -9999 -9999 -9999 -9999 -9999 -9999 -9999 -9999 -9999 -9999 -9999 -9999 -9999 -9999 -9999 -9999 -9999 -9999 -9999 -9999 -9999 -9999
65.776 67.059 74.994 74.979 75.586 74.514 74.094 69.411 65.586 66.115 65.14 65.452 64.985 65.012 65.171 65.622 65.069 65.613 65.4 67.051 73.828 74.511 75.875 73.687 73.953 66.678 65.287 65.172 65.594 65.011 64.995 64.912 64.984 66.39 67.177 68.474 72.678 73.631 74.634 73.418 66.646 64.942 64.925 64.837 64.881 64.981 65.066 65.052 65.004 65.02 65.035 65.596 65.134 65.127 65.785 65.411 65.382 66.519 68.503 73.151 74.183 75.465 74.505 74.694 74.955 74.702 74.268 75.064 72.883 70.527 67.277 65.956 66.203 65.496 65.193 65.131 66.055 65.129 65.104 65.132 65.167 65.23 65.23 65.171 65.202 65.374 65.836 65.745 65.749 66.734 67.905 68.329 72.496 74.246 74.469 74.94 75.239 75.747 75.303 74.997 74.619 74.372 73.32 71.228 65.862 65.355 66.003 66.016 65.443 65.447 65.002 64.888 64.913 64.866 64.856 64.772 64.779 64.827 64.753 64.64 65.629 71.061 72.616 71.121 70.18 69.116 67.664 66.205 64.753 68.182 70.384 71.518 71.311 68.394 65.75 64.251 64.419 64.168 64.172 64.15 64.071 63.95 64.048 64.707 64.075 64.194 64.238 64.394 64.644 66.045 64.306 64.244 64.036 63.818 63.73 63.626 63.629 63.763 63.97 65.787 67.311 66.901 64.576 63.631 63.101 63.122 63.314 64.063 63.761 63.137 63.631 64.182 63.141 63.513 62.902 62.714 62.671 62.978 64.275 64.023 64.278 -9999 63.683 63.09 62.661 62.491 62.497 62.288 62.241 62.56 62.953 62.567 62.007 61.746 61.596 61.766 61.815 61.942 62.499 62.646 62.176 61.913 62.267 62.868 62.455 62.509 63.143 64.147 64.5 62.681 61.939 61.939 61.851 62.729 -9999 -9999 64.416 62.621 61.942 61.262 61.179 61.157 61.349 -9999 -9999 62.162 62.015 61.972 62.656 62.587 62.309 62.855 -9999 -9999 -9999 -9999 -9999 -9999 -9999 61.929 61.784 61.937 67.5 68.738 66.506 64.439 62.583 62.65 62.65 61.742 61.552 61.634 61.456 63.789 65.89 67.093 67.933 66.116 63.009 61.474 61.338 61.359 61.4 61.477 61.428 61.367 61.629 61.734 62.431 63.246 62.894 62.625 62.649 62.493 62.941 63.272 63.351 63.538 63.469 63.395 63.461 63.505 63.433 63.412 63.872 63.849 63.761 63.78 63.817 63.847 63.776 63.786 63.825 64.019 64.103 64.313 64.615 64.879 64.844 -9999 64.989 64.899 65.292 65.167 67.056 67.55 65.846 64.633 64.456 64.272 64.542 64.994 64.862 64.423 64.558 64.847 65.121 65.526 66.769 67.386 67.095 66.59 65.967 65.73 65.118 65.186 65.237 65.168 64.928 64.932 65.023 64.833 64.539 64.952 65.143 -9999 -9999 -9999 -9999 66.009 65.714 64.981 64.854 64.916 65.047 -9999 -9999 -9999 -9999 65.535 65.704 65.919 66.007 66.172 -9999 -9999 65.904 65.556 -9999 -9999 -9999 -9999 -9999 -9999 -9999 -9999 -9999 -9999 -9999 -9999 -9999 -9999 -9999 -9999 -9999 -9999 -9999 -9999 -9999 -9999 -9999 -9999 -9999 -9999 -9999 -9999 -9999 -9999 -9999 -9999 -9999 -9999 -9999 -9999 -9999 -9999 -9999 -9999 -9999 -9999 -9999 -9999 -9999 -9999 -9999 -9999 -9999 -9999 -9999 -9999 -9999 -9999 -9999 -9999 -9999 -9999 -9999 -9999 -9999 -9999 -9999 -9999 -9999 -9999 -9999 -9999 -9999 -9999 -9999 -9999 -9999 -9999 -9999 -9999 -9999 -9999 -9999 -9999 -9999 -9999 -9999 -9999
66.072 66.247 71.257 73.841 74.64 74.819 74.684 74.32 65.042 65.421 65.354 65.069 65.173 64.929 64.921 65.192 65.063 64.996 65.201 66.943 72.784 74.609 75.433 74.551 74.465 69.842 65.191 65.603 64.9 65.129 64.876 64.869 64.837 65.362 66.424 68.128 71.596 73.153 67.198 66.768 64.902 64.82 64.801 64.841 64.892 64.947 64.982 64.968 64.98 64.956 64.937 65.008 65.323 65.314 65.448 65.551 68.433 73.132 73.298 74.249 74.512 75.289 75.002 74.555 73.939 73.429 71.503 69.487 69.239 65.269 65.096 65.46 65.293 64.997 65.021 65.098 65.64 65.22 65.135 65.138 65.102 65.133 65.203 65.268 65.661 65.682 65.68 65.752 65.71 72.425 73.559 74.15 75.195 76.124 75.333 75.68 75.278 74.688 74.793 74.462 72.983 67.385 66.419 65.89 66.493 65.571 65.728 65.548 64.97 64.835 64.861 64.829 64.845 64.834 64.827 64.708 64.623 64.723 64.783 64.673 64.734 69.058 70.256 70.319 69.335 67.981 67.251 66.643 64.722 67.967 69.996 66.679 65.768 64.31 64.511 64.767 64.141 64.11 64.043 63.941 64.004 64.871 65.005 64.873 64.107 64.359 64.353 65.907 64.809 64.698 64.597 64.216 64.538 63.817 63.681 63.583 63.494 63.53 63.542 63.67 66.557 64.518 63.193 63.796 64.594 64.302 63.103 62.945 63.432 63.76 64.089 62.806 62.744 62.867 63.524 63.519 63.414 62.849 63.053 64.432 63.665 63.462 -9999 62.63 62.423 62.461 62.314 62.148 62.094 62.511 63.07 62.769 62.181 61.742 61.75 61.866 61.803 61.85 61.872 -9999 62.26 62.627 62.79 65.982 64.085 63.496 64.01 64.365 64.51 62.842 61.797 61.572 61.768 61.637 62.69 64.645 65.93 65.251 -9999 61.648 61.277 61.178 61.207 61.303 61.573 62.14 62.463 62.202 62.155 62.499 62.587 -9999 -9999 -9999 -9999 -9999 -9999 60.888 60.906 60.966 61.397 61.191 64.08 65.147 64.693 65.398 66.339 66.921 64.822 -9999 61.849 61.215 61.857 63.366 65.032 68.972 66.023 62.717 60.932 61.296 61.538 61.405 61.344 61.393 61.363 61.479 62.146 62.976 63.652 63.816 63.549 62.614 62.729 63.242 63.421 63.475 63.498 63.447 63.388 63.336 63.36 63.447 63.853 64.246 64.794 64.373 63.953 63.979 63.962 63.995 63.952 63.936 63.995 64.314 64.597 65.001 64.739 64.669 -9999 64.741 64.591 64.569 64.3 65.025 66.087 65.551 64.34 65.051 65.313 64.421 64.474 64.553 64.63 64.604 64.558 64.757 64.682 64.656 64.909 66.141 66.596 66.598 66.927 65.816 65.122 65.47 66.282 66.296 65.469 65.239 64.904 64.985 64.707 64.809 -9999 -9999 -9999 65.918 65.996 66.049 65.952 64.783 64.973 64.826 -9999 -9999 -9999 -9999 65.815 65.54 65.716 65.977 66.122 66.188 66.154 66.201 65.896 65.264 64.991 64.682 -9999 -9999 -9999 -9999 -9999 -9999 -9999 -9999 -9999 -9999 -9999 -9999 -9999 -9999 -9999 -9999 -9999 -9999 -9999 -9999 -9999 -9999 -9999 -9999 -9999 -9999 -9999 -9999 -9999 -9999 -9999 -9999 -9999 -9999 -9999 -9999 -9999 -9999 -9999 -9999 -9999 -9999 -9999 -9999 -9999 -9999 -9999 -9999 -9999 -9999 -9999 -9999 -9999 -9999 -9999 -9999 -9999 -9999 -9999 -9999 -9999 -9999 -9999 -9999 -9999 -9999 -9999 -9999 -9999 -9999 -9999 -9999 -9999 -9999 -9999 -9999 -9999 -9999 -9999 -9999 -9999 -9999
66.282 65.973 66.438 74.491 74.659 74.869 75.108 73.92 69.685 65.308 65.128 64.962 65.047 64.848 64.858 64.811 65.309 65.022 65.666 64.401 70.156 73.917 74.407 74.701 74.691 72.12 65.461 65.411 65.107 65.836 65.023 64.81 64.757 64.727 65.03 67.135 66.416 68.112 65.083 64.864 64.697 64.75 64.797 64.834 64.886 64.958 64.931 64.937 64.888 64.89 64.83 64.986 65.794 65.487 71.177 71.694 73.952 74.378 74.377 74.718 75.032 74.801 75.425 73.297 72.405 72.226 65.469 65.095 65.507 65.529 65.134 64.935 64.927 64.899 64.905 64.985 64.989 65.055 65.007 64.996 65.052 65.223 65.285 65.427 65.838 65.608 67.961 72.418 74.638 74.405 74.431 75.046 75.458 75.586 75.308 74.854 74.514 73.32 72.409 69.015 66.651 65.354 65.104 65.416 65.744 64.996 64.927 64.859 64.816 64.801 64.787 64.779 64.747 64.734 64.689 64.639 64.563 64.604 65.185 64.768 64.685 64.938 67.482 68.466 68.55 67.252 66.356 64.919 64.523 64.719 66.626 64.301 64.333 64.475 64.176 64.135 64.125 63.951 63.942 64.49 64.01 64.314 64.326 64.153 64.188 65.869 64.546 65.288 64.505 64.165 64.424 64.847 64.741 63.826 63.669 63.452 63.434 63.42 63.386 63.334 63.276 63.773 64.903 66.195 66.18 65.566 63.703 63.272 63.441 63.503 62.892 62.333 62.449 62.604 63.759 63.759 63.104 62.991 62.957 63.114 63.078 62.94 62.729 -9999 62.34 62.315 62.062 62.105 62.112 62.2 62.994 62.82 62.285 61.824 61.787 61.769 61.685 61.664 61.636 -9999 -9999 63.768 64.919 65.027 63.006 63.868 64.409 64.659 64.918 -9999 62.127 61.546 61.524 61.508 62.171 64.377 68.373 67.742 65.389 62.896 61.923 61.486 61.261 61.098 61.397 61.902 62.28 62.171 62.183 62.513 62.512 62.328 -9999 -9999 -9999 -9999 -9999 60.915 60.869 60.92 61.082 61.13 61.411 61.617 62.334 64.268 67.449 68.914 66.312 -9999 61.76 61.259 62.248 62.983 62.429 64.954 63.816 61.85 60.975 61.407 61.543 61.346 61.267 61.291 61.338 61.988 63.309 64.222 64.279 64.094 63.888 63.127 63.344 63.751 63.616 63.601 63.49 63.375 63.351 63.331 63.297 63.561 64.274 64.784 65.55 64.313 64.101 64.083 64.073 64.12 64.013 64.239 65.117 65.073 65.065 64.845 64.405 64.241 64.389 64.561 64.467 64.216 64.549 65.724 66.238 64.971 64.125 64.883 65.359 65.354 64.718 64.466 64.763 64.804 64.811 64.919 64.868 64.714 64.689 64.772 65.664 67.556 67.479 66.658 65.485 65.987 67.079 67.691 66.876 66.459 65.571 64.957 64.802 -9999 -9999 -9999 -9999 65.754 65.834 65.477 67.496 66.293 65.55 -9999 -9999 -9999 -9999 66.234 65.84 65.594 65.285 66.405 66.678 66.546 66.088 66.45 66.597 65.202 64.726 64.572 64.474 64.459 -9999 -9999 -9999 -9999 -9999 -9999 -9999 -9999 -9999 -9999 -9999 -9999 -9999 -9999 -9999 -9999 -9999 -9999 -9999 -9999 -9999 -9999 -9999 -9999 -9999 -9999 -9999 -9999 -9999 -9999 -9999 -9999 -9999 -9999 -9999 -9999 -9999 -9999 -9999 -9999 -9999 -9999 -9999 -9999 -9999 -9999 -9999 -9999 -9999 -9999 -9999 -9999 -9999 -9999 -9999 -9999 -9999 -9999 -9999 -9999 -9999 -9999 -9999 -9999 -9999 -9999 -9999 -9999 -9999 -9999 -9999 -9999 -9999 -9999 -9999 -9999 -9999 -9999 -9999 -9999
64.802 65.145 65.36 73.032 73.713 74.906 75.447 74.668 73.518 65.735 65.503 65.109 64.733 64.727 64.718 64.707 64.941 64.856 64.963 64.944 69.191 72.513 73.947 74.68 74.07 73.271 69.39 65.749 65.619 64.883 65.091 64.674 64.671 64.62 64.897 65.577 65.003 64.753 65.412 65.04 64.676 64.739 64.778 64.797 64.804 64.848 64.785 64.833 64.811 64.807 64.807 64.803 66.226 73.364 74.515 74.095 74.364 74.939 75.142 74.749 73.915 73.514 72.855 72.092 65.63 65.256 65.08 64.993 64.964 64.881 64.786 64.797 64.833 64.855 64.898 65.157 65.526 65.913 65.417 65.701 65.513 65.56 65.652 67.303 70.379 73.864 75.072 74.753 75.605 75.377 75.738 75.485 75.247 75.035 75.092 73.383 70.787 66.669 65.319 65.212 65.249 65.296 65.34 64.887 64.838 65.484 65.603 64.782 64.789 64.765 64.806 65.711 64.631 64.565 64.545 64.579 64.532 64.457 64.597 64.824 64.74 65.037 64.732 64.71 65.279 66.878 65.06 64.542 64.693 65.036 64.233 65.107 64.232 64.305 64.085 63.959 63.909 63.948 64.24 64.944 64.025 64.05 64.155 65.327 65.028 65.476 63.912 63.782 63.995 63.959 63.797 63.672 63.763 64.276 63.585 63.465 63.368 63.272 63.238 63.2 63.16 65.623 67.06 69.315 69.946 66.054 64.385 62.847 62.818 62.897 63.014 62.706 62.514 62.496 63.064 63.561 62.978 62.951 62.578 62.648 62.699 62.687 62.644 -9999 -9999 62.873 62.083 62.039 61.992 61.86 61.954 62.205 62.168 61.825 61.594 61.664 61.639 61.527 61.519 61.479 -9999 64.341 64.696 63.482 62.12 64.449 64.478 64.957 65.388 64.136 62.426 61.471 61.328 61.364 61.497 62.893 66.319 67.047 65.905 63.895 63.229 62.382 61.358 61.211 61.29 -9999 61.812 61.645 61.826 62.282 62.282 -9999 -9999 -9999 -9999 -9999 60.942 60.906 60.85 60.904 60.918 60.889 61.118 61.505 62.874 64.28 66.118 67.351 -9999 63.15 61.742 60.641 60.938 61.893 62.325 62.145 61.789 61.002 61.272 61.319 61.371 61.31 61.25 61.337 61.47 62.201 63.722 64.267 64.227 64.149 63.869 63.471 63.672 63.63 63.659 63.648 63.513 63.426 63.414 63.479 63.488 63.717 64.205 64.399 64.783 64.558 64.098 64.215 64.141 64.113 64.217 65.56 68.194 68.4 66.104 64.729 64.156 64.126 64.369 64.478 64.697 64.46 64.943 65.731 65.244 64.803 64.642 65.669 66.229 66.03 65.188 64.658 65.146 65.102 64.761 64.737 64.816 64.798 64.708 64.715 65.108 66.132 67.827 66.802 65.304 65.08 66.781 67.467 67.073 66.597 65.668 64.954 64.911 -9999 -9999 -9999 65.262 65.428 65.434 66.512 66.631 66.442 66.232 -9999 -9999 -9999 66.02 66.402 65.356 67.621 67.879 69.126 68.031 65.788 65.304 66.137 66.534 65.3 64.37 64.511 64.464 64.493 64.337 -9999 -9999 -9999 -9999 -9999 -9999 -9999 -9999 -9999 -9999 -9999 -9999 -9999 -9999 -9999 -9999 -9999 -9999 -9999 -9999 -9999 -9999 -9999 -9999 -9999 -9999 -9999 -9999 -9999 -9999 -9999 -9999 -9999 -9999 -9999 -9999 -9999 -9999 -9999 -9999 -9999 -9999 -9999 -9999 -9999 -9999 -9999 -9999 -9999 -9999 -9999 -9999 -9999 -9999 -9999 -9999 -9999 -9999 -9999 -9999 -9999 -9999 -9999 -9999 -9999 -9999 -9999 -9999 -9999 -9999 -9999 -9999 -9999 -9999 -9999 -9999 -9999 -9999 -9999
64.747 65.286 65.164 68.536 74.012 74.61 75.034 74.473 73.559 67.148 65.181 65.061 64.741 64.574 64.644 64.649 64.615 65.12 64.716 64.87 64.9 70.605 73.519 74.344 74.564 74.519 72.915 65.383 65.068 66.019 65.529 64.645 64.588 64.553 64.486 64.524 64.492 64.606 64.92 64.764 64.667 64.698 64.68 64.683 64.678 64.76 64.759 64.738 64.768 64.778 64.728 64.711 64.995 71.353 74.54 74.895 75.127 74.757 74.224 73.524 71.686 67.977 68.393 65.455 64.997 65.121 65.186 64.957 65.442 65.008 64.771 64.778 64.842 64.867 64.805 64.914 65.039 65.265 65.156 65.816 65.543 65.358 70.499 72.075 72.666 74.475 75.027 75.353 75.837 75.324 75.386 74.686 73.788 74.828 67.614 66.793 65.409 65.389 65.479 65.784 65.104 64.922 64.752 64.728 64.748 64.755 64.775 64.751 64.788 64.72 65.27 65.532 64.794 65.776 64.565 64.538 64.52 64.411 64.451 64.681 64.512 65.424 64.957 65.462 64.573 65.24 64.576 64.505 64.444 65.437 64.229 64.107 64.004 64.027 63.945 63.908 63.903 63.961 64.048 64.233 64.133 64.171 64.243 64.386 64.784 68.385 64.064 63.702 63.849 64.569 63.941 63.577 63.616 63.754 63.52 63.427 63.281 63.206 63.117 64.319 63.268 63.093 65.082 67.392 71.125 69.755 65.856 63.49 62.833 62.884 63.672 62.784 62.434 62.444 62.6 63.144 62.843 62.431 62.337 62.461 62.615 62.829 62.908 65.365 66.903 66.105 63.181 61.873 61.828 61.711 61.76 62.014 62.102 61.852 61.63 61.579 61.54 61.488 61.421 61.376 61.904 -9999 63.466 62.71 62.358 62.829 64.083 64.904 65.553 63.542 61.962 61.637 61.296 61.253 61.334 61.723 63.518 65.652 65.946 64.458 63.321 62.593 61.8 61.318 61.319 -9999 61.5 61.352 61.479 61.775 -9999 -9999 -9999 -9999 -9999 -9999 -9999 60.938 60.905 60.975 61.013 60.739 61.003 61.624 63.498 64.315 65.603 65.949 64.455 62.886 61.596 60.484 60.663 60.849 61.345 60.918 61.138 61.024 61.802 61.483 61.493 61.481 61.485 61.565 61.741 62.048 63.574 64.178 64.252 64.211 63.871 63.561 63.602 63.623 63.657 -9999 -9999 63.617 63.684 63.753 63.769 63.827 63.945 63.982 64.178 64.479 64.499 64.635 64.257 64.292 65.751 68.981 71.094 70.536 69.299 65.587 64.127 64.234 64.423 64.749 64.961 64.608 64.984 65.612 65.715 65.035 65.454 66.422 66.754 66.097 64.929 64.757 64.931 64.829 64.659 64.689 64.698 64.768 65.137 65.519 65.508 64.951 66.194 65.72 65.635 65.205 65.636 66.99 67.03 66.815 65.552 64.873 65.159 65.554 65.454 65.151 65.063 65.202 65.327 65.789 65.998 66.254 66.373 -9999 66.078 66.098 66.131 66.813 66.32 66.646 67.71 70.206 67.536 64.98 64.518 65.225 65.173 64.532 64.355 64.335 64.309 64.468 64.263 64.134 64.237 -9999 -9999 -9999 -9999 -9999 -9999 -9999 -9999 -9999 -9999 -9999 -9999 -9999 -9999 -9999 -9999 -9999 -9999 -9999 -9999 -9999 -9999 -9999 -9999 -9999 -9999 -9999 -9999 -9999 -9999 -9999 -9999 -9999 -9999 -9999 -9999 -9999 -9999 -9999 -9999 -9999 -9999 -9999 -9999 -9999 -9999 -9999 -9999 -9999 -9999 -9999 -9999 -9999 -9999 -9999 -9999 -9999 -9999 -9999 -9999 -9999 -9999 -9999 -9999 -9999 -9999 -9999 -9999 -9999 -9999 -9999 -9999 -9999 -9999 -9999 -9999 -9999
64.601 64.621 64.97 65.709 72.682 74.535 74.736 74.714 74.292 73.609 65.348 65.003 64.859 65.424 66.251 64.554 64.541 65.253 64.819 64.558 64.99 67.067 72.469 74.257 74.566 74.423 73.481 69.35 64.46 64.677 64.447 64.406 64.398 64.39 64.393 64.431 64.512 64.6 64.623 64.63 64.607 64.595 64.591 64.644 64.708 64.742 64.777 64.701 64.701 64.732 64.69 64.633 64.642 71.662 74.748 74.678 73.948 73.6 72.939 69.562 66.802 65.193 64.927 65.412 64.94 64.634 64.624 64.82 64.995 64.835 64.762 64.759 65.111 64.777 64.745 64.821 65.007 65.43 64.99 65.64 66.836 71.856 72.878 74.088 74.206 74.741 75.554 75.287 75.094 74.509 74.969 72.803 68.134 67.632 65.017 65.308 65.34 65.192 65.073 64.816 64.949 64.737 64.79 64.777 64.734 64.733 64.704 64.711 64.672 64.738 64.817 65.36 65.104 65.114 64.539 64.425 64.443 64.338 64.268 64.342 64.421 64.461 64.346 64.824 64.339 64.295 64.363 64.463 65.073 65.065 64.04 64.028 63.954 63.875 63.899 64.188 64.765 64.751 64.325 64.127 64.075 64.24 64.149 67.951 69.065 69.391 66.882 63.648 63.965 63.902 63.7 64.735 65.368 64.894 64.086 63.366 63.245 63.101 63.026 63.895 63.966 63.151 63.371 67.031 69.78 70.187 66.68 65.81 63.599 62.711 62.724 62.531 62.602 62.872 62.947 62.844 62.404 62.302 62.164 62.518 62.19 62.352 63.072 66.826 68.41 69.126 64.765 61.982 61.846 61.709 61.852 62.249 62.108 -9999 61.506 61.461 61.402 61.33 61.332 61.357 61.356 61.89 -9999 -9999 62.77 62.805 63.217 64.581 64.569 63.918 62.311 61.959 61.716 61.4 61.281 61.444 -9999 65.301 67.391 65.59 63.175 62.245 62.219 61.359 61.319 -9999 61.301 61.302 61.267 61.263 -9999 -9999 -9999 62.382 62.575 62.805 -9999 -9999 60.995 61.072 61.191 61.191 61.335 61.249 62.757 65.072 65.399 65.274 65.569 61.862 61.63 60.691 60.754 60.631 61.855 61.597 61.134 61.211 61.754 61.899 61.506 61.928 62.319 62.138 61.836 62.32 63.636 64.295 64.331 64.295 63.818 63.556 63.565 -9999 -9999 -9999 -9999 63.995 63.946 63.802 63.933 63.86 64.088 64.36 64.112 64.58 65.177 66.067 -9999 67.575 69.81 71.261 70.942 70.702 70.424 67.131 64.76 64.768 64.655 64.719 64.742 64.733 64.941 64.678 64.934 65.017 65.803 66.538 66.801 66.547 65.65 64.982 64.627 64.671 64.631 64.696 64.719 64.997 66.482 67.481 67.766 65.675 66.079 66.098 65.764 65.066 64.862 65.584 66.179 66.696 66.101 65.358 65.267 66.399 65.287 64.978 64.992 65.028 65.329 65.733 65.635 65.981 -9999 66.473 66.271 66.195 65.465 66.47 65.994 64.913 66.053 66.888 64.979 64.53 64.411 64.644 64.55 64.486 64.384 64.276 64.237 64.246 64.142 64.017 64.257 64.453 -9999 -9999 -9999 -9999 -9999 -9999 -9999 -9999 -9999 -9999 -9999 -9999 -9999 -9999 -9999 -9999 -9999 -9999 -9999 -9999 -9999 -9999 -9999 -9999 -9999 -9999 -9999 -9999 -9999 -9999 -9999 -9999 -9999 -9999 -9999 -9999 -9999 -9999 -9999 -9999 -9999 -9999 -9999 -9999 -9999 -9999 -9999 -9999 -9999 -9999 -9999 -9999 -9999 -9999 -9999 -9999 -9999 -9999 -9999 -9999 -9999 -9999 -9999 -9999 -9999 -9999 -9999 -9999 -9999 -9999 -9999 -9999 -9999 -9999 -9999 -9999
64.989 64.795 64.738 64.909 65.541 72.688 73.897 74.704 74.36 74.269 69.063 65.476 65.4 64.596 66.484 64.784 64.483 64.44 64.371 64.499 64.63 64.875 70.544 73.792 75.504 74.402 74.134 73.6 64.543 64.416 64.429 64.281 64.3 64.398 64.453 64.519 64.555 64.538 64.552 64.511 64.562 64.537 64.569 64.668 64.798 64.808 64.775 64.675 64.594 64.583 64.645 64.632 64.562 67.182 74.137 74.161 72.945 70.708 66.017 65.337 65.338 66.456 64.909 64.584 64.523 64.556 64.618 64.63 64.691 64.686 64.655 65.41 65.083 65.191 64.835 65.081 65.233 65.385 66.806 68.298 72.834 74.033 74.446 74.912 74.643 74.636 74.698 74.591 74.207 71.037 67.612 65.619 65.308 65.374 65.078 64.915 64.88 64.715 64.674 64.708 64.695 64.73 64.689 64.7 64.681 64.629 64.659 64.68 64.723 64.995 65.239 65.656 65.211 66.165 66.668 64.303 64.347 64.372 64.236 64.199 64.566 64.546 64.304 64.303 64.247 64.268 64.357 65.056 64.179 64.067 63.941 63.865 63.855 63.88 63.835 63.894 64.123 65.228 64.128 64.191 64.432 67.835 68.949 69.416 70.121 70.083 69.265 65.064 63.667 65.141 67.929 70.622 69.43 67.268 63.752 63.99 63.141 63.01 62.93 62.935 63.837 63.22 63.195 64.763 67.417 70.313 69.758 66.29 64.56 62.585 62.605 62.641 63.046 62.9 62.84 62.266 62.178 62.2 62.068 62.066 62.107 62.042 62.56 66.812 67.554 67.638 64.308 61.895 61.664 61.759 62.068 62.176 62.08 61.702 61.414 61.314 61.265 61.154 61.188 61.246 61.221 61.304 -9999 -9999 -9999 63.404 64.105 64.629 64.876 64.178 62.212 62.035 61.795 61.592 61.783 61.839 62.576 64.876 67.949 66.265 62.842 62.014 62.501 61.798 61.391 61.127 60.929 60.98 60.901 60.959 61.015 -9999 -9999 62.217 62.337 63.097 63.113 -9999 -9999 61.051 61.036 61.007 61.781 61.376 62.563 64.496 64.988 64.768 67.561 61.97 62.139 61.27 60.796 60.889 61.168 61.086 61.267 61.589 62.3 62.221 62.476 61.995 63.07 62.622 62.333 62.788 63.369 64.125 63.699 63.478 63.476 63.592 63.584 -9999 -9999 -9999 64.011 64.007 64.094 64.81 64.4 64.115 64.156 64.342 64.202 65.325 67.859 69.601 70.248 70.526 70.695 71.222 70.496 70.286 69.286 66.756 65.117 65.365 65.271 64.831 65.236 65.054 65.023 64.882 64.794 64.95 65.476 66.82 66.867 66.694 66.338 66.219 64.861 64.702 64.843 64.793 65.029 66.571 67.335 69.248 67.596 65.426 65.439 65.743 65.178 64.874 64.85 65.102 65.843 66.237 66.136 65.633 65.23 64.965 64.753 64.737 64.859 64.89 -9999 65.573 65.655 65.978 66.318 66.76 66.56 66.443 65.224 65.092 64.898 65.227 66.356 65.241 64.29 64.264 64.399 65.024 64.964 64.615 64.276 64.162 64.157 64.101 64.043 64.146 64.576 64.617 -9999 -9999 -9999 -9999 -9999 -9999 -9999 -9999 -9999 -9999 -9999 -9999 -9999 -9999 -9999 -9999 -9999 -9999 -9999 -9999 -9999 -9999 -9999 -9999 -9999 -9999 -9999 -9999 -9999 -9999 -9999 -9999 -9999 -9999 -9999 -9999 -9999 -9999 -9999 -9999 -9999 -9999 -9999 -9999 -9999 -9999 -9999 -9999 -9999 -9999 -9999 -9999 -9999 -9999 -9999 -9999 -9999 -9999 -9999 -9999 -9999 -9999 -9999 -9999 -9999 -9999 -9999 -9999 -9999 -9999 -9999 -9999 -9999 -9999 -9999 -9999
64.674 65.067 64.486 65.339 64.773 66.946 74.059 74.314 74.634 74.802 72.214 66.565 64.743 64.558 66.027 64.665 64.366 64.346 64.268 64.353 64.958 64.777 68.171 71.875 74.155 74.607 71.306 67.319 64.649 64.209 64.186 64.267 64.39 64.469 64.437 64.511 64.496 64.367 64.435 64.511 64.711 64.653 64.531 64.543 64.673 64.671 64.722 64.656 64.537 64.516 64.622 64.559 64.513 64.731 71.32 72.279 68.774 64.696 66.227 64.977 66.193 64.565 65.311 65.242 64.652 64.525 64.565 64.618 64.556 64.518 64.561 64.672 65.275 65.003 64.981 64.995 66.807 70.816 74.251 73.714 73.99 74.404 74.72 74.835 74.053 73.853 73.178 69.363 68.529 65.45 65.562 65.125 66.606 64.97 64.936 64.97 64.967 64.628 64.699 64.705 64.693 64.9 64.655 64.628 64.621 64.675 64.79 65.219 64.898 64.938 65.206 67.951 71.467 72.656 72.737 64.737 64.246 64.248 64.202 64.094 64.54 64.475 64.23 64.36 64.342 65.312 64.022 63.986 63.932 63.881 63.836 63.829 63.778 63.752 63.94 63.995 63.982 63.939 63.92 64.086 66.587 69.133 69.821 70.53 71.014 70.695 69.692 65.261 63.638 67.489 70.128 70.827 70.265 69.078 63.932 64.495 63.15 63.299 62.854 62.772 62.733 62.825 63.467 62.868 67.131 67.529 67.785 66.691 65.837 63.304 63.15 63.252 63.631 63.031 62.217 61.962 62.453 62.782 62.052 61.932 61.948 62.159 62.721 63.27 63.617 63.44 62.214 61.611 61.441 61.683 61.975 62.118 -9999 61.647 61.283 61.233 61.214 61.163 61.198 61.194 61.14 61.089 -9999 -9999 -9999 -9999 63.846 63.366 63.917 63.047 61.328 61.171 61.095 61.38 61.655 61.802 61.954 63.022 64.961 64.212 62.099 61.28 61.663 61.366 60.92 60.839 -9999 60.867 60.899 60.933 60.968 60.934 61.216 61.99 62.156 65.56 63.142 -9999 -9999 60.999 60.954 60.956 61.218 61.369 -9999 63.558 63.705 62.374 61.728 62.628 62.419 61.743 61.095 60.927 61.005 61.161 61.497 62.011 62.287 62.129 61.866 61.786 63.065 62.793 62.43 62.673 62.915 63.55 63.122 62.705 63.351 63.578 63.679 63.828 64.211 64.297 64.191 64.014 63.965 64.412 64.201 64.157 64.589 65.295 66.542 68.337 69.708 71.012 70.784 70.289 70.444 69.828 68.61 66.976 65.668 64.873 65.162 65.604 65.802 65.407 66.24 66.389 65.186 64.867 64.912 65.085 65.562 66.398 66.548 65.727 65.127 65.719 65.309 64.758 64.824 64.861 64.776 64.876 66.123 66.668 65.412 65.303 65.297 65.269 65.023 64.871 64.813 64.808 65.479 65.909 -9999 65.041 64.908 64.692 64.403 64.489 64.655 -9999 -9999 -9999 65.348 65.525 66.131 66.632 66.139 65.612 64.93 64.545 64.627 65.171 65.239 64.505 64.442 64.55 64.792 66.061 65.28 64.345 64.02 63.967 63.998 64.009 63.999 64.092 64.523 64.634 64.51 -9999 -9999 -9999 -9999 -9999 -9999 -9999 -9999 -9999 -9999 -9999 -9999 -9999 -9999 -9999 -9999 -9999 -9999 -9999 -9999 -9999 -9999 -9999 -9999 -9999 -9999 -9999 -9999 -9999 -9999 -9999 -9999 -9999 -9999 -9999 -9999 -9999 -9999 -9999 -9999 -9999 -9999 -9999 -9999 -9999 -9999 -9999 -9999 -9999 -9999 -9999 -9999 -9999 -9999 -9999 -9999 -9999 -9999 -9999 -9999 -9999 -9999 -9999 -9999 -9999 -9999 -9999 -9999 -9999 -9999 -9999 -9999 -9999 -9999 -9999
64.446 64.298 64.313 64.469 65.076 65.184 72.277 74.38 74.729 74.291 74.258 66.922 65.157 65.355 64.352 64.234 64.227 64.278 64.245 64.783 64.31 64.702 64.484 65.957 67.943 67.641 65.186 64.338 64.179 64.224 64.258 64.315 64.319 64.388 64.354 64.313 64.389 64.409 64.65 64.707 64.74 64.655 64.446 64.493 64.565 64.582 64.639 64.755 64.488 64.441 64.484 64.487 64.412 64.341 64.913 66.293 65.28 64.707 66.154 64.707 65.475 64.479 64.957 64.425 64.473 64.474 64.439 64.415 64.44 64.591 64.988 65.561 65.337 66.108 67.606 70.767 74.049 74.518 74.085 74.454 74.633 74.649 74.088 73.627 73.451 68.994 67.578 65.284 64.952 64.777 65.959 64.79 65.391 64.799 65.055 65.428 64.79 64.72 64.689 64.606 64.686 65.745 64.597 64.682 64.939 65.099 64.787 64.824 65.004 68.124 72.114 72.405 72.901 73.345 74.102 70.485 64.146 64.114 64.087 63.995 64.088 65.184 64.269 65.506 64.157 64.236 63.975 63.865 63.838 63.857 63.812 63.744 63.904 63.844 63.934 63.941 63.883 63.72 63.908 68.846 69.916 70.275 70.751 70.846 70.448 69.131 67.887 63.689 63.54 65.138 69.153 71.533 70.931 69.611 67.145 63.856 63.139 63.547 62.894 62.644 62.591 62.625 62.688 63.614 65.203 67.194 67.491 66.746 63.852 64.239 62.593 62.619 62.188 61.968 61.957 62.858 64.31 64.226 62.323 61.62 61.737 62.795 63.134 62.398 61.799 61.756 61.669 61.665 61.881 61.829 61.862 -9999 61.61 61.444 61.276 61.232 61.132 61.15 61.214 61.103 61.022 60.96 60.926 -9999 -9999 61.959 62.888 63.044 62.491 61.51 61.1 61.083 60.936 61.07 61.315 61.471 61.526 61.924 -9999 -9999 61.471 60.987 60.94 60.805 60.743 60.741 -9999 -9999 60.9 60.997 61.011 60.908 60.761 61.425 61.208 62.166 61.91 61.935 60.821 60.8 60.82 60.862 60.898 60.974 -9999 -9999 63.051 62.138 61.718 61.743 61.88 61.639 61.206 61.079 61.395 61.335 61.841 61.958 62.175 62.118 61.843 61.932 62.154 62.49 62.797 62.913 63.158 63.676 63.289 63.33 63.432 63.774 63.75 63.841 64.209 64.479 64.382 64.228 63.987 63.955 64.285 64.929 66.457 67.363 67.155 67.276 69.331 71.343 70.527 69.987 69.599 66.934 65.014 64.965 64.533 64.472 64.915 65.4 65.809 65.564 65.535 65.649 64.852 64.854 64.882 64.957 65.231 65.028 65.131 64.795 64.919 65.194 64.87 64.692 64.751 64.805 64.801 64.958 64.99 64.861 64.925 65.057 65.082 65.532 65.357 65.553 64.88 65.031 65.072 -9999 65.098 64.801 64.754 64.721 64.536 64.498 -9999 -9999 -9999 -9999 65.274 64.864 65.386 66.26 65.305 65.058 64.942 64.712 65.017 65.453 65.213 65.033 66.139 66.236 65.904 65.602 64.59 64.009 63.866 63.947 63.944 63.948 63.929 63.908 64.193 64.482 64.407 64.059 63.857 -9999 -9999 -9999 -9999 -9999 -9999 -9999 -9999 -9999 -9999 -9999 -9999 -9999 -9999 -9999 -9999 -9999 -9999 -9999 -9999 -9999 -9999 -9999 -9999 -9999 -9999 -9999 -9999 -9999 -9999 -9999 -9999 -9999 -9999 -9999 -9999 -9999 -9999 -9999 -9999 -9999 -9999 -9999 -9999 -9999 -9999 -9999 -9999 -9999 -9999 -9999 -9999 -9999 -9999 -9999 -9999 -9999 -9999 -9999 -9999 -9999 -9999 -9999 -9999 -9999 -9999 -9999 -9999 -9999 -9999 -9999 -9999 -9999
64.343 64.287 64.2 64.298 65.112 65.218 69.976 73.346 74.232 74.393 73.943 69.009 65.388 64.557 64.477 64.1 64.043 64.088 64.146 64.935 64.482 64.263 64.421 64.187 64.624 64.204 64.124 64.21 64.191 64.175 64.224 64.285 64.295 64.214 64.264 64.311 64.525 64.6 64.674 64.797 64.72 64.574 64.307 64.451 64.47 64.483 64.473 64.537 64.505 64.343 64.292 64.377 64.359 64.283 64.77 65.651 65.956 64.469 64.541 64.869 65.332 64.381 64.379 64.328 64.319 64.302 64.332 64.487 65.101 64.854 64.943 65.253 66.461 71.333 72.556 73.3 74.292 74.431 74.823 74.621 73.921 73.524 73.642 71.068 69.442 66.481 64.574 66.068 65.286 64.656 64.575 64.605 64.603 64.647 64.697 64.62 64.646 64.91 65.613 64.582 64.662 64.864 64.773 64.849 64.894 65.358 67.741 70.947 72.16 72.667 73.729 73.57 74.147 74.156 73.966 72.169 64.032 63.999 63.983 63.925 63.895 64.087 64.266 64.294 63.924 63.911 63.816 63.794 63.817 63.729 63.802 63.884 63.907 64.058 64.725 63.704 65.3 63.727 64.084 69.367 70.325 71.061 70.489 69.906 68.925 64.87 63.991 63.389 63.484 63.219 67.493 70.008 70.954 70.243 69.301 64.927 62.993 63.085 62.902 62.529 62.515 62.477 62.508 63.363 63.115 66.363 66.921 65.725 62.289 62.628 62.662 62.039 61.937 61.897 61.989 62.491 64.224 64.182 63.406 62.03 61.642 62.229 62.853 62.294 61.934 61.88 61.791 61.757 61.886 61.858 -9999 61.555 61.422 61.336 61.438 61.381 60.942 61.038 61.202 61.115 60.992 60.86 60.863 60.838 60.962 61.127 61.483 62.115 61.639 61.244 60.901 60.771 60.907 60.875 -9999 61.184 61.397 61.698 61.629 61.109 60.844 60.758 60.638 60.84 60.84 60.797 60.768 60.757 60.828 60.996 61.304 60.966 60.838 60.747 61.181 60.993 60.913 60.862 60.761 60.765 60.856 60.735 60.643 60.779 -9999 -9999 62.424 62.487 62.188 61.446 61.402 61.322 61.294 61.454 62.511 62.285 61.787 63.293 65.054 65.103 63.65 63.697 65.625 64.636 63.152 62.798 62.864 63.263 63.904 64.008 63.671 63.654 63.735 63.89 64.31 64.521 64.392 64.133 63.826 64.118 64.283 67.4 68.62 69.379 67.827 66.048 67.845 69.894 69.723 69.489 67.869 64.554 64.308 64.212 64.439 64.517 64.81 65.411 66.037 65.701 64.913 64.685 64.783 64.954 64.845 64.964 64.916 65.223 65.597 65.021 64.862 64.889 64.901 64.967 65.029 64.812 64.873 65.301 65.489 65.104 65.141 65.316 65.225 65.191 65.082 66.122 66.508 65.68 -9999 65.209 65.097 64.807 64.637 64.676 64.604 -9999 -9999 -9999 67.002 66.489 65.744 64.77 64.696 64.863 65.005 64.916 64.846 64.886 65.186 65.697 66.04 66.796 67.567 66.806 65.591 64.701 64.887 64.187 64.047 63.959 63.961 63.936 63.967 63.899 63.893 64.241 64.164 63.933 63.733 63.6 -9999 -9999 -9999 -9999 -9999 -9999 -9999 -9999 -9999 -9999 -9999 -9999 -9999 -9999 -9999 -9999 -9999 -9999 -9999 -9999 -9999 -9999 -9999 -9999 -9999 -9999 -9999 -9999 -9999 -9999 -9999 -9999 -9999 -9999 -9999 -9999 -9999 -9999 -9999 -9999 -9999 -9999 -9999 -9999 -9999 -9999 -9999 -9999 -9999 -9999 -9999 -9999 -9999 -9999 -9999 -9999 -9999 -9999 -9999 -9999 -9999 -9999 -9999 -9999 -9999 -9999 -9999 -9999 -9999 -9999 -9999 -9999
64.29 64.234 64.176 64.142 64.656 64.322 65.703 71.83 74.068 74.504 73.606 72.504 67.001 64.75 64.73 64.177 63.95 64.046 64.087 64.068 64.209 64.032 64.677 64.065 64.002 64.038 64.17 64.253 64.19 64.192 64.181 64.116 64.112 64.232 64.403 64.568 64.689 64.791 64.826 64.826 64.623 64.433 64.244 64.378 64.394 64.383 64.401 64.45 64.615 64.387 64.203 64.257 64.269 64.277 64.172 64.202 64.277 64.176 64.158 64.243 64.267 64.233 64.275 64.234 64.19 64.408 64.854 64.612 64.674 65.053 67.747 71.723 72.386 73.722 73.843 74.104 74.723 74.64 75.148 73.619 72.694 72.384 69.492 66.551 65.616 64.907 64.689 64.866 64.514 64.495 64.491 64.541 64.648 64.595 64.683 64.657 64.929 65.133 64.848 64.727 64.781 65.256 64.968 65.021 66.925 69.599 72.272 73.897 73.233 73.907 74.315 74.007 73.953 73.559 73.144 71.912 64.428 63.924 63.913 63.833 63.816 63.776 63.864 63.838 63.75 63.782 63.695 63.706 63.751 63.708 63.813 63.906 64.615 64.668 63.955 68.085 68.792 64.249 63.542 67.76 69.959 69.904 69.122 64.649 63.447 63.248 63.447 63.081 63.047 63.194 63.107 68.741 70.202 70.829 69.558 68.071 64.801 62.847 62.623 62.478 62.337 62.307 62.287 62.443 62.816 62.49 62.387 62.776 63.115 64.485 64.929 62.143 62.269 62.542 62.142 62.36 62.72 63.413 63.323 61.88 61.833 61.949 61.871 62.698 62.146 61.991 61.847 61.822 61.752 -9999 61.401 61.345 61.091 61.202 61.767 61.984 61.194 61.162 61.521 61.316 60.981 60.878 60.875 60.817 60.785 60.803 60.831 61.027 -9999 60.939 60.818 60.737 60.781 60.737 60.728 60.769 60.902 60.816 60.799 60.896 60.93 60.813 60.789 60.81 60.816 60.775 60.736 60.658 60.688 60.747 60.954 60.753 60.718 60.716 60.827 60.892 60.886 60.81 60.671 60.751 60.885 60.702 60.76 61.021 60.943 -9999 62.208 62.584 62.682 61.574 61.293 61.263 61.383 61.982 63.305 63.16 63.761 67.06 67.999 68.236 68.318 67.708 67.746 66.983 65.323 64.323 64.113 64.557 65.927 65.734 64.071 63.528 63.748 64.117 64.395 64.282 64.225 63.976 64.704 66.632 67.624 68.444 70.526 71.012 70.537 67.641 68.651 68.835 68.278 66.097 64.415 64.109 64.193 64.275 64.383 64.499 64.821 65.86 66.416 66.492 65.755 64.883 64.815 65.227 65.511 65.107 64.922 65.02 65.346 65.193 64.898 64.931 65.121 65.703 65.515 65.09 64.868 64.899 65.176 65.274 65.252 65.93 65.693 65.388 65.292 65.197 66.065 -9999 65.142 65.193 65.383 65.704 65.164 64.887 -9999 -9999 -9999 66.944 67.215 67.14 66.841 65.678 64.469 64.526 64.825 64.896 64.818 64.733 64.984 65.717 66.005 67.646 66.207 66.361 65.067 64.431 64.315 64.154 64.192 64.032 63.986 64.142 64.244 63.898 63.867 63.778 63.85 63.899 63.651 63.486 63.165 62.972 62.963 -9999 -9999 -9999 -9999 -9999 -9999 -9999 -9999 -9999 -9999 -9999 -9999 -9999 -9999 -9999 -9999 -9999 -9999 -9999 -9999 -9999 -9999 -9999 -9999 -9999 -9999 -9999 -9999 -9999 -9999 -9999 -9999 -9999 -9999 -9999 -9999 -9999 -9999 -9999 -9999 -9999 -9999 -9999 -9999 -9999 -9999 -9999 -9999 -9999 -9999 -9999 -9999 -9999 -9999 -9999 -9999 -9999 -9999 -9999 -9999 -9999 -9999 -9999 -9999 -9999 -9999 -9999 -9999 -9999
64.2 64.157 64.125 64.072 64.075 64.21 64.322 65.387 72.885 73.53 73.9 73.661 72.165 64.706 65.448 64.31 63.974 63.898 63.958 63.964 63.911 63.838 63.914 63.974 64.086 64.021 64.162 64.217 64.145 64.068 64.073 64.147 64.286 64.435 64.571 64.81 64.919 64.966 65.009 64.841 64.559 64.252 64.213 64.285 64.295 64.276 64.264 64.294 64.37 64.354 64.2 64.168 64.138 64.165 64.167 64.049 64.12 64.084 64.099 64.123 64.166 64.208 64.14 64.304 65.667 65.627 65.195 65.56 68.106 71.659 73.122 74.187 73.734 74.048 74.538 74.403 74.113 73.736 73.054 71.84 69.4 65.299 64.767 64.672 65.623 65.241 64.565 64.994 64.487 64.49 64.508 64.532 64.55 64.836 65.711 64.568 64.819 64.751 65.053 65.416 64.891 64.977 66.97 70.895 72.951 72.706 73.281 74 74.047 74.206 73.969 73.432 72.624 72.075 67.03 65.523 65.95 63.923 63.808 63.815 63.759 63.751 63.753 63.721 63.714 63.704 63.716 63.714 63.76 63.825 63.882 63.785 63.945 65.612 69.003 69.515 69.737 66.821 63.737 64.214 68.613 65.615 65.3 63.385 63.18 63.156 63.269 63.933 62.888 62.856 62.797 64.591 69.414 70.087 69.917 69.063 66.78 62.956 62.546 62.437 62.245 62.246 62.159 62.161 62.16 62.252 62.057 64.361 66.316 66.432 65.963 64.69 63.485 62.04 61.687 61.714 61.969 62.743 62.143 62.025 62.075 61.347 61.404 61.91 -9999 62.009 -9999 -9999 61.413 -9999 -9999 61.185 61.154 61.171 61.393 61.49 61.257 61.662 61.77 61.508 61.043 60.86 60.814 60.771 60.752 60.748 60.709 60.686 60.627 60.587 60.663 60.723 60.705 60.668 60.659 60.679 60.727 60.799 60.892 60.956 60.891 60.836 60.82 60.78 60.731 60.692 60.715 60.698 60.621 60.56 60.662 60.688 60.559 60.512 60.729 61.067 60.936 60.871 60.816 61.025 61.527 62.083 61.861 61.519 61.215 -9999 61.931 62.291 62.307 61.385 61.236 61.267 61.49 62.817 63.377 63.408 65.787 68.232 68.2 68.151 68.316 68.639 68.949 69.263 68.905 68.178 68.272 68.578 68.841 68.247 65.575 64.436 64.202 64.386 64.239 64.108 64.132 64.226 66.971 69.602 69.757 70.871 71.846 71.204 69.647 66.415 66.644 65.451 65.117 64.139 63.989 63.976 64.129 64.221 64.291 -9999 65.713 66.67 66.805 67.145 66.881 65.486 65.187 65.249 65.403 65.199 64.887 64.937 64.951 65.017 65.026 65.219 65.207 65.158 65.364 65.234 65.077 64.9 65.078 65.088 65.062 65.187 65.338 66.028 66.549 66.817 66.486 65.815 64.968 64.938 65.257 65.531 65.483 -9999 -9999 -9999 66.782 67.021 67.244 66.994 66.52 65.493 64.593 64.324 64.615 64.657 64.727 64.675 64.871 65.846 66.95 67.408 66.625 67.111 65.623 64.405 64.142 64.106 64.157 63.999 64.095 64.143 64.3 64.526 64.482 64.002 63.798 63.623 63.476 63.377 63.045 62.758 62.926 -9999 -9999 -9999 -9999 -9999 -9999 -9999 -9999 -9999 -9999 -9999 -9999 -9999 -9999 -9999 -9999 -9999 -9999 -9999 -9999 -9999 -9999 -9999 -9999 -9999 -9999 -9999 -9999 -9999 -9999 -9999 -9999 -9999 -9999 -9999 -9999 -9999 -9999 -9999 -9999 -9999 -9999 -9999 -9999 -9999 -9999 -9999 -9999 -9999 -9999 -9999 -9999 -9999 -9999 -9999 -9999 -9999 -9999 -9999 -9999 -9999 -9999 -9999 -9999 -9999 -9999 -9999 -9999 -9999
64.15 64.152 64.095 64.007 63.94 64.387 64.245 64.225 71.093 73.59 74.023 74.115 72.753 70.579 65.355 64.354 63.881 63.847 63.857 63.831 63.861 63.885 63.96 63.961 63.992 64.054 63.999 64.048 64.046 64.103 64.328 64.372 64.468 64.563 64.852 65.04 65.176 65.126 64.982 64.747 64.518 64.141 64.119 64.203 64.184 64.22 64.212 64.217 64.256 64.265 64.187 64.044 64.078 64.099 64.114 64.014 63.957 64.013 64.059 64.064 64.033 64.192 65.153 64.965 65.078 67.071 64.887 72.695 73.294 73.647 74.811 74.221 74.552 74.176 74.047 73.861 72.768 72.973 69.631 64.897 64.295 64.821 65.188 65.111 64.451 64.361 64.776 64.64 64.448 64.487 64.482 64.511 64.493 64.655 64.802 64.747 65.22 64.793 64.781 65.405 67.291 70.881 72.7 73.071 73.776 74.068 74.075 74.207 73.796 74.02 72.95 71.756 66.161 66.725 64.612 64.386 65.097 64.712 63.755 63.7 63.676 63.715 63.662 63.646 63.662 63.65 63.76 63.784 63.879 63.766 63.9 64.996 68.62 69.47 70.108 70.656 70.098 69.22 67.077 63.419 67.3 63.307 63.142 63.843 63.118 63.016 63.14 63.938 65.218 64.607 63.16 64.269 67.231 69.35 70.132 69.393 68.48 64.043 62.546 62.318 62.202 62.077 62.047 61.985 62.066 62.29 61.967 65.522 67.15 69.277 66.807 65.681 63.855 61.718 61.59 61.408 61.565 62.049 62.106 61.764 62.177 61.646 61.577 61.237 -9999 -9999 -9999 61.087 60.91 60.863 60.996 61.206 61.291 61.031 60.844 60.767 60.733 61.083 61.391 61.503 -9999 60.956 60.857 60.703 60.695 60.714 60.648 60.55 60.526 60.488 60.575 60.744 60.698 60.669 60.662 60.652 61.275 62.294 62.441 62.173 61.565 61.024 61.019 62.197 62.126 61.328 60.75 60.755 60.427 60.47 60.479 60.465 60.452 60.465 60.876 61.567 61.194 61.004 61.084 61.989 64.062 65.716 64.032 61.612 61.294 61.02 61.23 61.282 61.002 61.039 61.128 61.282 61.328 61.754 62.271 62.605 65.165 67.023 67.16 67.761 68.137 68.425 68.915 69.471 69.395 69.6 69.993 70.224 70.132 69.772 68.23 66.602 65.024 64.251 63.97 64.014 64.207 65.971 69.078 70.257 70.818 70.984 70.788 69.934 66.589 64.413 64.477 64.692 64.399 64.078 64.062 63.996 64.056 64.285 64.954 66.329 66.539 66.644 66.61 66.605 66.103 65.596 64.898 64.981 65.31 65.422 64.924 64.943 64.952 65.012 65.688 66.66 65.382 65.124 65.075 65.134 65.04 64.862 65.126 65.055 64.888 64.823 64.736 65.391 66.463 67.178 66.288 65.729 64.889 64.734 64.979 65.204 -9999 -9999 -9999 -9999 66.534 66.648 67.105 67.93 65.526 64.669 64.583 64.405 64.379 64.307 64.554 64.714 64.908 66.015 66.35 67.348 66.374 69.421 66.951 64.697 64.578 64.375 64.22 64.164 64.073 64.701 64.959 64.26 64.074 63.702 63.677 63.452 63.321 63.308 63.019 62.984 63.049 -9999 -9999 -9999 -9999 -9999 -9999 -9999 -9999 -9999 -9999 -9999 -9999 -9999 -9999 -9999 -9999 -9999 -9999 -9999 -9999 -9999 -9999 -9999 -9999 -9999 -9999 -9999 -9999 -9999 -9999 -9999 -9999 -9999 -9999 -9999 -9999 -9999 -9999 -9999 -9999 -9999 -9999 -9999 -9999 -9999 -9999 -9999 -9999 -9999 -9999 -9999 -9999 -9999 -9999 -9999 -9999 -9999 -9999 -9999 -9999 -9999 -9999 -9999 -9999 -9999 -9999 -9999 -9999 -9999
64.012 64.036 64.036 64.002 63.855 63.831 64.122 64.305 68.073 73.946 74.214 73.441 72.423 71.385 64.571 64.231 63.997 63.698 63.762 63.796 63.939 63.933 63.892 63.893 63.876 63.899 63.913 64.025 64.206 64.296 64.492 64.555 64.754 64.946 65.152 65.289 65.233 65.099 64.879 64.712 64.328 64.088 64.097 64.109 64.137 64.143 64.106 64.135 64.177 64.213 64.161 64.033 63.966 63.979 63.968 63.974 63.929 63.959 63.919 64.06 64.784 64.774 64.36 64.604 68.194 72.099 73.456 73.834 73.862 74.1 74.752 74.433 74.072 73.441 73.138 73.068 69 65.343 64.413 64.431 64.663 64.331 64.231 64.207 64.231 64.289 64.393 64.375 64.372 64.437 64.429 64.46 64.573 64.633 64.722 64.865 65.417 65.22 66.63 71.741 72.629 73.636 73.843 74.426 74.1 74.207 73.601 73.118 73.54 66.63 67.072 65.761 64.159 64.775 65.206 65.575 64.193 63.856 63.706 63.644 63.665 63.701 63.674 63.608 63.684 63.721 63.821 63.835 63.936 63.929 67.57 69.256 69.806 70.101 70.594 70.659 69.987 69.185 67.879 63.44 64.186 63.195 62.982 62.928 63.123 62.988 62.917 62.985 65.916 66.738 65.524 62.801 63.496 68.467 69.771 69.959 68.959 68.181 63.66 62.283 62.092 61.91 61.922 62.024 62.62 61.955 61.968 62.487 66.895 68.995 69.577 66.167 65.082 61.731 61.39 61.371 61.58 62.219 61.782 61.239 61.329 61.536 61.248 61.253 61.223 -9999 61.019 60.758 60.632 60.741 61.011 61.336 61.378 61.355 60.913 60.599 60.643 60.765 61.312 61.35 61.198 61.18 60.93 60.745 60.702 60.699 60.627 60.556 60.535 60.46 60.55 60.64 60.685 60.771 60.731 60.886 63.24 63.211 63.44 62.165 63.094 61.601 64.009 65.185 65.209 62.992 61.35 60.749 60.832 60.61 60.429 60.427 60.48 60.62 60.809 61.183 60.972 60.982 61.635 63.107 65.743 70.406 67.701 62.518 60.898 60.889 61.033 60.823 60.588 60.81 61.023 61.221 61.314 61.361 61.582 62.448 64.463 62.805 64.453 65.895 66.684 66.696 67.372 68.314 69.024 69.633 69.915 70.18 70.37 70.338 69.748 66.93 64.875 64.242 64.011 64.678 66.386 69.374 70.42 70.628 70.559 70.364 68.489 67.471 65.583 64.479 64.559 64.162 64.081 64.196 64.262 64.415 64.248 64.274 64.933 66.094 66.562 66.647 66.293 65.73 64.881 64.702 64.578 64.54 64.885 65.369 65.102 64.986 64.998 65.178 65.575 66.142 65.647 65.06 65.041 65.149 65.005 64.775 64.925 65.179 64.853 64.626 64.6 64.718 64.996 65.109 65.321 66.995 64.869 64.827 65.014 65.011 -9999 -9999 -9999 -9999 65.954 65.925 66.869 66.64 64.734 64.633 64.573 64.437 64.381 63.945 64.297 65.209 67.188 66.501 64.765 65.316 67.064 68.366 67.101 65.252 65.098 64.722 64.845 64.769 64.421 64.828 64.109 63.738 63.623 63.746 63.609 63.416 63.619 63.722 63.304 63.207 63.439 -9999 -9999 -9999 62.655 62.555 -9999 -9999 -9999 -9999 -9999 -9999 -9999 -9999 -9999 -9999 -9999 -9999 -9999 -9999 -9999 -9999 -9999 -9999 -9999 -9999 -9999 -9999 -9999 -9999 -9999 -9999 -9999 -9999 -9999 -9999 -9999 -9999 -9999 -9999 -9999 -9999 -9999 -9999 -9999 -9999 -9999 -9999 -9999 -9999 -9999 -9999 -9999 -9999 -9999 -9999 -9999 -9999 -9999 -9999 -9999 -9999 -9999 -9999 -9999 -9999 -9999 -9999 -9999 -9999
64.019 63.942 63.952 63.939 63.776 63.796 64.245 64.314 64.386 71.053 72.809 73.399 69.874 66.354 64.738 63.904 63.675 63.745 63.785 63.775 63.804 63.853 63.813 63.855 63.784 63.907 64.189 64.173 64.37 64.528 64.782 64.931 65.113 65.206 65.261 65.211 65.097 64.873 64.669 64.473 64.151 63.942 63.979 64.051 64.103 64.097 64.031 64.082 64.123 64.174 64.14 64.048 63.891 63.894 63.925 63.906 63.806 63.861 65.003 64.95 64.549 65.044 67.575 70.172 71.879 73.619 73.734 74.048 74.375 74.251 74.062 73.796 73.487 73.307 67.463 65.24 64.992 64.379 64.583 64.329 64.175 65.091 64.328 64.191 64.239 64.312 64.333 64.324 64.396 64.442 64.694 65.212 64.902 65.38 64.884 66.244 67.559 72.05 73.479 73.091 73.719 73.999 74.187 74.1 73.865 73.54 73.398 68.248 67.442 64.249 64.261 64.304 64.054 63.958 63.961 64.494 64.246 63.692 63.666 63.647 63.656 63.593 63.625 63.711 63.773 63.777 63.953 63.865 67.548 68.524 69.589 70.079 70.552 70.864 70.112 69.666 68.778 63.81 63.129 63.083 63.221 63.316 62.864 62.967 64.399 65.06 66.734 66.781 65.671 66.09 65.087 62.595 62.727 65.702 69.13 70.086 69.539 68.45 64.178 62.118 62.035 61.898 61.75 61.742 62.362 62.11 62.229 62.058 63.937 67.174 67.328 66.646 65.241 63.257 61.514 61.832 61.388 61.754 61.526 61.253 61.157 61.155 61.128 61.367 61.13 61.487 -9999 60.805 60.706 60.797 60.968 61.319 61.327 61.741 61.061 60.851 60.643 60.754 61.414 61.11 60.979 61.688 61.138 60.774 60.733 60.736 60.655 60.578 60.552 60.49 60.556 60.639 61.1 61.247 61.459 62.671 65.408 63.927 66.649 67.322 67.199 65.693 67.178 67.537 68.182 64.462 60.929 60.77 60.751 60.68 60.505 60.455 60.511 60.587 60.667 60.785 60.833 60.852 61.768 63.159 64.573 68.281 66.638 62.654 60.806 61.145 61.201 60.929 60.608 60.618 60.796 61.08 61.094 61.277 61.536 61.762 61.741 61.791 61.885 62.179 63.153 65.332 64.254 64.901 66.987 68.622 68.325 69.55 69.337 69.451 68.958 66.451 64.971 65.585 66.557 68.792 70.302 70.711 70.3 70.228 70.084 67.367 64.468 64.468 64.361 64.33 64.961 64.724 64.696 65.138 65.325 65.019 64.392 64.15 64.888 66.274 66.625 66.334 65.24 64.621 64.557 64.502 64.496 64.816 65.129 66.034 65.378 65.191 65.069 65.272 65.484 65.431 65.098 65.09 65.084 65.254 65.373 65.012 65.457 65.658 65.088 64.782 64.487 64.59 64.691 64.903 64.884 65.542 64.84 64.739 64.812 64.832 -9999 -9999 65.108 65.151 65.359 64.978 66.075 66.336 65.395 64.795 64.58 64.514 64.098 64.191 64.273 66.525 67.898 65.675 64.3 64.529 65.536 68.427 67.178 65.775 65.78 65.527 65.434 64.562 63.957 63.828 63.686 63.52 63.328 63.445 63.35 63.239 63.512 63.633 63.444 63.985 64.561 64.479 63.771 62.843 62.466 62.267 62.259 -9999 -9999 -9999 -9999 -9999 -9999 -9999 -9999 -9999 61.52 -9999 -9999 -9999 -9999 -9999 -9999 -9999 -9999 -9999 -9999 -9999 -9999 -9999 -9999 -9999 -9999 -9999 -9999 -9999 -9999 -9999 -9999 -9999 -9999 -9999 -9999 -9999 -9999 -9999 -9999 -9999 -9999 -9999 -9999 -9999 -9999 -9999 -9999 -9999 -9999 -9999 -9999 -9999 -9999 -9999 -9999 -9999 -9999 -9999 -9999 -9999 -9999 -9999
64.069 63.863 63.882 63.863 63.76 63.634 63.656 64.212 64.052 67.687 72.341 67.957 66.503 63.887 63.617 63.704 63.657 63.682 63.735 63.764 63.73 63.719 63.745 63.846 64.066 64.125 64.172 64.399 64.664 64.924 65.091 65.232 65.286 65.185 65.028 64.924 64.733 64.625 64.445 64.286 64.024 63.835 63.929 63.965 64.054 64.069 64.048 64.031 64.066 64.126 64.104 64.031 63.857 63.805 63.83 63.829 63.787 63.753 64.662 64.848 68.051 70.126 72.817 73.634 73.823 74.334 74.224 74.406 73.902 73.482 73.38 72.067 69.864 65.745 64.838 64.33 64.396 64.091 64.032 63.951 64.09 64.517 64.17 64.204 64.179 64.233 64.238 64.242 64.635 65.08 65.189 65.194 64.919 66.681 69.022 72.058 73.394 74.103 73.74 73.979 74.226 73.822 73.573 73.593 72.521 68.055 69.108 64.315 64.23 64.031 64.146 64.06 63.755 63.707 63.795 63.957 63.644 63.686 63.59 63.625 63.572 63.556 63.642 63.753 64.246 64.022 63.726 66.563 69.44 69.905 71.56 71.103 70.379 69.734 69.24 65.763 63.129 63.088 63.011 62.933 62.882 63.457 62.832 65.234 65.705 66.616 66.702 65.866 64.194 65.345 64.792 62.88 62.514 62.715 68.34 69.454 68.449 64.125 62.22 62.083 62.62 61.886 61.677 61.652 61.579 61.631 61.739 61.902 61.907 65.82 66.646 65.403 61.598 61.393 61.412 61.124 61.247 61.326 61.279 61.086 61.037 61.034 60.997 61.334 61.679 61.609 -9999 60.911 60.799 60.816 60.846 61.074 61.493 61.789 62.181 61.206 60.685 60.806 60.688 60.473 60.443 60.946 60.889 60.876 60.654 60.73 60.647 60.579 60.627 60.611 60.819 61.898 62.057 64.588 64.11 63.726 68.099 69.02 68.461 69.173 69.707 68.115 68.011 68.395 67.514 62.126 61.073 60.659 60.594 60.441 60.501 60.451 60.482 60.518 60.527 60.504 60.754 60.902 61.006 62.006 62.346 63.782 63.573 62.388 60.979 61.528 61.36 60.931 60.673 60.604 60.706 60.857 60.851 61.158 61.376 61.59 61.797 61.783 62.112 62.195 62.308 63.273 63.2 62.688 63.561 64.869 64.494 65.778 66.691 66.599 64.92 64.314 64.82 67.898 68.967 71.055 71.108 70.1 69.8 69.251 66.536 65.309 64.705 64.168 63.965 64.296 64.527 64.746 65.432 65.813 65.89 65.537 64.737 64.405 64.74 65.27 66.036 65.171 64.523 64.533 64.515 64.42 64.464 64.636 65.082 66.81 65.994 65.306 65.051 65.059 65.188 65.005 64.967 65.064 65.042 64.952 65.295 65.247 65.279 65.127 65.247 65.493 64.875 64.718 -9999 64.657 64.59 64.717 64.395 64.564 64.73 -9999 -9999 65.189 65.303 65.297 65.083 64.986 65.856 66.635 66.573 65.667 64.913 64.505 64.505 64.663 65.44 66.519 66.715 64.982 64.163 64.722 66.455 67.568 67.035 65.703 65.569 65.776 64.99 64.315 63.856 63.898 63.758 63.503 63.355 63.307 63.267 63.25 63.263 63.354 64.016 65.918 65.379 64.951 63.216 62.706 62.308 62.193 62.256 -9999 -9999 -9999 -9999 -9999 -9999 -9999 -9999 61.441 61.48 61.511 -9999 -9999 -9999 -9999 -9999 -9999 -9999 -9999 -9999 -9999 -9999 -9999 -9999 -9999 -9999 -9999 -9999 -9999 -9999 -9999 -9999 -9999 -9999 -9999 -9999 -9999 -9999 -9999 -9999 -9999 -9999 -9999 -9999 -9999 -9999 -9999 -9999 -9999 -9999 -9999 -9999 -9999 -9999 -9999 -9999 -9999 -9999 -9999 -9999 -9999 -9999 -9999
64.077 63.852 63.764 63.767 63.694 63.625 63.548 63.639 64.352 63.615 64.742 63.603 63.566 63.518 63.601 63.63 63.623 63.657 63.634 63.646 63.598 63.722 63.898 64.023 64.086 64.297 64.491 64.785 64.984 65.258 65.291 65.27 65.143 64.92 64.73 64.624 64.468 64.287 64.205 64.063 63.881 63.744 63.836 63.842 63.967 64.018 63.98 63.976 64.005 64.023 64.004 63.995 63.863 63.658 63.716 63.734 63.721 63.682 63.76 66.558 72.896 73.193 73.475 73.94 74.107 74.42 73.868 73.585 72.609 68.256 69.396 66.36 64.365 64.168 64.657 64.115 63.995 63.854 63.858 63.963 63.974 64.06 64.05 64.072 64.127 64.175 64.282 64.555 65.381 63.579 66.367 66.63 71.612 72.754 73.025 73.476 73.915 74.176 74.158 73.76 73.237 73.268 70.889 70.475 65.305 65.54 64.064 64.013 64.029 63.867 63.757 63.784 63.698 63.678 63.663 63.673 63.648 63.628 63.554 63.525 63.486 63.573 63.567 63.544 64.421 64.662 63.8 67.48 69.806 70.528 70.645 70.028 69.171 65.959 65.742 63.063 63.238 63.999 62.914 62.798 62.753 63.172 64.414 66.456 66.157 67.015 62.733 63.72 62.292 62.841 64.119 63.622 62.347 62.185 63.144 65.469 62.952 62.039 62.032 62.024 62.243 62.153 61.702 61.51 61.419 61.363 61.463 61.657 61.577 62.949 62.535 62.1 61.387 61.156 61.174 61.121 61.188 61.231 61.111 60.996 61.047 61.176 61.197 61.465 61.693 61.877 61.449 61.027 60.853 60.821 60.841 61.015 61.353 61.181 62.234 62.159 60.884 60.777 60.434 60.319 60.578 60.689 61.24 61.158 60.845 60.663 60.58 -9999 61.306 61.315 62.471 65.079 66.404 68.142 68.059 68.766 69.854 69.163 69.125 68.732 67.515 65.919 66.56 67.909 66.627 62.024 60.842 60.583 60.539 60.5 60.46 60.42 60.445 60.427 60.373 60.35 60.79 61.222 60.642 62.337 61.343 61.356 61.846 63.066 60.663 60.655 60.748 60.683 60.811 60.797 60.779 60.957 61.134 61.188 61.368 61.544 61.787 62.016 62.381 62.468 62.415 63.31 63.402 65.992 67.292 64.642 64.322 64.324 64.049 63.886 63.747 63.689 64.212 65.59 68.081 70.181 69.943 69.435 68.775 65.619 65.118 64.545 64.805 64.517 64.218 64.476 64.555 -9999 66.14 66.106 66.051 65.639 64.825 64.672 64.554 64.832 64.913 64.928 64.562 64.489 64.499 64.596 64.526 64.573 64.776 65.523 65.276 64.968 64.847 64.847 64.906 64.819 65.304 65.379 65.193 64.959 65.159 65.371 64.978 64.851 64.937 66.005 65.324 -9999 65.005 65.072 64.784 64.929 64.701 64.646 -9999 -9999 65.336 65.166 65.206 65.22 64.698 65.151 66.567 67.014 66.972 66.759 66.416 65.239 65.228 65.583 65.763 65.897 65.015 64.282 64.203 64.332 65.412 66.509 66.276 65.458 65.389 65.613 65.263 64.421 64.135 64.063 63.892 63.512 63.432 63.332 63.35 63.385 63.515 63.382 63.714 64.411 63.707 63.409 62.706 62.513 62.375 62.333 -9999 62.27 62.238 62.171 62.074 -9999 -9999 -9999 61.494 61.49 61.383 61.488 61.841 62.306 62.911 -9999 -9999 -9999 -9999 -9999 -9999 -9999 -9999 -9999 -9999 -9999 -9999 -9999 -9999 -9999 -9999 -9999 -9999 -9999 -9999 -9999 -9999 -9999 -9999 -9999 -9999 -9999 -9999 -9999 -9999 -9999 -9999 -9999 -9999 -9999 -9999 -9999 -9999 -9999 -9999 -9999 -9999 -9999 -9999 -9999 -9999 -9999 -9999 -9999
65.379 63.839 63.668 63.671 63.652 63.642 63.472 63.515 63.557 63.695 63.442 63.494 63.463 63.586 63.561 63.556 63.579 63.592 63.616 63.676 63.854 63.942 63.999 64.148 64.318 64.629 64.883 65.039 65.228 65.275 65.132 65.052 64.846 64.654 64.461 64.32 64.179 64.047 63.971 63.92 63.782 63.688 63.753 63.796 63.854 63.946 63.947 63.926 63.933 63.964 63.97 63.955 63.945 63.655 63.63 63.647 63.648 63.564 63.585 68.034 73.704 74.062 74.245 74.324 73.779 73.267 72.619 70.21 70.151 65.005 64.708 64.44 64.588 63.957 64.427 63.918 63.92 63.858 63.894 63.949 63.933 63.983 63.945 64.027 64.146 65.389 64.381 63.64 65.925 68.357 71.177 72.675 72.772 73.792 73.793 74.294 74.139 73.791 73.449 72.962 72.133 70.406 66.035 64.172 64.258 64.855 64.031 64.016 63.916 64.084 63.778 63.771 63.752 63.655 63.643 63.621 63.789 63.518 63.525 63.514 63.488 63.498 63.46 63.459 63.449 64.728 63.597 64.185 69.034 70.095 69.734 67.774 63.448 62.825 62.975 62.858 62.701 63.703 63.289 62.732 62.769 63.316 66.151 66.245 63.577 62.845 62.454 62.989 62.171 62.327 63.138 62.361 62.26 63.045 62.372 62.643 63.914 62.226 61.979 62.008 62.2 61.966 61.691 61.438 61.343 61.314 61.32 61.334 62.256 61.615 61.493 61.136 61.06 61.103 61.267 61.177 61.217 61.146 61.152 61.087 61.167 61.351 61.601 61.731 61.742 61.962 61.314 61.131 60.958 60.833 60.844 -9999 61.245 61.217 61.423 62.454 61.122 60.777 60.504 60.289 60.374 60.516 60.698 61.128 60.939 60.49 60.486 61.302 61.924 62.018 63.109 66.992 68.593 68.622 68.874 69.019 68.241 67.644 67.613 66.514 65.883 62.977 63.819 62.784 61.338 60.688 60.414 60.452 -9999 -9999 60.464 60.422 -9999 60.361 60.374 60.237 60.584 61.382 60.71 60.532 60.846 60.767 60.777 60.999 60.858 60.441 60.578 60.7 60.749 60.729 60.978 61.124 61.087 61.298 61.519 61.613 61.789 62.031 62.263 62.441 64.033 66.235 67.891 70.554 71.024 65.062 63.629 63.765 63.805 64.027 63.855 63.748 63.856 64.504 65.677 68.051 68.219 66.905 64.713 64.093 64.388 64.455 64.821 64.863 64.484 64.634 65.139 65.897 66.193 66.201 66.095 65.45 64.638 64.772 65.183 64.833 64.688 64.756 64.986 64.711 64.568 64.525 64.472 64.53 64.645 64.647 64.686 64.869 64.625 64.842 65.115 65.117 65.402 65.675 65.212 65.046 65.095 65.509 65.083 64.883 64.588 65.108 -9999 -9999 65.754 65.536 65.792 66.2 65.973 -9999 -9999 -9999 65.399 65.468 65.004 64.624 64.486 66.06 68.177 68.216 67.624 66.981 66.552 66.18 66.162 66.109 65.526 64.709 64.383 64.246 64.339 64.323 64.432 64.27 65.285 65.324 65.42 65.476 65.191 64.674 64.337 64.23 64.147 63.635 63.444 63.471 63.526 63.852 63.997 63.425 63.524 63.569 62.958 62.728 62.634 62.541 62.466 -9999 -9999 62.269 62.204 62.174 62.1 -9999 -9999 61.473 61.509 61.566 61.584 61.455 61.783 62.486 63.335 64.15 63.94 -9999 -9999 -9999 -9999 -9999 -9999 -9999 -9999 -9999 -9999 -9999 -9999 -9999 -9999 -9999 -9999 -9999 -9999 -9999 -9999 -9999 -9999 -9999 -9999 -9999 -9999 -9999 -9999 -9999 -9999 -9999 -9999 -9999 -9999 -9999 -9999 -9999 -9999 -9999 -9999 -9999 -9999 -9999 -9999 -9999 -9999 -9999
65.729 64.598 63.729 63.594 63.603 63.545 63.453 63.383 63.309 63.437 63.42 63.486 63.487 63.482 63.457 63.475 63.491 63.589 63.663 63.823 63.907 64.039 64.214 64.372 64.725 64.952 65.18 65.224 65.206 65.205 65.069 64.847 64.645 64.383 64.139 64.043 63.94 63.844 63.823 63.723 63.666 63.629 63.688 63.737 63.76 63.808 63.851 63.913 63.862 63.904 63.892 63.881 63.924 63.727 63.499 63.513 63.552 63.524 63.526 64.003 73.045 74.308 73.864 73.291 72.56 70.314 70.263 65.996 64.282 64.164 63.876 63.974 63.675 63.881 64.459 63.775 63.864 63.812 64.301 63.889 63.879 63.904 64.054 64.355 64.322 64.838 65.185 69.163 71.391 71.987 73.209 74.043 73.946 74.218 74.001 73.529 73.3 72.137 70.69 69.949 64.997 64.395 65.126 64.161 63.966 63.908 63.836 63.751 63.976 63.918 63.817 63.723 63.702 63.684 63.572 63.584 64.014 63.7 63.626 63.551 63.473 63.431 63.389 63.416 63.373 63.71 65.205 65.16 64.809 68.98 65.416 63.908 62.856 62.655 63.114 63.775 62.569 62.633 62.928 62.719 63.949 64.099 62.753 62.854 62.095 62.348 62.602 62.349 62.229 61.964 62.375 63.576 64.009 65.557 64.493 61.775 61.787 62.556 61.884 62.621 61.925 62.198 62.172 61.477 61.31 61.153 61.17 61.132 61.213 61.199 61.104 61.111 61.078 61.082 61.119 61.161 61.169 61.217 61.227 61.129 61.258 61.332 61.821 61.412 61.528 62.276 61.931 61.419 60.907 -9999 -9999 -9999 60.917 61.063 61.172 61.577 60.77 60.693 60.482 60.414 60.378 60.664 60.888 61.165 60.973 60.649 60.643 61.213 62.082 63.485 63.162 66.567 68.668 69.132 68.57 67.219 64.979 65.894 64.355 63.379 61.372 61.349 61.11 61.422 61.176 60.47 60.422 60.464 -9999 -9999 -9999 -9999 -9999 60.271 60.24 60.173 60.823 61.343 60.504 60.263 60.564 61.185 60.418 60.64 61.174 61.477 61.458 60.748 60.742 60.916 61.145 61.158 61.246 61.402 61.517 61.627 61.809 62.005 62.141 62.414 63.881 71.194 70.539 72.564 70.909 65.893 63.569 63.492 63.853 63.762 63.934 63.97 63.997 64.497 65.548 65.917 66.585 65.104 64.248 64.27 64.301 -9999 64.845 64.767 -9999 65.215 65.814 66.062 66.187 66.205 66.077 65.483 64.783 64.905 65.134 64.963 64.554 64.52 64.764 65.401 64.788 64.513 64.473 64.524 64.647 64.859 64.654 64.575 64.342 64.681 65.793 65.126 64.96 64.908 65.513 65.999 65.771 65.438 64.896 64.713 64.57 64.874 -9999 65.115 65.73 66.066 66.715 66.771 66.448 -9999 -9999 -9999 65.456 65.646 65.022 64.625 65.294 67.495 69.718 68.981 67.997 66.738 65.627 66.052 66.395 66.193 64.623 64.298 64.257 64.8 64.851 64.447 64.118 64.191 64.512 65.095 65.372 65.676 65.373 64.702 64.258 64.065 63.834 63.642 63.407 63.584 63.897 64.092 63.519 63.644 63.404 62.945 62.61 62.424 62.48 62.511 -9999 -9999 -9999 62.477 62.367 62.253 62.21 -9999 -9999 -9999 61.48 61.518 61.467 61.309 61.351 62.719 64.057 64.459 63.692 62.638 61.956 -9999 -9999 -9999 -9999 -9999 -9999 -9999 -9999 -9999 -9999 -9999 -9999 -9999 -9999 -9999 -9999 -9999 -9999 -9999 -9999 -9999 -9999 -9999 -9999 -9999 -9999 -9999 -9999 -9999 -9999 -9999 -9999 -9999 -9999 -9999 -9999 -9999 -9999 -9999 -9999 -9999 -9999 -9999 -9999 -9999
65.627 64.58 63.888 63.909 63.74 63.488 63.416 63.42 63.39 63.366 63.412 63.382 63.401 63.349 63.407 63.506 63.579 63.743 63.756 63.88 64.037 64.263 64.631 64.74 65.034 65.243 65.227 65.217 65.18 65.173 65.123 64.879 64.447 64.127 63.962 63.839 63.72 63.649 63.612 63.569 63.522 63.541 63.587 63.619 63.677 63.755 63.818 63.83 63.834 63.82 63.834 63.816 63.772 63.661 63.443 63.434 63.443 63.475 63.445 63.379 71.245 73.397 73.664 73.416 69.703 67.087 64.908 64.31 64.001 63.733 63.584 63.516 63.985 63.76 63.655 63.667 63.735 63.86 64.563 63.889 63.932 64.051 64.196 64.404 64.402 68.928 71.256 72.763 73.318 73.198 73.73 73.925 73.927 73.699 73.327 72.6 71.678 65.409 64.984 64.188 64.07 64.147 64.593 64.128 63.814 63.774 63.737 63.789 63.719 63.783 63.708 63.731 63.708 63.656 63.64 63.732 63.704 63.665 63.57 63.485 63.382 63.336 63.344 63.301 63.333 63.441 64.188 63.827 63.425 64.224 62.795 62.798 63.439 62.637 63.795 65.085 62.826 63.069 63.822 63.462 63.222 62.81 64.104 62.551 62.042 62.684 62.063 62.071 62.518 62.943 63.599 66.994 67.377 67.622 67.879 61.891 61.709 61.749 61.666 61.743 61.913 62.399 62.49 61.395 61.135 61.084 61.1 61.088 61.076 61.094 61.157 61.082 61.075 61.049 61.056 61.102 61.037 61.225 61.511 61.283 61.591 61.233 62.482 62.135 62.626 66.93 67.496 68.098 61.169 60.619 60.602 60.597 60.53 60.473 60.567 60.666 60.675 60.765 60.618 60.567 -9999 60.753 60.863 60.878 60.912 60.642 60.582 60.671 61.315 60.936 61.555 64.181 67.698 67.105 65.491 62.924 61.269 63.229 62.682 62.016 61.289 60.735 60.911 61.108 61.048 60.751 60.61 60.492 60.49 60.409 -9999 60.206 -9999 60.145 60.106 60.268 60.662 60.925 60.549 61.231 61.362 62.163 61.178 61.457 63.543 69.584 65.059 60.98 60.711 60.933 61.089 61.246 61.375 61.32 61.485 61.601 61.69 61.89 62.086 62.398 63.999 67.716 72.198 73.503 70.009 65.464 63.48 63.616 64.021 64.028 64.104 64.176 64.054 63.974 64.909 64.927 65.039 64.867 64.928 64.721 -9999 65.112 65.381 -9999 66.068 65.946 65.814 65.883 66.042 65.912 65.856 65.622 65.039 65.233 65.394 65.342 64.655 64.362 64.413 64.628 64.464 64.536 64.484 64.568 64.535 64.534 64.534 64.509 64.372 64.478 65.165 65.044 64.829 64.857 65.286 66.018 66.637 65.923 64.929 64.767 64.869 -9999 64.891 64.979 65.387 66.361 66.328 66.897 66.512 -9999 -9999 65.471 65.482 65.523 65.011 65.835 65.595 67.459 69.27 68.482 66.259 64.883 64.599 65.757 65.995 64.992 64.155 64.311 65.018 65.59 64.859 64.237 64.111 64.117 64.228 64.758 66.162 65.773 66.471 65.288 64.016 63.833 63.47 63.382 63.121 63.198 63.416 63.339 63.061 63.45 63.362 62.88 62.579 62.458 62.466 62.516 62.762 -9999 -9999 -9999 -9999 -9999 -9999 -9999 -9999 -9999 -9999 61.362 61.233 61.183 61.308 62.151 64.066 64.292 62.833 61.485 61.56 -9999 -9999 -9999 -9999 -9999 -9999 -9999 -9999 -9999 -9999 -9999 -9999 -9999 -9999 -9999 -9999 -9999 -9999 -9999 -9999 -9999 -9999 -9999 -9999 -9999 -9999 -9999 -9999 -9999 -9999 -9999 -9999 -9999 -9999 -9999 -9999 -9999 -9999 -9999 -9999 -9999 -9999 -9999 -9999 -9999
68.942 64.078 63.801 63.697 63.565 63.461 63.445 63.365 63.38 63.35 63.345 63.312 63.285 63.416 63.494 63.634 63.608 63.74 63.873 64.045 64.244 64.564 64.834 65.118 65.222 65.212 65.183 65.147 65.192 65.254 65.202 64.855 64.418 63.881 63.764 63.623 63.544 63.551 63.5 63.44 63.411 63.486 63.512 63.515 63.583 63.675 63.774 63.769 63.743 63.752 63.784 63.763 63.674 63.823 64.377 63.343 63.416 63.421 63.465 63.361 63.86 69.925 69.532 66.532 63.835 64.261 63.919 63.605 63.499 63.365 63.435 63.49 63.534 63.581 63.688 64.145 64.446 63.784 63.86 64.065 64.327 64.28 66.546 65.457 71.759 73.592 73.295 74.471 73.747 73.947 73.918 73.525 74.081 72.491 71.571 65.768 65.315 64.022 64.041 64.014 64.119 63.873 64.1 64.855 63.869 63.762 63.786 63.772 63.762 63.679 63.61 64.343 64.878 64.019 63.754 63.683 63.59 63.548 63.502 63.414 63.312 63.304 63.282 63.271 63.333 63.255 63.497 64.567 63.725 62.792 62.662 62.425 63.318 62.614 62.594 64.1 63.109 63.419 62.958 62.337 62.059 62.975 64.147 62.68 61.939 61.912 62.371 62.826 63.606 66.867 67.449 67.889 68.548 68.67 68.775 64.946 61.494 61.714 61.603 61.702 61.753 62.238 62.599 61.638 61.087 61.048 61.08 61.118 61.021 61.038 61.082 61.052 60.98 61.037 61.097 61.079 61.159 61.32 62.327 61.284 60.877 60.756 61.392 62.941 67.789 69.44 68.001 61.58 61.206 60.944 60.674 60.598 60.617 60.463 60.488 60.419 60.389 60.468 60.64 60.624 60.515 60.748 60.674 60.588 60.63 60.618 60.577 60.557 60.586 60.93 61.158 63.147 64.828 64.953 60.836 60.999 61.081 61.766 62.4 61.607 61.343 61.118 61.012 61.056 61.042 60.969 60.687 60.481 60.444 60.424 60.391 60.309 60.211 60.093 60.018 60.186 -9999 61.129 61.65 62.553 67.99 67.297 66.5 66.228 67.573 70.553 65.78 60.779 60.845 60.936 61.116 61.362 61.29 61.426 61.573 61.696 61.7 61.815 62.129 62.266 63.643 71.014 73.822 74.289 66.56 63.877 63.438 63.572 63.731 63.889 64.282 64.596 64.36 63.945 64.565 64.174 64.384 64.194 64.624 64.719 65.93 66.531 66.615 66.416 66.178 66.174 65.572 64.898 65.37 65.675 64.949 65.133 65.015 65.831 66.297 66.234 65.849 64.904 64.259 64.307 64.428 64.604 64.568 64.533 64.474 64.387 64.376 64.372 64.487 64.602 65.205 64.631 64.644 64.732 65.205 66.257 66.664 66.154 64.675 64.85 65.393 65.078 64.766 64.736 64.591 65.068 65.085 65.992 -9999 -9999 65.064 65.262 65.624 65.208 64.55 64.979 64.823 65.659 67.656 66.347 64.522 64.37 64.412 64.916 64.789 64.381 64.368 65.225 65.718 64.921 64.118 64.102 64.167 64.123 64.036 64.601 67.355 68.859 71.428 67.665 64.459 63.664 63.076 63.262 62.818 62.849 63.215 63.658 63.812 63.631 63.711 63.224 63.084 63.251 62.904 62.728 63.181 63.409 -9999 -9999 -9999 -9999 -9999 -9999 -9999 -9999 -9999 61.258 61.156 61.063 61.026 60.977 61.725 62.529 61.453 61.029 61.259 -9999 62.847 62.944 62.87 -9999 -9999 -9999 -9999 -9999 -9999 -9999 -9999 -9999 -9999 -9999 -9999 -9999 -9999 -9999 -9999 -9999 -9999 -9999 -9999 -9999 -9999 -9999 -9999 -9999 -9999 -9999 -9999 -9999 -9999 -9999 -9999 -9999 -9999 -9999 -9999 -9999 -9999 -9999 -9999 -9999
69.008 65.7 63.478 63.566 63.4 63.377 63.334 63.321 63.295 63.222 63.192 63.308 63.557 63.583 63.497 63.529 63.652 63.846 64.009 64.341 64.568 64.905 65.143 65.269 65.251 65.232 65.26 65.258 65.313 65.322 65.248 64.784 64.171 63.706 63.566 63.552 63.528 63.456 63.385 63.381 63.327 63.386 63.458 63.445 63.476 63.574 63.653 63.708 63.719 63.679 63.659 63.667 63.649 63.586 63.523 63.266 63.261 63.324 63.328 63.276 63.301 63.443 64.783 64.643 63.964 63.846 63.367 64.052 63.289 63.375 63.403 63.474 63.478 64.338 63.939 63.584 63.633 63.756 64.132 64.807 67.117 69.975 70.819 71.719 72.428 73.513 73.918 74.062 73.9 73.355 72.781 73.285 72.733 65.51 64.524 64.122 64.368 64.163 63.892 63.873 64.417 64.533 64.138 63.893 63.801 63.78 63.728 63.689 63.589 63.634 66.227 70.403 67.2 64.635 68.444 63.833 63.602 63.558 63.485 63.371 63.289 63.249 63.234 63.295 63.233 63.248 63.427 64.531 62.743 62.465 63.153 62.732 62.87 63.368 63.27 63.371 62.26 62.212 62.534 62.396 61.982 62.457 62.729 61.981 61.773 62.602 65.885 66.881 67.501 68.037 68.632 68.537 68.98 68.444 67.897 66.693 61.639 63.493 61.835 63.606 63.253 61.661 61.111 60.944 60.978 61.008 61.038 61.093 61.052 61.041 60.942 60.93 61.004 61.12 61.215 62.006 61.657 61.18 60.948 60.918 61.518 61.149 60.965 62.888 62.865 68.227 62.063 61.624 61.326 60.759 60.618 60.859 60.767 60.546 60.64 60.5 60.327 60.282 60.447 60.523 -9999 60.498 60.464 60.414 60.571 60.566 60.555 60.469 60.454 61.008 61.62 62.327 63.104 61.6 61.276 61.115 61.251 62.259 62.821 62.406 61.733 61.02 60.997 60.915 61.256 61.283 61.826 60.823 60.496 60.504 60.278 60.229 60.249 60.163 60.132 60.277 -9999 -9999 62.077 61.46 66.174 70.564 72.433 73.206 72.703 70.835 62.73 60.741 60.787 60.74 60.862 61.193 61.232 61.387 61.635 61.776 61.841 61.891 62.057 62.127 65.305 75.623 73.912 66.43 63.522 63.147 63.335 63.494 63.745 63.849 64.77 65.916 66.949 66.999 67.355 65.762 65.094 64.732 -9999 71.47 70.752 68.369 66.723 66.688 66.14 66.515 65.672 64.839 65.111 64.673 64.65 64.666 64.889 66.235 68.194 68.416 66.435 64.77 64.373 64.442 64.715 64.809 -9999 -9999 64.413 64.318 64.257 64.371 64.585 64.914 64.33 64.254 64.511 65.03 65.041 66.002 66.543 66.318 64.676 64.756 65.568 64.886 64.713 64.784 64.651 64.66 64.849 -9999 -9999 -9999 -9999 64.999 65.071 64.886 64.124 64.152 64.209 64.43 65.494 64.824 64.408 64.351 64.391 64.679 64.929 64.772 65.114 65.588 65.442 64.469 64.068 64.1 64.196 63.995 63.975 64.769 68.222 70.86 71.945 68.037 65.53 64.357 63.541 63.219 62.878 62.798 63.486 63.862 64.212 63.913 63.787 63.603 63.62 64.378 63.9 63.097 63.477 63.465 63.52 -9999 -9999 -9999 -9999 -9999 -9999 -9999 -9999 -9999 -9999 60.992 60.905 60.979 61.283 61.099 61.087 61.363 61.515 62.19 62.821 63.158 63.054 62.311 61.607 -9999 -9999 -9999 -9999 -9999 -9999 -9999 -9999 -9999 -9999 -9999 -9999 -9999 -9999 -9999 -9999 -9999 -9999 -9999 -9999 -9999 -9999 -9999 -9999 -9999 -9999 -9999 -9999 -9999 -9999 -9999 -9999 -9999 -9999 -9999 -9999 -9999 -9999 -9999
69.261 68.127 63.507 63.957 63.427 63.307 63.294 63.289 63.203 63.111 63.23 63.233 63.392 63.455 63.528 63.609 63.724 63.952 64.198 64.517 64.848 65.077 65.264 65.295 65.28 65.257 65.335 65.404 65.466 65.506 65.384 64.611 63.982 63.538 63.509 63.431 63.422 63.397 63.34 63.282 63.262 63.316 63.309 63.365 63.419 63.52 63.544 63.632 63.634 63.62 63.631 63.608 63.571 63.528 63.436 63.296 63.159 63.238 63.215 63.222 63.196 63.249 63.704 63.459 63.245 63.245 63.516 63.543 63.288 63.322 63.324 63.654 63.419 63.609 63.691 63.888 64.335 66.179 64.54 65.093 70.132 72.471 72.23 73.082 73.522 73.807 73.955 74.107 73.233 72.857 68.682 68.479 65.593 64.795 64.278 64.479 64.091 63.874 64.89 64.061 64.198 63.808 63.821 63.756 63.739 63.728 63.67 64.579 65.564 70.535 71.4 71.489 70.251 68.576 70.534 67.248 63.556 63.487 63.456 63.324 63.269 63.22 63.188 63.192 63.191 63.265 68.026 67.703 66.305 64.741 62.677 62.455 63.427 62.393 62.475 62.337 62.263 62.007 62.325 62.372 61.954 61.839 61.777 61.711 65.468 67.194 67.449 67.994 68.385 68.886 68.838 68.247 67.613 66.966 63.394 62.765 61.286 62.917 63.592 61.366 61.317 60.91 60.985 60.975 60.976 61.01 61.062 60.975 60.901 60.979 60.919 60.859 60.947 62.397 62.53 62.109 60.882 60.787 60.703 60.771 61.144 61.263 60.724 61.652 62.97 62.524 60.893 60.585 60.467 60.551 60.512 61.033 60.86 60.621 60.528 60.537 60.781 60.472 60.463 60.497 60.539 -9999 60.448 60.474 60.52 60.523 60.489 60.431 60.455 60.781 61.452 61.684 62.361 62.12 61.485 61.579 62.38 62.969 63.24 63.053 62.245 61.148 60.958 61.188 63.148 64.426 66.991 63.284 60.622 61.137 60.625 60.411 60.371 -9999 -9999 -9999 -9999 -9999 63.122 62.243 62.981 69.389 74.643 76.299 76.008 74.374 65.465 62.441 61.316 60.798 60.911 61.094 61.247 61.384 61.403 61.611 61.784 61.785 62.023 62.149 65.133 72.554 70.007 63.183 62.882 63.024 63.174 63.199 63.511 63.74 64.424 69.9 70.239 71.137 70.505 70.65 70.699 71.424 73.817 74.702 73.88 71.78 68.76 66.137 65.749 65.73 64.645 64.365 64.506 64.453 64.411 64.477 65.295 66.907 68.979 69.671 67.107 64.888 64.349 64.525 65.196 65.172 65.268 -9999 64.678 64.471 64.275 64.353 64.431 64.545 64.047 64.155 64.228 64.574 64.813 65.447 66.329 66.083 65.03 64.692 64.658 64.547 64.535 64.677 64.7 64.677 64.674 -9999 -9999 -9999 -9999 64.548 64.164 63.731 63.91 64.081 64.21 64.41 65.526 66.371 66.164 65.122 64.543 64.704 64.612 65.431 65.606 65.544 64.683 64 64.059 64.007 63.964 64.017 64.096 64.773 66.878 69.148 70.738 67.006 65.468 64.239 63.657 63.665 62.936 63.237 63.528 63.829 64.139 63.7 63.48 63.359 62.876 66.129 64.273 62.563 63.579 63.627 63.4 63.282 -9999 -9999 -9999 -9999 66.527 -9999 -9999 -9999 -9999 60.801 60.916 60.996 61.122 61.913 61.64 62.099 62.035 62.439 62.42 63.32 63.031 61.524 60.696 60.53 60.523 60.475 -9999 -9999 -9999 -9999 -9999 -9999 -9999 -9999 -9999 -9999 -9999 -9999 -9999 -9999 -9999 -9999 -9999 -9999 -9999 -9999 -9999 -9999 -9999 -9999 -9999 -9999 -9999 -9999 -9999 -9999 -9999 -9999 -9999 -9999 -9999 -9999
