ncols 438
nrows 31
xllcorner    432120
yllcorner    435928
cellsize     2
NODATA_value -9999
56.325 58.81 56.78 58.32 59.718 60.375 60.7 57.575 57.925 58.375 58.485 58.538 58.765 59.595 59.295 59.38 59.88 60.368 62.01 69.853 70.118 70.133 70.118 70.12 70.093 70.113 61.558 61.065 62.053 62.98 63.653 63.955 63.97 63.998 64.028 64.103 64.173 66.04 70.698 71.285 69.583 64.648 64.92 64.73 64.395 70.815 72.078 72.978 73.03 72.51 71.94 71.303 67.738 64.75 65.155 65.17 65.275 65.435 65.533 65.85 66.465 66.283 66.923 66.663 66.743 66.81 66.928 67.08 67.24 67.68 68.448 67.758 67.775 68.7 72.16 74.728 74.793 74.498 71.55 69.505 69.803 70.265 69.93 70.065 70.165 70.265 71.228 70.673 70.91 76.705 77.118 77.068 76.988 73.053 71.655 71.968 71.935 72.588 72.858 73.293 73.518 73.733 73.95 74.768 76.263 75.493 75.283 75.13 75.155 75.245 75.423 75.628 75.983 75.755 75.938 76.1 76.278 76.473 76.65 76.79 77.03 77.243 77.663 77.78 78.21 78.028 78.005 79.96 84.27 85.745 85.505 84.128 78.845 78.393 79.4 79.393 79.288 79.298 79.333 79.458 79.983 80.283 82.02 83.97 83.438 83.453 83.473 81.875 81.595 81.635 81.718 82.478 82.535 82.58 84.34 85.61 84.285 83.588 83.708 83.798 84.19 84.808 84.583 84.408 86.558 86.01 88.51 86.083 85.178 85.203 85.435 85.258 91.933 91.613 85.528 85.938 86.215 92.23 93.563 93.4 92.933 92.478 92.033 86.54 86.578 86.273 85.963 87.458 86.015 86.098 86.213 86.138 86.32 85.793 85.598 85.59 86.103 85.505 85.533 85.575 85.598 85.628 85.638 85.66 85.668 85.673 85.695 85.865 85.853 85.893 85.8 86.62 85.73 85.7 85.64 85.578 85.768 86.29 91.538 92.03 92.533 93.138 93.265 92.09 89.193 85.203 85.013 85.543 84.753 84.71 84.56 88.275 86.603 84.39 86.125 86.768 86.755 86.298 83.843 83.75 83.968 84.01 83.64 83.59 83.558 83.54 83.548 84.955 83.655 83.15 85.215 85.03 83.56 82.645 82.363 82.54 82.215 81.968 81.865 81.748 81.758 81.67 81.548 81.628 82.903 81.165 81.043 80.895 80.768 80.91 80.425 80.37 80.283 80.328 80.303 80.235 80.45 80.435 80.57 80.5 80.548 86.183 87.645 88.463 87.738 86.565 81.978 81.188 80.143 79.34 79.105 79.37 78.417 78.405 78.75 78.842 77.907 77.815 77.55 77.57 83.169 84.152 85.128 84.9 84.189 83.092 79.632 77.261 77.042 76.896 77.462 77.685 82.495 83.669 84.538 84.175 83.363 80.245 78.149 78.515 78.386 78.183 77.988 75.764 79.255 80.505 78.508 74.964 76.784 76.783 76.736 76.529 74.627 73.517 77.301 79.114 80.055 73.482 73.302 77.451 79.645 80.264 80.724 81.832 82.095 81.763 81.293 81.055 81.11 79.552 75.307 72.354 72.26 72.188 72.091 71.937 71.847 71.719 71.671 71.608 71.435 71.391 71.34 71.262 71.185 71.17 71.12 71.051 70.984 70.905 70.866 70.774 70.867 70.809 70.745 70.689 70.636 70.536 70.525 70.462 70.376 70.326 70.172 70.067 69.996 69.964 69.986 69.994 69.906 69.836 69.829 71.391 75.06 77.455 77.783 75.31 75.163 70.428 70.148 70.089 69.88 69.857 69.872 69.82 69.736 69.619 69.606 69.61 69.633 69.671 69.982 69.922 69.755 69.682 70.035 73.036 73.075 70.765 70.412 69.512 69.701 69.899 69.363 71.302 77.032 77.12 77.725 72.853 69.997 70.626 68.83 67.676 68.294 67.737 67.467 67.463 67.599 67.637
62.653 63.66 62.378 57.01 57.438 59.253 57.688 57.798 58.198 58.345 58.323 58.488 58.653 58.745 59.055 59.273 60.203 60.548 70.198 70.513 70.103 70.193 71.27 70.163 70.148 70.108 70.085 68.305 60.853 61.918 62.335 64.673 64.04 64.035 64.053 64.11 64.245 64.205 66.888 70.083 64.263 64.3 64.418 64.36 64.258 68.113 71.49 72.405 71.863 71.32 70.723 68.915 67.805 64.785 65.05 65.158 65.32 65.453 65.528 65.588 65.745 66.338 66.888 66.433 67.968 67.008 66.898 67.77 68.448 70.148 69.868 67.733 67.78 68.695 73.783 76.245 76.403 75.938 72.605 69.65 69.818 70.08 69.918 70.03 70.123 70.235 70.825 70.73 70.878 76.708 78.013 78.295 77.19 71.16 72.14 72.278 72.46 72.58 72.813 73.278 73.493 73.678 73.878 75.15 75.838 75.095 74.745 74.858 74.933 75.01 75.635 76.338 75.515 75.663 75.81 76.028 76.178 76.393 76.593 76.78 76.978 77.16 77.53 77.473 77.6 77.785 78.013 81.3 84.633 86.063 85.19 81.593 78.41 78.885 78.46 79.325 79.225 79.188 79.265 79.318 79.89 80.403 81.568 81.883 81.315 83.57 83.683 81.928 81.638 81.66 81.72 82.555 82.575 82.578 82.893 85.73 84.388 84.665 83.775 83.778 83.84 84.708 84.023 84.05 85.255 84.41 85.123 85.12 85.273 85.218 87.483 91.48 92.92 92.913 85.38 85.658 86.893 91.825 92.508 92.045 91.213 89.478 87.558 86.048 85.785 86.913 85.765 86.333 85.695 85.885 85.718 85.513 85.508 85.508 85.48 86.32 85.635 85.503 85.55 85.57 85.573 85.718 86.763 86.805 85.743 85.738 85.795 85.825 85.79 85.783 85.748 86.003 85.615 86.348 88.683 85.545 86.323 85.5 91.39 92.623 93.35 93.463 92.343 91.86 91.228 85.16 85.108 84.935 84.705 84.585 84.495 84.68 84.243 84.223 84.325 86.705 85.408 87.013 83.873 83.74 85.088 85.573 83.57 83.528 85.003 84.343 85.888 89.258 88.33 82.27 84.553 85.413 84.558 84.245 82.3 82.38 82.38 82.225 81.863 81.64 82.953 85.115 83.885 82.453 81.323 82.24 81.198 80.763 80.58 80.443 80.353 80.225 80.268 80.288 80.235 80.238 80.388 80.653 80.495 80.49 80.995 86.683 87.853 88.375 87.355 85.73 81.898 81.395 79.393 79.073 79.03 78.53 78.415 78.37 79.662 78.837 77.925 77.84 77.552 80.262 81.063 83.111 84.482 85.308 84.948 83.997 83.006 79.166 77.151 77.318 77.134 82.188 83.231 84.036 84.454 84.535 82.604 77.201 76.376 77.712 78.747 78.175 77.439 76.789 75.728 75.29 76.856 75.562 75.894 76.607 76.542 76.315 76.246 74.476 73.519 73.659 76.541 76.744 79 80.027 80.983 81.405 82.022 81.777 81.397 81.295 80.715 79.552 74.919 72.434 72.375 72.245 72.207 72.112 71.983 71.864 71.777 71.772 71.662 71.592 71.495 71.373 71.337 71.313 71.272 71.228 71.129 71.035 71.035 70.971 71.008 70.941 70.889 70.8 70.718 70.667 70.586 70.514 70.44 70.417 70.334 70.166 70.13 70.085 70.036 70.061 69.992 69.923 69.88 71.219 71.59 71.585 70.166 75.946 76.418 75.859 72.503 69.965 69.944 69.913 69.878 69.853 69.912 69.917 69.766 69.722 69.588 69.622 69.642 69.566 69.685 70.662 70.114 69.683 69.936 71.347 70.595 71.627 71.656 71.013 69.449 70.947 71.633 71.707 69.998 76.915 73.525 72.858 69.787 68.929 69.31 67.587 67.51 67.488 67.761 69.645 70.143 67.795
63.695 64.663 63.978 63.233 57.503 57.343 58.14 57.983 57.93 58.048 58.188 58.398 58.523 58.768 58.978 59.278 60.055 61.795 70.588 70.093 70.125 71.225 70.245 70.123 70.16 70.163 70.123 70.113 70.165 60.86 61.528 62.57 63.573 64.09 64.088 64.218 64.13 64.815 67.208 64.878 64.235 64.228 64.963 64.18 64.218 65.04 70.888 71.243 70.663 67.618 64.683 65.038 64.863 64.875 64.753 65.36 65.34 65.433 65.503 65.608 67.345 70.678 71.098 68.198 66.525 66.59 66.718 66.888 67.343 67.913 69.26 68.538 68.278 69.04 73.935 76.365 77.32 75.858 72.978 69.64 69.793 70.128 69.863 69.99 70.09 70.195 70.593 70.655 71.46 76.843 78.083 78.35 77.135 71.198 72.05 72.238 72.358 72.515 72.778 73.173 73.473 73.57 75.075 74.873 75.158 74.435 74.623 74.758 74.753 74.948 75.12 75.268 75.398 75.625 75.888 76.065 76.275 76.818 76.573 76.79 76.873 77.098 77.585 77.42 77.593 77.758 77.913 82.21 84.963 86.165 84.838 79.105 79.52 80.455 78.588 78.633 79 79.078 79.17 79.398 79.89 80.588 80.463 80.875 80.855 83.225 83.898 81.75 81.963 81.715 81.763 82.033 82.83 82.603 82.655 85.63 84.978 85.888 83.833 83.75 83.803 86.16 84.938 85.38 84.123 84.208 85.008 86.475 90.675 91.265 91.705 92.473 92.873 92.753 87.543 85.28 85.835 87.195 89.268 87.373 85.978 85.773 85.71 86.113 85.575 86.715 85.493 85.43 85.413 85.405 86.323 86.273 85.368 85.378 85.395 85.438 85.47 85.498 85.52 85.545 85.613 85.723 85.75 85.82 86.258 85.78 85.863 85.963 85.863 85.665 86.16 88.19 90.71 91.583 92.09 88.29 85.47 85.428 87.695 92.118 92.098 91.643 90.193 86.055 85.345 85.165 85.278 85 85.773 84.475 84.393 84.3 84.45 84.13 84.063 84.47 84.713 83.925 84.355 83.773 84.773 83.78 84.995 85.878 88.088 88.1 84.225 88.43 86.993 82.153 82.733 84.978 85.008 82.735 82.533 82.615 82.215 82.085 83.133 81.763 82.803 87.45 87.268 83.555 81.26 81.168 81.098 82.663 80.73 80.358 80.27 80.2 80.23 80.23 80.165 80.248 80.388 80.463 80.465 80.438 83.77 86.9 87.415 87.805 86.713 81.773 81.058 81.078 81.06 79.72 79.292 78.425 78.375 78.33 79.172 78.46 77.93 77.797 77.65 77.48 77.835 78.318 83.524 84.457 84.934 84.028 83.166 80.704 78.368 77.301 77.542 81.024 83.08 83.97 83.58 82.427 78.637 76.517 75.99 75.927 77.676 76.138 77.017 77.093 75.893 75.225 77.16 75.094 76.393 76.367 76.268 76.384 76.705 76.724 73.718 73.339 75.021 79.895 80.492 81.18 81.774 81.84 81.61 80.751 80.331 78.438 75.877 72.885 72.515 72.436 72.349 72.2 72.124 72.055 71.879 71.898 71.933 71.881 71.795 71.618 71.462 71.434 71.394 71.364 71.342 71.234 71.184 71.071 71.099 71.085 71.002 70.893 70.792 70.718 70.673 70.602 70.542 70.487 70.445 70.264 70.254 70.207 70.217 70.176 70.11 70.002 69.956 69.933 69.933 70.609 70.53 69.855 69.871 70.87 75.563 74.679 71.219 69.919 69.908 69.913 69.931 70.323 70.228 69.801 69.738 69.76 69.686 69.55 69.591 69.587 69.666 69.967 70.11 70.536 70.568 70.4 72.198 71.663 70.546 69.91 72.067 72.046 75.053 77.627 72.784 70.441 72.784 72.702 72.301 72.465 70.55 67.528 67.547 69.71 70.882 71.17 70.868 67.789
64.49 65.538 64.985 64.02 62.533 57.41 57.608 57.763 57.833 57.903 58.133 58.283 58.413 58.715 59.365 59.448 59.325 68.808 70.068 70.118 70.108 70.03 70.033 70.068 70.105 70.145 70.198 70.145 70.183 66.278 61.17 62.223 63.225 64.24 64.675 64.268 64.158 64.12 64.608 64.225 64.185 64.22 65.513 64.14 64.173 64.205 67.628 68.708 64.57 64.525 64.583 64.845 64.978 65.028 64.803 65.298 65.368 65.398 65.47 65.538 70.22 68.968 68.345 67.135 66.525 66.598 66.76 66.915 67.058 67.33 67.588 68.073 69.015 68.995 74.295 76.45 78.125 75.825 70.92 69.708 69.818 70.055 69.82 69.943 70.028 70.168 70.94 71.06 70.875 76.888 78.48 78.623 77.083 72.62 71.79 72.09 72.25 72.408 72.833 73.385 73.19 74.683 76.43 74.058 74.185 74.408 74.395 74.54 74.725 74.875 75.005 75.153 75.463 75.615 75.785 76.123 76.34 77.488 76.548 76.755 76.915 77.005 77.2 77.433 77.493 77.73 81.135 83.563 85.255 85.69 84.503 79.058 78.31 78.328 78.375 78.805 80.323 80.693 80.748 79.938 80.18 80.745 80.813 80.708 80.793 82.305 83.965 82.253 82.843 81.83 81.903 81.91 82.863 82.608 82.64 83.893 83.095 85.79 84.168 83.728 83.775 85.02 86.68 87.515 89.21 84.13 84.518 84.935 91.295 92.615 92.695 92.345 91.81 91.418 89.668 85.21 85.555 85.5 85.62 85.82 85.783 86.103 85.693 85.738 85.338 85.345 85.325 85.325 85.228 85.253 85.298 85.313 85.36 85.395 85.393 85.395 85.62 85.428 85.483 85.565 85.66 85.853 86.603 85.675 85.64 85.668 85.725 86.598 86.998 90.158 91.4 91.865 92.755 92.42 93.313 93.195 85.428 85.758 85.748 91.365 86.97 85.35 85.33 85.365 86.073 86.88 88.26 87.22 87.275 84.378 84.285 84.208 84.86 83.993 83.963 83.943 84.125 83.958 83.878 83.82 84.023 85.36 85.513 83.563 87.975 87.758 84.65 82.98 82.73 82.695 82.04 82.685 81.96 81.905 82.188 82.108 82.533 83.58 83.553 82.965 87.465 88.423 88.228 87.23 84.085 81.038 80.973 80.865 81.683 80.358 80.205 80.18 80.19 80.163 80.118 80.275 80.335 80.553 80.455 80.375 80.348 80.998 84.033 86.718 86.218 81.443 80.853 80.358 80.098 79.293 79.912 79.045 78.295 78.227 79.642 77.927 77.84 77.72 77.722 77.632 77.47 78.514 80.572 83.512 84.338 83.957 83.075 81.787 79.035 78.726 78.25 82.511 83.497 83.716 82.624 76.901 77.131 76.483 76.078 75.914 75.998 75.811 77.499 75.473 76.374 75.655 74.886 75.993 75.472 76.279 76.587 76.907 77.304 79.376 76.049 73.4 73.557 80.584 81.606 81.918 81.525 81.278 80.284 79.672 78.11 72.777 72.693 72.624 72.484 72.431 72.264 72.296 72.211 71.995 72.035 71.977 71.936 71.873 71.663 71.579 71.55 71.492 71.483 71.422 71.321 71.246 71.308 71.305 71.245 71.171 71.042 70.927 70.879 70.777 70.695 70.615 70.582 70.453 70.382 70.371 70.273 70.264 70.232 70.175 70.17 70.174 70.063 70.026 69.99 69.969 69.986 69.899 70.045 70.783 70.992 69.973 69.961 69.981 70.189 70.275 71.279 69.858 69.793 69.778 69.754 69.856 69.632 69.544 69.55 69.605 69.577 69.626 69.682 69.911 73.322 74.544 74.65 70.917 69.148 71.32 71.476 72.403 77.433 78.425 77.339 72.519 71.467 71.426 74.258 71.035 74.667 71.799 67.569 70.191 70.567 70.369 69.629 67.54
65.228 65.458 64.355 63.268 56.318 57.45 57.715 57.643 57.69 57.825 58.04 58.148 58.458 58.6 60.565 59.118 61.08 70.028 70.073 70.11 70.058 70.14 63.233 67.393 70.1 70.093 70.12 70.15 70.17 64.96 61.368 62.38 63.383 64.525 63.878 63.68 64.6 64.2 64.215 64.223 64.2 64.215 66.288 64.118 64.123 64.173 64.238 67.073 64.323 64.378 65.61 64.825 64.808 64.84 64.885 66.075 65.363 65.403 65.443 66.76 66.98 66.593 66.423 66.395 66.443 66.675 66.758 66.913 67.038 67.513 67.68 68.118 68.978 68.975 74.578 76.508 77.24 75.76 71.638 69.805 69.683 70.035 69.765 69.913 69.988 70.11 70.77 70.588 71.715 76.953 78.2 78.245 76.878 71.355 71.38 71.685 72.32 72.463 72.605 73.665 75.42 74.948 73.713 73.955 74.04 74.103 74.31 74.495 74.628 74.745 75 75.228 75.338 76.205 76.18 76.295 77.88 76.595 76.643 76.703 76.903 76.983 77.153 77.275 77.528 77.728 79.195 83.783 85.335 84.703 84.183 81.385 78.228 78.313 78.385 78.678 81.623 83.118 84.148 79.835 79.84 79.913 80.168 81.458 80.75 80.803 80.915 81.918 82.968 81.868 81.96 81.983 82.36 82.788 85.298 87.363 82.8 83.635 83.93 86.498 88.25 89.648 90.053 90.475 90.673 87.67 84.113 84.87 90.863 91.735 91.285 90.303 89.15 85.25 85.14 85.153 85.28 85.248 85.573 85.7 85.79 85.575 85.23 85.233 85.228 85.21 85.193 85.203 85.24 85.258 85.283 85.293 85.308 85.548 85.713 87.168 85.82 85.525 85.59 85.595 85.6 85.603 85.92 85.59 85.608 85.645 85.96 86.458 85.695 88.385 92.198 93.105 93.428 93.443 93.413 93.398 86.04 86.29 85.25 85.26 85.31 85.165 85.075 85.13 84.63 84.665 88.093 87.728 87.318 86.573 84.225 84.125 84.145 84.075 83.888 83.833 83.88 85.418 84.988 85.545 86.145 84.623 83.385 83.245 85 86.31 83.143 82.785 82.535 82.575 82.095 81.94 81.875 81.855 81.838 82.923 81.783 83.658 84.838 87.478 88.315 88.938 88.073 86.97 83.705 80.935 80.745 81.055 80.293 80.33 80.12 80.15 80.145 81.425 80.26 80.27 80.475 80.395 80.24 80.18 80.32 80.27 80.238 81.1 84.165 80.175 80.158 80.138 79.495 79.055 78.965 78.532 78.28 78.857 78.9 78.625 77.755 77.77 77.702 77.615 77.495 78.325 80.332 80.486 83.175 82.714 81.877 80.001 78.271 79.094 78.064 79.183 82.784 82.754 77.758 76.66 76.329 78.09 79.549 76.759 75.759 75.584 77.403 75.149 76.579 74.859 74.361 75.743 75.956 74.043 76.975 78.682 80.112 80.361 80.115 74.08 73.32 76.909 81.411 81.47 80.695 79.963 77.899 73.664 72.914 72.78 72.737 72.623 72.503 72.343 72.271 72.231 73.292 72.17 72.109 72.064 71.875 71.8 71.748 71.674 71.642 71.561 71.529 71.404 71.491 71.457 71.42 71.35 71.265 71.177 71.097 71.008 70.922 70.801 70.721 70.642 70.519 70.456 70.445 70.398 70.331 70.292 70.208 73.392 74.817 73.556 70.183 70.108 70.022 70.062 70.138 70.055 69.912 69.935 69.97 69.973 70.01 70.651 71.117 69.845 70.502 70.731 69.856 70.547 69.753 69.731 69.805 69.568 69.538 69.593 69.477 69.523 70.502 73.409 73.978 73.823 71.37 69.549 74.539 74.81 69.168 69.233 73.335 76.472 74.349 75.535 73.467 70.558 70.142 69.894 68.967 68.158 68.496 68.297 68.842 70.082 70.004 69.713
65.71 64.648 63.578 57.02 57.403 57.485 57.553 57.525 57.57 57.79 58.333 58.115 58.35 58.885 58.593 58.565 69.985 70.058 70.105 70.08 70.03 61.063 61.233 60.633 60.743 66.958 70.08 69.59 69.308 60.898 61.818 63.56 63.483 63.54 63.443 63.555 63.603 63.763 64.235 64.208 64.285 66.358 66.228 66.643 65.403 64.895 64.203 64.23 64.303 64.333 64.363 64.79 64.788 64.823 65.278 67.163 65.598 65.46 65.42 68.163 67.775 67.253 66.44 66.37 66.393 66.548 66.6 67.245 68.14 67.273 67.548 68.088 68.97 68.97 75.105 76.1 76.145 75.705 69.38 69.763 69.68 69.925 69.705 69.87 69.963 70.068 70.493 70.515 71.655 77.015 77.718 77.88 76.96 71.348 71.373 72.285 72.24 72.45 75.135 76.008 73.3 73.47 73.663 73.65 73.855 74.06 74.228 74.35 74.53 74.803 74.938 75.885 75.9 75.825 76.075 76.245 77.38 77.273 76.733 76.718 76.855 76.995 77.043 77.233 77.42 77.653 81.408 84.228 85.06 84.293 82.605 78.415 78.323 78.673 78.56 78.653 78.78 82.258 85.363 84.808 79.875 79.948 79.958 81.458 80.935 80.883 80.778 81.953 81.858 81.858 81.935 81.998 82.153 85.943 88.793 88.835 82.903 82.988 83.573 90.04 90.703 91.118 91.915 91.578 91.1 89.233 84.095 84.71 89.148 87.198 85.468 85.038 85.128 85.095 85.075 85.008 84.988 85.048 85.245 85.048 85.063 85.078 85.063 85.07 85.113 85.143 85.198 85.22 85.198 85.195 85.223 85.295 86.358 85.805 85.465 85.638 85.54 85.533 85.625 85.58 85.548 85.54 86.118 88.135 91.093 91.525 91.328 85.575 85.588 85.538 91.72 92.703 92.24 92.83 93.1 88.88 85.333 85.348 86.005 87.205 85.15 85 84.75 85.128 84.533 84.473 87.755 88.198 87.17 87.228 84.123 84.045 83.955 84.43 83.863 84.053 87.295 87.708 87.615 85.355 85.283 83.268 83.303 83.1 83.133 86.573 87.968 86.985 82.473 82.47 82.653 81.875 81.818 86.023 87.755 83.405 82.043 81.888 87.395 88.358 88.97 88.048 87.1 83.425 80.993 80.798 80.553 80.315 80.26 80.155 80.095 80.11 80.24 80.503 80.26 80.305 80.195 80.225 80.295 84.678 81.543 80.87 80.128 80.215 80.203 82.195 81.14 80.12 79.105 79.005 78.925 78.197 78.115 78.487 78.74 78.635 77.897 77.745 77.667 77.582 77.405 77.287 77.978 78.854 77.316 81.372 78.552 77.078 77.556 79.191 77.445 76.529 77.852 78.255 76.385 76.2 76.023 78.152 80.525 77.088 75.464 74.963 74.95 75.044 74.925 74.688 74.435 74.384 76.324 74.71 77.786 80.28 81.183 81.63 80.598 77.004 73.401 74.574 79.791 79.939 79.058 74.252 73.755 72.998 72.879 72.834 72.685 72.547 72.551 72.506 72.345 72.277 72.295 72.288 72.043 71.955 71.879 71.827 71.773 71.707 71.618 71.569 71.602 71.566 71.556 71.497 71.412 71.314 71.229 71.132 71.06 70.96 70.886 70.81 70.63 70.57 70.561 70.54 70.483 70.394 70.379 70.295 70.35 74.833 74.748 74.734 70.18 70.105 70.531 70.184 70.01 69.923 69.853 69.882 69.871 69.945 70.482 70.175 71.56 69.801 69.768 69.825 73.467 74.605 70.866 69.799 69.869 69.574 69.521 69.564 69.545 69.423 70.203 73.44 69.419 72.305 74.747 75.793 76.287 75.414 72.526 73.086 72.316 70.629 71.137 75.455 73.954 70.554 68.902 68.698 68.466 68.102 67.78 67.473 68.013 69.519 68.477 66.903
65.015 63.913 59.895 57.358 57.353 57.683 57.365 57.383 57.513 57.703 58.778 58.105 58.39 58.82 58.518 63.033 70.283 70.093 70.105 70.06 69.955 59.808 60.468 60.785 60.845 60.84 60.775 60.758 60.753 61.383 62.153 63.203 63.27 63.325 63.178 63.158 63.208 63.26 63.395 64.958 64.813 66.253 64.865 66.683 65.073 64.523 64.113 64.185 64.253 64.288 64.338 65.465 64.805 64.858 64.865 65.813 66.6 65.428 67.713 67.528 67.33 67.003 67.245 66.245 66.553 66.468 66.548 66.653 66.87 67.128 68.893 68.005 68.225 68.785 72.125 72.948 74.093 74.15 69.613 69.338 69.848 69.853 69.648 69.83 69.903 69.988 70.213 70.403 71.088 73.158 74.893 76.095 75.81 71.54 72.903 73.45 74.748 75.775 72.838 73.008 73.235 73.258 73.398 73.608 73.8 73.938 74.065 74.328 74.495 74.825 76.225 75.65 75.68 75.785 75.915 76.19 77.268 77.668 77.178 76.795 76.808 76.963 77.068 77.15 77.34 77.768 77.718 78.368 79.925 82.083 78.69 78.98 79.303 78.873 78.548 78.638 78.735 79.065 86.403 82.625 79.975 79.953 80.075 81.678 83.093 85.905 85.24 81.545 81.75 81.843 83.355 82.018 84.575 87.47 88.56 89.21 85.313 82.68 83.493 89.495 91.14 90.478 90.575 90.12 89.708 86.848 84.055 84.448 84.463 85.288 84.965 84.918 85.093 85.103 85.005 84.788 84.8 84.833 84.83 84.88 84.905 84.963 85.018 85.08 85.09 85.088 85.103 85.128 85.175 85.185 85.268 85.34 85.405 85.375 85.498 85.463 85.483 85.433 85.823 86.228 85.823 89.87 91.408 91.873 92.243 92.68 93.258 85.533 86.79 85.458 91.25 91.495 89.085 86.348 85.143 85.105 85.133 87.205 85.57 87.33 84.94 84.7 84.618 84.963 84.413 84.388 85.375 85.623 86.495 84.138 84.133 84.285 84.938 84.443 84.46 85.383 86.788 87.545 83.993 83.21 84.548 83.368 83.573 83.428 83.158 85.408 85.66 82.473 82.423 82.38 82.618 83.468 84.788 87.923 88.975 87.505 81.963 82.045 82.11 87.508 88.003 86.82 83.658 81.035 80.855 80.763 81.573 80.248 80.135 80.023 80.063 80.07 80.033 80.168 80.18 80.47 80.223 80.163 81.13 86.6 87.818 87.373 84.058 79.98 81.223 81.69 82.07 81.99 79.305 78.965 78.212 78.072 77.99 77.915 77.912 77.837 79.757 79.737 79.407 77.517 77.335 77.24 77.165 77.345 77.47 77.397 77.187 77.12 77.371 77.519 76.743 76.473 76.439 76.467 76.211 76.136 76.328 78.605 77.564 77.243 76.317 75.937 74.912 74.882 74.823 75.274 74.533 74.264 76.368 76.907 74.34 79.564 80.815 81.785 81.36 80.227 75.71 73.293 73.529 74.865 73.309 73.162 73.541 73.203 72.83 72.783 72.69 73.33 77.315 73.454 72.447 72.246 72.253 72.138 72.039 71.989 71.926 71.864 71.792 71.694 71.679 71.665 71.712 71.644 71.657 71.522 71.415 71.312 71.186 71.127 71.024 70.94 70.808 70.748 70.697 70.635 70.594 70.6 70.486 70.399 70.39 70.373 70.343 73.835 70.888 71.338 70.556 70.225 70.142 70.044 69.961 69.886 69.814 69.754 69.704 70.204 71.117 71.717 70.419 69.765 74.195 74.587 77.037 76.449 74.011 69.839 70.019 69.58 69.458 69.468 69.466 69.388 69.418 70.674 70.641 72.846 75.631 76.735 76.857 75.824 72.635 74.557 74.062 70.009 68.589 72.159 72.015 69.231 69.769 70.418 69.595 68.193 67.44 67.008 67.082 66.915 67.498 67.122
64.25 62.715 57.09 57.303 57.568 57.153 57.208 57.245 57.473 57.603 57.785 57.983 58.498 58.368 58.368 70.073 70.063 70.125 70.07 70.035 58.29 59.813 60.508 60.75 60.98 61.135 61.123 61.038 61.238 61.695 63.973 62.963 63.048 63.003 62.873 63.063 62.758 62.778 62.948 63.393 64.545 64.42 64.773 66.703 64.175 63.988 64.003 64.108 64.18 64.253 64.288 64.338 64.855 64.86 64.898 64.88 65.063 66.018 66.688 66.225 68.16 67.115 66.54 66.555 66.255 66.995 66.578 66.69 66.888 67.12 67.27 67.393 68.77 69.765 69.558 71.415 71.72 71.74 69.228 69.908 70.185 69.62 69.61 69.768 69.853 69.935 70.19 70.365 70.623 70.77 70.95 72.313 71.23 71.88 73.545 72.055 73.103 72.533 72.793 72.853 72.95 73.158 73.363 73.515 73.653 73.815 74.055 74.243 76.218 75.318 75.265 75.45 75.505 75.548 75.74 76.398 76.408 76.54 78.398 76.895 76.873 76.938 77.068 77.115 77.245 77.595 78.205 78.36 78.015 78.285 78.788 84.535 83.113 82.64 81.495 79.815 79.01 79.01 80.658 81.105 80.04 80.105 80.203 80.315 83.528 85.89 86.158 81.793 82.125 82.47 88.253 88.645 89.03 89.42 89.77 89.568 87.498 82.628 83.468 87.55 89.908 88.68 86.345 84.938 83.95 83.965 83.998 84.033 84.165 85.47 84.863 84.768 84.553 84.533 84.59 84.575 84.615 84.685 84.783 84.84 84.895 84.908 84.92 84.963 84.985 85.045 85.08 85.16 85.183 85.243 85.28 85.27 85.263 85.585 85.458 85.43 86.558 87.898 85.32 85.565 85.595 91.778 92.635 93.11 93.483 93.543 93.55 88.663 85.448 85.375 85.29 85.183 85.155 85.165 85.173 85.033 85.005 87.38 87.068 87.18 86.155 84.593 84.533 84.543 84.52 84.96 84.25 84.22 85.01 84.135 84.123 84.105 86.645 84.81 85.315 84.015 84.553 83.6 83.523 83.148 83.093 84.938 83.733 83.868 82.808 84.8 84.71 85.873 82.293 81.703 81.848 81.985 85.19 87.208 88.905 88.448 85.833 81.753 81.47 82.713 87.045 83.218 80.955 82.243 80.763 80.715 80.62 80.183 80.015 79.995 80.025 80.025 79.963 80.178 80.138 80.58 80.215 80.203 85.88 87.095 88.275 88.563 88.525 80.083 82.035 82.19 81.783 80.173 79.135 78.89 78.095 78.052 77.95 77.88 77.807 77.875 79.7 78.232 79.262 77.722 77.285 77.182 77.205 77.182 77.305 77.151 77.235 79.483 78.648 77.233 76.559 76.432 76.349 76.834 77.435 77.02 76.866 77.431 76.655 76.983 75.688 76.682 76.3 74.787 74.787 75.463 74.344 77.895 79.14 76.922 74.473 77.252 79.98 81.19 81.131 80.196 78.365 74.444 73.223 73.293 73.213 73.16 73.006 72.909 72.842 72.755 72.84 77.64 78.649 77.845 72.947 72.302 72.222 72.183 72.091 71.992 71.96 71.85 71.874 71.858 71.876 71.824 71.718 71.655 72.508 71.533 71.41 71.318 71.187 71.122 71.056 70.915 70.818 70.786 70.755 70.697 70.645 70.543 70.513 70.499 70.461 70.467 70.346 70.337 70.296 70.336 70.272 70.192 70.121 69.993 69.905 69.875 69.738 69.596 69.643 69.63 71.107 70.23 69.567 69.958 75.888 77.28 78.113 77.025 75.137 71.615 69.664 69.563 69.488 69.478 69.444 69.357 69.592 72.049 71.119 72.104 75.226 76.509 77.384 77.318 74.768 72.626 69.324 68.661 68.621 68.552 70.848 71.024 71.581 71.422 69.487 67.624 68.539 67.042 66.977 67.819 67.982 68.63
63.485 56.03 56.24 56.435 57.003 56.993 57.035 57.228 57.385 57.413 57.693 59.825 58.175 58.945 59.488 58.903 70.233 70.1 70.045 66.19 58.775 60.14 60.545 60.785 61 61.24 61.39 62.27 61.763 63.42 62.958 62.935 62.798 62.788 62.785 63.16 68.54 68.125 62.805 63.178 63.47 63.72 64.783 64.645 64.018 63.89 63.958 64.025 64.11 64.19 64.263 64.298 65.583 64.853 64.928 64.948 64.938 68.093 66.108 65.8 66.008 66.538 66.065 66.148 66.235 66.538 66.588 67.09 66.99 67.133 67.265 67.373 68.068 68.19 69.773 69.475 69.353 69.13 69.155 69.28 69.415 69.718 69.583 69.733 69.793 70.19 70.333 71.893 70.823 70.783 70.913 71.078 71.135 71.24 71.91 72.093 72.31 72.478 72.505 72.713 72.918 73.078 73.215 73.41 73.648 73.808 74.095 74.255 75.035 75.013 75.135 75.333 81.418 81.275 76.68 75.908 76.045 76.745 76.725 79.59 77.08 76.875 77.023 77.14 77.153 77.338 77.78 77.99 78.193 78.225 83.173 85.263 84.955 85.063 84.243 78.645 78.58 78.515 78.983 81.075 80 84.493 86.12 86.45 86.778 87.098 86.908 81.473 82.563 81.78 88.15 89.66 89.973 89.625 89.24 88.893 88.415 82.59 83.523 83.405 83.535 83.568 83.64 85.575 83.88 84.113 83.953 83.83 83.928 84.008 84.125 84.22 84.285 84.343 84.425 84.535 84.628 84.705 84.743 84.775 84.793 85.648 86.153 84.988 85.05 85.1 85.145 85.188 85.195 85.135 85.25 85.218 85.888 85.523 85.568 90.225 90.993 91.22 85.295 86.665 85.333 91.335 92.578 92.695 92.69 93.52 93.513 90.705 85.395 86.288 85.368 85.445 85.043 85.005 85.043 84.925 84.898 85.865 85.915 85.643 84.615 84.565 84.448 84.5 84.478 84.233 84.225 84.185 84.15 84.583 84.125 84.075 84.145 83.975 83.908 84.68 85.775 83.745 84.09 83.213 83.108 84.608 83.83 83.665 83.078 84.358 84.035 87.31 82.885 84.603 85.013 87.085 87.893 88.495 89.113 89.05 87.728 81.558 81.438 82.668 81.75 81.003 80.933 80.94 81.775 81.178 80.215 80.11 79.97 79.99 79.988 79.963 79.995 80.133 80.923 81.32 80.32 80.348 86.37 87.633 88.59 88.555 85.56 79.948 79.753 79.485 81.248 81.18 81.14 79.393 78.162 78.002 77.97 77.872 77.817 77.785 78.22 79.717 80.447 79.847 77.345 77.197 77.167 77.145 77.124 77.097 77.065 79.607 78.337 76.976 76.586 76.479 76.382 77.008 76.539 76.102 76.039 75.715 75.684 77.151 77.078 76.535 76.539 74.711 76.337 77.059 79.754 80.534 80.838 77.581 76.949 74.389 79.123 80.505 78.197 74.844 73.531 73.413 73.277 73.167 73.11 73.081 73.034 72.911 72.821 74.543 79.882 77.981 78.229 77.273 72.439 72.349 72.319 72.197 72.067 72.051 72.028 72.014 72.02 72.01 71.991 71.888 71.751 71.662 71.609 71.548 71.474 71.366 71.231 71.047 71.01 70.943 70.946 70.867 70.755 70.718 70.679 70.624 70.572 70.576 70.511 70.484 70.396 70.483 70.383 70.314 70.28 70.168 70.095 69.952 69.825 71.474 73.678 70.412 69.669 69.248 69.196 69.142 68.985 68.822 73.752 77.766 78.327 77.852 76.202 72.988 69.619 70.132 69.465 69.388 69.45 69.371 69.374 70.918 73.381 73.675 74.338 76.085 76.954 76.839 75.266 70.481 68.691 68.614 68.502 68.927 70.955 71.339 71.048 69.929 67.938 67.203 68.421 67.899 67.786 67.439 67.028 66.783
59.908 56.145 56.153 57.415 56.79 56.845 56.955 57.16 57.218 57.275 57.523 58.1 58.253 58.335 58.508 58.29 58.245 60.248 70.133 58.313 59.47 60.155 60.66 60.768 60.973 61.203 61.428 61.818 62.268 62.443 62.818 62.888 62.925 64.26 69.003 70.07 69.63 68.553 64.308 62.93 63.193 63.498 63.795 64.05 65.135 63.993 63.89 63.985 64.073 64.148 64.243 64.328 64.463 64.88 64.923 64.968 66.245 67.458 66.05 65.753 65.718 65.903 67.665 66.265 66.318 66.53 66.643 66.8 67.023 67.168 67.298 67.808 68.013 68.485 72.368 70.863 70.843 69.128 69.07 69.173 69.353 69.638 69.548 69.68 69.75 69.923 70.4 70.508 70.635 70.8 70.92 71.058 71.435 71.66 71.848 72.048 72.075 72.26 72.453 72.655 72.795 72.938 73.233 73.423 73.59 73.99 73.845 74.353 74.693 74.9 75.113 75.433 81.958 82.453 81.95 81.35 78.193 76.43 76.553 78.125 77.243 76.933 76.973 77.128 77.2 77.31 77.478 77.928 79.245 78.1 79.083 84.17 85.14 86.105 85.395 84.573 82.465 81.575 78.735 80.455 79.97 84.265 87.395 87.853 88.193 88.29 87.22 81.918 80.74 81.768 87.19 88.89 88.52 87.898 87.303 83.388 84.438 82.558 82.84 83.04 83.638 83.485 83.54 84.053 84.96 84.028 83.573 83.64 83.713 83.798 83.935 84.06 84.183 84.3 84.41 84.478 84.565 84.585 84.623 84.695 84.82 84.903 84.965 85.19 85.27 85.1 85.923 85.345 86.135 85.045 85.303 85.158 90.15 91.018 91.425 91.785 92.245 91.675 87.363 85.413 85.263 88.115 91.885 91.463 89.123 89.403 88.77 88.605 85.378 86.545 87.505 87.278 84.953 84.898 85.478 84.75 84.745 84.705 84.648 86.31 84.533 84.473 84.42 84.875 84.375 84.488 84.72 85.148 85.245 85.468 83.943 83.823 84.388 83.888 83.845 83.245 85.628 84.675 85.628 85.018 82.988 83.205 85.718 82.72 82.668 82.405 82.303 87.063 84.518 85.813 87.92 88.52 89.115 89.305 88.783 87.885 84.513 82.25 81.22 81.06 80.925 80.833 81.045 81.003 81.16 80.248 80.075 79.988 79.993 79.975 79.923 79.87 79.938 80.103 80.57 80.338 80.28 84.765 86.88 88.148 88.708 87.883 80.605 79.923 79.48 78.988 78.908 79.568 80.48 78.203 78.12 78.507 78.067 77.872 77.832 79.095 80.215 80.372 80.7 80.42 79.692 77.312 77.112 77.097 77.087 77.065 77.079 79.964 78.811 76.948 76.688 76.606 76.926 77.155 75.97 75.86 75.915 75.631 75.522 75.99 77.144 76.501 75.353 74.765 79.452 80.555 81.069 82.365 81.681 80.219 77.105 75.033 76.839 76.695 74.34 74.102 73.458 73.385 73.264 73.2 73.102 73.051 74.769 75.299 72.894 72.985 74.995 73.767 73.436 72.504 72.494 72.408 72.321 72.253 72.199 72.214 72.144 72.127 72.132 72.052 72.044 71.908 71.804 71.714 71.651 71.554 71.436 71.215 71.172 71.135 71.11 71.057 70.932 70.867 70.837 70.794 70.761 70.757 70.652 70.592 70.559 70.71 70.524 70.477 70.389 70.287 70.224 70.15 70.086 69.995 69.88 69.916 69.616 69.175 70.462 69.429 69.094 69.07 68.971 69.042 69.313 76.598 77.93 77.753 76.668 74.511 69.886 69.672 69.554 69.316 69.409 69.351 69.224 69.711 70.622 72.464 73.489 75.519 76.386 76.027 75.495 73.729 68.808 69.034 69.225 68.629 69.851 68.017 67.132 66.995 66.915 66.863 67.14 69.821 68.029 68.812 67.003 66.664
55.995 56.91 56.335 56.695 57.59 56.693 56.913 57.035 57.05 57.245 57.508 57.838 58.298 58.523 58.29 58.298 58.385 58.42 58.33 58.928 59.933 60.1 60.378 62.258 60.93 61.495 61.725 61.788 62.013 62.32 62.64 62.83 63.565 65.473 68.558 69.63 70.055 69.028 68.865 67.478 62.818 63.278 63.615 63.908 64.005 64.235 64.095 64.113 64.158 64.318 64.46 64.83 64.358 66.025 64.913 65.498 72.33 66.458 66.293 65.763 65.758 65.805 65.888 67.958 66.358 66.55 67.083 67.205 67.205 67.185 67.385 68.013 68.018 69.148 74.793 74.533 72.698 68.575 68.74 69.17 69.658 69.748 69.503 69.645 69.715 69.908 70.378 70.52 70.623 70.765 70.948 71.188 71.358 71.608 71.708 71.805 72.015 72.213 72.365 72.5 72.735 72.973 73.168 73.623 73.788 73.678 73.67 73.833 75.148 74.613 75.05 81.255 82.498 83.575 83.128 82.323 79.708 77.213 76.445 76.57 76.885 77.003 76.955 77.09 77.21 77.253 77.41 77.778 78.36 77.955 78.275 83.335 84.77 85.03 86.335 85.715 84.898 83.975 78.773 80.485 79.925 81.288 87.135 87.783 87.98 87.128 86.818 84.938 83.175 81.69 84.128 83.773 82.26 82.25 82.465 82.5 82.523 82.515 82.493 82.69 83.33 83.11 82.973 83.098 83.395 84.555 84.358 83.493 83.663 83.823 83.94 84.055 84.163 84.27 84.428 84.543 84.538 84.63 84.718 84.785 84.823 85.095 85.053 84.868 84.965 86.108 85.025 85.025 85.788 85.228 85.628 84.995 91.08 92.203 92.385 93.048 92.943 92.123 90.48 85.11 85.25 85.158 86.39 85.153 85.008 87.365 86.81 88.153 86.575 85.303 86.473 87.45 84.833 84.778 84.688 84.625 84.623 84.553 84.533 85.018 85.06 84.445 84.388 84.408 86.373 86.018 85.998 86.088 84.618 84.068 84.028 83.635 83.67 83.878 83.27 83.175 85.193 84.418 85.2 85.48 82.918 82.923 84.898 82.718 82.405 82.815 83.075 85.088 86.28 81.68 87.91 89.13 88.828 88.243 87.53 85.7 82.373 82.17 82.245 81.895 81.783 80.615 80.51 80.39 80.268 80.105 80.038 80.003 79.983 79.92 79.843 79.793 79.96 80.1 80.093 80.125 80.25 86.175 87.35 88.53 88.555 87.853 80.815 81.388 79.58 79.02 79.13 78.775 78.415 78.125 78.055 78.15 78.15 77.997 80.897 80.622 78.917 78.4 80.355 79.687 78.075 77.25 78.647 78.252 77.185 76.957 76.966 77.819 77.494 77.11 77.028 77.904 78.367 78.557 76.237 75.929 75.835 76.048 75.441 75.467 75.948 74.95 75.062 78.173 80.756 81.621 82.431 82.306 81.513 80.822 76.872 74.223 73.728 73.617 73.573 73.517 73.448 73.37 73.295 73.182 73.133 73.059 76.79 78.428 73.054 72.872 72.702 72.682 72.61 72.535 72.471 72.398 72.299 72.265 72.305 72.297 72.19 72.158 72.149 72.113 72.04 71.948 71.872 71.708 71.603 71.441 71.321 71.328 71.259 71.188 71.152 71.036 70.975 70.958 70.957 70.813 70.806 70.761 70.915 70.734 70.613 70.614 70.563 70.495 70.418 70.331 70.27 70.188 70.1 70.147 70.216 70.203 68.852 68.829 69.359 69.436 69.025 69.764 69.987 69.451 69.295 76.013 77.121 76.733 76.104 72.852 70.123 70.458 69.438 69.401 69.311 69.342 69.303 69.281 70.431 69.372 70.285 74.389 75.249 74.889 70.041 68.734 69.2 69.724 69.883 70.17 70.139 67.582 67.16 66.971 66.875 66.775 66.791 70.653 72.172 71.047 68.257 67.695
55.98 56.2 57.068 56.793 56.89 56.62 56.813 56.87 56.998 57.215 57.498 57.76 58.048 57.983 58.128 58.618 58.683 58.733 58.873 59.253 60.413 60.683 61.01 60.553 60.823 61.163 61.405 61.655 61.995 62.34 63.283 62.583 62.633 62.69 68.13 69.198 70.248 70.428 69.345 68.28 62.84 63.08 63.425 63.658 63.873 63.998 64.07 65.57 64.195 64.598 64.588 64.513 64.475 69.098 65.208 65.698 73.235 71.803 66.418 66.365 66.245 65.833 65.875 66.05 68.805 67.283 66.765 67.085 67.103 67.26 67.408 68.065 68.163 74.173 75.535 75.908 75.033 73.34 68.683 68.885 69.283 69.61 69.455 69.618 69.64 69.865 70.77 70.468 70.555 70.763 70.913 71.175 71.32 71.358 71.56 71.753 71.923 72.07 72.245 72.448 72.668 72.903 73.468 73.558 73.598 73.65 76.898 73.54 74.395 75.168 75.065 81.588 82.195 83.09 82.94 81.768 76.083 76.9 76.17 76.478 76.8 77.108 77.108 77.05 77.18 77.285 77.303 77.525 77.705 77.81 78.115 78.808 82.05 84.468 85.28 85.955 84.918 80.823 78.848 79.343 79.9 80.053 86.633 86.405 85.915 84.73 83.268 82.118 82.938 81.3 81.53 81.763 82.068 82.133 82.855 82.53 83.195 82.953 82.348 82.448 82.538 82.73 83.933 83.488 83.053 83.208 83.368 83.503 83.65 83.765 83.885 83.985 84.108 84.248 84.853 84.543 84.648 84.713 84.748 84.753 86.143 84.763 84.79 84.743 84.908 87.5 89.113 90.705 85.71 87.155 84.81 85.978 90.23 91.918 92.51 91.695 91.69 91.268 90.688 85.048 85.428 85.075 84.958 84.938 84.89 85.313 84.89 84.855 85.853 88.31 85.88 87.398 84.828 84.648 84.62 85.043 84.505 84.438 84.428 84.46 84.74 84.675 85.085 84.788 85.05 84.098 84.01 84.085 84.665 84.043 83.903 83.575 83.535 83.57 83.185 83.105 83.038 83.008 83.195 84.37 82.848 82.785 82.425 84.83 83.535 87.985 87.935 83.553 87.155 82.95 85.32 88.193 87.583 86.005 82.483 81.988 81.105 81.803 80.87 81.715 81.118 80.458 80.3 80.2 80.135 80.073 80.005 79.963 79.935 79.863 79.748 79.78 79.963 80.603 80.108 80.048 80.003 81.663 87.333 88.565 88.528 82.045 79.938 79.645 79.165 79.483 78.988 78.98 78.218 78.073 78.075 78.057 78.127 79.475 82.525 81.18 79.515 78.01 78.042 79.1 77.317 77.832 78.12 78.982 77.047 77.327 76.817 76.869 76.567 76.537 76.307 78.103 78.108 78.86 77.601 75.783 75.737 75.802 75.157 77.309 80.873 75.947 75.302 74.808 80.146 81.599 81.748 82.234 80.801 79.863 75.714 74.033 73.862 73.575 73.563 73.534 73.456 73.419 73.33 73.255 73.201 73.135 74.921 75.286 72.916 72.825 72.763 72.692 72.63 72.565 72.496 72.505 72.45 72.399 72.255 72.275 72.224 72.183 72.152 72.098 71.989 71.923 71.814 71.654 71.542 71.458 71.416 71.387 71.288 71.242 71.155 71.028 70.98 71.182 70.971 70.829 70.779 70.945 70.865 70.734 70.657 70.638 70.576 70.519 70.472 70.366 70.27 71.496 71.608 74.838 71.673 68.698 68.649 68.681 69.609 71.14 69.791 69.394 68.862 68.702 68.595 73.705 72.768 72.985 69.147 69.256 70.117 70.539 69.946 69.358 69.331 69.342 69.304 69.249 69.603 69.575 69.203 69.264 69.808 68.85 68.779 68.543 68.383 68.432 70.392 70.301 68.567 67.87 67.321 66.956 66.795 66.833 68.124 71.266 71.351 71.853 68.772 67.695
56.02 56.668 56.16 56.308 56.328 56.55 56.69 56.833 57.04 57.32 57.905 57.76 58.768 58.683 58.038 58.29 58.618 58.86 59.083 59.35 59.653 60.75 63.303 64.623 61.013 61.22 61.58 61.903 62.183 62.453 62.555 62.578 62.67 62.705 65.31 68.745 69.81 70.728 69.778 68.71 65.56 62.805 63.3 63.438 63.555 63.675 63.998 64.123 64.198 64.453 64.578 64.368 64.458 66.403 67.083 71.418 68.85 74.153 72.66 66.535 66.55 67.325 65.94 66.41 66.488 67.433 67.345 66.995 67.683 67.495 67.55 68.133 69.55 75.075 76.318 75.795 74.393 70.168 68.828 70.305 69.14 69.52 69.4 69.578 69.668 69.823 70.828 70.403 70.51 70.733 70.918 70.935 71.123 71.318 71.488 71.638 71.793 71.998 72.218 72.475 73.16 72.883 73.02 73.063 77.405 79.51 80.063 77.173 74.085 74.548 74.69 76.918 77.963 81.573 82.09 80.1 76.468 75.828 76.115 76.313 76.445 76.495 78.145 77.14 77.118 77.248 77.34 77.418 77.613 77.75 79.135 78.843 78.253 80.255 83.613 84.953 83.573 78.693 78.983 80.493 80.87 81.065 82.235 81.41 80.473 80.973 80.718 80.863 81.233 81.18 81.258 81.728 82.04 82.185 81.78 81.808 82.245 82.018 82.098 82.225 82.353 82.56 82.718 82.875 83.048 83.188 83.313 83.418 83.535 83.628 83.765 83.93 84.135 84.385 84.515 86.473 84.61 84.608 84.618 84.623 84.87 84.718 86.47 89.915 90.723 91.183 91.645 91.69 88.628 86.015 84.695 85.578 88.19 91.46 91.253 90.693 89.325 87.753 85.945 84.978 85.02 85.093 84.94 84.79 84.808 84.758 84.75 84.695 84.763 88.473 86.883 84.588 84.598 84.553 84.505 84.498 84.41 84.348 84.323 84.498 84.623 84.615 84.49 84.345 84.443 83.993 83.885 83.933 83.943 83.82 84.82 83.443 83.433 83.408 83.193 83.045 86.84 86.288 82.968 82.74 82.64 84.3 86.03 88.105 88.665 89.21 88.473 83.985 84.78 83.263 81.65 86.193 82.55 81.758 81.863 81.88 81.495 80.858 80.74 80.645 80.533 80.335 80.25 80.185 80.093 80.04 79.983 79.948 79.883 79.79 79.688 79.81 79.928 79.95 79.928 79.995 80.04 79.995 80.073 80.84 87.585 79.948 79.88 79.313 78.923 78.928 78.855 78.408 78.098 78.018 78.182 78.265 78.052 82.665 81.672 77.555 77.562 77.712 77.452 77.27 78.205 77.172 77.087 79.042 78.852 77.102 77.152 76.69 76.599 76.493 76.611 77.65 78.211 77.79 76.092 75.745 75.581 78.079 80.858 81.586 82.001 80.547 74.946 74.865 76.666 80.636 80.666 79.927 75.82 75.315 74.064 74.746 73.94 74.003 73.625 73.595 73.522 77.073 73.531 73.292 73.168 73.133 73.055 73.015 72.946 72.863 72.813 72.723 72.611 72.619 72.653 72.663 72.555 72.416 72.372 72.278 72.227 72.213 72.166 72.045 71.967 71.845 71.71 71.735 71.573 71.545 71.475 71.414 71.319 71.213 71.115 71.057 71.049 71.03 70.971 71.156 70.992 70.918 70.87 70.811 70.768 70.728 70.615 70.576 70.636 70.485 72.771 75.143 75.441 75.777 73.267 69.013 68.59 68.762 72.065 73.257 72.549 68.798 68.69 68.599 69.242 68.577 68.919 69.756 69.69 69.171 72.157 69.522 69.22 69.382 70.324 69.508 69.291 69.244 69.204 69.245 69.167 69.085 69.057 68.729 68.599 68.489 71.224 68.308 68.473 67.947 67.833 67.59 67.369 66.987 66.861 75.154 69.994 69.979 68.931 70.604 68.619 68.591
55.71 55.878 56.02 56.063 56.308 56.48 56.55 56.743 56.993 57.793 57.84 57.855 57.99 58.053 58.033 58.183 58.59 58.883 59.14 59.423 59.66 62.545 65.578 65.748 61.73 61.483 61.875 62.175 62.413 62.56 62.633 62.57 62.625 62.69 62.69 68.315 69.365 70.44 70.22 66.225 62.748 62.748 64.088 63.07 62.995 64.355 63.713 64.03 64.2 64.338 65.46 64.855 64.505 66.71 67.91 71.205 71.09 73.253 76.535 70.915 66.66 66.595 66.608 66.43 66.523 66.59 67.458 68.47 69.845 67.858 67.628 67.943 74.358 75.713 76.405 75.598 72.52 68.788 68.85 69.025 69.17 69.345 69.363 69.555 69.688 69.788 69.993 70.283 70.473 70.53 70.673 70.863 71.048 71.2 71.338 71.578 71.723 71.938 72.06 72.84 72.835 72.923 76.218 79.285 80.023 80.768 80.888 79.598 75.673 74.05 74.695 74.78 74.85 74.915 78.743 76.063 75.678 75.985 76.363 81.15 76.108 76.378 77.343 77.26 77.955 77.22 77.358 77.388 77.545 77.838 77.948 78.09 78.215 78.333 79.038 82.883 78.55 78.79 79.053 79.21 80.665 80.46 80.035 80.315 80.278 81.52 80.673 84.34 82.925 80.8 80.985 81.145 81.343 81.933 81.8 82.33 81.92 81.885 82.055 82.235 82.385 82.545 82.675 82.803 82.928 83.07 83.25 83.42 83.545 83.66 83.788 83.915 84.05 84.213 84.238 85.738 84.488 84.505 84.495 84.478 84.605 89.65 91.215 91.67 92.113 92.71 92.41 91.925 90.738 85.02 85.95 85.54 84.748 85.768 87.868 88.178 85.985 84.91 84.863 85.26 87.96 85.323 86.708 85.663 84.713 84.675 84.618 84.608 84.558 88.165 87.963 84.695 84.495 84.435 84.41 84.388 84.695 86.405 84.98 86 86.115 84.205 84.053 83.96 85.448 83.84 83.808 83.73 83.885 84.128 85.455 83.313 83.328 83.305 83.303 83.043 88.048 88.31 82.953 82.81 82.533 88.008 88.75 89.323 89.863 89.723 88.96 87.748 82.005 81.903 81.573 81.765 81.543 81.5 82.8 81.258 80.915 80.738 80.563 80.45 80.405 80.328 80.248 80.165 80.07 80.005 79.945 79.903 79.813 79.71 79.768 79.825 80.14 79.923 79.9 79.89 79.873 79.858 79.99 79.933 79.905 79.958 81.193 79.58 78.93 78.893 78.72 78.175 78.115 78.053 78.07 78.052 78.417 79.537 78.655 77.54 77.437 77.607 77.417 77.215 77.205 77.112 77.02 77.727 78.017 76.802 78.012 76.632 76.6 76.448 76.474 76.352 76.358 76.179 75.474 75.478 80.458 81.681 82.937 82.942 82.649 81.511 76.015 74.924 74.689 77.687 77.619 76.073 75.187 74.225 74.158 75.496 73.968 73.724 73.643 73.618 73.566 76.494 73.549 73.659 75.034 73.164 73.108 73.054 73.011 72.913 72.813 72.718 72.817 72.773 72.727 72.666 72.565 72.47 72.38 72.279 72.257 72.245 72.133 72.022 71.908 71.82 71.812 71.763 71.674 71.594 71.497 71.436 71.344 71.241 71.195 71.161 71.104 71.294 71.596 71.096 71.008 71.026 70.981 70.94 70.815 70.848 71.465 73.288 71.461 75.323 75.847 75.983 76.345 76.4 75.314 69.574 68.538 68.482 71.236 73.389 73.482 69.324 68.645 69.471 69.943 69.912 69.244 69.304 68.839 70.714 74.336 69.571 69.294 69.299 69.548 69.373 69.302 69.231 69.18 69.244 69.163 69.008 68.807 68.843 72.573 73.884 73.175 68.429 68.063 67.941 67.857 67.69 67.335 66.929 66.714 68.294 68.969 66.528 69.659 71.343 71.232 66.64
55.548 55.65 55.843 56.07 56.255 56.368 56.453 56.683 57.045 57.128 59.948 57.948 59.99 63.228 58.623 58.5 58.32 58.778 59.143 59.455 59.538 61.233 62.305 61.468 61.403 61.633 62.118 62.44 62.55 64.198 62.975 62.573 62.623 63.493 63.048 67.435 68.263 63.008 62.75 62.713 62.72 62.735 62.853 67.313 68.528 63.363 63.325 63.865 64.145 64.305 64.423 64.518 64.81 67.25 73.15 65.613 65.263 67.358 76.668 77.088 69.453 66.765 66.718 66.5 66.538 66.638 66.685 66.765 68.748 68.498 67.758 72.25 75.11 76.218 75.585 74.23 69.738 68.835 68.86 68.995 69.168 69.365 69.325 69.538 69.693 69.823 69.95 70.125 70.275 70.455 70.64 70.893 72.015 71.23 71.373 71.493 71.695 71.91 71.888 72.463 72.868 75.768 79.755 80.473 81.283 81.81 80.898 80.148 78.335 73.645 74.63 74.625 75.063 75.368 79.225 79.428 75.918 78.91 82.198 82.528 81.195 76.325 77.238 77.61 77.283 77.923 77.34 77.44 77.5 77.715 78.415 78.693 78.198 78.295 78.453 78.618 78.823 78.868 79.06 79.488 82.06 79.87 80.093 81.325 81.233 80.545 80.408 80.785 80.598 80.673 80.793 80.938 81.308 81.393 81.423 81.575 81.708 81.86 82.018 82.15 82.278 82.395 82.57 83.66 83.265 83.125 83.28 83.48 84.265 83.718 83.72 83.848 83.948 84.4 85.14 87.91 88.39 89.52 90.345 88.115 84.445 86.575 91.31 92.388 91.963 91.523 91.05 90.53 88.59 84.768 87.028 84.64 86.965 86.245 85.458 85.385 85.028 84.783 84.73 84.67 87.785 87.408 88.248 87.81 84.54 84.47 84.45 84.438 84.438 86.185 88.423 85.305 84.425 84.353 84.545 85.353 85.893 85.253 84.443 84.368 84.44 83.938 83.858 84.063 84 84.215 83.765 83.598 85.288 84.73 85.535 84.435 83.255 83.18 83.225 83.058 87.168 88.798 85.065 82.715 82.488 84.78 88.72 89.628 89.063 88.48 87.878 85.853 81.903 81.888 81.503 81.358 81.455 81.373 81.07 80.938 81.47 81.208 80.515 80.445 80.38 80.298 80.21 80.09 80.01 79.925 79.888 79.825 79.738 79.625 79.833 79.785 79.968 79.888 79.895 84.4 85.648 83.858 80.453 80.235 79.963 80.823 81.948 81.895 79.848 78.84 78.355 78.155 78.073 78.048 78.03 78.08 80.57 77.755 77.925 77.485 77.427 77.325 77.305 77.427 77.192 77.065 76.952 76.902 76.847 76.64 76.582 76.555 76.5 76.41 76.067 75.97 76.11 75.936 75.529 76.172 81.614 82.8 83.202 83.262 82.598 81.853 80.599 74.776 74.941 75.372 74.459 74.643 74.4 74.369 74.437 76.043 74.184 73.718 73.678 73.533 73.679 74.314 73.398 73.306 73.288 73.242 73.211 73.107 72.987 72.936 72.946 72.98 72.931 72.822 72.781 72.742 72.656 72.49 72.376 72.273 72.287 72.256 72.109 72.018 71.942 71.97 71.849 71.765 71.68 71.563 71.486 71.423 71.335 71.208 71.124 71.171 71.206 71.19 71.224 71.206 71.136 71.108 71.073 71.064 72.443 74.025 75.353 75.512 75.867 76.336 76.576 76.88 76.817 76.469 75.825 72.514 68.731 69.85 69.715 72.085 72.769 72.349 69.759 69.341 69.004 68.581 71.605 72.495 75.29 75.927 75.483 71.155 70.275 70.821 69.743 69.305 69.316 69.249 69.139 69.138 69.195 68.985 70.896 74.327 75.022 75.276 74.488 71.463 68.555 67.944 67.956 67.839 67.352 66.782 66.651 66.599 66.58 66.913 71.114 71.253 71.607 67.509
55.455 55.65 55.858 56.048 56.178 56.25 56.4 56.625 56.84 57.05 57.053 60.35 63.61 64.335 63.038 58.203 58.035 58.448 58.978 59.283 59.448 61.578 61.15 61.443 61.488 61.558 62.333 62.545 62.585 62.813 62.66 62.57 62.593 62.74 63.358 62.703 62.735 64.05 63.123 62.77 62.973 68.003 69.96 70.048 68.973 66.408 63.103 63.693 64.048 64.293 64.405 64.56 64.698 67.238 65.498 66.48 65.3 65.358 74.948 78.513 76.413 68.2 66.875 66.738 66.598 66.68 66.74 67.238 67.503 68.038 68.258 68.325 73.325 74.843 74.793 71.785 68.51 69.518 69.9 69.118 69.368 69.348 69.318 69.518 69.695 69.828 69.98 70.115 70.253 70.393 70.515 70.68 70.928 71.078 71.255 71.89 71.723 71.753 72.425 71.79 72.508 72.978 81.013 81.588 81.578 80.665 79.673 75.168 73.605 75.013 75.623 76.35 76.02 74.928 76.19 76.125 81.69 82.563 83.288 83.243 82.143 77.08 76.483 77.168 77.328 77.268 77.28 77.42 77.513 77.65 78.373 78.24 78.16 78.265 79.755 78.535 78.8 78.89 79.095 79.503 79.82 79.598 79.713 79.875 79.99 80.1 80.213 80.305 80.433 80.625 80.793 80.948 81.093 81.233 81.378 81.5 81.638 83.265 83.175 82.28 82.283 82.455 82.65 82.84 83.013 83.78 83.97 84.105 83.97 83.988 83.635 84.123 89.685 89.118 90.038 90.445 90.898 91.31 91.748 92.078 84.363 84.4 90.853 91.88 90.685 89.455 84.38 84.478 84.493 84.65 86.838 84.54 86.92 87.02 84.858 84.733 85.125 84.953 84.605 84.58 87.018 87.73 87.97 88.168 84.308 84.348 84.283 84.413 84.388 84.375 86.05 85.31 84.805 84.925 84.49 84.365 84.785 84.425 84.203 84.39 84.645 89.765 94.028 91.393 83.63 83.68 83.678 83.583 84.08 85.39 83.318 83.138 83.128 83 82.828 84.963 88.5 89.035 87.143 82.598 82.605 82.34 88.135 88.38 87.66 84.748 82.27 81.983 81.925 81.555 81.42 81.183 81.088 81.043 80.923 80.755 80.678 80.588 80.523 80.423 80.325 80.198 80.083 80.003 79.945 79.868 79.83 79.75 80.015 79.81 79.798 79.828 80.595 79.928 80.983 85.818 86.778 86.353 85.853 84.483 80.288 81.025 81.918 81.658 78.965 78.693 78.208 78.17 78.103 78.073 78.08 78.11 78.065 77.68 78.392 79.467 77.505 77.422 77.425 77.627 77.11 77.105 76.925 76.815 77.075 76.557 76.537 76.502 76.462 76.442 75.96 79.711 82.314 79.761 77.952 75.428 80.218 82.3 82.567 82.702 81.335 79.584 75.976 74.677 74.943 75.606 76.42 76.559 76.15 74.679 74.287 74.037 73.883 73.798 73.681 73.587 73.659 73.497 73.445 73.354 73.335 73.274 73.195 73.078 73.078 73.121 73.087 73.033 72.988 72.903 72.822 72.805 72.666 72.55 74 72.825 72.27 72.234 72.144 72.055 72.015 71.946 71.854 71.763 71.692 71.598 71.472 71.458 71.398 71.286 71.169 71.171 71.232 71.324 71.377 71.378 73.719 73.965 73.94 73.963 75.584 75.788 76.05 76.614 76.637 76.919 76.489 76.376 75.991 75.48 75.244 75.096 69.436 69.45 73.305 71.608 73.248 72.303 69.041 69.454 69.091 68.593 69.933 73.083 76.131 76.776 77.429 73.195 69.849 68.991 69.614 69.251 69.186 69.223 69.156 69.174 69.259 68.844 69.336 74.065 75.238 75.768 75.186 73.234 70.777 68.008 67.83 67.791 67.563 66.9 66.677 66.566 68.772 70.523 74.133 72.865 71.026 68.181
55.495 55.673 55.828 55.958 56.075 56.248 56.38 56.635 56.9 57.045 59.658 62.63 64.46 65.213 65.463 62.053 58.073 58.06 58.533 59.01 61.933 61.115 61.208 61.51 61.555 61.605 62.34 62.533 63.575 67.795 62.568 62.563 62.583 62.645 63.468 62.77 62.86 62.948 63.368 63.765 63.678 68.475 69.533 70.393 69.395 68.338 63.035 63.408 63.833 64.153 64.418 64.548 64.693 64.895 65.075 65.173 65.35 65.355 67.835 77.635 79.215 71.183 66.873 66.855 66.808 67.048 67.435 67.633 71.188 70.83 70.435 69.175 68.315 68.405 73.653 68.758 68.575 68.668 68.863 70.145 69.77 69.278 69.283 69.463 69.653 69.785 69.925 70.05 70.17 70.28 70.43 70.568 70.77 71.148 71.215 71.503 71.743 74.848 77.375 73.463 71.785 73.045 75.013 81.585 81.553 81.245 74.08 73.588 73.653 73.945 75.753 77.6 75.893 74.855 74.968 75.61 78.79 82.435 83.76 83.975 82.85 81.758 76.3 77.288 77.29 77.353 77.25 77.395 77.518 77.565 77.75 78.098 78.133 78.24 78.368 78.748 78.83 78.95 79.065 79.203 79.34 79.4 79.495 79.665 79.825 79.998 80.16 80.308 80.473 80.635 80.753 80.878 81.005 81.128 81.3 81.538 81.71 81.89 82.055 82.23 82.395 83.51 82.848 82.87 82.995 83.073 83.138 84.183 83.813 85.913 86.83 83.728 89.14 90.813 91.428 91.863 92.808 92.073 92.063 91.928 84.285 84.363 90.268 91.768 90.978 87.803 84.788 84.338 84.353 85.988 86.753 84.283 86.023 87.293 84.618 84.615 84.645 85.035 84.478 84.468 84.44 84.34 85.723 88.355 85.9 84.245 84.233 84.41 84.325 84.243 84.415 84.98 84.228 84.183 84.163 84.165 84.995 83.948 83.995 84.278 84.855 87.31 94.59 83.48 83.5 83.578 83.538 83.545 83.41 84.225 83.198 83.098 83.7 87.308 88.693 89.218 89.745 89.965 88.715 82.533 82.53 82.243 83.385 84.823 82.6 82.305 82.078 82.03 82.178 81.335 81.213 81.093 81.795 82.07 80.81 80.733 80.678 80.585 80.475 80.425 80.385 80.183 79.933 79.843 79.838 79.793 79.753 79.683 81.015 79.748 79.695 80.005 79.815 80.105 81.653 86.32 87.508 87.303 86.143 81.35 79.67 80.095 81.603 82.08 80.31 78.313 78.263 79.223 79.505 78.153 80.91 78.012 77.782 77.655 77.6 79.517 79.385 77.767 77.342 77.647 77.24 77.082 76.96 76.737 76.702 77.09 76.51 76.447 76.432 77.79 82.282 82.882 83.303 82.107 78.387 76.265 75.737 81.596 81.443 80.619 76.093 75.262 74.863 74.783 74.595 75.307 74.417 75.251 75.391 79.968 80.878 76.4 73.94 73.82 73.657 73.608 73.599 73.573 73.491 73.436 73.355 73.276 73.301 73.283 73.26 73.134 73.083 73.075 73.002 72.951 72.869 72.835 72.737 72.524 72.405 72.367 72.292 72.257 72.206 72.112 72.027 71.992 71.92 71.738 71.662 71.595 71.535 71.463 71.42 71.295 71.179 71.273 71.307 71.372 71.423 71.527 75.127 74.963 74.923 74.955 76.202 76.767 76.724 76.725 76.286 76.082 75.809 75.351 75.326 75.597 75.975 75.778 73.404 74.646 80.462 78.722 73.626 68.777 68.684 68.574 68.541 68.6 68.95 70.896 75.225 76.772 75.965 74.867 70.467 68.932 70.296 69.228 69.181 69.21 69.149 69.18 69.166 68.906 68.767 72.134 75.556 76.168 75.219 74.226 71.21 68.266 67.835 67.945 68.335 67.364 66.753 66.697 69.988 70.27 73.744 73.28 71.413 68.389
55.458 55.61 55.728 55.868 56.108 56.195 56.35 56.585 58.305 58.27 62.725 63.485 64.263 65.353 64.598 63.823 59.033 58.15 58.243 60.263 60.683 61.078 61.308 61.513 61.62 61.653 65.165 67.975 68.405 68.868 66.088 63.61 62.595 62.62 62.675 62.755 62.828 62.98 63.148 62.913 62.858 67.918 69.085 70.163 69.845 68.785 65.173 63.16 63.665 64.048 64.353 64.538 64.698 64.805 65.053 65.178 65.303 65.48 65.55 74.253 77.508 69.748 67.468 66.888 66.94 67.153 68.688 73.463 74.135 72.478 70.823 70.27 68.503 68.235 68.325 69.86 75.505 73.003 69.038 69.038 69.485 69.965 69.27 69.46 69.605 69.713 69.825 69.92 70.09 70.245 70.398 70.565 70.863 70.953 71.11 74.145 77.12 77.858 78.558 77.353 71.78 72.37 73.053 80.908 79.838 79.043 76.435 73.61 73.62 73.655 75.645 77.008 74.875 76.89 75.023 75.798 76.083 80.868 82.84 83.213 82.51 81.603 76.53 76.823 77.468 78.04 77.373 77.348 77.483 77.6 77.7 77.903 78.055 78.195 78.35 78.528 78.67 78.818 78.91 79.038 79.215 79.37 79.533 79.678 79.848 80.01 80.13 80.268 80.393 81.353 81.53 80.823 81.015 81.205 81.44 82.598 83.88 82.703 82.368 82.403 82.428 83.043 82.825 82.91 83.013 84.405 87.125 88.928 89.403 89.795 89.31 83.825 88.26 90.403 91.643 91.26 90.828 91.738 90.41 88.16 85.268 84.258 85.743 91.32 86.903 84.895 84.903 84.253 84.298 85.115 86.635 86.663 85.19 86.59 84.398 84.423 84.328 84.493 84.345 84.358 84.368 84.313 84.283 87.13 84.61 84.26 85.55 84.513 84.088 84.035 84.708 84.93 84.163 84.135 84.095 84.018 85.343 83.868 84.023 84.005 85.813 83.985 85.563 83.708 83.46 83.44 83.56 83.425 83.82 83.318 83.01 83.39 83.315 88.968 89.893 90.408 90.43 89.763 89.133 84.925 82.32 82.233 82.053 82.035 82.008 81.938 83.088 82.42 81.42 81.205 81.033 80.935 80.908 80.855 80.793 80.7 80.63 80.623 80.605 80.578 80.48 80.21 79.93 79.723 79.725 79.733 79.665 79.608 79.515 79.703 79.705 79.76 79.758 79.83 85.615 86.96 87.883 86.843 85.673 79.69 79.75 78.975 78.87 79.04 78.478 78.255 78.225 78.213 78.865 78.378 78.455 77.82 77.715 77.665 77.617 78.56 79.415 77.692 77.235 77.192 78.805 76.685 76.675 80.14 78.015 76.777 76.45 76.967 82.172 82.827 83.957 84.111 84.068 82.753 80.353 78.036 75.391 78.183 75.899 75.632 75.391 74.933 74.791 74.776 74.577 74.536 74.581 74.439 76.745 80.341 80.793 80.901 73.966 73.815 73.768 73.698 73.666 73.62 73.526 73.452 73.47 73.451 73.424 73.385 73.253 73.189 73.145 73.125 73.021 72.949 72.889 72.771 72.605 72.567 72.473 72.405 72.364 72.266 72.456 73.778 73.892 72.135 71.971 72.017 72.278 71.617 71.486 71.405 71.425 71.302 71.246 71.279 71.36 71.426 71.478 74.483 75.013 74.953 74.924 74.959 76.301 76.605 76.249 75.686 75.55 75.285 75.382 75.709 76.122 76.488 76.655 75.984 77.667 80.501 81.704 79.326 77.724 76.44 68.804 68.565 68.65 69.208 68.958 69.332 74.98 75.603 75.371 74.771 70.409 69.078 69.046 69.221 69.15 69.178 69.219 69.113 69.168 69.351 69.004 70.95 74.434 75.55 75.314 74.582 69.337 69.625 70.281 70.589 70.095 67.485 68.58 72.116 73.395 70.054 71.421 70.865 69.306 67.281
55.345 56.3 57.013 55.928 56.08 56.423 56.228 56.263 56.958 57.34 62.635 64.348 64.173 63.468 63.723 60.03 58.175 58.283 58.46 61.775 60.935 61.258 61.44 62.113 66.113 67.26 67.713 69.073 69.485 69.938 70.348 64.29 62.7 62.573 62.675 62.785 62.888 63.008 63.535 63.82 62.853 62.85 68.635 69.723 70.285 69.218 68.168 62.978 63.483 63.968 64.31 64.525 64.678 64.863 65.07 65.208 65.285 65.545 65.615 65.76 66.963 68.523 68.135 66.943 66.975 72.363 73.943 74.688 75.07 73.88 71.113 70.813 70.703 68.295 68.36 70.828 75.87 73.958 68.8 68.928 69.773 69.095 69.28 69.42 69.52 69.63 69.74 69.985 70.088 70.228 70.348 70.725 70.788 72.485 76.115 77.598 79.125 79.095 79.353 78.243 74.608 71.83 73.153 73.053 79.48 78.965 73.62 73.603 73.545 73.645 73.698 73.815 74.313 75.218 74.868 75.125 75.428 77.85 82.125 82.115 78.618 76.273 76.533 76.53 78.235 77.448 77.683 77.435 77.465 77.595 77.705 77.783 77.955 78.133 78.245 78.41 78.605 78.778 78.943 79.083 79.238 79.393 79.528 79.63 79.77 79.89 80.085 80.258 80.463 80.645 80.823 81.32 81.158 81.49 82.015 81.905 82.828 82.423 82.358 82.38 83.42 83.035 82.605 83.77 89.25 89.643 90.048 90.45 90.825 91.038 89.69 83.51 85.515 89.97 90.268 89.643 86.205 84.518 84.25 86.918 84.87 84.255 84.353 84.265 84.228 84.205 84.36 84.233 84.215 85.183 86.573 86.89 84.003 85.37 84.6 84.183 84.188 84.198 84.36 84.223 84.243 84.498 84.585 85.343 86.038 85.24 84.368 84.938 83.898 83.898 84.25 83.948 84.018 84.038 83.883 83.788 84.278 83.823 83.755 83.668 85.83 84.82 85.54 84.013 83.32 83.205 83.635 83.063 86.903 88.583 82.99 82.97 84.41 87.725 89.64 89.603 89.09 88.293 86.368 84.058 82.07 82.12 81.923 81.933 81.933 82.03 81.498 81.453 82.423 81.19 81.038 80.988 80.928 80.85 80.765 80.78 80.765 80.738 80.69 80.778 80.573 80.208 79.825 79.718 79.615 79.625 79.585 79.53 79.513 79.638 79.72 79.745 79.775 80.98 86.098 87.285 87.548 86.355 83.873 79.933 79.843 78.92 78.875 78.805 78.688 78.525 78.228 78.263 78.305 78.278 78.01 77.862 77.73 77.672 77.63 79.092 77.49 77.352 79.145 79.957 79.792 77.967 82.685 83.537 82.107 76.597 76.672 76.942 82.585 83.782 84.517 84.02 83.33 82.729 81.673 75.938 75.742 75.287 75.283 75.239 75.191 75.161 74.985 74.866 74.997 74.426 74.319 74.273 74.735 80.241 81.182 76.333 73.922 73.913 73.836 73.684 73.709 73.627 73.567 73.591 73.593 73.554 73.493 73.448 73.354 73.237 73.18 73.131 73.03 72.955 72.754 72.69 72.721 72.605 72.507 72.454 76.085 73.793 73.555 74.642 72.229 72.306 71.986 71.954 71.815 71.69 71.532 71.455 71.453 71.386 71.271 71.29 71.362 71.427 71.507 71.792 74.992 74.917 74.904 74.978 74.985 75.567 75.401 75.356 75.839 76.137 76.428 76.606 76.86 76.624 76.216 75.884 79.366 81.213 81.012 82.286 74.695 76.787 69.289 68.568 68.869 68.516 68.605 69.502 73.79 71.289 71.383 69.325 68.815 69.64 69.066 69.831 69.17 69.14 69.104 69.104 69.794 69.086 69.998 69.336 73.651 74.644 74.159 71.126 68.936 69.662 70.584 70.448 70.525 67.343 67.276 74.593 75.067 72.592 70.904 70.133 71.15 69.496
55.33 55.603 55.925 59.755 59.718 59.22 56.168 56.148 57.098 57.165 57.635 62.768 63.298 62.535 58.625 58.1 58.145 58.348 61.8 61.18 61.18 61.373 61.543 61.648 67.915 68.348 68.8 69.795 70.515 70.368 69.938 64.035 62.625 62.708 62.733 62.845 62.953 63.048 63.188 63.098 62.978 62.845 68.203 69.278 70.265 64.585 62.86 62.995 63.423 63.825 64.243 64.475 65.528 65.58 65.16 65.223 65.338 65.575 66.168 66.16 66.735 66.723 66.943 67.615 73.705 74.438 75.208 76.29 75.35 74.483 72.988 69.268 68.248 68.845 68.655 68.44 69.118 68.603 68.77 68.82 68.935 69.12 69.243 69.325 69.413 69.613 69.79 69.883 70.065 70.093 70.268 71.468 72.115 72.178 78.12 78.853 79.513 79.408 77.903 77.468 75.198 71.788 71.85 73.075 75.345 73.285 73.213 73.52 73.52 73.58 73.728 73.77 74.46 75.698 76.09 74.8 74.83 75.368 79.805 75.903 76.098 76.9 81.965 81.74 76.508 76.753 78.69 77.505 77.443 77.563 77.71 77.838 77.978 78.118 78.29 78.445 78.615 78.765 78.915 79.033 79.94 79.308 79.463 79.63 79.798 80.005 80.215 80.578 81.39 81.565 81.288 81.215 81.303 81.498 81.698 81.86 81.958 82.02 82.7 87.003 87.545 88.155 82.398 82.865 89.475 90.855 90.87 90.795 90.388 90.365 89.59 85.233 84.713 86.115 86.923 86.12 83.83 84.298 84.193 84.173 84.355 86.143 84.59 84.288 84.243 83.69 83.753 84.008 83.953 83.835 84.375 84.193 84.358 86.463 84.168 84.09 84.038 84.045 84.495 84.423 86.59 89.213 85.715 84.198 84.103 83.893 83.87 84.203 83.818 83.788 83.773 83.763 84.548 84.485 83.725 83.718 83.923 84.338 83.703 83.678 83.725 83.438 83.413 83.208 83.783 83.608 87.513 88.94 89.43 89.183 83.943 82.925 82.825 83.75 88.878 88.255 86.41 82.763 82.235 82.033 82.443 82.203 81.92 81.63 81.543 81.488 81.33 81.34 81.165 81.105 81.048 80.97 80.888 80.853 80.888 80.87 81.328 80.77 80.735 80.788 80.59 80.04 79.745 79.61 79.563 79.553 79.525 79.455 79.528 79.64 79.94 79.743 79.735 83.15 86.013 86.505 86.933 85.863 82.773 79.178 78.985 78.98 78.895 78.773 78.7 78.565 78.32 79.688 78.303 77.968 77.942 77.92 77.735 77.685 79.057 79.872 78.717 77.412 79.685 80.372 81.44 82.762 83.657 84.432 83.172 79.25 76.457 76.297 80.42 83.122 83.462 82.787 82.136 81.094 76.177 75.67 75.464 75.194 75.214 75.217 75.156 75.15 75.245 74.652 74.551 74.466 74.373 74.32 75.644 77.608 74.131 74.693 73.994 73.908 73.859 73.769 73.725 73.791 73.787 73.755 73.665 73.622 73.493 73.435 73.373 73.272 73.187 73.155 72.94 72.872 72.806 72.754 72.701 72.669 72.69 76.184 73.443 76.588 76.869 74.061 72.26 72.109 72.049 71.941 71.856 71.803 71.613 71.451 71.444 71.454 71.33 71.252 71.358 71.387 71.425 71.623 74.83 74.96 74.916 75.11 75.229 75.4 75.972 76.273 76.509 76.886 76.823 76.514 76.126 75.713 75.264 75.481 77.798 80.132 80.13 81.938 80.966 76.907 69.035 68.905 68.494 68.522 68.714 68.67 68.751 69.446 68.873 69.393 69.225 69.981 69.337 70.047 69.369 69.125 69.456 69.065 69.667 69.249 69.208 68.832 70.34 70.142 69.53 68.637 69.416 68.722 68.973 70.581 69.172 68.646 67.474 70.842 70.576 70.909 70.572 71.245 71.746 70.234
55.453 55.675 55.713 57.603 56.133 56.333 56.218 56.175 56.498 56.948 57.673 57.038 62.43 57.635 57.145 57.88 58.358 58.415 61.35 61.093 61.28 61.42 61.548 61.643 68.41 69.433 69.6 69.243 69.728 69.305 68.865 67.558 62.61 62.785 62.798 62.908 63.008 63.57 63.528 63.15 63.045 62.938 63.665 62.868 62.858 63.055 64.183 63.05 64.238 64.13 64.04 64.55 65.065 64.888 65.303 65.335 65.403 65.66 66.35 66.373 66.595 66.75 66.945 67.005 73.548 74.843 75.565 74.835 74.095 73.148 67.87 67.89 68.23 68.22 68.408 68.39 68.458 68.523 68.643 68.803 68.953 69.053 69.118 69.225 69.45 69.52 69.728 70.173 69.988 70.12 72.793 71.853 70.81 71.718 78.915 79.515 79.488 78.49 75.983 74.545 72.045 71.685 73.57 73.165 73.113 73.158 73.145 72.91 73.36 73.518 73.678 73.76 73.773 74.115 74.613 74.623 74.705 74.913 75.288 75.623 80.465 82.36 83.08 82.433 77.853 76.328 76.523 78.035 77.563 77.563 77.668 77.79 77.963 78.143 78.273 78.403 78.543 78.728 78.913 79.4 79.268 79.433 79.59 79.76 80.255 80.348 80.753 80.848 80.98 81.223 81.258 81.335 81.355 81.38 81.7 84.63 87.653 88.3 88.683 89.048 89.41 88.618 82.67 82.785 89.013 90.138 89.755 89.36 87.693 85.8 85.338 83.858 83.505 83.503 83.908 83.57 83.705 85.355 83.908 83.798 83.54 84.26 84.378 83.678 83.618 83.5 84.093 85.475 83.558 83.568 83.768 83.683 84.35 85.625 84.143 84.058 84.123 84.175 86.293 85.633 84.99 83.938 83.863 84.03 83.988 83.873 83.705 83.703 83.76 83.693 83.693 84.188 85.383 85.658 84.058 83.635 83.568 84.908 83.58 83.125 84.303 84.535 83.87 83.125 88.603 89.21 89.708 90.203 90.6 89.675 87.803 82.848 82.735 82.605 84.93 82.538 82.405 82.778 82.135 82.56 81.773 81.655 81.575 81.435 81.33 81.303 81.28 81.238 81.173 81.073 81.008 81.028 80.973 80.993 80.983 81.008 80.688 80.645 80.668 80.11 80.02 79.885 79.653 79.51 79.505 79.498 79.483 79.41 79.535 79.623 79.84 79.8 79.74 80.288 80.81 82.948 85.8 84.948 80.63 78.945 78.93 78.88 78.73 78.643 78.855 78.843 78.365 79.868 79.895 77.953 77.8 77.907 77.782 77.64 77.522 79.845 79.892 77.685 78.537 82.797 83.585 83.395 83.042 84.26 83.85 82.467 76.677 76.51 76.19 82.507 81.942 80.672 76.165 75.856 75.829 75.504 75.358 75.514 75.126 75.266 75.144 74.807 74.689 74.674 74.642 74.558 74.415 74.307 74.261 74.236 74.125 74.074 74.01 73.921 73.924 73.929 73.934 73.911 73.85 73.788 73.708 73.594 73.537 73.469 73.409 73.327 73.275 73.087 72.995 72.928 72.9 72.852 72.755 72.851 76.364 79.645 77.196 74.068 78.341 73.032 72.137 72.177 72.064 71.93 71.812 71.754 71.655 71.531 71.358 71.388 71.344 71.161 71.336 71.397 71.395 71.417 72.87 74.605 75.465 75.876 76.276 76.368 76.671 76.949 76.501 76.2 75.86 75.504 75.259 75.498 75.834 76.27 76.338 78.688 79.349 78.93 77.282 74.959 72.058 71.911 71.696 70.363 68.756 69.297 68.74 68.992 73.833 74.829 75.295 73.447 69.104 70.453 70.726 69.23 70.581 69.109 69.108 69.008 69.071 68.818 68.737 69.083 68.927 68.772 68.57 68.835 68.253 68.267 68.007 67.924 68.479 67.77 69.118 69.074 69.583 70.416 70.799 68.831
55.525 55.618 55.703 56.315 56.138 58.433 57.865 60.108 56.205 57.19 57.455 58.01 57.05 57.083 57.448 57.735 58.198 58.533 60.958 61.233 61.378 61.498 61.543 61.573 63.268 69.048 68.593 68.183 68.595 68.233 66.953 64.115 62.62 62.778 62.843 62.938 63.023 63.118 65.53 63.273 63.115 62.98 62.875 62.868 62.858 63.318 65.6 64.02 64.053 64.005 64.213 64.465 64.708 64.983 65.433 65.55 65.685 66.128 66.395 66.525 70.678 68.845 66.863 67.045 67.573 74.1 74.3 73.573 68.893 67.71 67.755 68.343 68.18 68.16 68.223 68.298 68.38 68.535 68.668 68.763 68.848 69.145 69.1 69.235 69.368 69.833 70.2 69.798 71.3 74.35 76.165 74.635 70.16 70.89 71.073 79.468 77.305 75.008 74.703 74.188 72.28 71.498 73.813 73.635 73.123 72.82 72.823 72.875 72.923 73.513 73.56 73.678 73.81 74.025 74.775 74.53 75.37 76.32 75.168 79.385 82.26 83.29 84.09 84.075 82.013 78.85 76.543 77.215 77.513 77.653 77.76 77.818 77.878 78.02 78.278 78.483 78.658 78.805 78.973 79.32 79.288 80.693 80.893 79.898 80.355 80.435 80.798 80.913 81.065 81.295 83.405 85.068 86.643 81.373 81.848 88.303 89.35 89.755 90.428 89.788 89.563 88.96 83.715 82.53 87.333 87.99 84.348 82.928 82.89 82.88 83.423 83.178 83.408 83.553 83.553 83.24 83.248 83.263 84.02 83.295 83.275 83.258 83.818 83.635 83.695 83.943 83.503 83.443 83.593 83.755 83.545 83.865 87.77 83.783 85.355 84.7 84.488 83.973 83.915 83.865 83.693 83.65 83.633 84.2 83.63 83.65 83.583 83.598 84.495 83.648 83.595 84.22 85.65 84.553 85.63 83.525 83.443 83.648 85.575 86.025 86.643 83.988 83.433 83.775 83.13 89.368 90.46 90.243 89.57 89.058 88.51 82.718 82.598 82.45 82.398 82.368 82.355 82.358 82.008 81.798 81.665 81.508 81.408 81.378 81.363 81.305 81.265 81.188 81.615 82.243 81.248 81.125 80.998 80.955 80.928 80.93 81.075 80.608 80.248 80.12 79.918 79.613 79.628 79.435 79.458 79.455 79.388 79.518 79.518 79.633 79.57 80.063 79.78 80.523 79.638 79.58 79.62 81.708 79.353 78.903 78.895 78.813 78.623 78.493 78.505 78.36 78.318 78.34 79.963 78.595 77.952 77.922 77.995 77.56 77.362 78.452 77.862 77.952 77.397 82.822 83.975 83.992 84.265 84.675 84.535 83.335 80.392 76.742 76.14 78.425 76.845 76.177 76.002 75.842 75.772 75.426 75.266 75.209 75.042 74.99 74.839 76.049 75.07 74.698 74.606 74.491 74.434 74.394 74.313 74.267 74.18 74.08 74.035 74.124 74.086 74.074 74.044 73.976 73.904 73.769 73.685 73.581 73.528 73.444 73.378 73.223 73.127 73.117 73.034 72.991 72.911 72.835 72.835 72.818 77.442 80.287 77.411 72.444 72.265 72.279 74.494 72.254 72.149 72.002 71.916 71.761 71.625 71.539 71.304 71.393 71.333 71.285 71.251 71.297 71.352 71.424 71.441 72.198 75.526 76.261 76.653 76.75 76.246 75.942 75.67 75.277 75.271 75.544 75.943 76.41 76.81 76.838 76.467 77.834 77.103 77.119 73.875 70.758 71.952 73.252 73.455 71.394 71.687 69.475 70.411 74.139 75.588 76.22 75.77 71.64 69.5 68.964 69.989 69.138 70.554 69.392 69.041 68.933 69.007 68.946 68.796 68.756 72.551 73.231 74.642 73.211 68.365 68.085 68.744 69.372 67.999 67.395 67.366 66.779 66.708 69.04 67.211 67.011
55.568 55.643 56.353 60.125 61.568 62.313 62.735 62.293 56.373 56.853 57.048 57.05 57.223 57.445 57.873 57.935 58.065 60.4 61.215 61.373 62.165 61.433 61.453 61.48 61.64 67.963 67.545 67.115 65.018 62.34 62.388 62.465 62.648 62.725 62.853 62.95 63.043 63.12 64.128 63.345 63.238 63.08 63.14 63.823 64.235 64.073 64.048 64.78 68.543 63.963 64.165 64.45 64.725 65.108 65.59 65.973 66.248 66.478 66.503 72.045 73.35 72.868 67.523 66.985 67.11 72.98 70.57 67.408 67.703 67.718 69.603 68.008 67.998 68.06 68.148 68.285 68.415 68.52 68.583 68.675 69.623 69.513 69.078 69.245 69.308 69.518 70.39 73.568 75.94 76.73 77.533 76.53 71.83 70.99 70.865 75.343 77.603 74.723 74.305 71.445 71.495 71.48 71.555 73.793 72.325 73.355 72.8 72.89 72.92 73.205 73.73 73.933 73.903 73.943 77.068 74.823 74.848 75.218 75.028 78.698 80.968 82.655 83.785 83.528 82.665 79.6 76.755 76.983 76.833 77.258 78.138 77.973 77.96 78.355 78.345 78.87 79.258 78.7 79.195 79.598 80.188 81.243 80.183 79.848 79.978 80.598 81.48 84.93 87.075 87.44 87.77 88.13 87.753 81.598 81.74 87.553 89.348 89.275 88.87 88.495 88.11 88.64 86.695 82.443 82.738 86.023 85.42 82.843 82.815 82.865 82.943 83.6 83.258 83.593 83.573 83.428 83.453 83.18 85.193 83.143 83.148 83.133 83.218 84.823 85.648 83.9 83.62 83.315 83.953 84.115 86.163 88.135 88.4 88.048 84.063 84.033 84.023 84.008 83.963 83.68 83.603 83.55 83.445 83.5 84.775 86.52 83.94 83.503 84.163 83.658 83.525 83.598 85.718 84.41 83.303 83.118 83.225 83.405 87.68 88.903 89.39 87.74 83.725 83.14 83.895 88.878 89.288 88.793 86.97 85.508 82.775 82.475 82.375 82.253 82.153 82.288 82.133 81.88 81.765 81.638 81.498 81.455 81.43 81.408 81.333 81.26 81.235 81.285 81.29 81.26 81.22 80.905 80.88 80.895 80.895 80.875 80.868 80.193 80.178 80.038 79.735 79.59 79.518 79.405 79.41 79.748 79.995 79.545 79.603 79.623 79.71 83.205 84.478 83.748 81.478 80.513 79.945 79.89 79.605 81.615 79.483 78.838 78.59 78.568 78.46 78.22 78.138 78.228 79.825 80.065 77.77 77.77 77.717 77.617 77.347 81.907 82.822 78.622 77.305 77.392 83.355 84.477 85.092 84.72 84.06 83.405 82.68 77.535 76.157 76.005 76.08 76.022 75.972 75.877 75.489 75.396 75.234 75.079 75.003 74.916 74.919 76.33 75.182 74.634 74.589 74.538 74.505 74.42 74.333 74.285 74.203 74.18 74.226 74.201 74.183 74.105 74.013 73.957 73.902 73.725 73.682 73.632 73.531 73.399 73.347 73.319 73.211 73.175 73.065 72.939 72.919 72.928 72.928 72.864 73.462 76.664 74.121 72.508 72.377 74.654 72.409 72.273 72.182 72.019 71.878 71.756 71.605 71.442 71.295 71.271 71.304 71.295 71.202 71.304 71.313 71.345 71.409 71.536 75.153 75.95 76.09 75.583 75.533 75.326 75.603 75.958 76.252 76.569 76.936 76.828 76.478 76.13 75.55 74.876 75.052 73.871 71.567 70.298 71.167 70.586 71.796 71.986 69.839 69.189 68.936 74.019 75.689 77.003 76.549 74.94 70.982 68.957 70.222 69.567 69.144 69.008 69 68.938 68.955 69.443 69.29 73.016 74.397 75.226 75.324 74.487 69.386 68.774 69.164 68.544 67.728 67.463 67.113 66.812 66.761 66.72 66.717 67.133
55.628 61.143 62.273 62.66 63.355 63.495 63.78 62.678 56.82 56.313 57.158 58.28 62.125 62.218 61.645 60.648 60.263 61.185 61.325 61.388 61.403 61.343 61.378 61.423 61.513 64.315 63.42 61.76 62.205 62.068 62.57 62.708 62.548 62.7 62.863 62.955 63.045 63.168 63.243 63.353 63.605 64.093 64.628 64.945 64.075 67.553 72.043 71.015 69.95 66.978 64.115 64.44 64.733 65.428 65.938 66.293 66.52 71.075 73.135 73.98 74.663 73.85 71.193 66.933 67.138 67.258 67.383 67.445 67.68 67.868 67.785 67.94 67.993 68.033 68.173 68.29 68.803 69.278 68.63 68.76 68.823 68.978 69.003 69.32 69.41 71.198 75.678 76.443 77.27 78.075 77.73 76.975 75.835 70.125 71.035 70.838 74.61 72.663 71.653 71.138 71.393 71.458 71.41 71.613 71.748 72.698 72.923 72.815 72.893 72.923 73.743 73.718 73.863 73.888 73.993 74.41 76.135 74.935 74.923 75.445 77.46 81.633 82.97 82.398 79.653 76.343 76.57 76.643 76.588 76.73 77.995 77.88 78.058 79.12 78.215 78.638 78.575 78.593 79.79 79.455 81.233 81.18 85.125 85.093 80.263 80.663 86.863 88.198 88.548 88.978 89.108 89.02 88.08 83.795 81.57 86.133 88.188 87.603 86.31 85.063 85.48 88.303 88.243 82.39 82.675 82.645 82.638 82.645 82.598 83.33 82.62 83.04 82.89 83.545 86.2 86.235 83.15 83.128 83.663 83.023 83.038 83.055 83.035 84.315 85.56 83.293 84.24 86.938 87.635 88.628 88.818 88.438 88.65 87.485 83.52 84.968 84.025 83.9 83.643 83.625 83.535 83.468 83.358 83.595 85.73 86.823 85.325 83.365 83.45 83.778 83.705 83.463 84.298 83.16 83.13 84.715 88.69 89.185 89.725 89.913 90.278 88.963 84.03 82.97 83.085 87.613 86.633 84.158 83.868 82.673 82.673 82.565 82.153 82.033 81.935 81.848 81.8 81.678 81.58 81.558 81.525 81.473 81.4 81.32 81.35 81.375 81.39 81.273 81.488 80.81 80.813 80.835 80.84 80.853 80.86 80.898 80.215 80.178 80.13 79.963 79.58 79.578 79.36 79.37 79.373 80.408 79.415 79.45 80.163 79.593 79.645 82.183 85.76 86.653 86.095 85.12 83.478 79.895 80.253 81.73 81.675 81.595 78.753 80.743 78.205 78.125 78.113 78.65 80.033 80.218 79.907 77.817 78.215 80.085 80.645 83.605 83.55 79.67 77.462 76.95 81.69 83.86 84.14 83.685 82.86 80.71 76.645 76.445 76.112 75.885 75.9 75.99 75.912 75.872 75.887 75.276 75.048 75.033 74.972 74.918 74.856 74.798 74.703 74.703 74.647 74.584 74.529 74.429 74.4 74.401 74.427 74.333 74.29 74.229 74.173 74.095 74.006 73.975 73.856 73.762 73.733 73.584 73.499 73.435 73.385 73.307 73.223 73.184 73.079 73.114 73.853 73.307 72.926 72.804 72.722 73.055 72.587 72.53 72.497 72.433 72.401 72.362 73.331 72.158 71.869 71.703 71.613 71.454 71.308 71.248 71.276 71.262 71.164 71.215 71.27 71.344 71.435 71.476 73.302 75.415 75.448 75.412 75.722 76.093 76.402 76.889 76.968 76.742 76.267 75.854 75.363 70.557 70.968 71.846 73.882 73.55 72.923 69.463 68.862 70.379 69.255 70.012 69.242 68.824 69.755 71.599 75.802 76.908 76.56 75.591 73.487 69.018 69.238 69.207 68.984 68.974 68.995 68.976 68.898 69.552 68.93 70.309 74.309 75.132 75.671 74.925 70.803 68.818 68.098 68.997 68.028 67.459 67.66 66.968 66.884 66.885 68.066 68.415
55.695 61.52 63.133 63.848 64.265 64.543 64.195 63.115 60.915 56.305 59.108 61.063 62.835 63.613 61.758 61.058 61.225 61.323 61.388 61.398 61.788 61.273 61.298 61.343 61.408 61.655 61.688 61.713 61.868 62.033 62.198 62.37 62.54 62.703 62.915 63.018 63.13 63.23 64.233 63.403 63.54 64.358 63.878 63.96 69.603 70.673 71.76 71.468 70.408 69.34 64.22 64.63 65.028 65.368 68.818 67.393 72.895 73.63 74.46 75.02 74.333 73.523 72.82 66.983 67.045 67.308 67.388 68.52 67.58 67.69 67.81 67.788 67.933 68.068 68.15 68.205 68.353 68.573 68.608 68.708 69 69.023 69.09 69.04 69.445 69.52 76.113 77.445 78.015 77.485 76.428 74.17 73.205 70.545 70.155 70.863 70.983 70.9 70.965 71.02 71.47 71.453 71.525 71.588 71.813 72.233 74.895 72.815 72.86 72.903 73.345 73.715 73.778 73.838 73.95 74.138 74.238 74.755 74.823 74.628 78.435 79.545 82.003 76.253 76.118 76.208 76.38 82.338 81.878 77.76 76.875 77.213 77.998 78.853 78.105 78.53 81.523 78.498 79.72 82.313 85.7 85.988 86.283 86.338 81.903 80.793 86.608 88.418 88.59 88.225 87.9 87.738 87.203 85.368 81.415 81.72 83.485 85.095 84.95 84.39 83.905 82.678 82.293 83.09 84.368 84.895 82.288 82.243 82.263 82.533 82.443 82.49 82.573 82.58 86.275 86.415 83.123 83.09 83.413 83.485 82.97 82.945 82.99 83.405 87.068 88.033 88.098 88.24 86.668 85.73 84.745 85.523 87.238 86.338 83.288 85.225 85.535 84.365 83.495 83.665 83.445 83.41 83.488 85.33 84.423 86.573 86.153 83.263 83.323 84.583 83.2 84.09 84.148 83.81 83.115 83.08 89.08 90.36 90.798 90.453 89.87 89.28 85.578 82.938 82.938 83.675 82.708 82.628 82.888 82.64 82.658 84.625 81.97 81.878 81.765 81.653 81.645 81.613 81.585 81.558 81.485 81.415 81.415 81.468 81.488 81.715 80.99 81.03 82.638 80.783 80.788 80.798 81.923 80.823 80.863 80.345 80.18 80.14 80.05 79.813 79.503 79.525 79.31 79.343 79.333 79.263 79.49 79.405 80.943 80.36 79.433 84.77 86.25 87.425 87.695 87.66 84.453 79.458 80.285 81.528 79.07 81.7 79.823 78.483 78.285 78.163 78.095 79.788 80.1 80.233 80.197 81.75 83.392 81.105 81.635 85.222 85.395 83.505 78.782 76.935 76.847 83.197 82.952 82.42 76.832 76.622 76.585 76.53 76.675 76.18 75.622 75.927 75.832 75.382 75.155 75.197 75.202 75.144 74.976 74.884 74.859 74.815 74.772 74.72 74.664 74.592 74.516 74.497 74.588 74.537 74.494 74.4 74.34 74.263 74.175 74.098 74.014 73.958 73.897 73.773 73.661 73.565 73.591 73.539 73.406 73.344 73.222 73.279 73.188 73.491 73.08 72.942 72.892 72.781 72.712 72.677 72.651 72.624 72.579 72.539 72.801 75.531 78.085 73.37 72 71.775 71.594 71.454 71.407 71.251 71.229 71.237 71.19 71.124 71.252 71.259 71.374 71.441 72.53 75.406 75.853 76.217 76.589 76.889 76.821 76.397 76.067 75.78 75.189 71.234 70.309 70.965 70.592 70.214 73.327 73.868 70.9 68.907 68.914 68.874 69.08 68.93 69.643 70.638 69.573 69.477 74.215 75.708 75.2 74.51 70.628 68.981 69.037 69.044 69.058 69.134 68.966 68.984 68.871 69.253 68.863 68.789 72.696 76.238 75.827 75.402 74.045 70.179 68.39 68.161 69.679 69.623 70.466 70.881 71.033 70.86 67.244 67.079
55.658 57.08 62.673 63.888 63.975 64.255 63.153 62.783 62.255 56.405 62.355 62.265 62.633 62.383 61.1 61.21 61.38 61.745 67.488 68.005 66.948 61.705 61.205 61.285 61.36 61.413 61.523 61.698 61.863 62.023 62.195 62.368 62.58 62.805 63.46 63.233 63.198 63.298 64.518 63.458 63.6 63.76 63.885 63.95 69.185 70.25 71.295 71.92 70.83 69.328 64.923 64.388 64.85 65.363 68.813 67.823 70.455 73.898 74.598 73.833 73.038 72.28 68.413 67.003 67.053 67.41 67.363 67.435 67.59 67.89 67.68 67.82 67.918 67.983 68.035 68.183 68.403 68.47 68.663 69.04 69.01 69.263 70.825 70.598 69.138 69.54 72.235 76.67 76.695 75.878 71.83 70.088 70.265 70.015 72.405 71.98 70.893 70.908 70.955 71.033 71.26 71.465 71.593 71.663 71.983 72.113 73.29 73.15 74.725 76.195 75.17 73.83 73.773 73.815 74.27 74.603 76.095 74.37 74.378 74.48 76.145 76.378 75.9 77.298 76.185 76.14 80.793 83.325 83.348 82.603 82.065 77.033 77.795 80.83 83.785 84.048 84.333 83.873 78.425 81.653 86.263 87.298 87.58 86.625 84.608 80.728 83.335 87.46 87.123 84.168 84.055 81.293 84.518 84.358 81.463 81.743 81.718 81.975 82.065 83.388 82.163 82.118 82.098 84.703 84.793 84.9 82.42 82.023 82.098 82.335 82.383 82.42 82.448 82.57 85.843 86.573 84.258 83.05 83.015 84.688 83.135 83.013 83.368 85.278 86.89 86.368 83.825 83.053 83.44 83.338 83.183 83.16 83.155 83.635 83.185 83.833 85.498 85.365 83.493 83.465 83.345 83.363 83.363 84.318 85.105 86.085 84.035 83.003 83.003 83.668 86.248 88.67 88.705 84.235 83.033 83.01 87.903 89.858 89.535 89.063 88.398 86.525 83.383 83.948 83.003 83.47 82.598 82.65 83.42 82.23 82.068 81.988 81.78 81.725 81.71 81.68 81.668 81.593 81.528 81.47 81.445 81.483 81.6 81.463 81.028 80.858 80.903 86.12 86.468 84.23 83.363 81.12 80.85 81.03 80.333 80.228 80.16 80.095 79.955 79.558 79.463 79.358 79.31 79.313 79.27 79.278 79.428 79.59 79.485 79.98 79.76 85.475 86.748 87.728 87.688 86.26 82.17 79.28 79.608 80.898 79.15 79.263 78.215 78.218 78.343 78.185 78.128 78.025 80.083 79.84 78.12 82.217 84.075 84.93 84.9 85.407 85.402 85.332 81.63 77.042 76.767 79.105 77.055 76.89 77.085 76.582 76.57 76.547 75.832 75.857 75.555 75.5 75.285 75.315 75.372 75.325 75.25 75.096 74.985 74.957 74.926 74.87 74.829 74.75 74.664 74.663 74.777 74.703 74.648 74.602 74.552 74.42 74.335 74.267 74.183 74.141 74.066 73.937 73.817 73.767 73.716 73.705 73.581 73.494 73.409 73.482 74.533 73.762 73.199 73.114 73.05 72.947 72.907 72.862 72.832 73.413 72.998 72.663 75.015 78.906 79.23 79.799 80.454 78.435 74.028 71.779 71.583 71.503 71.368 71.342 71.168 71.199 71.183 71.145 71.168 71.211 71.357 71.468 71.644 74.7 75.733 76.725 76.721 76.193 75.863 75.55 75.036 72.332 71.73 71.797 71.662 70.45 69.848 69.704 73.861 75.128 70.462 69.092 69.623 69.671 69.636 70.401 69.402 69.189 69.154 71.297 73.568 70.681 69.713 69.191 69.126 69.203 69.076 69.043 69.23 69.037 68.925 68.912 68.894 68.935 70.434 69.026 72.24 74.308 75.445 75.437 74.475 69.209 68.352 69.974 70.526 70.398 70.349 71.989 71.07 68.193 67.673 66.872
55.465 55.9 62.3 63.208 62.793 62.413 60.658 57.14 59.6 57.003 62.868 63.64 63.853 60.99 61.218 61.795 67.52 68.69 69.465 68.443 67.37 62.788 61.148 61.258 61.34 61.428 61.53 61.678 61.833 62.035 62.23 62.4 62.675 62.8 63.553 64.58 63.275 63.368 63.47 63.543 64.898 63.933 63.905 63.975 64 69.805 70.888 71.82 70.868 69.805 64.378 64.26 64.85 65.35 68.815 68.783 66.393 73.14 73.288 72.41 69.835 66.933 66.98 67.48 67.12 67.198 67.26 67.32 68.205 67.743 67.69 67.76 68.135 68.968 68.07 68.208 68.333 68.618 68.993 68.763 69.245 74.76 75.47 74.94 69.115 69.615 69.595 75.223 72.838 69.625 71.343 70.288 70.46 69.988 70.92 72.435 71.005 70.925 70.96 71.043 71.1 71.505 71.615 71.73 71.73 71.985 72.18 72.843 75.828 76.51 75.968 73.575 75.133 73.833 73.623 73.668 73.813 74.223 74.313 74.415 74.573 76.31 75.67 75.803 75.94 76.085 82.603 83.805 84.318 83.755 82.77 77.255 77.725 84.123 84.995 85.865 85.603 84.53 78.478 79.418 85.983 87.215 87.148 86.753 85.333 80.105 80.733 83.935 83.333 81.153 82.988 81.26 81.278 81.323 83.618 84.038 83.47 81.6 81.743 82.09 82.075 82.1 81.993 84.718 84.723 84.91 85.363 81.95 81.96 82.195 82.34 82.39 82.405 82.543 84.095 85.845 83.755 83.278 83.293 83.868 85.423 85.348 83.64 82.693 82.89 82.888 82.81 82.828 82.89 83.918 83.058 83.028 83.028 83.688 83.133 83.185 85.39 85.39 83.2 83.165 83.263 83.293 83.21 83.085 83.1 83.125 83.293 86.58 88.33 89.005 89.46 89.935 89.178 84.115 82.938 82.908 83.905 88.77 87.278 84.67 83.588 82.665 82.623 83.06 82.458 83.025 82.333 82.155 82.098 81.995 81.873 81.813 81.783 81.733 81.705 81.67 81.608 81.598 81.6 81.545 81.57 81.528 81.43 81.17 80.938 80.785 85.985 87.263 87.528 86.735 84.56 81.463 80.883 80.553 80.458 80.228 80.128 80.055 79.87 79.433 79.458 79.235 79.275 79.27 79.213 79.238 79.36 80.935 79.42 79.46 84.715 85.883 87.123 87.198 86.91 84.663 79.575 79.51 79.978 79.508 79.278 78.41 78.203 78.245 78.268 78.295 78.135 78.088 78.255 77.96 77.695 78.407 85.39 85.405 85.4 85.392 84.782 84.39 83.207 77.495 76.685 76.595 76.917 76.865 76.777 76.702 76.55 76.535 76.5 75.452 75.4 75.337 75.37 75.435 75.372 75.202 75.085 75.082 75.051 75.007 74.956 74.9 74.81 74.804 74.882 74.861 74.788 74.776 74.715 74.638 74.554 74.45 74.346 74.281 74.256 74.117 74.04 73.942 73.834 73.817 73.749 73.7 73.612 73.522 73.516 73.719 73.41 73.281 73.211 73.136 73.065 73.011 72.984 72.938 72.936 73.652 73.056 76.813 81.105 82.274 82.212 81.471 81.213 79.744 76.417 72.004 71.673 71.514 71.405 71.414 71.197 71.199 71.177 71.109 71.021 71.137 71.294 71.413 71.512 73.81 75.451 76.01 75.565 75.135 74.267 72.025 70.828 72.221 72.558 72.618 70.673 69.979 69.726 70.644 70.323 73.252 72.154 69.969 70.294 69.742 69.337 69.336 69.307 69.284 69.233 69.607 69.148 69.781 69.485 70.305 74.865 73.651 69.139 69.094 69.453 69.055 68.896 68.898 68.88 68.895 68.932 68.78 70.183 73.778 74.602 74.425 73.856 69.122 69.723 70.644 70.445 69.931 68.33 70.407 71.415 68.022 67.239 68.306
55.308 55.98 60.863 62.908 61.95 59.368 56.388 56.423 56.643 56.825 60.31 63.54 61.39 61.038 61.178 61.298 67.18 68.255 69.325 68.868 67.8 66.738 61.608 62.233 61.318 61.405 61.538 61.728 61.918 62.063 62.36 62.443 62.595 62.835 62.918 63.138 63.395 64.585 63.568 63.658 65.558 64.055 64.103 64.708 64.528 67.595 70.458 71.533 71.313 70.235 66.78 64.773 65.02 65.108 68.805 68.353 67.085 68.73 70.215 66.77 66.725 67.128 66.953 66.995 67.135 67.098 67.193 67.333 67.463 67.553 67.59 67.733 68.76 67.97 68.11 69.973 68.398 68.55 68.728 74.508 75.22 75.928 76.628 75.65 72.513 69.123 69.585 69.61 69.65 69.63 69.693 71.343 69.86 69.953 70.07 70.38 70.335 70.983 70.988 71.045 71.115 71.475 71.618 71.708 71.755 71.935 71.995 72.335 75.503 77.59 75.14 73.01 73.078 76.728 73.605 73.61 73.675 74.283 74.238 74.363 74.965 77.725 77.655 76.053 75.743 77.503 82.878 83.458 84.008 83.493 82.218 77.47 77.695 80.828 85.108 86.31 85.973 84.808 79.243 79.658 85.125 86.093 85.818 85.075 84.675 79.75 80.755 81.398 80.8 80.843 82.575 81.223 81.245 81.248 83.488 83.718 84.065 81.438 81.588 81.545 83.148 81.85 81.833 83.748 84.738 84.968 84.213 81.848 81.828 81.938 82.228 82.28 82.38 84.238 83.318 83.86 83.423 83.053 82.845 82.865 82.748 82.573 82.613 82.628 82.638 82.67 82.713 82.95 82.82 84.448 82.925 82.903 83.618 85.238 85.56 82.94 85.005 85.47 83.448 82.928 83.95 82.978 82.865 84.558 82.968 82.928 84.333 88.515 89.708 90.273 90.735 90.19 89.583 87.13 82.83 82.813 82.735 83.858 82.623 82.65 83.973 82.548 82.548 82.308 82.16 82.078 81.99 81.963 81.87 81.865 81.84 81.803 81.765 81.715 81.683 81.718 81.73 81.963 83.615 82.535 81.613 81.36 81.2 80.998 80.835 84.568 86.805 87.585 87.965 87.785 86.895 85.43 80.768 80.56 80.395 80.253 80.168 79.983 79.66 79.365 79.358 79.218 79.245 79.223 79.158 79.253 79.358 79.385 79.433 79.448 84.86 86.375 87.363 86.478 85.275 81.013 79.39 79.428 79.923 79.09 79.143 78.435 78.665 78.208 78.2 78.258 78.13 78.075 78.245 77.935 77.862 77.56 82.412 85.435 85.045 84.855 83.925 83.372 81.31 76.895 76.542 76.402 76.567 76.832 76.75 76.87 76.517 76.24 75.452 75.442 75.372 75.34 75.297 75.35 75.195 75.17 75.16 75.12 75.085 75.018 74.952 74.93 74.998 75.003 74.945 74.884 74.863 74.811 74.732 74.646 74.566 74.454 74.382 74.269 74.165 74.168 74.077 73.997 73.886 73.838 73.75 74.262 73.652 73.559 73.517 73.482 73.398 73.311 73.252 73.162 73.132 73.083 73.048 73.014 72.987 74.157 78.36 79.656 80.822 82.318 82.254 82.582 81.854 80.701 77.369 71.976 71.644 71.55 71.362 71.346 71.225 71.102 71.111 71.057 71.017 71.04 71.151 71.334 71.434 71.883 74.699 73.235 74.175 71.62 71.445 71.436 71.994 72.608 72.321 70.853 69.986 71.666 71.413 72.554 72.355 72.814 72.835 70.129 69.485 69.512 69.513 69.4 69.572 69.5 69.66 70.761 69.425 72.443 74.528 75.575 76.006 74.773 69.932 69.196 70.21 69.004 68.852 68.868 68.855 68.822 68.893 69.055 68.754 69.54 70.114 70.593 69.498 69.702 70.291 70.621 70.404 69.486 67.827 67.989 70.186 69.99 69.104 68.457
55.335 56.075 57.535 62.625 62.32 58.463 57.125 56.783 56.838 57.468 59.603 58.683 60.438 60.95 61.103 61.223 66.72 67.803 68.895 69.313 68.238 67.17 62.29 62.853 61.328 61.45 61.665 61.835 62.013 62.073 62.36 62.455 62.513 62.86 62.93 63.015 63.423 64.588 63.658 63.775 63.828 63.908 64.085 64.178 65.025 65.395 70.005 71.1 71.915 70.963 69.893 64.723 65.043 65.11 66.26 66.275 67.725 66.403 66.715 66.728 66.72 66.803 66.883 68.22 67.06 67.09 67.215 67.325 67.393 67.475 67.68 67.745 67.848 68.075 68.128 68.158 69.34 68.593 74.928 75.683 76.393 78.098 76.645 75.945 75.095 69.385 69.253 69.603 69.583 69.618 69.67 70.79 69.885 69.958 70.103 70.26 70.435 71.375 71.033 71.07 71.39 73.75 72.293 71.653 71.72 71.723 71.778 72.06 72.833 72.688 73.203 73.595 73.138 75.438 73.503 73.568 73.663 73.76 74.358 75.1 75.353 77.633 77.888 78.02 76.29 77.798 78.778 80.628 82.748 83.013 78.213 77.053 78.023 79.033 84.805 85.075 84.793 84.475 82.635 79.463 82.995 81.56 79.55 82.685 82.658 80.183 82.98 81.518 80.895 80.648 81.66 81.21 81.178 81.295 82.268 82.455 83.043 81.135 81.568 81.07 83.543 81.77 81.735 82.018 84.165 82.923 81.748 81.71 82.478 81.853 82.74 83.37 83.275 82.6 83.278 88.3 86.6 82.7 82.7 82.695 82.603 82.54 82.545 82.565 82.583 82.703 83.143 82.665 82.705 83.458 82.838 82.853 82.83 85.253 84.098 82.823 83.865 84.085 82.903 84.343 83.138 85.128 88.095 88.738 83.818 82.858 82.84 85.368 89.313 89.833 89.39 88.935 88.413 86.69 82.673 82.633 82.558 82.48 82.55 82.473 82.533 82.545 82.205 82.073 81.965 81.895 81.873 81.868 81.85 81.84 81.818 81.76 81.713 81.785 81.825 81.85 84.07 83.163 82.955 81.54 81.563 81.405 81.008 80.865 80.775 82.715 86.64 87.375 87.17 87.73 87.975 86.97 85.488 80.578 80.49 80.325 80.843 80.465 79.353 79.355 79.198 79.19 79.208 79.16 79.145 79.245 79.74 79.375 80.068 79.42 83.168 85.583 86.085 86.01 82.35 79.158 79.293 79.703 79.403 78.615 79.173 80.295 80.358 78.205 78.185 78.208 78.235 78.575 83.528 83.973 78.065 77.547 78.335 84.362 83.987 83.432 81.6 79.887 77.227 77.217 76.352 76.2 76.095 76.682 76.582 75.88 75.555 75.525 76.622 75.572 75.382 75.327 75.267 75.257 75.26 75.23 75.187 75.132 75.062 75.045 75.14 75.139 75.12 75.025 74.993 74.946 74.877 74.802 74.724 74.647 74.581 74.504 74.309 74.25 74.249 74.172 74.118 74.03 73.874 73.906 73.857 74.726 73.766 73.576 73.532 73.496 73.418 73.278 73.27 73.218 73.893 73.58 73.124 74.098 78.824 79.528 80.515 81.141 81.975 82.606 82.32 81.811 81.288 80.337 79.758 73.472 71.651 71.488 71.42 71.312 71.187 71.066 71.105 71.073 71.024 70.998 71.124 71.319 71.308 71.407 73.814 71.329 72.679 73.237 73.672 70.867 70.614 70.508 70.26 71.155 70.825 71.681 70.976 70.945 71.889 72.013 72.905 70.198 69.765 69.585 71.389 71.076 70.958 70.252 71.311 70.1 71.154 74.139 76.155 76.913 76.477 75.339 69.764 69.367 69.441 69.376 68.935 68.803 68.852 68.836 68.847 68.853 69.447 70.171 69.371 68.626 68.534 71.362 69.896 68.875 68.157 67.983 70.04 69.026 70.478 71.154 71.117 68.247
56.688 56.185 56.228 56.72 56.338 56.503 57 57.313 57.373 57.478 59.568 59.618 59.405 61.75 66.423 66.585 64.785 67.388 68.458 69.47 68.648 67.598 66.055 61.988 61.405 61.548 61.785 61.958 62.065 62.118 62.22 62.5 62.543 62.828 62.975 63.045 63.09 63.64 63.755 63.87 63.938 63.983 64.13 65.338 64.313 64.27 69.85 70.958 72.023 71.39 70.31 65.13 65.063 65.2 66.2 66.235 67.073 66.353 66.62 66.533 66.603 66.76 66.783 66.853 66.99 67.093 67.153 67.228 67.413 67.533 67.593 67.915 67.98 68.06 68.148 70.403 69.223 68.633 72.223 75.663 76.785 76.135 75.448 74.718 71.393 69.485 69.143 69.563 69.54 69.595 69.648 69.698 71.453 69.893 70.063 70.225 70.41 70.595 71.243 73.413 73.96 74.198 74.328 71.775 71.683 71.743 71.938 72.043 72.26 72.48 72.668 73.053 73.103 73.25 73.995 73.495 73.58 73.638 73.84 73.953 74.34 77.793 78.055 77.068 75.623 75.738 75.775 77.548 76.568 81.33 76.535 77.673 77.665 77.71 84.113 82.175 80.843 78.66 78.425 78.738 79.978 80.303 79.743 80.125 79.87 82.423 82.678 82.965 80.533 80.53 80.6 80.843 80.543 80.583 80.603 81.49 81.058 81.038 81.063 81.063 82.71 81.773 81.67 81.97 84.145 82.848 83.075 81.955 82.345 85.385 86.153 83.875 82.373 82.115 84.27 84.68 82.793 82.593 82.595 82.61 82.685 82.508 82.483 82.865 84 84.665 84.355 82.57 82.61 82.57 83.63 82.733 82.725 84.458 84.943 85.185 82.798 85.2 86.533 88.353 88.778 89.215 89.62 89.455 87.54 82.763 82.733 82.698 88.825 88.585 86.958 85.415 82.955 82.818 82.508 82.443 82.463 82.278 82.533 82.278 82.198 82.128 82.015 81.913 81.888 81.898 81.865 81.84 81.823 81.803 81.775 81.805 81.818 81.955 82.133 81.675 82.55 81.51 81.515 82.18 82.26 84.185 80.885 80.798 80.803 81.918 83.403 86.588 86.43 86.643 87.663 88.03 87.053 85.41 80.458 80.33 80 80.338 79.243 79.323 79.118 79.16 79.155 79.078 79.173 79.265 79.39 79.353 79.385 80.438 80.448 79.378 80.48 85.323 79.31 79.173 80.453 80.963 80.45 78.865 80.72 80.54 80.43 79.773 78.25 78.188 82.005 84.245 84.848 84.608 82.347 77.547 77.35 79.78 81.98 78.61 77.335 77.252 77.205 76.787 76.137 76.017 75.852 75.995 75.677 75.632 75.675 78.057 78.935 75.515 75.38 75.362 75.347 75.31 75.285 75.242 75.172 75.125 75.217 75.215 75.148 75.131 75.128 75.074 75.026 74.947 74.852 74.755 74.699 74.637 74.541 74.43 74.351 74.315 74.328 74.212 74.106 74.088 74.046 73.992 73.918 73.786 74.085 73.6 73.589 73.525 73.459 73.356 73.318 73.285 73.257 75.87 78.62 79.392 80.174 80.982 81.741 82.473 82.394 81.662 80.939 80.138 79.872 78.914 75.588 73.786 71.791 71.569 71.435 71.29 71.138 70.97 71.047 71.067 71 70.93 71.074 71.148 72.187 71.56 72.332 72.709 73.174 76.047 76.803 74.209 73.618 71.6 70.868 71.737 70.524 70.29 71.231 71.618 70.908 70.858 72.928 72.676 70.687 70.197 74.204 73.638 70.155 70.057 69.593 69.52 69.871 69.618 75.274 77.895 76.909 75.847 73.682 69.244 69.125 69.488 68.953 68.799 68.817 68.856 68.782 69.424 69.495 68.901 68.488 72.243 73.959 74.422 73.852 69.184 68.262 69.381 69.913 70.003 70.447 68.847 67.849 67.477
55.825 56.028 56.313 56.36 56.36 56.465 56.453 57.883 57.475 57.58 58.525 59.248 59.523 68.165 69.7 69.528 64.883 66.948 68.03 69.11 69.093 68.035 66.358 61.413 61.533 61.72 61.85 62.04 62.108 62.68 62.62 62.545 62.908 62.73 63.023 63.07 63.12 63.88 64.685 63.943 64.023 64.083 64.19 64.53 64.683 64.54 67.123 70.515 71.6 71.83 69.305 64.823 64.958 65.253 66.358 66.18 66.25 66.343 66.395 66.55 66.62 66.613 66.75 66.878 66.96 67 67.148 67.323 67.345 67.5 67.835 67.893 67.978 68.063 69.085 69.173 70.74 69.98 68.7 74.915 75.648 74.908 70.87 69.163 69.16 69.185 69.168 69.19 69.505 69.545 69.615 69.693 69.728 72.365 70.088 70.21 70.383 70.508 71.848 74.218 74.418 74.61 74.418 72.598 71.858 71.925 72.043 72.138 72.255 72.408 72.523 72.945 72.968 73.033 75.625 73.448 73.515 73.608 73.733 73.898 75.223 78.065 76.768 75.03 75.363 75.633 76.26 76.315 76.248 76.32 76.378 77.458 77.535 77.65 78.118 78.163 78.36 78.558 78.42 78.828 79.453 79.553 79.613 81.235 80 81.05 82.44 82.53 80.208 80.165 80.99 82 80.463 80.508 80.558 80.625 80.995 80.99 81.053 81.055 81.47 81.768 81.58 81.56 82.988 83.468 86.19 86.383 86.168 84.723 83.43 83.86 82.103 82.088 83.493 84.22 82.913 82.523 82.525 82.525 82.495 82.475 82.46 82.625 84.363 84.89 84.438 82.435 82.46 82.453 84.32 82.878 82.633 82.623 82.533 85.733 82.518 84.27 84.72 89.25 89.993 90.42 90.255 89.75 88.61 82.688 82.663 82.563 84.428 82.823 82.47 83.135 82.59 82.505 82.355 82.363 82.223 82.125 82.108 82.095 81.958 81.93 81.918 81.89 81.87 81.865 81.835 81.828 81.923 81.958 81.918 81.905 81.925 82.08 81.688 81.58 81.56 83.685 86.31 87.453 87.703 87.92 83.27 82.433 83.178 80.785 80.728 82.105 83.985 83.023 86.585 87.578 87.553 86.473 80.855 80.303 80.163 79.68 79.185 79.115 79.088 79.118 79.088 79.078 79.245 79.353 79.32 79.338 79.37 79.385 81.613 81.54 81.218 79.265 79.218 79.15 79.778 79.588 78.815 78.483 78.668 80.91 79.523 78.383 81.678 86.033 86.318 85.815 86.018 85.25 84.105 78.96 77.17 77.037 77.697 77.372 77.36 77.325 76.837 76.077 76.017 75.83 75.77 75.7 75.747 75.752 75.75 75.69 75.822 76.022 75.44 75.412 75.375 75.325 75.27 75.225 75.317 75.357 75.29 75.225 75.19 75.17 75.13 75.086 75.022 74.908 74.847 74.782 74.653 74.579 74.551 74.505 74.533 74.34 74.226 74.169 74.205 74.14 74.056 73.997 73.862 73.712 73.664 74.239 74.042 73.57 73.859 73.564 73.348 73.49 81.317 81.748 80.338 80.769 81.537 82.277 82.538 81.862 81.161 80.52 79.825 79.171 75.007 72.113 73.339 75.164 72.055 71.57 71.474 71.397 71.18 70.955 71.002 71.049 71.024 70.891 71.016 71.067 71.539 71.365 72.643 76.459 77.525 77.801 77.723 75.661 73.655 71.64 70.455 70.436 71.544 71.82 72.164 72.239 71.944 72.982 73.85 71.603 70.07 71.107 73.927 71.329 70.439 69.689 69.66 69.572 69.678 70.231 74.936 76.256 76.45 75.91 73.939 69.272 70.114 69.016 68.928 68.8 68.791 68.791 68.775 68.969 68.75 68.534 71.024 74.287 75.077 75.287 74.327 70.159 70.629 69.983 69.797 68.533 67.964 67.876 67.461 67.34
