ncols 435
nrows 32
xllcorner    432024
yllcorner    431222
cellsize     2
NODATA_value -9999
25.061 24.886 24.778 24.732 24.821 24.303 24.166 23.863 23.816 23.854 23.861 23.854 23.867 24.136 24.996 25.097 25.195 25.027 25.019 24.87 24.105 23.724 23.715 23.712 23.679 23.692 23.661 23.665 23.658 24.045 24.577 24.792 24.849 24.776 25.199 25.243 25.086 25.262 25.245 25.029 24.072 23.876 23.797 23.764 23.777 23.717 23.679 23.705 23.671 23.722 23.734 23.798 23.921 23.906 23.956 23.914 27.949 31.566 32.112 32.452 32.936 33.461 33.716 33.63 33.233 32.803 32.429 31.911 31.379 27.308 23.949 23.904 24.237 26.389 24.033 23.962 25.252 26.15 27.772 26.796 26.233 26.553 25.22 24.533 24.365 24.043 23.852 23.857 23.787 23.741 23.621 23.381 23.493 -9999 -9999 -9999 -9999 -9999 23.543 23.57 23.619 23.657 23.508 23.492 -9999 23.66 23.619 23.798 23.783 23.798 23.925 23.99 23.957 24.146 24.621 24.573 24.369 21.947 20.647 20.848 -9999 20.567 20.047 20.004 21.716 19.549 -9999 26.016 25.769 26.769 27.613 26.765 23.71 -9999 -9999 -9999 19.634 19.619 19.584 19.584 20.002 22.706 23.62 22.395 22.426 22.476 22.748 23.058 23.403 24.598 25.381 24.785 25.031 26.821 27.773 26.951 27.438 27.892 28.897 29.361 29.77 29.965 30.256 32.087 29.849 29.136 27.115 25.727 23.944 23.935 23.884 23.925 24.395 27.386 28.539 28.877 27.732 28.963 29.246 30.166 30.36 25.463 24.479 30.865 31.274 31.319 26.968 30.73 29.398 28.625 28.471 28.734 27.919 28.795 28.667 28.565 27.624 26.878 26.604 27.188 24.468 28.439 28.363 29.293 28.196 24.722 25.454 25.338 25.175 24.3 24.981 24.114 23.834 24.924 23.383 23.178 23.916 23.201 23.902 23.037 25.852 26.44 26.235 27.695 29.851 31.74 29.551 30.33 27.791 27.261 23 21.852 21.331 21.213 21.373 21.409 21.684 24.06 23.61 34.343 32.158 32.332 29.834 30.878 29.352 25.249 23.66 23.372 24.1 21.342 -9999 20.491 20.662 -9999 21.109 19.796 19.782 19.642 -9999 19.767 -9999 -9999 -9999 19.822 19.76 -9999 -9999 -9999 -9999 -9999 -9999 -9999 -9999 -9999 -9999 19.933 -9999 -9999 -9999 -9999 -9999 -9999 20.805 20.01 -9999 -9999 19.672 19.672 -9999 -9999 -9999 -9999 -9999 -9999 -9999 -9999 -9999 -9999 -9999 -9999 22.326 22.034 -9999 30.305 27.941 30.417 28.049 29.626 30.593 24.085 24.783 25.353 25.193 24.599 26.663 27.367 27.674 27.951 26.969 23.022 25.505 26.465 25.387 23.562 23.522 23.612 23.505 23.577 23.564 23.77 23.742 23.749 23.791 23.854 24.004 23.894 23.943 23.981 24.046 25.001 25.737 28.326 29.715 30.738 26.858 26.612 24.42 25.728 28.706 26.689 29.524 29.016 28.158 28.24 28.039 27.046 25.88 25.693 27.432 27.219 25.542 24.502 24.517 25.037 25.53 24.514 23.102 21.638 20.288 19.905 18.884 18.493 18.429 18.424 18.413 18.399 18.398 18.392 18.441 18.469 18.455 18.369 18.435 18.431 18.492 18.751 20.413 20.546 21.785 21.209 19.964 19.378 21.218 19.692 19.386 19.417 20.296 20.946 21.238 21.638 21.963 22.636 22.832 24.312 24.999 25.465 25.218 24.672 24.857 23.49 27.032 25.468 23.779 24.324 27.323 22.959 21.509 20.989 20.971 20.933 20.973 20.964 20.961 20.974 20.996 21 21.054 24.306 24.664 22.131 20.85 20.862 24.532 37.291 22.868
24.279 24.284 24.208 24.155 24.16 24.055 23.943 23.908 23.899 23.909 23.907 23.945 23.881 23.972 24.124 24.165 24.035 24.146 23.904 23.888 23.781 23.722 23.768 23.736 23.679 23.658 23.646 23.677 23.639 23.647 24.335 24.652 24.715 24.728 24.935 24.87 24.637 24.862 25.164 25.052 24.861 23.886 23.801 23.79 23.795 23.761 23.737 23.705 23.707 23.711 23.783 23.809 23.944 23.91 24.093 29.245 31.809 32.179 32.669 33.187 33.564 33.712 33.546 33.082 32.695 32.198 31.708 30.044 24.69 23.941 23.928 24.42 25.412 27.128 27.114 26.813 26.379 26.875 26.76 27.418 26.678 26.537 24.621 24.277 24.093 23.832 23.927 23.837 23.94 23.934 23.852 23.61 23.513 23.455 23.394 -9999 -9999 -9999 23.82 23.51 23.498 23.589 23.584 23.58 23.608 23.654 23.667 23.753 23.756 23.689 23.795 23.946 23.958 23.938 24.183 26.398 25.498 23.24 22.846 22.661 -9999 19.586 19.545 19.544 19.589 19.613 19.619 19.634 24.308 23.491 22.873 24.58 20.585 19.55 -9999 -9999 -9999 19.531 19.569 19.594 19.591 19.748 22.048 21.887 22.108 22.339 22.415 22.664 23.763 25.263 25.49 24.542 24.853 25.201 24.994 24.697 24.881 25.033 26.751 28.796 29.132 29.95 29.54 29.714 28.32 26.961 26.883 23.952 23.862 23.878 23.902 23.908 23.895 24.593 25.419 27.14 28.418 27.858 28.925 29.213 30.603 27.073 29.449 31.031 27.509 28.681 29.3 25.766 25.679 29.537 30.269 29.035 27.274 27.843 25.531 27.14 25.735 27.045 27.744 27.045 27.348 28.061 28.168 28.469 26.596 23.557 23.268 23.227 23.445 23.367 23.215 23.213 23.178 23.337 24.008 23.158 23.165 23.209 23.788 24.874 26.658 31.184 29.18 31.252 31.909 31.703 30.96 29.621 29.84 29.41 26.369 25.028 23.452 21.6 22.972 22.431 21.609 32.334 34.035 31.272 29.065 30.443 27.598 28.36 -9999 20.617 19.942 20.234 20.273 19.844 -9999 19.788 19.825 -9999 -9999 19.674 -9999 -9999 -9999 -9999 -9999 -9999 -9999 -9999 -9999 -9999 -9999 -9999 -9999 -9999 -9999 -9999 -9999 -9999 -9999 -9999 -9999 -9999 -9999 -9999 -9999 20.043 19.691 19.675 -9999 -9999 -9999 19.62 -9999 -9999 -9999 -9999 -9999 -9999 -9999 -9999 -9999 20.374 -9999 -9999 -9999 -9999 -9999 -9999 25.943 25.73 27.409 28.204 29.905 30.556 24 24.503 24.077 23.745 25.763 26.486 27.549 23.749 24.098 27.739 27.715 27.051 24.808 23.986 23.54 23.612 23.561 23.54 23.53 23.661 23.672 23.624 23.703 23.809 23.835 23.805 23.873 23.867 23.963 24.229 26.219 27.021 28.353 29.126 29.64 28.171 25.472 26.849 30.053 29.307 29.383 28.946 28.185 26.656 26.127 25.724 25.456 25.455 26.569 26.587 25.55 24.917 24.775 24.818 24.331 22.843 21.3 19.383 18.989 18.948 18.612 18.437 18.433 18.444 18.437 18.409 18.418 18.445 18.478 18.489 18.485 18.467 18.48 18.517 18.805 19.648 20.936 20.449 20.354 19.918 20.237 21.413 21.152 19.549 20.189 20.377 20.678 21.216 21.633 22.071 22.453 22.761 22.389 21.975 25.268 24.061 22.74 21.64 21.468 21.332 21.927 21.696 21.124 21.077 21.018 20.987 20.977 20.968 20.926 20.921 20.963 20.969 20.991 20.984 21.051 21.087 23.099 22.457 23.937 20.838 20.786 20.806 20.805 20.761 20.731
24.135 24.064 24.099 24.099 24.066 24.041 23.995 24.032 23.942 24.014 23.973 23.918 23.905 23.906 23.876 23.843 23.85 23.782 23.758 23.77 23.733 23.731 23.732 23.653 23.725 23.664 23.661 23.61 23.637 23.65 23.651 23.708 23.707 23.701 23.961 23.865 23.911 24.068 26.88 24.787 24.767 24.247 24.398 24.511 23.879 23.817 23.757 23.757 23.767 23.788 23.763 23.852 23.937 24.227 30.683 31.862 32.37 32.785 33.239 33.61 33.804 33.488 32.959 32.498 32.129 31.529 27.353 24.679 23.957 23.928 23.872 25.594 26.134 25.372 26.457 26.849 27.412 26.965 26.958 26.906 26.815 24.869 24.314 24.086 23.736 23.615 23.697 23.859 24.061 24.299 23.837 23.651 23.514 23.38 23.381 -9999 -9999 -9999 -9999 23.477 23.411 23.539 23.623 23.596 23.593 23.621 23.639 23.604 23.64 23.647 23.717 23.852 23.927 23.93 25.33 26.398 25.734 24.694 23.907 23.758 23.537 19.803 19.607 19.541 19.602 19.593 19.587 19.628 22.567 21.194 20.908 22.397 21.426 19.567 -9999 19.573 19.569 19.483 19.539 19.596 19.64 19.594 19.578 21.114 21.083 21.78 22.158 22.308 22.665 23.246 24.026 24.252 24.596 24.82 24.865 24.739 24.449 24.028 24.657 25.987 27.678 28.231 27.52 24.93 24.971 23.689 24.266 23.896 23.924 23.967 23.966 23.997 24.069 24.048 23.938 24.416 28.968 29.024 29.476 29.424 26.888 29.678 26.6 30.158 27.899 31.265 27.483 27.219 28.63 30.115 30.216 29.6 28.682 27.514 27.747 26.234 24.142 25.093 25.737 26.068 26.199 25.27 26.389 25.043 24.229 23.219 23.167 23.188 23.175 23.145 23.166 23.537 23.164 23.716 23.298 23.239 23.243 23.672 26.951 30.755 33.712 31.659 29.509 31.076 31.969 33.598 31.667 29.126 27.04 29.124 25.479 25.928 24.35 25.448 23.233 22.432 21.655 21.29 32.445 30.427 37.88 38.344 38.232 25.13 19.593 19.729 19.706 19.706 19.637 19.756 -9999 -9999 19.837 -9999 -9999 -9999 -9999 -9999 -9999 -9999 -9999 -9999 -9999 -9999 -9999 -9999 -9999 -9999 -9999 -9999 -9999 -9999 -9999 -9999 -9999 -9999 -9999 -9999 -9999 -9999 -9999 -9999 19.619 -9999 -9999 -9999 -9999 -9999 -9999 -9999 -9999 -9999 -9999 -9999 -9999 -9999 20.047 19.685 20.142 -9999 -9999 -9999 -9999 -9999 -9999 -9999 25.964 25.186 26.274 26.625 29.784 23.301 21.593 23.235 31.781 31.646 32.695 30.427 26.561 27.945 28.255 28.705 28.105 27.396 25.677 25.517 23.572 23.626 23.538 23.536 23.593 23.61 23.643 23.635 23.61 23.69 23.784 23.813 23.853 24.021 25.032 25.466 26.286 27.68 28.964 29.526 28.854 28.9 25.118 29.392 29.435 28.362 27.812 26.657 26.746 26.275 25.724 25.275 25.814 24.343 24.972 25.27 24.942 23.888 21.674 21.373 20.142 18.816 18.169 18.349 18.361 18.411 18.428 18.444 18.435 18.419 18.443 18.492 18.57 18.547 18.493 18.472 18.499 18.644 19.011 19.166 20.038 20.718 21.093 20.821 20.291 21.329 21.377 22.321 23.126 21.746 23.343 22.849 22.125 22.23 22.237 21.931 21.098 25.209 25.913 26.418 21.144 22.082 21.296 21.099 21.06 21.081 21.051 21.041 21.01 20.972 20.95 20.938 20.9 20.921 20.949 20.928 20.956 22.908 21.978 22.285 30.341 31.738 30.94 20.969 20.744 20.691 20.661 20.684 20.611
24.141 24.133 24.153 24.108 24.129 24.128 24.119 24.066 24.086 24.042 23.995 24.027 24.018 23.94 23.958 23.85 23.857 23.8 23.807 23.779 23.794 23.744 23.708 23.677 23.704 23.629 23.613 23.617 23.616 23.614 23.548 23.539 23.631 23.658 23.619 23.656 23.643 23.682 23.657 23.8 24.507 24.655 24.637 25.305 24.063 23.8 23.77 23.792 23.787 23.789 23.834 23.863 27.914 31.481 32.045 32.491 32.86 33.341 33.849 33.653 33.365 32.905 32.415 32.001 31.498 26.404 23.938 23.914 23.876 23.759 23.753 24.756 25.459 25.654 26.831 26.904 26.898 27.142 26.849 24.913 25.232 24.111 23.929 23.778 23.674 23.671 23.637 23.694 24.201 24.259 23.779 23.605 23.538 23.438 23.396 23.398 -9999 -9999 -9999 23.483 23.511 23.611 23.648 23.595 23.575 23.592 23.614 23.601 23.599 23.604 23.67 23.803 23.913 23.954 24.187 24.794 23.922 24.397 23.954 23.445 24.208 20.914 19.599 19.6 19.597 19.577 19.565 21.128 21.498 21.484 21.519 23.224 20.348 -9999 -9999 -9999 19.555 19.553 19.573 19.557 19.628 19.624 19.624 19.61 21.049 21.051 21.702 21.878 22.206 22.618 23.414 23.732 24.296 24.789 24.821 24.694 24.614 24.27 25.183 26.371 25.925 24.516 24.036 23.822 23.741 23.724 23.869 23.938 24.053 24.233 24.112 26.776 26.122 26.691 24.808 24.53 28.665 29.301 29.461 28.937 29.228 29.751 29.291 30.457 30.269 29.444 27.627 27.89 28.286 29.765 30.677 29.529 28.511 25.875 24.194 23.442 23.184 23.221 23.266 23.605 23.753 23.192 23.151 23.206 23.305 23.224 23.24 23.246 23.253 23.139 23.215 23.384 24.002 23.394 23.126 22.922 23.3 24.469 27.688 31.813 33.092 31.655 30.839 30.326 31.267 32.325 31.893 30.414 28.45 28.525 27.912 26.307 26.156 26.91 24.612 22.794 21.869 27.281 -9999 46.462 46.287 -9999 -9999 -9999 21.192 19.744 19.863 19.919 19.825 19.877 19.947 -9999 -9999 -9999 -9999 -9999 -9999 -9999 -9999 -9999 -9999 -9999 -9999 -9999 -9999 -9999 -9999 -9999 -9999 -9999 -9999 -9999 -9999 -9999 -9999 -9999 -9999 -9999 19.672 19.637 -9999 -9999 -9999 -9999 -9999 -9999 -9999 -9999 -9999 -9999 -9999 -9999 -9999 -9999 -9999 -9999 -9999 19.901 -9999 -9999 -9999 -9999 -9999 -9999 -9999 -9999 -9999 22.868 24.456 27.617 27.351 26.841 22.07 29.142 30.571 31.275 32.999 30.765 28.067 28.389 28.018 28.273 28.68 27.083 26.983 24.966 23.362 23.542 23.638 23.443 23.469 23.527 23.494 23.56 23.569 23.582 23.67 23.747 23.775 23.898 23.975 25.543 26.029 27.678 27.801 28.406 28.808 28.027 28.956 27.431 27.362 26.46 26.069 25.702 26.055 26.258 25.165 24.723 23.771 24.487 25.185 25.651 25.037 21.92 21.634 21.003 19.693 18.721 18.357 18.311 18.306 18.441 18.45 18.436 18.333 18.429 18.44 18.492 18.557 18.556 18.503 18.494 18.518 18.737 19.114 19.295 19.306 19.433 20.883 19.815 19.44 19.42 23.175 25.771 27.794 29.023 29.182 25.83 22.848 22.17 21.77 27.536 27.033 29.641 29.314 22.968 21.061 22.994 25.275 22.263 23.216 21.192 21.045 21.018 21.162 21.019 20.931 20.904 20.868 20.872 20.859 20.896 20.924 20.903 24.013 23.457 33.711 26.434 21.092 20.736 20.686 20.631 20.65 20.606 20.552
24.116 24.124 24.13 24.156 24.115 24.124 24.093 24.073 24.075 24.03 23.986 24.022 23.916 23.933 23.962 23.897 23.88 23.8 23.831 23.82 23.796 23.79 23.778 23.766 23.69 23.717 23.662 23.628 23.654 23.588 23.554 23.561 23.529 23.491 23.504 23.514 23.511 23.479 23.45 23.497 23.579 23.638 23.828 23.771 23.792 23.77 23.755 23.803 23.795 23.83 23.805 27.773 31.482 32.096 32.584 33.103 33.476 33.68 33.668 33.025 32.63 32.263 31.794 31.317 26.355 23.943 23.908 23.836 23.782 23.56 23.81 24.238 26.037 27.559 25.989 26.219 26.45 25.639 24.658 24.113 23.762 23.666 23.656 23.623 23.689 23.681 23.592 23.57 23.655 23.708 23.589 23.52 23.472 23.436 23.401 23.377 -9999 -9999 -9999 -9999 23.191 23.546 23.631 23.628 23.544 23.528 -9999 23.558 23.501 23.594 23.654 23.778 23.85 23.892 23.931 23.925 23.923 24.277 24.961 26.065 25.161 24.654 -9999 19.846 19.563 19.574 20.619 20.351 20.231 20.76 19.617 19.592 19.548 19.548 -9999 19.534 19.513 19.564 19.605 19.643 19.628 19.597 19.598 19.603 20.723 20.561 20.705 20.991 21.426 22.277 22.69 23.187 25.122 25.537 25.403 25.974 25.124 25.238 26.271 29.012 27.908 26.906 25.949 23.895 23.82 23.908 23.896 23.944 24.084 24.569 24.921 28.377 29.601 27.858 25.703 24.57 28.23 28.913 28.865 25.464 27.928 28.54 29.287 29.28 29.356 27.689 26.68 29.06 29.623 29.353 28.567 28.147 25.653 24.62 23.249 23.16 23.445 23.298 23.276 23.286 23.356 23.331 23.242 23.323 23.525 23.209 23.148 23.231 23.085 23.1 24.169 24.904 25.779 25.194 22.695 22.811 22.691 24.152 26.343 28.767 32.155 31.37 28.679 28.851 28.295 29.294 31.694 30.701 26.947 26.664 25.569 26.276 25.978 25.845 28.918 23.223 26.788 34.675 -9999 50.038 50.938 48.799 36.606 28.256 27.671 22.343 19.864 19.799 19.818 19.931 23.93 25.481 26.227 -9999 -9999 -9999 -9999 23.394 23.203 -9999 19.819 -9999 -9999 -9999 -9999 -9999 -9999 21.817 21.992 21.659 -9999 -9999 -9999 -9999 21.134 19.7 19.645 -9999 19.727 19.64 -9999 -9999 -9999 -9999 -9999 -9999 -9999 -9999 -9999 -9999 -9999 -9999 -9999 -9999 -9999 -9999 -9999 -9999 -9999 -9999 -9999 -9999 -9999 -9999 -9999 -9999 -9999 -9999 25.006 25.667 24.839 24.531 23.872 28.443 29.812 29.902 32.093 31.278 27.917 29.552 28.308 26.359 27.205 27.655 27.002 24.833 23.85 23.459 23.435 23.487 23.461 23.515 23.458 23.506 23.453 23.466 23.542 23.624 23.727 23.809 23.8 24.164 27.208 28.689 28.607 28.057 27.59 26.621 26.898 27.412 26.675 25.336 24.824 25.799 25.902 25.666 23.521 22.853 23.528 24.619 24.987 26.644 24.249 22.053 21.504 20.769 19.301 18.604 18.399 18.352 18.373 18.482 18.47 18.37 18.298 18.409 18.403 18.449 18.512 -9999 18.89 18.51 18.611 18.76 19.328 19.364 19.331 19.188 19.288 19.631 19.431 19.931 23.031 22.79 29.149 25.955 27.131 29.119 28.077 22.441 22.039 30.488 28.463 30.928 21.499 24.259 23.45 27.443 31.369 26.363 25.688 21.575 20.908 22.255 21.636 20.879 20.869 20.84 20.812 20.847 20.856 20.795 20.815 21.192 39.04 34.619 38.867 26.759 22.349 20.675 20.691 20.662 20.603 20.569 20.485
24.207 24.148 24.141 24.146 24.051 24.13 24.044 24.057 24.017 23.985 24.026 23.934 24.026 23.929 23.93 23.89 23.897 23.843 23.791 23.742 23.796 23.783 23.728 23.723 23.748 23.674 23.734 23.644 23.632 23.622 23.592 23.601 23.57 23.536 23.547 23.503 23.481 23.481 23.516 23.49 23.498 23.541 24.191 23.669 23.677 23.74 23.76 23.813 23.797 23.833 23.807 23.882 25.594 32.694 33.063 33.55 33.865 33.474 33.014 32.648 32.222 31.666 31.071 24.773 23.886 23.842 23.798 23.764 25.771 24.128 23.815 23.818 23.7 24.23 24.022 24.518 23.579 23.401 23.481 23.544 23.578 23.587 23.633 23.738 24.426 24.584 24.366 23.634 23.535 23.513 23.645 23.44 23.404 23.378 23.395 23.313 23.285 23.261 22.398 22.41 22.451 23.23 23.619 23.633 23.601 23.513 -9999 -9999 23.479 23.618 23.653 23.741 23.843 23.912 23.956 23.925 23.941 24.035 25.14 25.648 24.799 25.488 24.945 -9999 19.571 19.581 20.948 20.164 19.91 20.392 19.623 19.6 19.565 19.561 19.563 -9999 19.539 -9999 19.608 19.618 19.585 19.581 19.607 19.621 20.468 20.015 19.82 20.625 21.567 21.856 22.235 22.611 24.091 24.759 27.164 27.532 25.812 24.507 26.41 26.689 27.567 27.469 26.477 23.701 23.926 23.862 23.856 23.944 26.169 26.892 26.5 27.816 29.297 28.664 28.191 26.674 25.936 26.155 26.977 27.637 26.656 25.518 28.008 28.349 28.796 27.291 27.354 28.602 29.622 28.964 27.663 26.394 24.94 23.13 23.164 23.258 23.272 23.215 23.152 23.279 24.046 24.763 23.276 23.229 23.252 23.175 23.204 23.169 23.045 24.338 25.397 24.995 25.921 25.907 22.765 21.834 22.084 25.844 25.658 28.929 29.352 29 26.666 27.917 27.422 26.889 32.199 30.349 27.313 26.803 24.058 24.61 24.839 30.257 26.645 23.975 23.829 29.214 39.788 -9999 37.642 49.299 28.842 27.255 29.908 27.499 19.934 20.34 20.611 23.864 25.778 26.158 25.847 -9999 -9999 -9999 23.02 23.492 23.285 22.417 21.65 19.756 19.861 19.959 22.258 21.897 21.642 21.468 21.782 22.43 23.565 23.685 22.892 22.335 21.266 20.673 20.493 20.56 20.702 21.294 21.373 23.214 20.731 20.715 20.249 22.139 -9999 -9999 20.223 -9999 20.248 -9999 -9999 -9999 -9999 -9999 -9999 -9999 -9999 -9999 -9999 -9999 -9999 -9999 -9999 -9999 -9999 20.37 20.582 20.326 19.878 22.478 23.086 23.386 28.166 30.063 31.225 31.97 26.327 26.56 26.011 25.539 26.07 26.691 23.524 25.043 23.534 23.962 23.781 23.455 23.413 23.501 23.512 23.48 23.449 23.48 23.452 23.497 23.585 23.73 23.761 24.37 27.948 28.694 28.454 27.126 26.779 26.528 27.847 28.819 27.454 24.518 24.927 25.678 25.53 23.605 22.935 23.251 23.544 24.196 23.95 23.128 21.338 20.458 19.476 19.634 18.636 18.529 18.407 18.407 18.44 18.431 18.407 18.396 18.397 18.416 18.401 18.434 -9999 -9999 18.641 18.494 18.539 18.911 19.199 19.252 19.94 19.146 19.017 19.38 19.59 22.658 26.781 28.604 30.723 31.511 29.389 30.995 30.973 30.69 30.884 31.219 31.071 25.966 28.866 33.803 29.659 35.082 26.516 32.56 25.701 21.596 20.77 20.78 20.803 20.817 20.782 20.807 20.816 20.813 20.801 20.8 23.942 34.399 38.854 36.395 32.091 25.405 20.658 20.682 20.697 20.67 20.599 20.541 20.482
24.09 24.075 24.074 24.063 24.08 24.145 24.196 24.174 24.174 24.176 24.121 24.172 24.119 24.099 24.061 24.09 24.008 23.937 23.865 23.818 23.754 23.715 23.707 23.697 23.674 23.695 23.673 23.593 23.649 23.586 23.584 23.56 23.543 23.562 23.505 23.521 23.501 23.536 23.484 23.47 23.492 23.555 23.594 23.629 23.675 23.694 23.738 23.771 23.831 23.837 23.846 23.923 24.107 32.398 33.76 33.713 33.316 32.883 32.353 31.989 31.567 27.355 23.942 23.881 23.824 24.254 23.705 24.149 27.739 25.588 23.581 23.477 23.347 23.178 23.166 23.211 23.241 23.353 23.48 23.569 23.587 23.596 24.186 24.923 25.407 25.429 25.295 25.058 24.459 24.636 24.341 23.5 23.324 23.31 23.358 23.376 23.21 23.167 22.375 22.386 22.398 22.708 23.622 23.571 23.55 23.533 23.404 23.43 23.739 23.628 23.61 23.734 23.839 23.902 23.941 23.976 23.976 24.013 24.077 24.422 24.226 26.021 24.27 23.85 23.672 19.587 19.609 21.041 20.637 -9999 19.543 19.465 19.58 19.599 19.591 -9999 -9999 -9999 -9999 19.519 19.56 19.571 19.597 19.692 20.389 20.072 19.956 20.454 20.876 21.008 21.165 21.886 22.362 24.064 26.641 27.075 25.375 24.332 25.69 24.944 27.147 27.182 25.435 23.492 23.656 23.792 23.742 23.878 26.541 27.136 27.369 27.734 28.646 29.706 29.071 28.738 27.867 24.84 23.865 23.996 23.994 25.851 27.727 28.155 28.343 27.822 28.621 27.907 27.94 28.583 28.053 27.335 26.7 25.382 24.626 24.952 24.151 23.708 23.165 23.124 23.272 25.727 25.357 23.649 23.362 22.992 23.006 22.925 22.929 25.717 25.009 24.967 24.692 24.113 21.899 21.772 23.875 26.177 26.111 27.232 27.405 26.338 25.298 25.137 25.554 27.266 29.163 28.871 34.016 30.175 26.763 25.394 26.309 27.362 26.774 24.431 24.229 31.931 42.381 33.906 23.103 26.813 28.196 26.051 26.833 25.967 26.297 25.929 24.56 25.058 24.834 25.436 21.19 21.228 21.327 21.788 22.664 23.429 23.565 22.201 20.981 21.006 21.371 21.816 21.934 21.989 21.91 21.313 21.072 23.092 24.251 23.346 23.144 21.982 20.799 20.575 20.59 20.48 20.834 21.324 22.825 23.433 22.952 22.284 21.109 21.12 20.534 20.473 20.25 20.26 20.219 20.203 20.188 20.162 -9999 -9999 -9999 -9999 -9999 -9999 -9999 -9999 -9999 -9999 -9999 19.664 -9999 19.653 19.62 19.605 19.812 -9999 -9999 25.515 26.239 28.811 29.029 29.669 30.305 24.563 24.415 22.986 23.149 25.662 25.553 25.531 24.743 23.624 22.927 23.146 23.467 23.611 23.461 23.481 23.461 23.384 23.381 23.425 23.48 23.615 23.675 23.654 24.346 26.557 25.056 26.253 26.498 26.814 27.668 28.136 25.916 26.152 25.001 23.575 23.06 22.83 22.951 23.225 23.983 22.872 21.877 20.76 19.738 19.482 19.163 18.747 18.543 18.473 18.456 18.429 18.449 18.424 18.358 18.352 18.402 18.439 18.463 18.485 18.702 18.756 18.829 18.888 19.083 19.283 19.122 19.814 19.372 19.28 19.335 19.848 20.499 23.632 27.31 29.494 30.745 28.895 30.088 30.778 31.427 30.844 30.633 24.25 31.25 29.579 30.647 34.763 35.764 36.845 34.834 34.351 24.369 20.789 20.733 20.787 20.791 20.72 20.711 20.747 20.828 21.633 20.922 23.526 37.057 37.647 40.529 38.845 34.69 31.462 20.82 20.66 20.64 20.549 20.478 20.48 20.399
24.107 24.113 24.168 24.213 24.259 24.25 24.236 24.287 24.902 24.382 24.43 25.179 25.981 24.885 24.812 24.129 24.748 24.122 24 23.937 23.851 23.755 23.766 23.704 23.613 23.602 23.595 23.599 23.583 23.536 23.577 23.595 23.585 23.517 23.512 23.502 23.482 23.47 23.449 23.497 23.481 23.556 23.824 23.594 23.646 23.685 23.73 23.775 23.795 23.792 23.828 24.035 26.928 28.22 33.496 33.208 32.788 32.342 31.882 31.238 26.057 23.938 23.868 24.016 24.361 24.808 25.834 24.199 23.28 23.273 23.131 23.055 23.042 23.034 23.105 23.2 23.277 23.35 23.375 23.448 23.461 23.537 23.813 25.356 25.466 25.335 25.29 25.133 24.921 24.712 24.358 23.412 23.15 23.208 23.415 23.457 23.325 23.087 23.071 23.015 22.354 22.381 23.339 23.581 23.592 23.555 23.215 23.376 -9999 23.659 23.73 23.806 23.865 23.931 23.95 23.99 24.047 24.039 23.966 23.85 24.383 24.075 23.252 23.066 23.427 19.636 19.637 19.613 19.622 -9999 19.548 19.562 19.55 19.583 19.593 19.585 19.592 19.596 -9999 -9999 19.568 19.572 19.61 19.659 19.632 19.593 19.598 19.57 19.526 19.577 20.778 20.745 21.358 24.096 25.308 26.15 24.921 25.106 26.386 25.217 25.136 24.099 23.359 23.378 23.514 23.563 23.492 23.607 24.761 25.941 27.137 28.758 28.966 29.133 28.639 29.941 28.401 25.117 24.18 24.089 25.222 26.425 27.207 27.966 27.778 27.572 26.976 28.775 27.954 25.46 27.572 28.141 26.725 25.975 25.815 26.012 25.265 24.09 23.171 23.02 24.129 26.137 26.767 25.962 25.583 24.413 23.192 23.04 26.626 27.031 25.793 26.577 25.998 22.751 21.292 21.037 23.184 25.036 27.847 29.864 28.616 26.564 23.558 22.825 22.507 26.002 27.289 27.124 31.794 24.847 23.353 24.225 24.776 24.828 26.093 24.293 21.031 24.164 34.011 27.369 26.915 28.237 24.2 30.73 27.816 28.615 25.342 25.347 27.269 26.341 23.796 22.195 21.058 20.938 21.143 21.315 22.481 23.089 23.2 21.545 20.739 21.217 21.812 21.42 22.229 22.345 23.448 22.274 21.862 23.878 24.636 23.547 25.587 23.348 22.71 21.339 21.163 20.941 20.949 21.621 23.313 24.064 22.506 21.924 21.086 20.894 20.651 20.412 20.392 20.222 20.224 20.193 20.121 20.108 20.105 20.095 20.092 -9999 -9999 -9999 -9999 -9999 -9999 -9999 -9999 19.656 -9999 -9999 19.621 -9999 -9999 -9999 -9999 -9999 26.007 25.522 25.888 26.487 26.785 25.9 22.792 22.901 29.028 31.591 24.165 24.021 23.88 22.05 22.368 22.574 22.986 23.302 23.454 23.515 23.431 23.391 23.364 23.406 23.429 23.503 23.587 23.574 24.191 25.822 25.755 24.678 25.961 26.935 27.187 25.596 25.605 25.006 24.627 22.981 22.886 23.483 24.338 24.694 23.954 22.571 20.961 19.865 18.757 18.548 18.533 18.491 18.465 18.482 18.46 18.427 18.427 18.407 18.353 18.338 18.426 18.478 18.511 18.715 18.811 19.263 19.263 19.736 19.1 20.255 19.332 19.206 18.921 19.328 19.983 20.684 20.761 22.701 25.976 28.614 30.385 30.301 24.679 30.038 31.533 31.576 29.06 29.322 29.476 29.73 31.188 33.485 35.29 35.803 34.735 26.85 23.659 20.79 20.777 20.764 20.73 20.709 20.71 20.862 25.758 27.607 26.209 30.649 27.286 36.698 34.245 25.642 22.785 28.445 20.657 20.617 20.621 20.475 20.354 20.348 20.339
24.222 24.286 24.279 24.292 24.831 25.36 25.059 25.253 25.18 24.728 24.646 24.605 24.916 24.756 24.806 24.882 24.94 25.075 25.097 24.268 23.941 23.82 23.719 23.673 23.64 23.663 23.604 23.577 23.634 23.751 23.835 23.684 23.715 23.665 23.675 23.644 23.609 23.58 23.549 23.525 23.628 23.604 23.698 23.628 23.654 23.701 23.749 23.787 23.824 23.83 23.871 23.955 24.985 24.029 25.793 32.351 32.245 31.763 29.808 24.048 23.904 23.847 23.703 24.631 26.644 25.925 27.123 23.177 23.064 23.054 23.001 25.531 24.079 25.784 23.208 25.02 23.572 24.472 23.639 24.45 23.346 23.413 23.467 23.906 24.193 24.516 24.505 24.095 23.45 23.47 23.285 22.866 22.724 22.614 23.126 23.322 23.353 23.327 23.085 22.912 22.782 22.405 22.398 23.51 23.616 23.566 23.357 23.45 -9999 23.735 23.685 23.675 23.707 23.841 24.008 24.03 24.014 24.046 23.986 23.908 23.771 23.683 23.549 23.966 24.113 23.232 22.867 22.706 19.599 19.608 19.593 19.615 19.489 19.577 19.534 19.579 19.549 -9999 -9999 19.62 19.629 19.602 19.611 -9999 19.571 19.56 19.519 19.554 19.514 19.612 19.583 20.999 21.089 21.647 22.607 22.909 23.8 24.663 25.214 25.056 24.995 23.464 22.868 22.875 23.141 23.354 23.214 23.963 23.9 23.54 23.813 25.035 27.047 25.349 26.547 28.959 27.175 24.479 25.544 24.396 24.433 25.035 24.975 25.27 25.817 26.487 25.793 26.63 28.047 27.073 27.641 24.996 25.983 26.141 25.137 25.288 24.883 22.971 24.348 23.42 23.299 25.399 25.6 25.703 25.954 25.919 26.554 25.34 26.007 26.083 26.036 25.528 23.8 23.63 22.107 20.476 22.73 24.033 27.271 29.058 29.925 28.096 32.98 24.154 22.043 26.607 28.52 30.111 26.762 26.253 22.516 22.79 21.486 -9999 -9999 -9999 19.854 20.766 22.815 21.4 27.412 27.524 29.154 27.683 28.478 28.972 29.133 27.176 26.153 27.226 24.257 22.071 20.484 20.985 21.397 21.658 22.481 22.694 22.08 21.585 21.392 22.632 24.406 23.513 25.032 24.447 26.049 24.714 23.724 24.842 24.893 25.389 25.291 25.69 25.389 23.328 23.417 23.189 23.426 22.822 24.366 24.73 23.183 23.094 22.368 22.116 21.209 20.476 20.847 20.277 20.401 20.312 20.215 20.363 20.06 20.112 20.128 20.204 20.214 20.546 20.281 -9999 -9999 -9999 -9999 -9999 -9999 -9999 -9999 -9999 -9999 -9999 -9999 -9999 -9999 -9999 25.725 25.521 25.261 22.155 22.582 26.785 30.503 30.498 30.343 22.446 21.477 22.41 22.416 22.186 22.53 24.918 25.577 24.073 23.454 23.397 23.328 23.368 23.331 23.381 23.44 23.425 23.791 24.476 25.315 25.034 25.19 26.211 27.52 27.135 23.715 23.845 22.966 22.964 23.371 23.6 23.765 24.187 23.008 22.218 20.976 20.08 18.927 18.471 18.35 18.396 18.474 18.494 18.465 18.429 18.416 18.449 18.454 18.447 18.471 18.788 18.791 18.805 18.994 19.741 19.843 20.253 21.186 21.069 19.049 18.676 19.211 19.891 20.433 22.3 22.432 24.696 26.093 28.754 30.483 31.671 30.031 25.711 25.345 29.084 27.531 29.427 30.727 31.42 30.68 30.036 32.907 32.241 30.686 23.06 20.754 20.808 20.763 20.789 20.74 20.716 20.664 20.619 21.566 27.739 29.952 28.245 25.309 29.502 22.666 28.652 32.889 20.796 20.563 20.522 20.453 20.404 20.351 20.341 20.311
24.437 27.077 25.245 25.101 25.326 27.616 24.47 24.337 24.12 24.096 24.165 24.468 24.557 24.604 24.916 24.795 24.573 24.631 25.325 26.624 24.069 23.942 23.733 23.714 23.676 23.657 23.574 23.685 23.749 25.98 28.343 24.452 23.909 27.82 23.823 23.735 23.736 23.704 23.72 23.752 23.789 23.849 23.829 23.823 23.78 23.751 23.769 23.789 23.837 23.815 23.857 23.994 23.976 23.965 24.071 25.581 31.432 27.26 23.992 23.916 23.835 23.685 25.75 24.183 24.952 24.166 23.487 23.052 23.031 22.929 26.254 29.126 27.129 27.409 28.575 28.658 26.815 26.111 26.048 25.205 23.6 23.273 23.325 23.337 23.38 23.268 23.209 23.135 22.978 22.901 22.768 22.48 22.29 22.078 22.925 23.234 23.328 23.316 23.263 22.867 22.723 22.649 22.762 23.369 23.628 23.63 23.593 23.544 23.546 -9999 23.633 23.592 23.584 23.781 23.92 23.884 23.889 23.991 24.01 23.985 23.861 23.761 24.349 25.706 25.4 22.808 22.445 22.527 22.629 19.613 19.585 19.576 19.503 19.554 19.617 19.593 19.58 -9999 -9999 19.57 19.59 19.579 19.601 19.595 19.548 19.559 19.579 19.424 19.573 19.596 19.603 19.612 19.563 19.714 19.85 22.205 22.469 22.978 23.402 23.003 23.449 22.549 23.164 24.951 25.405 23.644 22.757 24.516 25.461 24.996 23.693 23.365 24.122 24.641 24.266 24.773 26.794 27.693 26.519 25.123 24.149 23.33 23.081 22.981 22.921 23.155 22.989 25.362 24.955 25.408 25.67 27.04 25.918 27.215 26.411 24.576 24.23 23.171 25.277 25.865 25.194 24.945 25.76 27.925 29.489 25.439 25.971 22.099 24 23.792 23.642 24.605 23.043 22.122 20.814 20.309 21.732 33.877 27.479 31.024 32.692 28.863 27.632 21.71 25.09 24.266 25.005 24.015 25.12 -9999 22.593 20.777 20.267 -9999 19.775 19.716 -9999 -9999 -9999 24.308 26.429 28.56 26.029 28.018 29.465 29.399 28.053 26.922 24.871 28.325 25.378 22.251 21.3 22.155 23.192 21.833 21.93 21.84 21.744 21.585 22.189 24.361 25.396 24.195 26.12 25.096 26.699 24.342 24.107 23.373 24.337 24.003 25.802 26.597 25.271 23.269 24.594 24.843 25.203 25.023 25.326 25.552 25.023 23.068 22.624 22.757 21.534 21.615 21.448 21.102 21.265 20.992 21.188 20.548 20.165 20.307 20.296 20.218 20.243 20.228 20.316 20.179 20.138 19.994 -9999 -9999 -9999 19.736 19.665 -9999 -9999 -9999 -9999 -9999 -9999 -9999 -9999 -9999 -9999 20.799 20.707 22.373 27.689 26.934 26.791 26.453 22.555 21.369 22.596 21.312 21.7 25.279 26.537 27.407 24.228 23.639 23.316 23.241 23.239 23.218 23.262 23.321 23.362 23.428 24.668 25.529 25.56 26.408 27.698 26.954 23.871 22.895 23.391 23.807 23.482 23.865 23.103 22.118 21.617 21.861 21.438 -9999 18.996 18.267 18.141 18.306 18.418 18.433 18.425 18.422 18.413 18.428 18.452 19.208 19.354 18.876 19.125 18.815 18.747 20.624 19.797 19.983 19.282 20.464 19.257 19.487 20.149 20.507 20.905 24.791 26.78 27.198 28.713 30.694 31.185 27.45 31.852 28.868 29.179 25.042 23.271 24.251 29.51 29.797 27.253 23.496 24.17 20.75 20.831 22.948 24.839 20.799 20.811 20.697 20.711 20.686 20.686 23.26 20.817 25.248 29.823 21.814 29.168 20.558 23.614 20.451 20.513 20.513 20.489 20.476 20.436 20.377 20.317 20.347 20.334
25.354 25.94 25.382 25.209 24.546 24.036 24.026 23.962 23.997 24.071 24.114 24.15 24.309 24.546 24.792 24.965 25.161 24.76 25.013 24.572 24.28 24.002 23.884 23.735 23.707 23.629 23.652 23.731 24.063 26.141 27.277 24.541 26.089 25.364 25.284 23.93 23.885 23.912 23.923 24.014 26.812 24.287 24.055 24.712 23.949 23.839 23.732 23.822 23.813 23.842 23.855 23.861 23.827 24.046 24.087 24.043 25.708 24.041 24.33 23.71 23.571 23.912 26.201 23.788 23.106 23.112 23.041 22.989 22.956 23.854 29.726 28.51 30.344 29.644 31.654 30.046 26.734 26.875 26.175 25.373 23.647 23.19 23.193 23.223 23.282 23.192 23.071 22.935 22.751 22.563 22.496 22.068 21.832 22.182 22.498 23.006 23.439 23.296 23.275 23.207 22.675 22.472 22.579 23.281 23.6 23.631 23.641 23.656 23.585 23.536 -9999 23.592 23.606 23.74 23.859 23.82 23.882 23.997 24.061 24.043 23.954 23.92 24.256 25.104 24.446 23.429 23.007 22.496 22.506 22.448 22.182 19.502 19.457 -9999 19.602 19.598 19.616 19.58 19.543 -9999 19.577 19.562 19.559 -9999 19.564 19.589 19.624 19.581 19.613 19.597 19.636 19.654 19.637 19.641 19.671 20.363 21.011 21.488 22.47 21.952 21.096 22.701 23.797 24.746 24.87 25.655 25.453 25.751 26.182 24.86 24.92 24.752 25.179 25.176 25.239 25.329 27.108 27.981 25.795 24.666 23.888 23.132 22.669 22.932 22.883 23.529 23.102 22.65 22.73 22.92 23.726 24.939 25.04 26.271 24.269 24.939 25.582 24.326 25.38 25.518 25.231 24.26 26.753 27.953 29.696 29.7 28.325 22.475 22.167 22.711 23.22 22.812 22.894 21.854 20.763 20.5 20.658 31.872 35.1 28.994 30.148 27.822 21.872 21.083 25.045 24.452 23.798 23.455 21.71 -9999 -9999 19.9 19.628 19.59 19.79 -9999 -9999 -9999 -9999 26.204 27 28.153 27.203 27.914 28.786 29.125 28.13 27.252 28.289 26.929 24.202 21.915 21.738 23.194 24.105 23.29 23.575 23.155 23.123 22.446 22.485 23.617 23.698 24.572 25.465 24.278 24.08 23.736 23.233 23.277 24.871 22.953 23.722 25.617 24.749 24.637 24.295 25.115 24.943 26.536 25.302 25.728 25.789 24.275 22.894 22.39 22.577 22.998 22.966 22.847 23.321 22.731 23.748 21.813 21.025 20.69 20.679 20.624 20.801 20.975 20.358 20.133 20.074 19.911 19.866 19.906 20.216 -9999 -9999 -9999 -9999 -9999 -9999 -9999 -9999 -9999 -9999 -9999 -9999 -9999 20.902 21.377 21.499 25.764 25.051 25.311 26.952 22.51 22.998 21.172 21.759 25.038 26.358 27.304 26.953 26.025 23.689 23.19 23.106 23.1 23.117 23.084 23.171 23.308 24.452 25.246 25.084 25.473 26.749 25.647 23.008 22.755 24.205 25.045 24.569 24.153 21.846 20.968 20.607 20.934 20.763 -9999 18.743 18.04 18.063 18.297 18.391 18.392 18.377 18.353 18.369 18.408 18.472 19.693 20.816 19.549 19.805 19.903 20.54 21.427 20.025 20.149 19.479 21.066 19.478 20.007 20.496 20.832 22.18 26.162 27.979 27.842 28.763 31.361 28.826 31.676 31.258 28.964 29.889 28.667 22.103 22.267 25.297 30.767 23.84 22.159 24.162 23.93 20.878 31.822 30.075 27.251 22.858 22.292 20.723 20.652 22.28 21.399 27.592 25.172 29.942 29.932 25.35 20.523 20.504 20.508 20.539 20.56 20.493 20.466 20.411 20.385 20.376 20.397 20.346
25.384 25.435 25.22 24.591 24.206 24.091 24.012 23.964 23.983 23.995 24.064 24.231 24.064 24.132 24.458 24.924 24.758 24.719 24.794 24.876 26.994 27.922 25.134 23.775 23.692 23.695 23.653 23.872 26.073 25.301 23.808 23.831 23.757 23.803 23.832 23.806 23.821 23.826 23.824 24.249 24.602 23.866 24.173 26.253 24.376 24.158 23.825 23.81 23.825 23.837 23.84 23.828 23.786 24.089 24.523 26.172 24.192 24.529 24.379 23.677 24.013 23.81 23.173 23.089 23.082 23.035 23.017 22.911 24.349 28.479 29.088 29.279 30.37 29.602 29.979 27.872 25.93 24.203 23.864 23.312 22.712 23.014 23.18 23.011 23.078 23.086 23.008 22.796 22.576 22.349 22.47 21.744 22.033 22.489 22.828 23.167 23.522 23.425 23.339 23.407 22.933 22.42 22.549 22.881 23.624 23.626 23.599 23.602 23.514 23.478 -9999 23.537 23.542 23.546 23.618 23.78 23.909 24.02 24.055 24.098 24.022 23.939 23.93 23.999 23.637 23.539 23.444 23.269 22.447 22.301 22.073 21.797 19.444 -9999 19.623 19.604 19.615 19.616 19.554 19.571 -9999 19.548 19.491 19.524 19.548 19.594 19.549 19.629 19.591 19.586 19.601 19.583 19.599 19.586 19.592 20.253 20.555 20.31 20.435 20.809 20.654 23.195 25.3 23.002 24.854 26.374 25.964 25.428 24.479 25.526 25.323 24.05 23.256 22.718 25.78 24.229 27.094 26.611 25.72 24.142 22.835 22.07 22.084 22.743 22.388 24.35 24.769 24.046 24.631 24.092 24.505 24.475 24.124 23.453 23.25 24.851 25.321 24.84 25.942 25.285 24.381 23.108 25.492 27.314 28.942 27.014 28.185 27.078 23.059 20.915 20.527 20.778 21.46 25.492 25.003 -9999 -9999 29.994 30.593 30.957 34.652 32.31 22.549 21.135 -9999 -9999 -9999 -9999 19.88 -9999 -9999 -9999 20.434 19.653 20.151 22.936 24.572 20.53 20.517 21.037 26.524 28.391 25.922 26.637 25.43 26.418 27.779 27.047 25.256 25.909 24.032 21.727 21.795 24.11 24.584 24.881 24.906 23.85 25.272 23.376 22.485 22.5 23.793 23.982 24.12 24.133 25.556 24.634 23.146 24.269 24.037 24.812 25.653 27.169 26.92 26.853 28.399 24.091 24.191 25.724 25.623 24.835 26.759 26.144 24.631 25.729 24.659 24.399 25.075 27.319 24.02 23.468 24.982 24.167 21.986 21.701 21.386 21.162 21.697 21.092 20.95 20.445 20.233 19.903 19.801 19.962 20.186 20.709 -9999 -9999 -9999 -9999 -9999 -9999 -9999 -9999 -9999 -9999 -9999 -9999 -9999 20.838 22.169 24.868 22.69 23.183 26.242 26.932 22.724 23.239 23.986 23.4 25.915 24.73 26.87 26.03 23.492 23.223 23.097 22.967 22.951 22.913 23.075 23.152 23.123 23.099 22.932 22.885 24.645 23.493 22.69 23.233 24.506 26.131 25.071 23.172 20.824 19.923 19.782 19.685 -9999 -9999 18.526 18.191 18.216 18.342 18.444 18.456 18.361 18.329 18.336 18.393 19.186 21.18 22.077 20.803 21.46 20.101 21.472 22.364 20.756 19.515 19.569 19.255 19.802 21.633 24.308 24.415 26.831 27.097 29.02 27.596 30.098 25.97 28.877 29.332 28.018 28.531 27.909 25.116 21.391 25.329 29.165 23.738 23.185 25.222 30.822 27.7 30.95 32.099 32.17 24.396 30.293 26.813 21.402 20.657 21.31 25.452 26.695 27.759 29.396 28.598 25.112 20.732 20.583 20.537 20.552 20.557 20.491 20.429 20.374 20.331 20.26 20.35 20.363
25.732 25.602 24.898 24.288 24.163 24.114 24.113 24.033 23.988 23.99 24.524 24.128 24.184 23.99 24.048 24.21 24.186 24.208 24.405 25.101 25.583 26.129 23.973 23.796 23.725 23.695 23.672 26.167 26.533 25.313 23.733 23.763 23.725 23.749 23.776 23.783 23.773 23.814 23.794 23.798 23.792 23.814 23.809 23.796 23.939 26.179 23.965 23.804 23.818 23.814 23.816 23.813 23.796 24.245 24.571 28.268 24.602 25.238 24.736 24.261 23.537 23.23 23.109 23.987 23.462 23.066 23.007 25.644 28.112 30.418 28.948 28.306 29.988 24.799 28.454 24.521 22.103 22.028 21.835 21.376 21.676 22.053 21.468 22.509 22.995 22.974 22.72 22.443 22.328 21.755 21.467 21.703 22.437 22.772 23.064 23.29 23.471 23.471 23.451 23.475 23.416 22.93 22.792 23.16 23.603 23.64 23.581 23.538 23.449 23.434 23.46 23.447 23.508 23.492 23.539 23.808 23.865 23.885 23.921 24 24.018 23.932 23.888 23.838 23.774 23.772 23.678 23.627 23.406 22.459 21.828 20.986 21.564 -9999 19.559 19.476 19.656 19.702 19.633 19.594 19.567 19.581 19.538 -9999 -9999 19.525 19.506 19.627 19.643 19.591 19.562 19.54 19.627 19.61 19.57 20.204 20.607 20.413 20.622 20.359 20.468 23.313 24.721 22.923 23.709 25.393 25.479 23.74 24.629 24.11 25.162 24.226 26.322 23.748 23.48 26.281 25.324 24.091 24.489 23.66 22.83 21.78 21.848 21.717 22.652 24.355 25.129 24.865 23.255 23.955 25.055 23.525 23.885 23.225 22.869 23.065 23.132 23.907 24.92 24.057 23.314 21.822 24.347 27.226 29.4 30.884 30.773 28.433 23.315 22.072 21.021 20.586 20.74 25.722 -9999 -9999 -9999 -9999 -9999 31.188 29.607 27.98 26.039 -9999 -9999 -9999 -9999 -9999 20.536 20.685 21.637 23.275 23.355 22.329 20.764 20.72 20.862 20.561 20.243 20.488 21.891 22.668 24.641 26.004 24.693 22.792 24.924 26.896 26.751 24.902 23.786 22.159 22.172 23.394 24.001 24.98 24.909 24.224 24.691 23.993 22.986 23.226 22.965 23.316 24.582 25.562 24.619 24.694 24.271 23.908 27.689 28.041 27.914 29.805 29.871 31.842 28.03 30.858 26.084 23.959 24.338 27.306 28.216 26.168 24.442 28.63 24.031 29.276 27.697 27.41 24.478 22.115 25.914 23.977 22.226 21.737 21.792 21.918 22.036 21.747 21.618 21.495 21.151 20.249 20.086 20.088 20.46 21.016 20.507 -9999 -9999 -9999 -9999 21.11 21.291 21.124 -9999 -9999 -9999 -9999 -9999 -9999 -9999 -9999 21.818 22.101 25.121 26.6 27.837 23.133 23.986 24.899 24.975 26.026 24.966 24.939 23.001 23.69 23.791 23.608 22.888 22.744 22.736 22.866 22.884 22.855 22.775 22.74 22.922 23.861 23.228 23.184 23.553 23.671 23.822 21.803 19.954 18.725 18.283 18.286 18.44 18.251 18.363 18.342 18.352 18.355 18.387 18.39 18.309 18.244 18.788 20.767 21.019 23.088 24.156 21.301 21.17 21.052 21.774 22.654 22.874 19.979 19.222 19.493 22.543 25.43 26.816 26.71 27.612 29.317 29.962 28.78 25.957 27.579 29.967 26.877 25.82 26.263 25.091 21.711 21.39 22.633 27.996 29.225 28.369 30.654 31.348 32.292 30.026 30.383 32.104 31.125 30.454 23.858 20.789 20.748 20.688 23.544 23.452 29.98 28.814 30.477 28.303 21.466 20.615 20.602 20.607 20.578 20.495 20.397 20.37 20.297 20.272 20.313 20.338
25.741 24.832 24.56 24.226 24.186 24.174 24.15 24.044 24.061 24.01 24.389 24.736 23.947 23.939 24.046 24.042 24.058 24.155 24.504 25 25 24.484 23.987 23.869 23.747 23.72 23.809 23.889 24.533 23.772 23.716 23.724 23.748 23.758 23.718 23.738 23.776 23.767 23.768 23.748 23.79 23.741 23.753 23.769 23.897 24.511 23.823 23.809 23.788 23.747 23.775 23.733 23.763 24.085 24.465 26.578 25.342 24.549 24.005 23.356 23.229 23.154 25.165 26.749 24.214 22.938 22.99 28.883 28.902 31.382 26.748 28.663 23.303 23.706 21.445 20.609 20.636 20.616 20.53 20.463 20.519 20.409 20.91 21.682 22.574 22.797 22.314 22.109 21.404 21.353 21.853 22.265 22.654 23.02 23.211 23.415 23.425 23.452 23.501 23.519 23.469 23.561 23.722 23.693 23.687 23.707 23.707 23.584 23.418 23.415 23.476 23.494 23.52 23.516 23.636 23.819 23.806 23.835 24.166 23.86 23.927 23.926 23.857 23.823 23.843 23.93 23.842 23.772 23.621 23.215 22.176 20.594 21.747 -9999 19.71 19.564 19.621 19.658 19.565 19.526 19.547 19.569 -9999 -9999 -9999 -9999 -9999 19.609 19.665 19.645 19.559 19.494 19.557 19.602 19.611 20.249 20.574 20.622 20.722 20.542 21.322 22.74 23.924 22.829 22.996 23.735 24.619 25.125 25.583 25.113 25.909 27.064 26.785 21.596 24.745 24.822 22.893 22.933 25.731 24.541 21.849 21.156 21.237 21.224 22.59 23.924 22.618 24.211 24.503 23.985 24.57 23.586 23.106 22.407 22.698 21.521 23.248 25.423 24.439 22.108 21.227 20.962 21.328 22.575 28.13 30.125 30.247 29.42 26.073 32.632 31.024 -9999 -9999 -9999 -9999 -9999 -9999 -9999 -9999 -9999 -9999 -9999 -9999 -9999 -9999 -9999 -9999 20.818 19.851 21.568 23.1 24.71 21.094 25.948 21.267 21.507 20.978 20.751 20.197 20.561 21.71 22.625 23.954 23.796 22.213 22.918 24.12 25.512 25.691 26.96 26.361 24.117 24.4 24.426 24.897 24.172 24.113 23.571 23.313 22.998 22.887 23.145 23.235 23.476 23.655 24.049 24.733 24.563 25.509 25.455 25.273 29.822 29.75 29.488 33.102 34.024 36.163 33.069 30.666 25.218 27.49 29.457 30.025 27.864 28.469 32.216 31.209 32.309 31.846 28.769 22.991 25.561 24.818 25.365 22.186 21.729 21.671 21.722 21.838 21.813 22.219 22.038 21.847 21.023 20.628 20.288 20.763 20.952 20.826 20.616 20.497 -9999 21.031 21.208 20.9 21.111 20.572 21.888 -9999 -9999 -9999 -9999 -9999 -9999 -9999 -9999 23.136 21.93 26.029 28.271 23.628 23.736 22.863 23.843 24.822 22.754 23.083 23.684 24.104 24.192 23.35 22.611 22.616 22.647 22.595 22.938 23.683 23.827 24.684 25.035 24.38 22.373 22.188 21.936 22.292 21.006 19.338 18.428 18.171 18.228 18.249 18.265 18.355 18.462 18.442 18.379 18.376 18.344 18.276 18.231 19.235 23.137 22.662 21.977 19.961 20.927 21.471 21.941 20.519 21.11 22.714 20.03 19.538 22.374 25.658 27.233 28.257 27.942 30.014 29.781 30.647 31.451 28.447 27.464 27.405 26.251 23.041 22.345 21.402 21.452 21.452 23.032 27.562 30.132 24.197 27.023 28.115 32.052 32.028 30.233 26.017 30.514 28.077 20.937 20.823 20.785 20.773 25.528 27.324 30.312 30.096 30.522 29.809 21.833 20.628 20.596 20.587 20.564 20.433 20.363 20.314 20.322 20.29 20.303 20.302
25.016 24.616 24.328 24.253 24.195 24.197 24.193 24.159 24.104 24.084 24.04 24.111 23.961 23.878 23.917 23.972 24.057 24.102 24.397 24.578 24.764 25.392 23.993 23.88 23.75 23.691 23.792 23.911 24.513 23.667 23.665 23.676 23.689 23.712 23.718 23.756 23.725 23.75 23.738 23.696 23.724 23.741 23.735 23.76 23.754 23.759 23.791 23.73 23.738 23.741 23.723 23.719 23.804 24.229 25.259 24.926 24.292 23.656 23.282 23.214 23.463 24.631 25.954 26.416 25.125 22.907 25.201 28.375 28.298 29.605 29.796 29.389 26.019 26.909 20.447 20.38 20.354 20.305 20.348 20.314 20.309 20.259 20.597 21.655 21.753 22.065 21.604 21.178 20.924 21.492 22.347 22.619 22.864 23.107 23.3 23.377 23.411 23.45 23.486 23.461 23.484 23.575 23.757 23.727 23.777 23.827 23.759 23.655 23.557 23.56 23.501 23.546 23.557 23.715 23.638 23.659 24.299 25.094 24.38 23.805 23.819 23.826 23.847 23.834 23.829 23.867 23.863 23.793 23.733 23.645 23.357 22.508 22.639 23.119 23.277 23.509 20.126 19.598 19.568 19.542 19.578 19.623 -9999 -9999 -9999 19.593 19.598 -9999 19.659 -9999 -9999 -9999 -9999 19.621 19.66 20.523 20.838 20.366 22.139 20.891 21.385 21.889 22.61 22.676 22.625 23.991 23.096 21.133 23.551 23.694 23.925 25.691 26.022 21.025 21.173 21.583 23.417 24.975 22.803 21.607 21.418 22.21 22.289 22.323 21.147 23.112 23.363 23.506 23.465 22.831 22.927 23.189 23.108 22.496 21.933 20.983 23.916 26.287 21.979 21.766 20.586 22.104 23.45 24.179 28.041 35.486 36.912 27.304 33.893 30.708 28.882 -9999 -9999 -9999 -9999 -9999 -9999 -9999 -9999 20.732 -9999 20.286 20.075 19.882 -9999 -9999 -9999 -9999 23.197 24.969 25.216 22.152 22.136 22.36 22.81 20.58 21.114 20.888 20.998 21.595 22.036 23.182 24.973 25.72 24.251 23.219 25.165 26.772 27.85 27.669 27.003 25.896 25.246 24.755 24.09 23.626 23.495 23.255 23.281 23.136 22.928 22.724 23.165 23.227 23.498 23.381 23.584 23.6 23.273 24.18 26.738 29.61 28.099 30.943 34.851 36.066 35.065 35.098 31.919 29.313 28.985 30.616 30.431 29.362 31.404 32.161 32.315 34.686 30.355 26.929 27.594 26.303 26.359 26.464 22.573 22.242 21.834 21.75 21.801 21.837 21.733 21.934 21.805 21.614 21.71 21.814 21.446 21.648 20.933 20.246 20.293 23.261 22.147 22.354 22.836 22.881 21.203 21.309 23.114 -9999 -9999 -9999 -9999 -9999 -9999 -9999 22.899 23.288 25.336 27.573 23.356 23.073 21.444 22.416 23.068 22.622 22.795 23.45 24.105 24.27 23.581 22.477 22.267 22.386 22.466 23.828 24.305 24.708 24.754 25.067 23.593 21.233 20.886 20.859 20.792 20.018 18.522 18.312 18.252 18.257 18.254 18.281 18.37 18.492 18.422 18.319 18.35 18.329 18.326 18.356 18.371 18.642 19.025 18.832 19.055 20.026 21.076 21.707 21.634 21.253 19.714 20.675 19.728 24.032 27.411 28.902 29.281 29.579 29.666 29.453 29.066 28.55 23.549 21.477 21.419 21.401 21.535 21.463 21.473 21.462 21.473 23.707 26.206 28.434 26.468 29.055 30.907 31.783 32.31 30.235 24.506 22.967 20.796 20.804 20.82 20.827 20.673 26.431 28.445 25.07 25.903 29.159 28.868 21.379 20.552 20.6 20.606 20.543 20.35 20.269 20.222 20.307 20.274 20.249 20.252
24.658 24.478 24.362 24.375 24.322 24.266 24.224 24.201 24.153 24.107 24.102 24.07 24.004 23.959 23.926 23.999 24.028 24.029 24.103 24.14 24.538 24.635 23.984 23.81 23.794 23.773 23.834 24 28.741 25.356 23.61 23.655 23.65 23.649 23.718 23.693 23.667 23.704 23.657 23.688 23.688 23.669 23.727 23.696 23.703 23.738 23.719 23.734 23.686 23.708 23.708 23.658 23.744 23.971 24.627 24.028 23.44 23.245 23.196 25.377 25.624 27.289 26.11 25.448 22.958 25.449 26.762 28.124 29.092 29.144 27.064 23.277 24.494 20.869 20.314 20.274 20.258 20.247 20.251 20.218 20.2 20.234 20.247 20.608 20.792 20.832 20.915 21.056 21.551 22.173 22.454 22.769 23.021 23.168 23.267 23.339 23.381 23.456 23.518 23.529 23.529 23.572 23.723 23.799 23.85 23.865 23.786 23.659 23.623 23.66 23.62 23.586 23.607 -9999 23.634 23.677 24.683 25.168 25.46 24.749 23.886 23.861 23.797 23.796 23.834 23.828 23.836 23.799 23.765 23.728 23.724 23.67 23.767 23.411 23.363 23.265 23.393 21.645 -9999 -9999 19.632 19.642 -9999 -9999 -9999 19.611 19.623 19.653 19.663 19.649 -9999 -9999 19.643 19.633 19.613 -9999 20.792 20.769 20.867 21.102 21.2 21.228 21.314 21.7 23.222 24.312 23.154 22.903 24.257 25.276 24.247 24.241 22.709 21.602 21.946 21.241 21.298 25.148 24.023 22.285 23.613 26.48 25.311 23.433 22.226 21.328 22.527 21.973 21.744 21.553 22.123 22.124 21.283 21.34 20.947 21.185 23.395 25.526 25.113 23.252 22.036 22.104 22.591 23.526 32.605 27.952 33.193 30.515 30.617 30.331 27.866 -9999 -9999 -9999 -9999 -9999 -9999 -9999 19.603 19.645 19.669 19.713 19.67 -9999 -9999 -9999 -9999 21.391 21.469 21.966 22.254 22.836 22.472 23.09 22.88 21.054 21.114 21.991 22.04 23.428 23.659 24.383 25.878 26.164 25.983 25.041 25.825 27.339 28.188 27.781 25.756 25.197 24.042 23.715 23.473 23.371 23.155 22.994 22.965 22.879 22.776 22.746 22.911 22.92 22.732 22.7 22.871 22.875 22.962 23.773 25.959 25.097 25.125 31.501 27.06 34.486 36.429 37.264 34.622 31.635 29.795 30.304 30.89 29.466 31.786 33.389 34.404 29.323 28.337 29.341 26.844 26.875 28.519 25.797 25.142 22.264 23.737 23.336 24.116 23.765 21.889 21.859 21.944 21.842 22.392 22.54 22.576 21.796 21.114 20.058 20.197 20.949 21.021 20.988 23.983 21.55 21.864 21.649 21.315 22.562 -9999 -9999 -9999 -9999 -9999 -9999 23.691 24 24.058 27.712 27.641 23.401 22.896 22.902 23.055 22.713 22.401 23.202 23.958 24.281 23.93 22.726 21.966 21.875 21.835 23.779 24.507 24.342 24.622 24.96 23.422 21.602 20.655 20.115 19.68 18.888 18.512 18.342 18.282 18.28 19.759 19.826 18.822 18.65 18.317 18.306 18.335 18.438 18.388 18.415 18.391 18.378 18.413 18.444 19.018 19.809 20.549 21.842 24.256 21.666 21.969 19.62 20.051 21.512 25.846 28.419 29.014 29.181 28.108 26.098 25.761 21.385 21.57 21.43 21.457 21.487 21.46 21.486 21.529 21.529 21.539 22.036 25.65 25.684 25.453 27.077 30.768 31.272 30.909 25.374 20.981 20.853 20.861 20.877 20.813 20.762 20.702 20.702 28.441 29.387 28.861 30.437 29.654 24.502 20.669 20.558 20.565 20.428 20.346 20.295 20.258 20.213 20.24 20.188 20.158
24.692 24.428 24.384 24.409 24.383 24.345 24.275 24.285 24.248 24.234 24.156 24.114 24.079 24.035 24.022 24.005 23.966 24.035 24.039 24.524 25.185 24.328 23.948 23.851 23.825 23.778 23.881 24.839 25.591 24.092 23.632 23.645 23.667 23.708 23.696 23.642 23.646 23.662 23.638 23.67 23.654 23.679 23.666 23.68 23.673 23.663 23.694 23.68 23.652 23.675 23.679 23.673 23.72 24.088 23.893 23.345 23.258 23.222 24.143 27.233 28.685 25.785 24.899 23.219 24.855 26.596 26.736 25.897 27.369 25.696 25.733 21.864 20.769 20.271 20.231 20.222 20.279 20.214 20.198 20.208 20.194 20.207 20.175 20.172 20.33 20.306 20.485 21.413 22.15 22.791 22.716 22.858 23.05 23.198 23.273 23.306 23.364 23.406 23.456 23.502 23.556 23.577 23.653 23.79 23.951 23.991 23.894 23.675 23.677 23.68 23.637 23.571 23.611 23.622 23.672 23.66 23.793 24.871 25.166 23.825 23.844 23.842 23.812 23.803 23.836 23.829 23.87 23.872 23.81 23.778 23.799 23.873 23.915 23.856 23.444 23.095 23.542 23.693 23.682 -9999 -9999 -9999 -9999 -9999 -9999 -9999 -9999 -9999 19.643 19.636 -9999 -9999 19.646 19.587 19.943 19.939 19.982 20.093 19.815 -9999 21.161 21.224 21.264 20.074 22.342 24.156 24.162 23.191 24.125 24.725 25.1 24.752 23.345 22.819 21.331 23.67 22.804 26.698 25.394 26.337 27.907 27.05 26.193 23.752 24.177 23.648 21.776 21.116 21.14 21.275 21.264 21.406 21.095 20.747 20.355 20.767 22.47 23.812 36.063 22.091 30.175 26.184 30.229 29.475 32.276 30.015 27.365 29.307 29.689 29.655 -9999 -9999 -9999 -9999 -9999 -9999 -9999 19.544 19.54 19.623 -9999 -9999 -9999 -9999 -9999 -9999 21.655 21.4 21.664 22.256 22.964 22.442 21.416 22.363 22.782 21.901 22.384 24.006 24.777 24.267 27.33 26.5 26.668 26.734 26.859 26.05 25.031 25.951 26.702 27.127 25.385 23.624 24.173 23.579 23.417 22.989 23.071 22.835 22.95 22.907 22.782 22.758 22.407 22.508 22.89 22.578 22.823 22.431 23.38 23.979 26.905 28.136 29.869 28.464 33.861 35.058 34.206 33.346 33.951 24.592 28.566 30.108 29.704 31.372 32.653 32.636 34.4 33.484 27.568 27.404 25.778 23.998 26.109 25.225 23.45 25.231 26.452 26.415 27.045 24.81 23.448 23.551 23.147 22.707 24.777 23.152 21.703 21.612 21.543 21.336 21.138 21.496 21.314 20.519 20.82 21.416 22.346 22.232 21.471 22.267 -9999 -9999 -9999 -9999 -9999 -9999 -9999 22.279 21.13 22.885 26.046 26.728 26.851 22.907 22.533 21.836 21.594 22.692 23.45 23.768 23.207 22.48 21.64 21.41 21.357 23.296 23.766 23.968 24.125 23.649 22.878 21.073 19.918 19.288 18.795 18.543 18.417 18.319 18.284 18.297 19.556 18.937 18.617 19.243 18.348 18.341 18.381 18.372 18.406 18.405 18.383 18.351 18.399 18.45 18.721 18.721 19.552 21.575 22.347 22.086 21.699 20.747 20.246 20.995 22.957 26.118 27.038 27.27 23.68 21.296 21.858 21.321 21.336 21.431 21.47 21.471 21.491 21.502 21.524 21.562 21.527 21.53 22.236 24.81 25.445 28.62 30.421 31.264 31.198 28.314 26.045 20.959 20.899 20.882 20.884 20.802 20.687 21.46 20.521 20.682 27.754 30.214 29.276 27.625 21.442 20.551 20.491 20.405 20.297 20.277 20.228 20.246 20.214 20.215 20.159
27.145 25.905 24.677 24.477 24.433 24.41 24.381 24.283 24.411 26.785 24.207 24.147 24.195 24.116 24.117 24.04 24.029 24.026 23.976 25.076 25.469 24.063 24.009 23.861 23.813 23.782 23.901 24.576 24.587 23.795 23.547 23.607 23.668 23.657 23.648 23.6 23.655 23.615 23.617 23.631 23.601 23.641 23.616 23.637 23.642 23.661 23.665 23.632 23.635 23.711 24.274 24.244 23.987 23.825 23.436 23.267 23.228 23.889 26.818 26.236 26.552 23.845 23.02 22.936 25.952 27.325 25.247 23.482 25.744 21.815 20.874 20.319 20.3 20.186 20.27 20.29 20.212 20.207 20.22 20.194 20.188 20.168 20.17 20.16 20.182 20.163 20.273 20.695 22.091 23.432 22.909 23.157 23.18 23.198 23.217 23.251 23.309 23.366 23.446 23.473 23.529 23.56 23.599 23.74 23.927 24.082 24.06 24 23.972 24.007 23.696 23.666 23.615 23.617 -9999 23.671 23.71 23.866 23.756 23.786 23.83 23.856 23.848 23.795 23.81 23.856 23.869 23.857 23.847 23.813 23.854 23.896 23.921 23.847 23.855 23.921 23.916 23.806 23.516 23.663 -9999 -9999 -9999 -9999 -9999 -9999 -9999 -9999 19.629 19.628 -9999 -9999 19.657 -9999 19.961 19.87 19.86 19.994 19.715 -9999 19.93 19.838 20.144 20.294 22.652 23.507 23.818 24.509 23.046 23.914 24.65 25.033 25.147 24.374 22.894 25.805 23.307 27.641 27.016 26.256 25.865 25.817 26.293 27.142 24.374 21.976 21.75 21.16 20.596 20.884 21.195 23.861 20.693 20.519 20.322 20.65 26.853 28.922 29.413 27.24 26.151 25.572 25.979 26.593 29.87 30.014 27.739 -9999 -9999 -9999 -9999 -9999 -9999 19.691 19.589 19.589 19.586 -9999 -9999 -9999 19.629 -9999 -9999 21.003 21.331 22.333 22.002 20.745 21.566 21.383 22.276 24.14 22.88 23.73 25.182 23.855 23.076 25.158 26.9 27.88 28.341 28.029 26.633 26.173 26.568 26.197 24.38 26.666 26.938 26.809 26.349 23.836 23.406 23.145 23.028 22.868 22.705 22.634 22.737 22.74 22.582 22.521 22.516 22.421 22.398 22.541 22.666 24.54 22.715 23.569 26.169 30.118 30.082 28.576 30.402 33.101 33.755 25.094 23.644 23.091 23.201 30.077 26.24 32.513 32.746 31.957 31.772 32.956 27.942 24.948 24.21 23.725 23.845 23.555 23.39 23.557 26.277 27.201 27.61 25.905 25.408 25.56 24.221 24.023 24.437 23.966 22.419 21.816 21.82 21.675 21.702 21.376 20.689 20.279 20.041 22.011 22.701 22.139 21.875 21.353 -9999 -9999 -9999 -9999 -9999 -9999 19.944 19.827 20.207 22.955 23.01 24.89 26.7 26.47 21.975 21.268 21.592 22.192 22.761 22.843 22.686 22.89 21.451 21.168 21.113 21.612 23.094 24.105 23.472 22.459 22.396 21.604 19.977 19.007 18.578 18.462 18.343 18.206 18.299 18.339 19.244 19.772 18.385 18.374 18.319 18.354 18.373 18.343 18.374 18.367 18.381 18.367 18.382 18.435 18.527 18.666 19.198 19.099 19.166 19.459 19.401 19.673 20.553 21.067 21.424 22.381 23.736 22.288 21.982 21.391 21.387 21.361 21.323 21.368 21.494 21.475 21.488 21.507 21.548 21.566 21.556 21.544 21.494 23.99 25.473 27.031 30.112 29.117 32.114 29.522 23.888 20.963 20.91 20.909 20.872 20.854 20.763 20.713 20.666 24.387 28.861 29.646 29.719 27.818 21.69 20.518 20.448 20.372 20.333 20.256 20.241 20.236 20.155 20.106 20.144
32.535 30.219 25.835 24.671 24.522 24.45 24.461 24.385 24.328 24.341 24.301 24.214 24.207 24.216 24.222 24.133 24.103 24.047 24.126 25.17 25.255 24.122 24.033 23.88 23.838 23.812 23.946 24.578 24.985 24.433 25.562 24.301 24.134 24.195 24.202 23.761 23.843 23.633 23.612 23.564 23.592 23.603 23.631 23.632 23.628 23.644 23.647 23.633 23.642 24.055 24.738 24.586 24.184 23.362 23.236 23.206 23.524 25.631 27.668 27.641 24.42 23.066 22.994 24.902 25.897 26.45 23.731 21.057 20.469 20.459 20.352 20.267 20.196 20.165 20.2 20.252 20.291 20.266 20.331 20.19 20.167 20.138 20.151 20.155 20.177 20.139 20.162 20.496 21.143 21.358 23.114 24.618 23.968 23.225 23.068 23.164 23.284 23.322 23.411 23.419 23.51 23.569 23.612 23.696 23.801 23.987 24.153 24.244 24.253 23.891 23.783 23.691 23.605 23.588 -9999 23.715 23.723 23.753 23.791 23.797 23.848 23.814 23.837 23.839 23.865 23.823 23.855 23.881 23.889 23.848 23.899 23.923 23.934 23.933 23.939 24.044 24.165 23.859 23.513 23.66 23.533 23.31 23.009 22.897 -9999 -9999 -9999 -9999 -9999 -9999 -9999 -9999 -9999 -9999 20.048 19.929 19.904 20.003 -9999 -9999 19.723 19.603 19.851 20.56 20.243 22.1 22.533 21.386 22.157 21.697 23.552 24.18 24.005 23.599 24.305 25.93 27.516 28.338 27.102 25.19 24.705 24.215 25.412 26.399 25.114 23.533 24.619 20.693 20.734 21.029 20.502 22.365 22.913 20.495 20.32 -9999 26.965 27.437 28.378 27.576 -9999 -9999 25.282 25.746 27.176 -9999 -9999 -9999 -9999 -9999 -9999 -9999 -9999 19.593 19.656 19.671 19.886 20.079 -9999 19.504 19.567 19.795 20.375 20.596 20.92 22.436 23.25 21.787 21.168 22.047 22.77 23.926 24.097 23.964 24.417 23.961 23.359 25.559 25.97 27 26.34 27.297 25.477 25.769 26.303 27.915 27.794 28.204 27.409 27.973 27.183 24.227 23.091 22.892 22.896 22.81 22.952 22.759 22.702 22.611 22.595 22.57 22.641 22.51 22.516 22.419 23.342 26.156 23.571 22.643 24.352 29.379 29.045 26.645 24.88 24.43 24.01 24.542 23.701 22.364 22.483 28.473 32.695 33.131 27.567 30.112 34.126 29.012 23.454 22.663 22.975 23.149 23.388 23.209 23.207 24.034 26.838 27.521 28.106 25.187 25.357 25.407 25.492 24.793 25.911 25.834 23.886 22.807 21.832 21.63 21.733 21.898 22.107 21.518 21.59 22.713 22.68 21.261 20.722 20.66 20.639 -9999 -9999 -9999 19.735 -9999 -9999 19.762 20.016 22.485 22.595 24.267 25.143 25.118 24.048 21.069 21.421 21.939 22.589 22.721 22.565 22.783 21.886 21.018 20.993 22.096 23.092 23.874 22.989 22.305 21.751 22.45 20.64 19.144 19.357 19.332 18.46 18.255 18.329 18.362 18.386 18.424 18.419 18.378 18.285 18.337 18.364 18.383 18.369 18.399 18.423 18.374 18.365 18.421 18.578 18.669 18.839 18.969 19.049 19.224 19.39 19.886 20.858 21.287 21.593 21.429 21.478 21.487 21.487 21.419 21.403 21.399 21.377 21.446 21.432 21.43 21.431 21.524 21.569 21.559 21.577 21.556 21.571 22.752 21.613 22.42 22.147 28.37 30.828 30.04 21.15 21.021 20.946 20.9 20.904 20.872 20.829 20.724 20.819 28.748 28.693 28.808 26.999 24.553 23.306 21.109 20.396 20.381 20.309 20.219 20.189 20.204 20.181 20.133 20.122
33.25 32.849 32.271 28.621 26.013 26.333 24.664 24.56 24.414 24.299 24.311 24.248 24.285 24.311 24.24 24.221 24.176 24.287 24.347 24.986 25.114 24.137 24.047 23.904 23.847 23.831 24.071 24.395 24.126 24.256 25.02 24.438 24.436 26.011 25.005 27.525 25.268 24.324 24.348 26.786 26.811 24.857 24.075 23.905 24.211 23.893 23.65 23.654 23.617 23.649 26.007 24.144 23.783 23.214 23.178 23.224 23.446 27.323 26.598 26.557 23.639 23.07 22.96 23.018 25.653 25.517 22.399 20.816 20.44 20.342 20.304 20.209 20.187 20.108 20.294 20.268 20.287 20.306 20.288 20.169 20.195 20.178 20.206 20.184 20.16 20.128 20.014 20.059 20.919 21.488 23.092 24.201 23.9 23.364 22.879 22.994 23.176 23.292 23.349 23.4 23.574 23.626 23.654 23.713 23.811 23.957 24.116 24.202 24.233 24.157 23.758 23.638 23.589 23.604 23.579 -9999 23.707 23.747 23.766 23.744 23.792 23.805 23.798 23.806 23.92 23.949 23.907 23.897 23.91 23.948 23.962 23.921 23.902 23.899 23.941 24.039 24.06 24.013 23.933 23.646 23.628 23.305 22.568 22.622 -9999 -9999 -9999 -9999 -9999 -9999 -9999 -9999 -9999 -9999 -9999 19.641 19.657 19.652 -9999 -9999 -9999 19.69 -9999 -9999 20.249 20.316 19.875 19.713 20.768 21.48 22.037 21.692 22.48 25.347 30.471 34.974 24.486 27.208 25.69 22.613 21.932 26.54 33.765 24.722 32.851 33.16 28.356 23.131 20.398 20.372 22.27 22.603 22.666 -9999 -9999 -9999 -9999 -9999 -9999 -9999 -9999 -9999 -9999 -9999 -9999 -9999 -9999 -9999 -9999 -9999 20.129 19.771 -9999 -9999 -9999 -9999 -9999 21.227 20.317 20.275 20.281 20.487 20.609 20.404 20.479 23.091 24.668 23.513 22.124 22.347 23.135 23.759 24.543 24.208 24.149 23.859 23.696 25.158 26.383 26.059 23.946 23.292 24.371 24.757 27.17 28.946 28.322 26.003 28.984 24.533 28.506 27.875 26.266 22.928 22.906 22.989 22.935 22.725 22.703 22.703 22.608 22.556 22.483 22.47 22.375 22.373 23.127 22.729 23.205 25.387 24.68 26.719 27.191 25.228 22.266 23.192 25.391 26.363 27.358 24.905 25.393 23.49 27.45 33.97 33.731 33.852 32.97 25.909 26.457 22.778 22.74 23.32 23.368 23.489 23.257 22.926 23.164 26.609 26.111 23.973 24.057 24.384 25.589 25.842 25.658 24.979 25.123 24.676 22.35 22.019 22.832 23.844 23.287 22.609 22.041 22.523 21.385 21.362 20.257 20.469 -9999 -9999 20.292 -9999 19.738 -9999 -9999 -9999 -9999 -9999 -9999 24.242 24.28 25.058 21.04 20.741 20.732 21.57 22.182 22.57 22.437 22.323 21.647 21.133 21.388 22.884 23.287 21.64 21.965 23.023 22.065 22.413 20.546 18.714 21.494 20.127 19.33 18.337 18.325 18.364 18.384 18.4 18.389 18.342 18.225 18.272 18.222 18.377 18.342 18.38 18.393 18.357 18.393 18.364 18.556 18.591 18.766 18.905 18.949 19.168 19.638 20.824 21.551 21.547 21.403 21.659 21.902 21.747 21.632 21.495 21.45 21.48 23.546 23.243 21.517 21.532 21.571 22.13 21.619 22.2 21.663 21.679 21.965 22.04 21.798 21.712 25.618 28.948 28.89 27.212 22.646 23.719 21.078 20.968 20.882 20.848 20.773 20.788 22.044 28.928 27.843 29.13 28.982 27.842 25.16 21.652 20.416 20.327 20.29 20.257 20.274 20.192 20.151 20.172 20.072
33.787 33.395 33.013 32.51 31.457 30.916 28.462 26.551 24.503 24.426 24.337 24.302 24.351 24.414 24.376 24.216 24.17 24.428 24.795 24.834 24.66 24.146 24.001 23.95 23.865 23.867 23.988 23.946 23.874 23.72 23.723 23.788 23.753 23.907 23.926 23.809 23.967 23.892 24.393 24.496 27.664 24.237 24.254 25.573 25.931 24.303 24.834 25.458 24.829 24.267 26.466 24.727 23.477 23.214 23.212 23.334 26.179 28.323 27.994 26.37 23.544 23.045 22.957 22.931 23.203 22.201 21.718 20.39 20.411 20.3 20.279 20.337 20.195 20.263 20.321 20.242 20.279 20.289 20.3 20.179 20.193 20.192 20.21 20.21 20.178 20.123 20.05 20.205 20.711 22.292 20.917 23.551 23.47 23.306 22.373 22.789 22.933 23.078 23.211 23.331 23.674 24.28 23.772 23.682 23.789 23.915 24.171 24.09 24.106 24.012 23.735 23.644 23.647 23.62 23.537 23.597 -9999 23.674 23.656 23.726 23.725 23.79 23.797 23.805 23.891 23.94 23.936 23.941 23.941 23.97 23.973 23.922 23.887 23.876 23.852 23.939 24.066 24.094 24.085 24.044 24.017 23.565 22.502 22.629 23.108 23.15 20.275 -9999 -9999 -9999 19.608 -9999 -9999 -9999 -9999 19.644 19.696 19.632 19.649 -9999 -9999 -9999 -9999 19.651 19.692 19.649 19.636 19.65 19.707 19.937 19.878 20.481 21.294 22.155 22.241 27.317 31.586 30.147 22.827 22.18 23.809 20.544 28.908 33.23 29.402 29.553 -9999 -9999 22.569 21.639 20.513 -9999 -9999 -9999 -9999 -9999 -9999 -9999 -9999 -9999 -9999 20.363 -9999 -9999 -9999 -9999 -9999 -9999 -9999 -9999 19.606 19.605 -9999 -9999 -9999 25.253 25.434 21.127 20.753 20.195 20.259 20.527 20.933 21.085 21.737 23.901 25.392 24.597 23.851 23.137 24.212 24.075 24.209 24.061 24.158 23.833 23.816 23.895 25.006 23.785 23.24 23.341 25.178 26.617 28.068 29.017 28.899 26.585 27.491 27.877 27.652 28.393 27.456 24.158 22.893 22.831 22.713 22.722 22.649 22.568 22.586 22.64 22.591 22.406 22.35 22.359 22.356 23.434 26.011 27.085 27.074 25.821 22.906 22.591 22.841 23.025 23.633 26.303 24.869 25.754 24.842 25.164 28.115 31.911 32.683 33.22 34.369 31.855 30.41 24.032 22.797 23 23.391 23.823 23.408 22.325 22.156 22.841 22.706 22.088 22.132 22.75 24.221 25.348 26.562 26.193 27.041 24.947 24.089 23.972 23.175 24.827 25.397 22.777 21.821 21.749 21.431 21.223 20.554 20.436 20.398 20.359 20.41 20.379 -9999 -9999 -9999 -9999 -9999 -9999 -9999 -9999 -9999 -9999 -9999 20.811 20.736 21.55 22.047 22.511 22.548 22.78 21.906 22.459 23.344 24.037 23.067 20.899 21.706 22.736 23.065 22.154 20.595 18.964 18.534 18.442 18.489 -9999 18.348 18.366 18.372 18.344 18.365 18.312 18.162 18.184 18.272 18.389 18.393 18.381 18.405 18.413 18.365 18.368 18.452 18.474 18.49 18.716 18.909 19.542 22.527 24.304 24.183 22.529 21.427 21.492 21.655 21.574 21.455 21.447 21.439 21.453 24.443 26.26 24.789 25.954 25.244 25.801 25.868 26.027 25.997 26.212 26.246 23.216 21.877 21.72 25.975 28.045 29.098 28.904 26.883 21.618 21.054 20.963 20.876 20.865 20.785 20.714 20.695 26.797 28.002 26.78 24.329 25.278 27.889 28.261 26.062 23.656 20.464 20.289 20.298 20.401 20.638 20.57 20.584
34.424 33.987 33.621 33.187 32.743 32.431 31.483 25.211 24.603 24.47 24.455 24.394 24.396 24.458 24.592 24.346 24.629 24.632 24.757 24.426 24.451 25.281 24.063 23.979 23.901 23.907 24.084 23.868 24.103 23.713 23.639 23.652 23.703 23.706 23.695 23.632 23.763 23.644 23.702 23.728 23.765 23.709 23.737 23.612 24.034 23.649 23.648 24.151 24.09 23.87 24.34 23.664 23.277 23.223 23.245 23.541 25.973 27.392 26.698 25.132 23.179 22.978 22.955 23.227 23.531 22.958 21.933 20.631 20.352 20.272 20.293 20.338 20.317 20.293 20.278 20.288 20.305 20.299 20.27 20.278 20.313 20.197 20.231 20.25 20.189 20.321 20.27 20.293 20.426 20.774 20.939 20.937 23.306 22.901 22.496 22.555 22.698 22.864 23.078 23.207 23.582 23.971 23.683 23.708 23.76 23.811 23.889 23.913 23.968 23.798 23.664 23.663 23.673 23.63 23.516 23.508 23.426 23.732 23.338 23.504 23.651 23.733 23.844 23.866 23.817 23.865 23.902 24.042 23.956 23.998 24.004 23.894 23.899 23.936 23.952 23.933 23.917 24.006 24.148 24.218 24.181 24.049 23.668 23.415 23.051 23.088 23.207 -9999 -9999 19.593 19.611 19.608 -9999 -9999 -9999 -9999 19.676 19.666 -9999 -9999 -9999 -9999 -9999 -9999 19.656 19.655 -9999 19.632 19.615 19.604 19.657 19.553 19.567 20.043 20.999 22.705 24.178 23.753 24.072 20.689 21.478 19.865 20.269 23.925 21.334 -9999 -9999 -9999 20.656 -9999 -9999 -9999 -9999 -9999 -9999 -9999 -9999 -9999 -9999 -9999 -9999 19.692 -9999 19.626 19.649 19.654 19.655 -9999 -9999 -9999 -9999 -9999 -9999 20.376 20.65 20.748 21.477 21.889 21.408 20.338 20.361 21.037 21.393 22.252 23.541 24.882 25.673 25.347 25.674 25.866 25.449 24.129 24.284 23.969 23.986 24.125 24.217 24.07 23.87 23.789 23.951 23.821 24.462 25.653 26.635 28.792 28.59 29.256 24.553 23.855 27.791 27.677 26.901 25.448 23.3 22.917 22.845 22.884 22.736 22.688 22.654 22.538 22.427 22.339 22.641 22.596 22.827 24.645 26.625 26.451 26.328 25.745 27.133 23.769 22.571 23.018 23.239 23.799 24.142 25.492 24.507 23.744 24.47 33.199 30.953 30.004 35.323 27.392 26.9 23.904 25.249 23.057 26.272 28.545 27.1 22.543 22.197 22.219 22.184 22.165 22.116 22.319 22.614 22.956 24.727 24.826 25.764 25.782 25.063 24.59 24.487 24.384 23.255 22.104 21.792 21.736 21.811 22.028 20.752 20.561 20.728 20.419 20.42 20.358 20.299 -9999 -9999 -9999 -9999 -9999 -9999 -9999 -9999 -9999 -9999 20.224 21.11 21.519 21.984 22.239 22.331 22.535 22.145 22.653 23.628 24.096 22.665 21.809 21.116 23.147 22.591 20.342 19.326 18.939 18.542 18.429 18.359 18.345 18.337 18.382 18.367 18.359 18.401 18.386 18.221 18.236 18.273 18.408 18.407 18.412 18.445 18.447 18.37 18.381 18.293 18.434 18.559 18.807 19.238 21.473 24.882 25.686 25.161 22.716 21.373 21.298 21.332 21.389 21.418 21.408 21.389 21.38 21.323 22.694 25.681 27.063 26.965 27.044 27.159 27.193 27.302 27.16 27.165 23.661 21.776 21.712 23.461 27.167 28.226 27.091 23.235 21.085 21.085 20.986 20.855 20.837 20.795 20.845 24.9 28.582 28.152 23.683 30.272 30.484 29.524 29.769 28.958 26.88 23.112 22.17 24.21 24.424 24.028 22.788 22.576
34.417 34.514 34.177 33.83 33.364 32.972 32.611 28.484 26.046 24.672 24.45 24.458 24.434 24.423 24.433 24.762 24.768 24.87 25.118 24.742 24.484 24.209 24.011 23.955 23.912 23.928 24.016 24.298 24.204 23.715 23.633 23.638 23.724 23.992 23.823 24.427 24.407 24.238 24.265 23.849 23.838 23.849 23.762 23.712 23.66 23.652 23.598 23.618 23.605 23.577 23.708 23.65 23.241 23.21 23.233 24.272 26.287 28.333 26.824 24.452 23.152 22.998 22.942 22.887 23.197 22.826 21.851 20.797 20.282 20.277 20.253 20.244 20.266 20.308 20.277 20.275 20.236 20.261 20.19 20.299 20.312 20.279 20.212 20.216 20.329 20.291 20.225 20.254 -9999 -9999 20.857 20.74 20.862 20.941 20.98 22.395 22.389 22.616 23.023 23.13 23.362 23.555 23.625 23.692 23.687 23.717 23.778 23.803 23.807 23.751 23.734 23.626 23.694 23.623 23.513 23.492 23.136 22.831 22.921 23.335 23.589 23.684 23.8 23.802 23.826 23.821 23.787 23.866 23.968 23.972 23.944 23.847 23.85 23.935 23.979 23.982 23.951 23.983 24.11 24.124 24.14 24.079 24.028 23.956 23.478 23.438 23.279 22.984 22.499 22.111 19.714 -9999 -9999 -9999 -9999 19.652 19.651 19.7 19.69 -9999 -9999 -9999 -9999 -9999 -9999 19.631 19.578 19.592 19.565 19.547 19.6 19.579 19.6 19.603 19.641 19.752 21.719 22.102 20.927 20.597 19.886 -9999 19.645 19.662 -9999 19.463 -9999 19.616 19.656 19.627 -9999 -9999 -9999 -9999 19.636 19.642 -9999 -9999 -9999 -9999 -9999 -9999 19.623 19.612 19.624 19.655 19.663 19.669 -9999 -9999 -9999 -9999 20.38 20.297 20.559 21.294 22.188 22.768 22.933 21.533 21.654 22.22 22.863 23.195 24.308 25.208 25.744 25.871 26.577 26.07 25.197 24.248 24.21 24.229 24.231 24.604 24.403 24.528 24.318 24.085 24.803 24.829 24.581 25.837 26.261 24.882 27.369 25.451 25.965 26.303 27.479 26.42 23.795 24.066 23.888 23.177 22.984 22.828 22.666 22.648 22.658 22.47 22.427 23.037 22.877 22.778 23.398 25.463 26.332 23.61 25.798 26.656 26.7 23.657 22.53 22.698 23.419 25.537 25.793 24.62 24.915 24.331 23.33 25.933 31.772 34.142 32.486 34.851 30.569 24.933 27.277 26.136 31.301 32.074 29.986 24.325 22.316 22.272 22.236 22.209 22.216 22.182 22.362 22.681 22.566 22.4 23.915 24.441 25.339 24.888 24.965 25.229 24.506 23.88 22.119 21.425 21.817 22.046 22.036 22.323 21.177 20.567 20.278 20.257 -9999 -9999 -9999 -9999 -9999 -9999 -9999 -9999 -9999 -9999 -9999 -9999 20.174 21.607 21.936 22.196 22.136 22.16 21.951 22.38 23.307 23.598 23.305 21.986 23.276 23.818 22.643 20.158 20.404 19.089 18.625 18.516 18.331 18.359 18.289 18.341 18.382 18.37 18.394 18.398 18.312 18.361 18.324 18.442 18.393 18.457 18.468 18.48 18.484 18.487 18.363 18.457 18.82 18.985 19.76 23.123 25.209 26.03 25.295 23.325 21.461 21.37 21.321 21.357 21.4 21.318 21.41 21.384 21.392 21.524 25.508 27.619 27.778 27.738 27.883 27.683 27.585 27.573 27.643 24.857 21.975 21.783 22.153 21.928 26.155 23.773 24.093 21.178 21.084 21.011 20.961 20.969 20.923 20.975 28.078 30.434 30.57 29.412 30.059 28.704 29.99 29.677 28.505 28.219 24.233 22.686 24.483 24.881 23.49 23.453 24.164
33.855 34.13 34.486 34.4 34.02 33.665 33.349 32.842 31.255 28.927 25.796 24.458 24.428 24.363 24.338 24.436 24.624 24.524 24.817 24.749 24.382 24.17 24.055 23.991 23.923 23.945 23.934 23.976 24.062 23.799 23.731 23.692 23.96 24.636 24.166 24.643 25.157 25.54 25.323 24.588 24.471 24.259 24.203 24.124 23.903 23.703 23.681 23.671 23.66 23.677 23.949 23.975 23.29 23.266 23.286 24.597 26.581 27.219 26.739 24.328 23.16 22.996 22.927 22.875 22.957 22.116 21.074 20.748 20.332 20.27 20.258 20.26 20.277 20.25 20.256 20.274 20.305 20.315 20.292 20.301 20.28 20.298 20.311 -9999 -9999 -9999 20.258 20.263 20.274 -9999 -9999 20.377 20.599 20.817 20.932 20.978 22.361 22.601 22.915 23.023 23.205 23.446 23.596 23.658 23.648 23.695 23.812 23.781 23.73 23.69 23.712 23.687 23.698 23.594 23.56 23.518 22.868 22.494 22.421 23.231 23.337 23.555 23.624 23.691 23.764 23.743 23.696 23.755 23.824 23.894 23.851 23.815 23.817 23.946 24.01 23.976 23.972 24.026 24.09 24.059 24.029 24.103 24.12 24.142 24.077 23.936 23.401 22.901 21.989 21.899 21.749 21.681 21.788 19.629 -9999 -9999 19.638 19.682 19.697 -9999 -9999 -9999 -9999 -9999 19.635 19.675 19.648 19.612 19.631 -9999 -9999 19.573 19.59 -9999 -9999 19.739 20.283 20.477 19.895 19.895 19.613 19.612 19.599 19.568 19.569 19.445 19.598 19.62 19.584 19.609 19.571 19.52 -9999 -9999 19.637 19.645 -9999 -9999 -9999 -9999 19.854 19.945 20.573 20.01 -9999 -9999 20.015 -9999 -9999 20.293 20.297 20.35 20.368 20.197 20.286 20.513 22.267 23.233 24.073 22.448 22.979 23.102 23.575 24.61 24.486 25.162 25.439 25.838 25.352 24.973 24.138 24.457 24.426 24.668 24.632 24.689 24.757 24.528 24.558 24.509 26.575 25.594 25.651 24.633 24.473 28.526 27.902 26.362 25.077 24.465 28.428 26.32 23.403 23.32 23.644 23.212 23.03 22.921 22.906 22.843 22.911 22.505 22.49 23 23.282 23.745 23.496 23.413 23.996 22.773 23.593 27.683 28.042 26.013 25.629 24.418 25.049 25.237 24.094 23.354 23.232 23.61 23.024 23.314 33.864 32.389 35.005 34.492 32.714 24.967 27.42 30.372 27.132 32.04 30.432 26.808 26.087 22.459 22.305 22.297 22.222 22.263 22.428 22.545 22.477 22.153 21.939 22.173 22.35 24.205 23.211 24.937 24.422 24.581 24.198 22.078 21.974 22.081 22.973 23.492 22.436 21.137 20.117 20.149 20.181 -9999 -9999 -9999 -9999 -9999 -9999 -9999 -9999 -9999 -9999 -9999 -9999 20.871 21.634 22.066 21.923 21.861 21.818 21.858 22.741 22.797 23.216 22.693 24.068 24.212 22.018 21.244 20.729 18.989 19.315 18.541 18.412 18.39 18.377 18.348 18.391 18.37 18.379 18.379 18.333 18.218 18.306 18.375 18.478 18.505 18.503 18.509 18.532 18.51 18.357 -9999 19.74 20.491 23.286 25.037 27.117 26.072 25.631 23.726 21.607 21.338 21.314 21.352 21.367 21.357 21.344 21.367 21.387 21.426 24.907 26.817 26.805 26.856 26.909 26.86 26.659 26.698 26.62 24.676 22.4 21.752 21.632 21.494 21.337 21.283 21.506 21.212 21.192 21.14 21.064 21.028 20.965 24.232 27.796 29.74 30.406 30.847 30.906 30.078 28.832 28.878 27.392 25.568 23.763 23.704 24.348 24.685 23.799 22.514 21.82
33.234 33.445 33.92 34.283 34.537 34.232 33.805 33.462 33.05 28.269 24.452 24.432 24.359 24.409 24.325 24.31 24.329 24.5 24.358 24.282 24.167 24.117 24.027 23.967 23.947 23.96 23.971 23.993 23.945 23.797 23.793 23.777 24.033 24.989 25.173 25.336 26.256 26.755 26.654 25.767 25.208 24.909 24.926 24.74 24.371 23.793 23.696 23.685 23.674 23.717 24.078 24.03 23.378 23.263 23.311 23.781 25.354 26.187 25.803 23.792 23.187 23.009 22.96 22.842 22.713 21.843 20.71 20.288 20.274 20.284 20.296 20.274 20.229 20.297 20.238 20.31 20.286 20.258 20.264 20.226 20.283 20.293 -9999 -9999 -9999 -9999 -9999 20.263 -9999 -9999 -9999 -9999 20.424 20.704 20.917 20.934 20.916 22.489 22.571 22.695 22.958 23.236 23.503 23.645 23.606 23.911 23.909 23.724 23.659 23.632 23.675 23.717 23.728 23.56 23.608 23.54 22.835 22.081 21.294 21.841 22.3 23.179 23.507 23.603 23.549 23.541 23.588 23.509 23.574 23.547 23.497 23.612 23.645 23.707 23.812 23.854 23.967 24.035 24.114 24.084 24.067 24.105 24.166 24.265 24.213 24.064 23.769 23.442 22.939 22.39 21.53 21.556 21.734 21.891 19.632 -9999 22.064 -9999 -9999 -9999 -9999 19.783 19.639 19.595 19.564 19.674 -9999 -9999 19.695 -9999 -9999 -9999 -9999 19.546 19.559 -9999 19.565 19.542 19.593 19.55 19.549 19.549 19.573 19.584 19.545 19.541 19.534 19.58 19.589 19.6 19.585 19.513 -9999 -9999 -9999 -9999 19.667 19.64 -9999 19.849 20.099 21.72 22.805 23.148 22.603 23.371 -9999 19.72 20.238 20.212 20.223 20.403 20.501 20.277 20.828 21.339 22.694 23.344 23.611 23.053 23.768 23.832 25.122 25.595 25.343 24.364 24.105 25.196 24.538 24.147 24.13 24.486 24.672 24.582 24.79 24.689 24.712 24.907 24.679 25.802 26.331 27.507 26.602 25.753 26.311 29.797 29.649 28.38 28.754 28.161 27.637 26.825 23.968 23.674 23.398 23.467 23.108 23.055 23.05 22.975 22.824 22.706 22.556 22.471 23.475 23.229 23.802 23.689 22.454 23.888 26.681 27.861 28.346 23.684 25.943 24.63 25.881 24.314 22.997 23.165 23.876 23.481 26.415 28.874 33.428 33.88 35.461 34.498 33.44 25.574 29.966 27.767 32.92 32.187 30.064 23.866 26.618 23.526 22.3 22.345 22.357 22.365 22.448 22.565 22.417 22.108 22.008 21.947 21.89 21.863 22.491 22.414 24.594 24.503 24.27 23.468 23.893 23.496 24.862 24.39 22.4 21.39 20.498 20.334 20.296 20.33 -9999 -9999 -9999 -9999 -9999 -9999 -9999 -9999 -9999 37.906 -9999 22.73 21.231 21.698 21.904 21.843 21.69 21.653 21.722 21.689 23.519 23.605 23.968 22.581 23.77 21.252 19.855 19.221 19.937 18.855 18.412 18.364 18.321 18.348 18.421 18.402 18.341 18.416 18.32 18.363 18.354 18.328 18.436 18.438 18.35 18.5 18.53 18.524 18.79 19.169 19.914 22.373 24.191 25.111 25.722 26.101 25.633 23.875 21.496 21.311 21.304 21.288 21.303 21.305 21.286 21.358 21.404 21.528 23.867 25.363 25.881 25.72 25.815 26.041 25.843 25.657 25.579 24.676 23.776 21.657 21.534 21.739 21.402 21.312 21.323 21.239 21.244 21.203 21.137 21.071 23.189 26.607 26.827 26.412 28.474 28.309 28.906 28.126 27.583 26.77 25.154 24.76 25.225 23.655 25.827 26.503 24.402 22.91 22.26
32.639 33.089 33.259 33.812 34.153 34.514 34.352 34.24 28.906 24.429 24.495 24.497 24.43 24.38 24.316 24.361 24.309 24.277 24.201 24.164 24.103 24.093 24.07 24.015 24.02 24.047 23.95 23.886 23.994 23.815 23.834 23.934 23.912 24.719 25.214 25.94 26.976 27.364 27.206 26.456 25.842 25.695 25.584 25.36 24.828 23.666 23.674 23.648 23.664 23.665 24.019 24.045 23.322 23.27 23.301 23.485 24.007 24.016 23.86 23.462 23.236 23.051 22.991 22.867 22.532 21.27 20.612 20.674 20.253 20.314 20.33 20.311 20.232 20.246 20.27 20.306 20.348 20.3 20.232 20.258 20.262 -9999 -9999 -9999 -9999 -9999 -9999 -9999 -9999 -9999 -9999 -9999 20.321 -9999 -9999 20.859 20.847 20.909 20.965 22.679 22.832 23.119 23.251 23.435 23.565 24.225 23.982 23.674 23.568 23.561 23.638 23.656 23.663 23.631 23.635 23.628 23.548 21.985 20.59 20.967 20.825 23.014 23.471 23.497 23.369 23.298 23.297 23.247 23.182 23.163 23.005 22.974 23.117 23.233 23.28 23.375 23.702 23.831 23.959 24.034 24.109 24.161 24.166 24.214 24.182 24.153 24.171 24.171 23.858 23.394 22.587 22.206 22.018 22.001 22.205 22.093 21.781 21.546 21.632 -9999 -9999 19.826 19.743 -9999 19.584 -9999 -9999 24 24.202 -9999 -9999 19.548 19.539 19.531 19.579 19.594 19.594 19.611 19.634 19.617 19.596 19.446 19.578 19.606 19.525 19.465 19.582 19.588 19.62 19.595 19.544 19.611 -9999 19.735 19.64 19.626 19.799 19.634 -9999 20.361 22.882 23.98 23.964 24.274 22.525 23.21 20.452 20.133 20.19 20.242 20.206 20.606 20.897 21.821 23.285 23.298 23.788 24.74 24.412 23.794 24.589 23.887 24.259 25.401 24.37 24.108 23.837 23.724 24.008 24.193 24.098 24.437 24.697 24.455 24.678 24.656 24.691 24.744 24.28 25.162 25.256 24.972 28.151 27.74 26.638 25.441 28.443 28.09 28.166 28.624 27.357 24.466 23.361 23.517 23.681 23.55 23.302 23.198 23.163 23.068 23.095 22.992 22.738 22.622 24.648 22.464 22.83 22.893 22.329 22.925 26.231 27.252 23.996 25.061 28.085 28.213 26.302 25.243 24.497 24.369 24.543 24.751 24.66 28.15 28.118 31.714 33.895 35.06 32.953 30.37 32.498 33.741 32.455 28.284 27.172 22.459 22.432 22.351 22.363 22.38 22.363 22.373 24.021 22.447 22.338 22.152 22.026 21.968 21.865 21.978 22.529 27.048 26.186 24.661 22.86 22.749 23.776 22.699 23.247 22.331 21.524 21.604 21.385 21.075 20.469 20.344 20.479 -9999 -9999 -9999 -9999 -9999 -9999 -9999 40.842 44.859 31.458 22.87 21.096 20.628 22.258 22.1 21.645 21.608 21.513 21.468 23.081 22.552 24.409 24.157 24.057 21.448 19.804 20.386 20.498 18.526 18.311 18.323 18.29 18.279 18.361 18.342 18.342 18.302 18.267 18.279 18.305 18.325 18.343 18.369 18.341 18.45 18.485 18.579 18.761 18.614 18.748 22.263 24.667 25.476 26.198 26.822 26.526 25 21.569 21.383 21.287 21.252 21.268 21.287 21.291 21.362 21.385 21.463 22.064 22.453 23.067 22.782 21.893 21.51 21.511 21.812 21.489 21.378 21.39 21.362 21.388 21.384 21.412 21.409 21.404 21.37 21.375 21.333 21.231 21.95 21.696 26.028 23.411 28.148 28.154 28.21 25.481 25.034 23.937 24.91 24.736 25.211 24.45 23.556 24.995 25.76 24.601 22.847 22.161
31.824 32.415 32.67 33.173 33.609 34.021 34.442 34.383 25.502 24.439 24.581 25.403 24.717 24.672 24.371 24.356 24.302 24.312 24.202 24.204 24.179 24.091 24.053 24.042 23.989 24.101 23.772 24.357 23.981 23.868 23.828 23.935 24.224 24.525 25.16 26.81 27.476 27.354 26.934 26.602 25.973 25.552 25.59 25.332 24.599 23.649 23.613 23.623 23.617 23.682 24.065 24.074 23.381 23.289 23.327 23.493 23.707 23.812 23.69 23.561 23.318 23.117 23.028 22.902 22.928 22.239 22.376 21.187 20.253 20.313 20.255 20.221 20.276 20.313 20.294 20.283 20.329 20.296 20.276 20.32 20.33 20.305 -9999 -9999 -9999 -9999 -9999 -9999 -9999 -9999 -9999 -9999 -9999 -9999 -9999 -9999 20.688 20.874 20.918 20.911 20.928 23.102 23.186 21.242 23.638 23.816 23.822 23.563 23.552 23.547 23.582 23.759 23.626 23.613 23.613 23.646 23.524 22.533 21.793 21.267 21.294 22.841 23.493 23.409 23.082 23.001 22.961 22.918 22.867 22.772 22.628 22.467 22.373 22.442 22.59 22.7 22.994 23.21 23.402 23.706 23.996 24.002 24.145 24.2 24.156 24.154 24.336 24.359 24.315 24.255 23.878 23.21 22.784 22.75 22.763 22.259 21.568 21.218 21.602 21.888 21.977 21.104 22.022 22.02 19.53 22.712 23.479 23.957 24.073 24.54 24.8 19.583 19.554 19.535 19.599 19.606 19.636 19.711 19.653 19.616 19.614 19.606 19.606 19.608 19.553 19.598 19.531 19.6 19.577 19.579 19.572 19.565 19.587 19.714 19.801 19.663 20.756 20.5 21.967 21.896 22.238 22.544 22.725 22.786 22.139 20.812 20.405 20.228 20.302 20.533 20.63 21.459 23.728 23.923 24.533 25.103 26.049 26.337 26.292 24.505 24.383 23.983 23.856 23.926 23.601 23.788 23.551 23.949 23.969 23.949 24.037 24.289 24.575 24.702 24.559 24.583 24.817 25.214 24.502 24.555 26.31 27.406 27.337 27.494 26.188 24.68 27.161 26.897 27.87 26.137 23.707 23.44 23.597 23.421 23.815 23.832 23.624 23.378 23.233 23.372 24.588 24.128 23.531 26.889 27.029 26.398 27.223 27.103 24.099 22.231 22.37 23.632 22.902 26.028 26.471 22.902 25.642 24.347 24.889 24.822 24.201 24.364 26.797 28.501 26.648 31.488 33.921 29.35 34.62 31.252 32.28 32.116 33.912 32.385 29.561 22.681 22.499 22.427 22.374 22.39 22.388 25.25 24.043 22.392 22.244 22.21 22.158 22.099 22.004 23.484 25.066 27.007 25.751 22.728 21.843 21.652 23.675 24.367 23.272 21.734 21.544 21.969 22.22 21.947 20.971 20.397 20.441 20.747 23.536 22.393 -9999 -9999 -9999 -9999 44.946 37.978 24.692 24.471 21.53 21.851 21.819 22.966 22.587 21.597 21.877 21.376 24.098 25.357 26.399 26.064 25.08 24.157 22.14 21.515 20.242 18.395 18.414 18.303 18.295 18.297 18.313 18.265 18.306 18.293 18.321 18.273 18.331 18.284 18.267 18.36 18.384 18.35 18.371 18.706 18.679 18.563 20.174 23.246 26.405 28.596 28.954 29.64 28.576 24.124 21.665 21.377 21.311 21.279 21.282 21.353 21.352 21.34 21.449 21.589 21.831 21.577 21.74 21.825 21.54 22.546 21.848 21.538 21.309 21.259 21.293 21.264 21.318 21.395 21.453 21.475 21.46 21.438 21.402 21.397 21.316 21.331 22.743 24.311 27.518 29.037 29.742 24.869 26.219 26.662 25.376 25.146 25.573 24.496 23.465 23.47 23.118 23.177 22.445 22.213 21.627
24.421 30.39 31.988 32.585 32.96 33.369 33.688 27.149 24.377 24.519 24.727 24.973 26.561 25.515 24.45 24.357 24.284 24.277 24.249 24.207 24.157 24.111 24.119 24.078 23.997 24.169 23.88 24.348 23.983 23.768 23.839 23.968 24.417 24.328 25.234 26.647 27.537 27.105 26.686 26.341 25.814 25.223 25.184 25.033 24.221 23.692 23.621 23.626 23.593 23.727 24.143 23.842 23.381 23.263 23.317 23.464 23.622 23.769 23.71 23.621 23.369 23.209 23.137 23.047 23.143 24.849 24.879 23.757 20.876 20.63 20.245 20.346 20.268 20.311 20.243 20.253 -9999 -9999 20.323 20.333 20.324 -9999 -9999 -9999 -9999 -9999 -9999 -9999 -9999 -9999 -9999 -9999 -9999 -9999 -9999 -9999 20.562 20.336 20.729 20.912 20.927 20.893 20.901 20.892 20.916 23.466 23.481 23.38 23.359 21.993 -9999 -9999 23.736 23.568 23.47 23.673 23.622 23.382 22.56 20.198 20.293 22.218 23.118 23.131 22.787 22.599 22.572 22.572 22.531 22.485 22.272 22.079 21.91 21.699 21.705 21.929 22.136 22.411 22.759 23.05 23.345 23.519 23.687 23.967 24.075 24.105 24.244 24.301 24.344 24.377 24.369 24.225 23.992 23.615 23.166 22.96 22.602 22.054 21.797 22.129 22.206 22.123 21.82 21.614 22.032 22.78 23.257 23.975 24.109 24.657 24.878 24.5 19.597 19.608 19.595 19.579 19.598 19.552 19.527 19.592 19.623 19.608 19.579 19.559 19.574 19.561 19.604 19.65 19.574 19.577 19.788 21.813 19.592 21.968 20.028 19.924 21.814 20.291 21.344 21.803 22.072 22.583 23.644 23.185 20.87 21.193 20.509 20.294 20.788 21.013 21.378 23.085 24.809 24.796 25.738 25.279 26.536 26.492 26.242 24.586 24.198 24.01 23.977 23.514 23.425 23.518 23.922 24.146 24.107 23.714 23.787 24.332 24.783 24.808 24.497 24.886 24.646 25.72 25.917 24.474 26.231 25.957 26.986 27.54 25.564 25.731 26.96 27.757 27.283 24.479 24.666 25.289 23.316 23.741 24.23 23.95 23.614 23.447 23.513 23.681 26.861 25.652 25.243 27.051 27.439 30.882 31.823 31.772 31.777 29.627 24.576 22.372 24.719 26.595 25.744 25.891 24.082 24.904 25.049 25.026 25.185 25.769 25.537 25.918 25.607 32.591 26.387 34.374 35.075 33.632 29.428 30.937 32.926 30.833 26.776 22.559 22.479 22.442 22.426 22.39 22.381 22.346 22.285 22.316 22.308 22.274 22.174 22.119 22.138 24.888 26.371 25.945 24.41 22.255 21.771 21.722 21.989 22.313 21.84 21.696 21.754 21.83 22.666 22.423 21.709 20.978 20.73 21.935 23.444 21.885 22.895 25.95 25.326 -9999 46.307 -9999 24.443 25.027 25.93 21.906 22.482 23.091 23.258 22.316 22.024 22.175 24.122 22.31 25.784 26.204 24.908 24.815 24.024 25.929 23.02 19.694 18.375 18.363 18.371 18.274 18.264 18.287 18.302 18.27 18.293 18.292 18.306 18.359 18.356 18.344 18.353 18.355 18.445 18.448 18.621 18.315 20.427 28.296 30.884 30.376 30.922 30.556 29.379 28.241 22.803 21.687 21.478 21.37 21.867 21.401 22.482 22.825 22.796 23.148 23.296 23.642 23.747 23.903 23.809 23.937 23.341 21.953 21.503 21.252 21.241 21.26 21.324 21.378 21.419 21.425 21.428 21.397 21.417 21.401 21.326 21.318 21.439 22.274 28.049 29.035 25.62 23.598 24.455 25.35 24.543 23.586 25.361 25.214 24.574 23.463 22.867 22.438 22.062 21.476 20.637
24.493 24.396 24.566 31.83 32.27 32.705 31.403 24.622 24.436 24.482 24.321 24.404 26.846 28.701 24.56 24.393 24.403 24.286 24.218 24.199 24.177 24.131 24.114 25.958 24.902 24.211 24.291 24.417 23.896 23.759 23.831 24.105 24.516 24.688 25.762 26.849 27.325 26.84 26.689 25.976 25.09 24.906 25.007 24.924 24.83 23.812 23.608 23.603 23.624 23.63 23.821 24.052 23.473 23.316 23.312 23.4 23.567 23.732 23.721 23.652 23.499 23.321 23.18 23.117 23.076 25.051 25.753 24.814 24.035 23.511 20.374 20.237 20.349 20.261 20.245 20.247 -9999 20.319 20.339 20.32 20.306 20.307 -9999 -9999 -9999 -9999 -9999 -9999 -9999 -9999 -9999 -9999 -9999 -9999 -9999 -9999 -9999 20.484 -9999 -9999 -9999 -9999 20.898 20.897 20.915 20.917 20.915 20.904 20.925 -9999 -9999 -9999 -9999 23.503 23.458 23.587 23.574 23.527 22.78 22.273 20.281 20.281 20.761 22.837 22.609 22.448 22.248 22.055 22.115 22.108 21.821 21.843 21.714 21.427 21.095 20.918 21.326 21.646 21.962 22.199 22.457 22.525 22.744 23.156 23.566 23.935 24.12 24.182 24.249 24.313 24.328 24.274 24.24 24.109 23.757 23.724 23.722 23.359 23.005 22.684 22.71 22.723 22.364 21.985 22.122 22.777 23.271 24.092 24.884 25.187 25.034 24.555 20.451 20.751 19.696 19.513 19.573 19.57 19.556 19.624 19.58 19.573 19.554 19.639 19.576 19.539 19.589 19.616 21.23 21.551 21.339 24.83 22.098 22.326 21.907 21.795 21.123 20.998 21.449 20.995 21.415 23.593 23.768 22.326 21.65 21.854 21.794 21.269 22.374 22.533 22.898 24.021 25.522 26.667 26.963 26.021 26.743 25.221 24.582 24.233 24.165 23.887 23.367 23.515 23.552 23.78 24.132 24.351 23.775 23.641 23.585 24.653 25.008 24.859 24.74 25.573 24.207 27.39 24.051 24.953 25.606 27.012 25.994 27.11 26.389 25.05 27.317 27.767 26.638 27.74 26.778 24.83 24.072 25.37 26.546 24.099 23.766 23.427 23.868 26.47 27.42 27.25 25.65 24.788 30.983 32.57 33.873 32.83 33.311 35.333 30.435 25.933 24.939 26.13 26.128 26.107 24.609 25.174 23.983 25.271 26.491 26.818 25.445 24.995 31.17 29.253 33.542 33.571 33.813 30.449 28.933 29.694 31.514 30.123 22.717 22.474 22.51 22.468 22.399 22.387 22.359 22.33 22.283 22.263 22.237 22.216 22.211 22.192 22.181 22.922 25.808 24.224 21.965 21.86 21.763 21.754 21.588 21.535 21.609 21.685 21.738 22.15 22.647 22.104 21.699 21.72 21.312 21.722 22.31 22.195 22.215 22.111 25.099 25.479 -9999 -9999 -9999 24.792 24.511 21.654 21.92 22.225 22.439 22.66 22.282 22.202 23.6 23.74 24.979 21.95 25.379 25.37 23.117 23.969 21.642 19.919 18.368 18.345 18.392 18.334 18.328 18.344 18.308 18.342 18.356 18.363 18.344 18.366 18.35 18.351 18.398 18.492 18.424 18.314 18.446 18.75 21.841 24.556 30.77 30.762 31.773 31.264 30.516 28.526 23.994 22.152 21.701 22.285 22.426 22.436 23.14 23.31 23.472 24.012 24.204 24.327 24.484 24.332 24.302 24.476 23.632 22.443 21.709 21.314 21.24 21.191 21.272 21.342 21.423 21.431 21.445 21.361 21.352 21.392 21.372 21.301 21.534 25.839 28.826 24.309 25.373 22.828 23.582 23.376 23.04 23.572 23.66 25.269 25.092 22.938 22.281 21.797 21.236 20.644 20.685
24.422 24.422 24.456 24.408 29.658 32.037 25.498 24.442 24.522 24.215 24.177 24.222 24.625 24.317 24.356 24.35 24.389 24.385 24.303 24.227 24.186 24.178 24.139 25.959 26.231 24.236 23.867 24.372 23.796 23.767 23.836 24.02 24.479 24.966 25.53 26.296 26.67 26.674 26.171 25.508 24.947 24.862 24.954 25.061 24.932 24.063 23.613 23.579 23.566 23.534 24.075 23.826 23.418 23.339 23.328 23.352 23.5 23.644 23.736 23.697 23.539 23.365 23.208 23.154 23.334 25.225 25.963 25.985 25.43 23.985 23.305 20.425 20.256 20.312 20.298 20.28 20.321 20.312 20.279 20.291 20.296 -9999 -9999 -9999 -9999 -9999 -9999 -9999 -9999 -9999 -9999 -9999 -9999 -9999 -9999 -9999 -9999 -9999 -9999 -9999 -9999 -9999 -9999 -9999 -9999 -9999 -9999 20.903 -9999 -9999 -9999 -9999 -9999 -9999 -9999 23.685 23.523 23.349 22.957 20.305 20.315 20.306 20.484 21.919 22.347 22.247 22.054 21.534 21.659 21.597 21.244 21.62 21.535 21.241 20.943 20.723 20.687 21.174 21.26 21.439 21.709 21.871 22.102 22.319 22.675 23.106 23.35 23.685 23.97 24.162 24.167 24.15 24.182 24.148 24.054 24.02 23.988 23.969 24.023 23.753 23.42 23.254 23.61 23.131 22.677 22.831 23.677 25.163 25.862 26.539 25.117 23.798 22.186 20.671 20.542 20.436 20.557 20.6 19.608 19.618 20.743 20.579 19.539 20.271 19.607 19.586 19.582 21.071 23.582 24.197 23.904 23.869 23.962 22.643 22.686 21.733 20.819 22.146 23.287 22.874 23.187 23.004 22.802 22.71 22.214 23.865 23.489 22.184 24.197 23.803 24.108 26.468 26.412 26.769 26.687 26.307 25.365 24.405 24.255 24.263 24.262 23.744 23.508 23.375 23.609 24.187 24.132 23.895 23.708 23.539 23.551 24.054 24.217 24.688 24.829 26.929 30.122 30.949 28.1 27.399 27.393 26.293 27.713 26.427 26.527 26.15 25.195 26.992 26.78 28.309 27.082 26.185 25.795 24.427 25.102 25.631 25.55 24.416 24.134 25.957 27.091 24.409 26.767 27.52 30.613 33.375 34.007 34.494 35.778 36.071 32.275 34.88 24.95 25.309 24.955 24.555 24.87 24.576 24.58 25.891 26.786 27.295 24.827 23.597 26.683 30.771 32.105 31.825 29.901 25.077 26.797 28.988 29.163 24.606 23.037 22.505 22.448 22.46 22.412 22.392 22.375 22.268 22.226 22.238 22.234 22.219 22.213 22.158 22.146 22.155 22.645 22.043 21.947 21.827 21.739 21.725 21.636 21.624 21.487 21.47 22.047 25.243 25.641 22.561 21.798 21.799 21.483 22.401 22.782 22.867 23.119 22.647 26.114 25.978 -9999 -9999 -9999 -9999 23.259 21.126 21.435 21.566 22.676 23.317 23.041 22.612 21.912 24.354 25.29 25.005 21.619 22.472 25.096 25.144 27.794 18.542 18.36 18.334 18.317 18.371 18.407 18.353 18.361 18.346 18.369 18.437 18.393 18.375 18.359 18.422 18.375 18.345 18.536 18.482 18.626 18.988 21.764 24.37 30.823 30.964 31.9 31.244 30.467 29.357 24.169 23.387 22.141 22.495 22.888 23.694 23.329 23.949 24.296 24.683 24.702 25.031 25.136 25.512 25.225 25.181 25.038 22.2 21.389 21.264 21.264 21.199 21.289 21.393 21.489 21.349 21.248 21.203 21.157 21.365 21.322 21.314 21.501 22.765 25.727 26.782 25.207 22.438 22.72 22.707 24.656 25.619 24.833 23.784 22.98 21.275 21.112 20.667 20.516 20.744 20.824
24.523 24.525 24.49 24.506 24.436 24.451 24.448 24.465 24.258 24.157 24.194 24.096 24.269 24.223 24.279 24.33 24.431 24.78 24.682 24.982 24.218 24.159 24.156 26.973 26.324 24.269 23.658 24.207 23.79 23.823 23.805 23.847 23.927 24.118 24.695 25.367 26.057 25.746 25.445 24.977 24.879 24.978 24.921 25.177 24.446 23.926 23.672 23.564 23.602 23.537 23.711 24.147 23.428 23.379 23.328 23.252 23.44 23.604 23.72 23.714 23.609 23.443 23.282 23.198 23.158 25.251 26.228 26.219 25.829 24.594 22.847 20.474 20.32 20.278 20.318 20.284 20.314 20.353 20.396 20.29 20.955 21.093 -9999 -9999 -9999 -9999 -9999 -9999 -9999 -9999 -9999 -9999 -9999 -9999 -9999 -9999 -9999 -9999 -9999 -9999 -9999 -9999 -9999 -9999 -9999 -9999 -9999 -9999 -9999 -9999 -9999 -9999 -9999 -9999 -9999 -9999 -9999 23.379 20.289 20.271 20.254 20.321 20.304 -9999 21.257 -9999 21.966 21.721 21.677 21.564 21.514 -9999 -9999 -9999 -9999 20.89 20.846 21.006 20.941 20.801 21.308 21.309 21.471 21.559 21.876 22.382 22.669 22.799 23.121 23.425 23.436 23.9 24.159 24.208 24.116 24.002 23.94 23.86 23.877 23.843 23.741 23.82 23.946 23.842 23.729 23.444 24.062 24.772 25.146 25.232 24.507 22.516 21.557 20.735 20.54 20.604 20.742 20.573 20.801 20.886 21.866 20.49 20.462 20.344 20.629 20.486 20.649 21.999 24.355 25.452 25.048 25.048 24.813 25.106 23.117 22.162 21.641 22.981 24.666 24.392 25.115 23.828 24.397 24.94 24.923 25.137 25.507 25.027 24.208 24.797 25.272 25.57 26.459 25.858 26.437 25.839 24.533 24.353 24.289 24.334 23.963 23.585 23.415 23.407 23.632 23.739 23.55 23.566 23.483 23.563 23.551 23.505 23.897 24.423 24.755 24.773 30.126 30.66 28.929 27.772 27.823 27.426 27.76 27.205 26.589 26.657 26.437 26.989 27.682 28.464 26.726 27.93 25.731 24.492 24.379 26.291 26.527 25.157 23.966 24.053 26.565 27.375 27.047 26.971 29.848 31.653 32.017 34.064 34.23 35.778 34.194 35.907 30.849 29.332 25.421 24.766 25.204 25.03 25.502 25.375 26.405 26.984 25.935 23.037 23.01 27.281 27.756 26.151 25.596 22.637 22.467 23.293 23.933 22.654 23.19 22.462 22.488 22.462 22.397 22.377 22.278 22.262 22.227 22.204 22.136 22.178 22.122 22.168 22.145 22.152 22.064 22.057 22.015 21.917 21.842 21.77 21.6 21.566 21.515 21.411 21.957 26.201 26.699 23.144 21.845 21.585 22.13 23.183 23.203 23.441 23.253 22.939 23.775 26.087 26 -9999 -9999 -9999 -9999 22.581 21.14 21.674 22.757 23.135 22.776 23.239 22.55 23.181 23.939 23.728 25.858 25.608 24.271 28.237 25.087 19.577 18.417 18.302 18.326 18.389 18.376 18.402 18.373 18.414 18.439 18.441 18.406 18.395 18.397 18.37 18.377 18.581 18.557 19.16 20.195 19.472 22.098 24.751 30.866 30.965 31.887 31.306 30.397 28.21 22.566 23.42 25.099 23.887 24.07 24.427 24.866 25.454 25.596 25.867 25.872 26.038 26.036 26.118 25.954 25.378 24.194 21.601 21.165 21.14 21.179 21.268 21.302 21.194 21.243 21.24 20.98 20.914 20.946 22.938 23.814 23.793 23.482 22.509 22.361 23.76 22.339 21.832 22.979 24.121 24.78 24.196 21.484 22.377 20.996 20.712 20.635 20.55 20.252 21.285 20.685
24.566 24.641 24.56 24.565 24.47 24.47 24.447 24.474 24.122 24.134 24.154 24.124 24.203 24.22 24.178 24.284 24.37 25.859 28.268 25.149 24.303 24.187 24.188 27.118 25.447 24.227 24.126 24.544 23.855 23.78 23.805 23.839 23.807 23.848 23.847 24.128 24.655 24.524 24.303 24.225 24.496 24.94 25.057 24.697 24.069 24.476 24.222 23.594 23.584 23.559 23.656 24.193 23.534 23.363 23.308 23.295 23.788 23.939 23.66 23.655 23.566 23.487 23.409 23.224 23.16 24.284 25.434 25.757 25.722 24.867 23.131 22.303 21.822 21.482 20.652 20.308 20.218 20.202 20.256 20.498 21.025 21.205 21.174 21.232 20.277 -9999 -9999 -9999 20.302 -9999 -9999 -9999 -9999 -9999 -9999 -9999 -9999 -9999 -9999 -9999 -9999 -9999 -9999 -9999 -9999 -9999 -9999 -9999 -9999 -9999 -9999 -9999 -9999 -9999 -9999 -9999 -9999 -9999 -9999 20.308 -9999 20.301 -9999 -9999 -9999 -9999 -9999 -9999 -9999 -9999 -9999 -9999 -9999 -9999 -9999 -9999 -9999 -9999 20.971 21.056 21.21 21.266 21.221 20.931 21.256 21.521 21.957 22.105 22.337 22.494 22.682 22.934 23.132 23.543 23.926 23.973 23.791 23.784 23.747 23.685 23.679 23.634 23.681 23.76 23.908 23.834 23.94 24.365 24.178 23.914 23.85 22.839 21.941 21.592 21.986 21.555 21.314 21.384 21.643 21.341 22.244 21.152 21.02 21.183 21.138 21.315 21.238 22.714 25.472 26.156 25.609 24.195 25.721 25.638 21.797 22.104 22.491 24.45 25.748 25.564 26.538 25.645 26.771 27.563 25.721 26.717 26.293 25.992 26.073 25.835 25.495 25.917 25.194 24.527 24.224 24.263 24.242 24.123 24.017 23.837 23.781 23.453 23.305 23.379 23.461 23.489 23.309 23.374 25.071 24.141 23.761 24.259 24.422 24.474 24.455 24.491 27.657 24.885 27.279 27.36 27.084 26.059 23.884 27.54 23.939 25.651 27.885 24.417 23.449 24.336 24.538 28.456 27.629 26.758 26.566 25.617 25.676 24.881 24.539 24.42 25.244 27.593 25.341 27.127 25.687 30.147 33.536 33.455 34.152 35.094 34.021 30.144 26.447 26.643 26.762 33.937 31.77 24.061 25.837 25.52 25.882 25.903 25.683 23.282 22.465 22.413 23.233 22.475 22.53 22.557 22.526 22.553 22.603 23.202 23.347 22.507 22.494 22.462 22.431 22.383 22.325 22.334 22.285 22.248 22.235 22.147 22.162 22.109 22.049 22.07 22.109 22.124 22.04 21.933 21.85 21.769 21.666 21.584 21.516 21.536 21.841 23.927 23.159 22.347 21.688 21.285 22.95 23.665 23.319 23.675 23.577 22.281 22.401 25.692 24.458 -9999 -9999 -9999 -9999 -9999 21.172 21.12 22.137 22.015 23.561 23.357 22.517 22.729 23.286 24.018 23.786 22.841 22.814 23.267 21.554 18.925 18.556 18.407 18.401 18.412 18.576 18.421 18.652 18.634 18.657 18.595 18.718 18.749 18.784 18.788 18.848 18.848 19.988 20.045 20.776 20.865 20.485 25.262 30.771 30.73 31.893 31.339 30.358 28.479 24.906 25.025 24.749 25.052 25.242 25.733 26.141 26.075 26.475 26.72 26.591 26.841 26.672 26.522 26.58 25.917 24.542 22.071 21.043 20.913 21.011 21.096 21.196 21.157 20.963 20.701 20.685 20.721 20.857 23.851 25.158 24.561 25.948 22.935 21.816 21.412 20.761 20.682 21.844 21.269 21.962 21.452 20.704 20.395 20.382 20.351 20.341 20.062 19.849 23.116 22.974
