ncols 443
nrows 32
xllcorner    432044
yllcorner    434368
cellsize     2
NODATA_value -9999
62.773 63.111 64.672 69.965 71.7 71.612 70.209 65.305 63.951 63.399 63.462 63.65 63.73 64.576 64.44 64.054 64.085 64.125 64.081 67.639 73.65 77.955 77.405 77.542 78.299 77.43 77.555 78.363 77.348 78.385 77.566 77.344 78.293 77.164 77.475 77.854 77.325 77.172 78.423 77.225 78.087 77.597 77.286 78.253 77.207 77.788 77.714 77.105 78.186 77.385 77.451 78.09 77.468 77.824 78.586 78.019 78.143 77.649 77.14 78.267 77.32 77.4 78.019 77.775 77.779 77.908 77.428 78.14 77.602 77.398 78.149 77.031 77.598 76.072 77.066 77.865 75.977 77.139 76.761 76.642 77.264 78.123 77.032 77.68 77.965 77.349 77.824 77.578 77.32 77.769 77.508 77.328 78.154 77.233 76.646 76.806 77.182 74.352 77.464 77.454 77.972 76.961 77.824 77.92 77.547 77.62 77.41 77.131 77.89 77.505 77.121 77.252 77.031 77.6 77.841 76.906 76.729 73.71 72.518 74.842 73.356 77.252 79.077 80.287 80.489 77.044 76.937 77.647 77.398 82.094 85.136 85.22 84.504 83.786 83.137 82.907 83.409 84.119 84.717 85.313 84.911 84.243 83.666 82.983 82.885 83.442 84.073 84.728 84.032 79.955 78.385 78.592 81.735 83.806 82.943 83.426 83.817 83.338 83.771 83.358 83.221 83.896 82.95 83.713 83.184 83.238 83.678 83.443 84.49 84.978 84.39 84.81 79.67 79.656 79.734 79.796 79.766 79.856 80.788 80.306 79.959 80.057 80.14 81.166 80.645 80.858 81.096 80.488 80.657 85.826 88.991 89.559 90.274 90.533 90.487 89.591 85.048 82.993 81.811 81.789 81.982 81.739 82.01 81.953 81.888 81.955 81.988 81.986 82.115 82.443 83.134 82.863 82.863 86.549 89.526 89.175 88.231 84.104 82.898 83.365 84.276 84.419 84.501 85.343 84.529 83.85 84.303 85.842 89.018 90.473 91.027 90.43 87.481 85.061 86.784 84.959 84.865 84.854 85.675 85.259 84.664 84.64 84.657 84.635 84.675 84.694 84.773 84.745 84.727 88.712 87.268 85.42 85.078 84.829 84.795 84.314 83.897 83.632 84.036 84.148 84.295 84.694 84.402 84.392 84.312 84.178 84.084 84.01 84.022 84.065 84.104 84.138 84.096 84.17 84.213 84.366 83.845 86.655 87.054 86.887 86.707 86.519 86.316 82.576 82.434 82.374 82.334 82.369 84.28 86.543 86.682 86.825 87.01 87.172 86.484 83.89 85.218 85.289 83.311 83.129 82.756 82.805 83.059 85.546 83.565 83.23 83.844 90.495 90.743 89.927 88.938 87.687 83.383 83.065 83.183 82.73 82.736 82.938 82.854 82.747 82.677 82.841 82.965 83.133 83.089 83.746 84.955 92.01 92.13 92.481 91.797 91.461 90.296 89.038 83.528 84.296 84.112 83.444 82.74 82.719 82.687 82.75 83.089 84.298 83.278 82.952 82.984 83.5 88.503 89.828 92.656 92.087 92.69 92.497 91.141 90.263 84.68 82.68 82.681 82.728 82.733 82.739 82.674 -9999 -9999 -9999 -9999 -9999 -9999 -9999 -9999 -9999 -9999 -9999 -9999 -9999 -9999 -9999 -9999 -9999 -9999 -9999 -9999 -9999 -9999 -9999 -9999 -9999 -9999 -9999 -9999 -9999 -9999 -9999 -9999 -9999 -9999 -9999 -9999 -9999 -9999 -9999 -9999 -9999 -9999 -9999 -9999 -9999 -9999 -9999 -9999 -9999 -9999 -9999 -9999 -9999 -9999 -9999 -9999 -9999 -9999 -9999 -9999 -9999 -9999 -9999 -9999 -9999 -9999 -9999 -9999 -9999 -9999 75.592 75.562 75.462 75.392 75.309 75.27 75.283 75.294 75.691 76.65
62.718 62.789 62.901 67.563 69.27 71.764 71.445 69.881 64.339 63.627 63.845 63.736 63.852 64.532 64.282 64.086 64.086 64.24 67.055 75.082 77.63 77.144 78.224 78.263 77.545 77.904 77.186 78.234 77.51 77.321 78.086 77.1 77.692 78.354 77.089 76.941 77.572 77.227 78.102 77.183 77.382 78.143 77.265 77.768 78.091 77.242 77.841 77.62 77.518 78.015 76.89 77.655 77.867 78.097 77.794 78.344 77.249 78.02 77.034 77.688 77.36 77.506 77.995 77.967 77.284 78.26 77.46 77.329 77.817 76.834 77.601 78.164 77.183 76.712 77.238 77.42 76.607 76.841 77.297 77.811 77.059 77.508 77.959 78.116 78.168 77.714 77.553 77.852 77.573 77.526 77.933 77.362 77.677 77.918 77.19 77.751 77.515 77.32 78.079 76.976 77.647 77.819 76.998 78.256 77.969 77.201 77.943 77.514 77.334 77.73 76.984 77.789 77.522 77.097 77.639 77.192 73.783 72.534 74.526 76.551 76.911 76.499 76.712 78.559 77.156 76.878 76.919 77.382 81.535 83.938 84.508 85.355 85.057 84.414 83.736 82.994 82.842 83.535 84.144 84.806 85.356 84.75 84.196 83.437 82.908 82.948 83.58 83.898 78.52 78.423 78.68 83.686 83.316 83.27 83.765 82.954 83.648 83.91 83.32 83.88 82.982 83.54 83.851 82.928 83.884 83.186 83.275 83.426 83.751 84.635 84.955 84.418 81.438 79.958 79.724 79.788 79.849 79.857 79.867 79.93 79.969 79.965 80.025 80.144 81.217 80.424 80.789 80.777 87.787 89.502 89.741 90.289 90.143 89.771 89.635 85.444 81.43 81.859 82.056 81.585 82.316 82.167 81.785 81.822 81.898 81.875 81.909 82.057 82.137 82.187 82.712 84.853 85.201 83.666 86.749 88.224 84.516 83.684 83.105 83.157 84.5 84.502 83.869 83.84 83.687 84.057 84.616 88.557 90.697 91.41 91.738 91.265 89.798 86.52 84.757 85.843 84.903 84.826 84.746 84.788 84.571 84.635 84.58 84.619 85.215 85.172 84.743 84.326 83.91 86.341 86.854 86.289 87.011 84.825 83.999 83.798 83.213 83.511 83.465 83.802 84.178 84.121 85.394 84.842 84.194 84.1 83.954 83.956 83.929 84.003 84.025 84.057 84.018 84.08 84.191 84.028 83.386 86.014 87.004 86.8 86.644 86.43 86.373 82.448 82.323 82.208 82.221 82.266 82.384 84.605 86.449 86.74 86.88 87.036 87.215 86.343 85.011 83.341 83.2 83.665 82.762 82.701 82.745 83.244 85.123 83.35 83.307 85.808 89.378 85.756 87.012 83.251 82.841 83.178 82.619 82.642 82.717 82.692 82.69 82.616 82.885 83.274 83.201 83.103 89.267 90.024 91.726 91.831 92.488 92.137 91.048 90.192 89.531 83.296 83.56 84.182 83.609 82.563 82.617 82.632 82.636 82.663 82.752 83.63 83.674 83.355 83.197 89.188 90.388 91.64 91.742 92.424 92.37 90.953 87.788 88.549 83.874 82.829 82.617 82.692 82.724 82.714 82.658 -9999 -9999 -9999 -9999 -9999 -9999 -9999 -9999 -9999 -9999 -9999 -9999 -9999 -9999 -9999 -9999 -9999 -9999 -9999 -9999 -9999 -9999 -9999 -9999 -9999 -9999 -9999 -9999 -9999 -9999 -9999 -9999 -9999 -9999 -9999 -9999 -9999 -9999 -9999 -9999 -9999 -9999 -9999 -9999 -9999 -9999 -9999 -9999 -9999 -9999 -9999 -9999 -9999 -9999 -9999 -9999 -9999 -9999 -9999 -9999 -9999 -9999 -9999 -9999 -9999 -9999 -9999 -9999 -9999 -9999 75.541 75.552 75.472 75.399 75.334 75.356 75.365 75.776 76.999 77.783
62.863 62.601 60.388 62.851 64.598 70.445 71.702 71.971 69.354 66.806 64.38 65.514 63.905 64.072 63.952 64.007 64.136 73.373 78.027 77.494 77.951 78.181 78.041 78.231 77.493 77.76 77.638 77.391 77.884 77.575 77.612 77.68 77.078 77.736 77.514 77.385 78.063 77.755 77.559 78.033 77.282 77.759 77.669 77.236 78.258 77.392 77.474 77.95 77.088 77.442 77.259 77.535 78.045 77.777 77.259 78.239 77.159 77.622 78.226 77.126 77.763 78.284 77.404 78.965 77.516 77.211 78.275 77.473 77.526 76.533 75.578 78.327 77.79 77.22 78.148 76.786 77.149 77.875 76.782 76.422 76.824 77.331 77.75 77.658 77.32 77.715 77.333 77.387 77.939 77.506 77.706 77.457 77.336 77.192 76.944 77.578 78.037 77.63 77.553 78.081 77.1 78.078 77.272 77.112 77.724 77.306 77.338 77.925 77.003 77.464 77.475 77.074 77.71 77.394 76.889 72.707 72.607 73.971 76.466 76.596 76.445 76.463 76.573 76.665 76.679 76.81 77.324 82.6 82.689 83.108 83.861 84.62 85.237 85.028 84.393 83.66 82.999 82.936 83.55 84.361 84.887 85.195 84.723 84.069 83.364 82.679 80.182 78.71 78.446 78.683 82.879 83.002 84.037 83.085 83.372 83.746 82.97 83.597 83.162 83.325 83.875 83.117 83.726 83.333 83.237 83.879 82.944 83.431 83.598 84.018 84.988 85.022 84.064 81.039 79.753 79.805 79.939 79.984 79.922 79.91 79.914 79.956 80.102 80.587 81.817 80.728 81.12 87.89 89.347 89.885 90.24 89.727 89.623 89.362 82.988 82.437 81.471 81.544 81.74 81.619 81.879 81.605 81.732 82.438 82.695 81.911 81.962 82.097 82.132 84.089 84.987 85.666 86.072 83.124 83.761 83.206 82.832 82.987 83.63 83.166 84.865 84.145 83.343 83.61 83.892 85.168 88.838 90.578 91.413 92.964 91.11 90.159 85.224 84.649 84.76 84.752 84.913 84.661 84.561 84.533 84.592 84.563 85.818 84.779 85.579 85.573 84.105 83.68 87.263 85.304 84.641 85.751 86.809 85.379 83.446 86.498 88.235 88.898 83.612 83.493 83.749 86.68 93.683 94.748 88.834 83.893 83.856 83.882 83.835 83.92 83.924 83.953 83.964 84.032 84.14 83.817 82.748 86.48 86.942 86.806 86.579 86.203 82.811 82.299 82.216 82.211 82.185 82.195 82.261 83.769 85.613 86.637 86.777 86.916 87.08 87.274 84.081 83.506 82.862 82.846 82.915 82.683 82.679 82.659 84.549 84.957 83.359 83.136 85.314 83.33 83.389 82.78 82.674 83.241 82.573 82.66 82.664 82.637 82.667 82.951 83.501 83.397 83.207 88.079 90.251 91.511 91.981 92.187 92.077 91.202 85.336 87.127 83.199 82.801 82.912 82.828 82.486 82.534 82.641 82.681 82.622 82.63 82.656 82.798 83.363 83.448 89.077 90.735 91.596 92.034 92.247 91.928 91.561 83.878 84.034 83.501 83.091 82.955 82.659 82.626 82.588 82.652 82.581 -9999 -9999 -9999 -9999 -9999 -9999 -9999 -9999 -9999 -9999 -9999 -9999 -9999 -9999 -9999 -9999 -9999 -9999 -9999 -9999 -9999 -9999 -9999 -9999 -9999 -9999 -9999 -9999 -9999 -9999 -9999 -9999 -9999 -9999 -9999 -9999 -9999 -9999 -9999 -9999 -9999 -9999 -9999 -9999 -9999 -9999 -9999 -9999 -9999 -9999 -9999 -9999 -9999 -9999 -9999 -9999 -9999 -9999 -9999 -9999 -9999 -9999 -9999 -9999 -9999 -9999 -9999 -9999 -9999 -9999 -9999 75.481 75.436 75.419 75.456 75.476 76.873 77.294 77.625 77.484
62.687 62.819 62.881 62.969 63.542 65.647 70.06 72.73 71.569 70.302 64.706 64.732 64.195 63.873 63.93 64.714 74.445 78.298 78.065 77.485 77.288 78.165 77.383 77.746 77.935 77.043 77.941 78.182 77.319 78.279 77.096 77.75 78.346 77.13 77.785 77.648 77.481 77.712 77.066 77.889 78.077 77.16 78.033 77.632 77.654 77.909 77.035 77.684 77.693 77.093 77.846 77.543 77.062 77.924 77.215 77.452 78.152 77.332 77.79 77.234 77.303 77.953 77.275 77.346 77.833 77.36 77.65 74.509 77.116 78.066 75.523 76.367 77.942 77.78 77.952 76.832 76.785 77.462 78.037 77.069 77.385 77.853 77.491 77.68 77.079 77.448 77.662 77.226 77.962 78.187 77.14 76.991 75.897 77.366 76.942 75.634 78.064 74.411 76.828 77.717 77.951 77.293 77.989 77.155 77.351 77.988 76.965 77.384 77.698 76.868 77.568 77.467 77.13 74.88 72.965 72.529 72.889 76.524 76.435 76.258 76.362 76.452 76.54 76.609 76.702 81.74 84.428 83.817 83.07 82.884 83.288 83.96 84.604 85.338 84.908 84.251 83.578 82.848 83.114 83.685 84.49 85.045 85.24 84.652 83.897 81.258 78.472 78.398 81.549 82.832 83.636 83.623 83.194 83.966 82.904 83.595 83.075 83.122 83.842 83.27 83.454 83.839 83.139 83.841 83.068 83.299 83.749 82.962 83.688 83.543 84.236 85.099 84.809 84.077 81.45 79.899 79.902 79.984 80.005 79.973 79.924 80.053 80.433 80.478 80.879 86.497 88.327 89.709 90.595 90.285 89.834 89.609 88.713 83.918 81.513 81.757 82.487 81.322 82.4 81.719 81.506 81.631 81.758 82.608 81.844 81.941 82.044 82.227 84.014 85.366 85.717 86.181 86.768 87.063 83.446 83.235 83.125 84.547 83.506 83.251 83.753 83.829 83.574 83.836 84.14 84.395 85.769 89.433 91.242 90.907 90.042 85.205 84.657 84.686 84.662 84.663 84.604 84.599 84.598 84.561 84.557 84.619 84.975 84.714 84.548 84.82 83.647 88.308 89.958 89.665 88.008 83.724 85.817 84.056 87.291 88.457 89.877 90.065 88.573 83.64 84.096 93.084 95.234 95.954 94.047 85.529 83.735 83.757 83.772 83.823 83.824 83.853 83.89 83.979 84.137 83.293 83.175 86.983 86.886 86.667 86.467 86.316 82.344 82.184 82.125 82.067 82.131 82.186 82.292 83.666 83.161 86.293 86.635 86.807 86.998 86.949 85.346 84.931 83.784 82.825 82.765 82.73 82.661 82.661 82.658 85.107 85.571 83.349 82.903 83.605 83.489 82.613 83.41 83.563 82.61 82.597 82.545 82.644 82.94 84.967 86.206 83.598 86.168 90.583 91.439 92.56 92.126 91.964 90.778 89.167 82.688 82.726 82.77 82.576 82.582 82.459 82.525 82.531 82.544 82.543 82.659 82.706 82.811 82.768 83.1 86.73 90.951 91.428 92.36 92.488 92.102 90.889 84.622 82.624 82.863 82.798 82.825 82.718 82.582 82.585 82.579 82.667 82.609 -9999 -9999 -9999 -9999 -9999 -9999 -9999 -9999 -9999 -9999 -9999 -9999 -9999 -9999 -9999 -9999 -9999 -9999 -9999 -9999 -9999 -9999 -9999 -9999 -9999 -9999 -9999 -9999 -9999 -9999 -9999 -9999 -9999 -9999 -9999 -9999 -9999 -9999 -9999 -9999 -9999 -9999 -9999 -9999 -9999 -9999 -9999 -9999 -9999 -9999 -9999 -9999 -9999 -9999 -9999 -9999 -9999 -9999 -9999 -9999 -9999 -9999 -9999 -9999 -9999 -9999 -9999 -9999 -9999 -9999 -9999 75.529 75.529 75.514 75.566 76.729 77.511 77.625 77.564 76.971
62.904 62.988 63.004 63.107 63.218 63.168 66.698 70.509 71.666 71.201 63.737 63.934 63.832 63.795 65.199 74.272 77.985 77.584 77.255 78.1 77.059 77.599 78.208 77.462 77.774 77.976 77.268 78.12 77.427 77.504 77.434 77.35 77.853 77.565 77.524 78.242 77.423 77.622 78.135 77.413 78.058 77.757 78.325 78.239 77.301 77.628 78.136 77.312 77.89 77.823 77.36 78.144 77.164 77.497 74.915 76.977 77.638 77.616 77.164 76.99 77.194 77.219 78.008 77.066 77.408 78.031 77.102 77.939 77.452 77.169 77.265 77.551 77.276 77.859 77.244 77.47 77.985 77.116 77.581 77.828 77.285 77.566 76.998 77.619 78.062 76.826 77.667 77.812 77.413 77.771 77.001 77.15 77.573 76.795 77.568 78.24 77.416 76.95 73.725 77.087 78.109 76.97 77.714 77.898 77.298 77.617 77.535 76.94 77.608 77.126 77.14 77.943 77.054 73.058 72.54 72.685 75.069 76.311 76.162 76.27 76.331 76.413 76.422 76.561 78.483 84.538 85.011 84.54 83.793 83.176 82.754 83.328 83.995 84.678 85.589 84.791 84.088 83.466 82.95 83.23 83.855 84.53 85.175 82.638 79.686 78.402 78.414 81.054 82.986 83.915 83.127 83.791 83.136 83.298 83.952 83.367 83.741 83.082 83.393 84.043 83.034 83.747 83.227 83.195 83.893 83.332 83.337 83.16 82.996 83.717 83.648 84.201 85 84.638 83.718 80.599 79.911 80.023 80.03 80.041 79.992 80.177 80.474 80.957 86.77 88.534 89.327 90.164 90.211 90.583 89.933 85.224 82.408 81.441 81.696 81.3 81.815 81.445 81.492 81.418 82.07 82.544 81.797 81.938 82.388 82.887 82.228 84.159 85.367 85.887 86.267 86.8 87.276 87.672 87.781 82.909 83.682 85.353 84.049 83.493 83.549 85.03 84.106 84.58 84.078 84.4 84.663 87.215 90.37 87.303 84.519 84.828 84.734 85.126 85.634 84.57 84.55 84.585 84.59 84.538 84.678 84.826 84.672 84.594 83.933 83.955 88.742 90.166 91.109 90.671 89.349 86.09 84.315 85.285 88.87 90.393 91.255 90.92 89.824 88.494 83.612 89.071 94.809 95.03 93.845 83.918 83.737 83.701 83.732 83.769 83.762 83.782 83.851 83.955 83.792 82.892 84.589 86.976 86.788 86.593 86.452 85.996 82.212 82.068 82.031 82.018 82.069 82.074 82.548 82.671 82.333 85.231 86.396 86.154 84.836 85.843 85.208 84.791 85.141 83.089 82.75 82.759 82.699 82.614 82.585 82.656 85.1 85.159 85.747 85.46 82.495 82.47 82.482 82.498 82.509 82.483 82.552 82.618 82.891 83.622 83.648 86.661 91.092 91.365 92.075 91.753 91.616 91.141 88.628 83.193 82.747 82.74 82.481 82.481 82.482 82.448 82.506 82.452 82.451 82.549 82.596 82.78 82.937 83.02 84.491 91.08 91.68 92.457 92.113 92.373 90.683 88.882 82.923 82.903 83.136 82.725 83.127 83.294 82.575 82.569 82.549 82.56 82.597 82.573 -9999 -9999 -9999 -9999 -9999 -9999 -9999 -9999 -9999 -9999 -9999 -9999 -9999 -9999 -9999 -9999 -9999 -9999 -9999 -9999 -9999 -9999 -9999 -9999 -9999 -9999 -9999 -9999 -9999 -9999 -9999 -9999 -9999 -9999 -9999 -9999 -9999 -9999 -9999 -9999 -9999 -9999 -9999 -9999 -9999 -9999 -9999 -9999 -9999 -9999 -9999 -9999 -9999 -9999 -9999 -9999 -9999 -9999 -9999 -9999 -9999 -9999 -9999 -9999 -9999 -9999 -9999 -9999 -9999 -9999 75.61 75.604 75.595 77.136 77.709 77.758 77.61 76.288 76.683
63.392 62.927 63.005 63.735 64.318 63.241 63.184 64.643 70.427 66.769 63.65 63.639 63.703 64.245 74.089 78.197 77.525 78.065 77.338 77.521 78.213 77.217 77.813 77.598 77.115 78.144 77.26 77.421 78.065 77.324 77.758 77.982 77.472 78.173 77.503 77.66 78.193 77.151 77.996 77.842 77.363 78.207 77.433 77.517 74.923 76.795 77.843 77.537 77.325 77.986 77.174 77.241 77.936 77.027 77.569 74.964 77.008 77.832 77.258 77.232 78.06 77.449 77.577 78.21 77.017 77.551 78.039 77.267 77.867 77.05 77.295 77.994 76.98 77.28 76.935 77.319 77.559 77.056 77.373 77.882 77.484 77.433 77.542 77.084 77.517 77.976 77.631 77.94 77.391 77.209 77.54 76.726 76.271 76.485 77.36 77.658 77.748 77.109 77.64 75.63 77.324 77.719 76.652 77.725 78.075 76.983 77.586 77.859 77.139 77.664 77.505 76.12 72.546 74.438 73.167 75.846 76.015 76.039 76.098 76.261 76.298 76.381 76.421 80.286 83.818 84.526 85.17 85.017 84.376 83.737 83.017 82.842 83.48 84.116 84.779 85.27 84.848 83.981 83.346 82.929 83.439 84.105 84.512 79.121 78.404 78.506 81.842 83.779 83.104 83.665 83.834 82.95 83.78 83.019 83.408 83.772 83.05 83.881 83.77 83.577 83.929 82.914 83.768 83.174 83.39 83.786 82.919 83.567 83.848 83.382 83.778 83.51 84.42 85 84.429 83.801 80.768 79.949 80.05 80.091 80.12 80.134 80.438 85.892 89.565 89.471 90.256 90.161 89.806 89.55 85.169 81.735 81.071 81.24 81.223 81.215 82.153 81.272 81.433 81.42 81.804 82.201 82.673 83.051 82.205 82.237 84.001 85.59 85.973 86.471 86.866 87.347 87.837 88.276 88.692 88.352 84.185 85.996 85.336 84.085 83.646 84.24 84.299 84.614 85.029 84.24 84.436 84.94 86.947 85.081 84.533 84.707 84.698 85.152 85.066 84.586 84.906 84.734 84.553 84.69 84.721 84.938 84.609 83.854 86.529 89.309 90.375 91.621 92.068 91.327 90.354 86.127 83.411 83.426 86.932 90.036 91.017 91.781 90.754 89.49 88.365 85.439 92.043 86.956 90.81 83.847 83.72 83.617 83.693 83.708 83.682 83.699 83.773 83.928 83.514 82.506 85.901 86.945 86.758 86.573 86.387 82.738 82.033 81.977 81.932 81.954 82 82.104 82.179 82.198 82.271 82.615 85.179 84.795 86.053 85.661 85.089 85.076 85.164 85.334 83.145 82.701 82.72 82.716 82.582 82.564 82.539 82.585 83.099 82.802 82.309 82.384 82.435 82.433 82.334 82.48 83.335 82.964 82.914 83.655 86.056 91.344 91.838 92.289 91.916 91.643 91.271 89.305 83.38 83.423 83.97 82.697 82.419 82.376 82.4 82.438 82.563 82.336 82.516 82.557 82.603 82.605 87.462 89.247 92.031 91.939 92.595 92.054 91.707 90.424 87.916 83.289 82.785 82.778 82.69 82.758 83.322 82.964 82.594 82.57 82.542 82.42 82.47 -9999 -9999 -9999 -9999 -9999 -9999 -9999 -9999 -9999 -9999 -9999 -9999 -9999 -9999 -9999 -9999 -9999 -9999 -9999 -9999 -9999 -9999 -9999 -9999 -9999 -9999 -9999 -9999 -9999 -9999 -9999 -9999 -9999 -9999 -9999 -9999 -9999 -9999 -9999 -9999 -9999 -9999 -9999 -9999 -9999 -9999 -9999 -9999 -9999 -9999 -9999 -9999 -9999 -9999 -9999 -9999 -9999 -9999 -9999 -9999 -9999 -9999 -9999 -9999 -9999 -9999 -9999 -9999 -9999 -9999 -9999 75.789 75.73 77.251 77.848 77.788 77.683 76.219 75.996 75.805
64.155 63.516 62.978 63.086 63.195 63.385 63.722 65.726 66.488 63.463 63.487 63.56 68.512 74.961 76.974 77.942 77.704 77.524 78.115 77.4 77.589 78.349 77.133 77.994 77.566 77.373 78.297 77.505 78.011 77.682 77.128 78.194 77.589 77.298 78.11 77.092 78.108 78.291 77.579 78.38 77.578 77.436 78.505 77.82 77.534 78.247 77.309 77.978 77.416 77.361 78.259 77.02 77.637 78.034 77.06 77.756 77.243 76.909 78.105 77.239 77.64 78.148 77.422 77.857 77.233 77.084 78.164 77.094 77.291 78.075 77.395 77.502 78.694 77.385 77.004 76.954 78.05 77.839 77.35 77.575 77.751 77.054 77.558 77.738 77.149 77.736 77.513 77.13 78.494 77.21 76.667 77.039 77.839 77.568 77.606 77.035 77.794 77.163 77.125 78.124 77.183 77.436 77.553 77.319 77.435 77.55 77.096 77.703 77.087 77.3 74.065 73.112 72.602 75.093 75.56 75.804 75.941 75.975 76.115 76.124 76.239 76.314 80.607 82.699 83.184 83.898 84.578 85.16 84.887 84.285 83.599 82.989 82.853 83.506 84.129 84.857 85.319 84.78 84.012 83.348 83.087 82.047 78.483 78.372 78.335 81.7 82.774 83.483 83.771 82.906 83.763 83.393 83.27 83.837 83.105 83.659 83.316 83.323 83.73 82.987 83.591 83.498 83.021 83.99 83.01 83.432 83.907 83.009 83.762 83.066 83.296 83.856 83.876 84.587 84.976 84.103 83.001 80.781 80.061 80.072 80.148 80.167 80.254 82.98 89.92 90.226 90.119 89.339 89.662 82.819 81.7 81.874 81.274 80.92 81.347 81.022 81.114 81.208 82.31 83.095 81.363 83.614 83.696 82.93 85.816 86.874 89.025 86.671 86.587 87.025 87.426 87.983 88.449 88.769 88.475 88.013 86.98 85.762 84.695 83.928 83.654 83.511 83.612 83.904 84.728 84.836 84.899 86.002 85.054 84.912 84.709 84.838 84.761 84.66 85.326 85.07 84.821 84.938 85.785 85.37 84.754 84.56 84.018 83.488 88.176 90.274 91.526 91.993 91.301 90.192 88.927 84.021 83.452 83.316 84.318 87.417 90.037 91.019 91.652 90.546 89.677 88.016 83.603 86.402 83.83 83.688 83.67 83.572 83.574 83.602 83.587 83.667 83.744 83.749 82.928 82.814 86.655 86.467 86.721 86.421 86.215 82.139 81.985 81.879 81.832 81.857 81.947 82.02 82.087 82.21 82.253 82.511 85.091 85.72 85.57 85.699 87.55 85.984 85.185 85.216 84.722 83.698 82.793 83.117 82.542 82.415 82.38 82.193 82.237 82.273 82.327 82.354 82.464 82.395 82.498 83.468 83.817 83.17 87.832 89.875 91.481 92.271 92.407 92.215 92.396 91.226 90.042 83.165 84.266 84.848 83.161 82.331 82.309 82.31 82.33 82.56 83.053 83.033 83.286 82.647 82.788 89.474 90.399 91.763 92.941 92.568 92.15 90.914 89.836 89.041 82.868 83.015 82.822 82.538 82.599 82.613 82.691 82.668 82.629 82.568 82.611 82.506 82.448 -9999 -9999 -9999 -9999 -9999 -9999 -9999 -9999 -9999 -9999 -9999 -9999 -9999 -9999 -9999 -9999 -9999 -9999 -9999 -9999 -9999 -9999 -9999 -9999 -9999 -9999 -9999 -9999 -9999 -9999 -9999 -9999 -9999 -9999 -9999 -9999 -9999 -9999 -9999 -9999 -9999 -9999 -9999 -9999 -9999 -9999 -9999 -9999 -9999 -9999 -9999 -9999 -9999 -9999 -9999 -9999 -9999 -9999 -9999 -9999 -9999 -9999 -9999 -9999 -9999 -9999 -9999 -9999 -9999 -9999 -9999 -9999 77.124 77.875 77.887 77.776 76.318 76.244 75.342 75.127
63.535 63.262 63.096 63.049 63.16 63.296 65.242 64.651 63.439 63.465 63.436 69.016 73.81 76.464 76.492 77.13 78.208 77.636 77.796 77.91 77.179 77.823 77.706 77.327 78.232 77.423 77.627 78.402 77.145 77.858 77.883 77.301 77.839 77.374 77.918 78.297 77.4 78.015 78.207 77.264 78.386 77.394 77.767 77.884 77.211 78.016 77.913 77.601 78.201 77.132 77.373 77.986 77.25 77.71 77.351 77.441 78.17 77.146 77.535 78.288 77.867 77.796 74.69 76.927 77.911 77.258 77.312 78.134 77.278 77.768 77.888 77.053 78.018 78.87 77.726 77.691 77.909 77.412 77.324 76.62 77.725 76.927 76.452 78.181 77.79 77.25 77.668 76.847 77.384 77.899 76.967 77.76 77.741 77.15 77.82 77.315 77.344 77.667 77.01 77.69 78.21 77.018 77.595 77.176 77.133 78.06 77.595 77.183 77.6 75.728 72.562 72.814 74.062 75.869 75.685 75.796 75.833 75.982 76.019 76.125 76.336 81.605 83.886 83.168 82.684 83.302 83.979 84.643 85.234 84.849 84.241 83.606 82.853 83.031 83.589 84.265 85.121 85.231 84.539 83.86 81.854 79.448 78.38 78.371 78.415 81.204 82.408 82.736 83.47 83.648 83.122 83.788 83.435 83.426 83.608 83.151 83.732 83.428 83.364 84.032 83.043 83.735 83.794 83.243 83.813 82.894 83.675 83.873 83.163 83.772 83.033 83.502 83.478 83.841 84.807 84.929 84.171 83.224 80.204 80.083 80.2 80.24 81.053 80.654 87.683 90.045 89.318 88.225 83.303 80.828 80.939 81.14 80.859 81.718 81.338 81.026 81.133 81.24 82.552 81.894 81.64 82.067 83.838 86.295 89.788 90.503 91.445 91.523 87.319 87.625 88.095 88.467 88.642 88.35 87.947 87.388 86.591 85.511 84.296 83.507 83.482 83.571 83.674 83.918 84.25 84.409 84.423 84.945 85.459 84.492 84.641 84.881 84.657 85.505 86.388 87.091 84.822 85.877 85.452 84.841 84.483 84.222 83.786 83.484 85.928 89.563 90.834 91.147 89.819 88.313 83.502 83.394 84.442 83.851 85.203 85.94 85.537 90.028 90.768 89.872 88.51 83.928 83.348 83.753 83.486 83.672 83.486 83.503 83.577 83.545 83.513 83.59 83.669 83.535 82.442 82.988 86.375 86.191 86.045 85.998 85.317 81.896 81.818 81.763 81.741 81.821 81.931 81.991 81.838 82.738 84.579 85.309 85.505 85.47 87.849 88.614 88.829 88.268 86.761 85.251 85.258 84.457 83.211 82.606 82.375 82.319 82.143 82.193 82.229 82.238 82.281 83.097 82.578 82.372 82.785 83.131 83.514 86.961 90.405 91.131 91.695 92.317 92.131 90.96 87.473 84.904 82.733 82.384 82.67 83.195 82.203 82.229 82.289 82.323 82.297 82.853 83.058 83.961 83.001 82.937 88.168 90.516 91.545 91.793 92.262 92.092 92.02 85.159 85.771 84.208 83.123 83.442 82.487 82.466 82.523 82.564 82.571 82.526 82.555 82.578 82.755 83.731 84.238 -9999 -9999 -9999 -9999 -9999 -9999 -9999 -9999 -9999 -9999 -9999 -9999 -9999 -9999 -9999 -9999 -9999 -9999 -9999 -9999 -9999 -9999 -9999 -9999 -9999 -9999 -9999 -9999 -9999 -9999 -9999 -9999 -9999 -9999 -9999 -9999 -9999 -9999 -9999 -9999 -9999 -9999 -9999 -9999 -9999 -9999 -9999 -9999 -9999 -9999 -9999 -9999 -9999 -9999 -9999 -9999 -9999 -9999 -9999 -9999 -9999 -9999 -9999 -9999 -9999 -9999 -9999 -9999 -9999 -9999 -9999 -9999 -9999 77.761 77.731 76.342 75.939 75.611 75.264 75.007
63.452 63.23 63.181 63.083 63.167 64.426 64.091 63.511 63.506 63.938 69.009 76.563 76.466 76.471 76.434 76.676 77.665 78.146 77.105 77.841 77.849 77.368 78.018 76.994 77.474 79.045 77.106 77.77 77.764 78.327 78.086 77.435 77.57 77.935 76.943 77.828 77.844 77.583 78.15 77.166 77.961 78.354 77.277 78.008 78.121 77.165 78.134 77.342 77.629 78.285 76.935 77.726 78.09 77.19 77.818 77.139 77.415 78.091 77.388 77.737 78.034 77.208 77.76 77.151 77.276 78.067 77.316 78.311 78.466 77.408 78.014 78.074 77.215 78.207 78.891 77.128 76.514 77.018 77.146 76.458 77.447 77.521 75.463 77.377 78.054 77.63 77.287 77.679 77.162 77.738 77.891 77.059 77.903 76.556 77.243 77.773 76.153 77.521 78.11 76.966 77.849 78.341 77.063 77.959 77.629 77.639 77.833 77.363 74.142 72.489 72.55 75.083 75.695 75.601 75.643 75.743 75.813 75.882 76.455 76.157 81.775 85.061 84.479 83.77 83.093 82.686 83.442 84.021 84.76 85.365 84.902 84.116 83.471 82.851 82.988 83.699 84.348 85.127 85.02 82.479 81.763 80.875 78.454 78.39 78.375 78.353 81.439 83.704 82.848 83.796 83.519 83.331 83.845 83.116 83.717 83.707 83.114 83.831 83.119 83.522 83.709 82.997 83.834 82.997 83.27 83.297 83.226 83.798 82.989 83.031 83.677 82.752 83.574 83.188 84.073 84.878 84.762 83.89 81.253 80.138 80.163 80.232 80.31 80.292 80.562 86.55 87.969 82.408 80.755 81.511 80.919 81.313 81.292 80.84 80.893 80.974 82.037 81.538 81.263 81.364 82.141 82.51 88.575 90.508 90.706 91.306 91.559 91.103 89.876 87.984 85.378 86.039 87.538 87.824 87.339 85.596 85.244 84.723 85.187 84.542 83.505 83.629 83.622 84.217 84.244 84.369 84.725 89.261 89.973 85.439 84.445 84.498 84.762 85.538 87.017 85.724 84.898 85.951 84.862 84.132 84.184 87.414 84.623 83.524 83.913 87.577 90.015 89.69 85.31 83.573 83.644 83.484 85.465 86.103 85.196 84.591 83.16 87.825 89.414 87.167 84.52 83.252 83.513 84.703 83.56 83.587 83.449 83.508 83.523 83.427 83.486 83.536 83.616 83.364 82.248 85.917 86.369 86.2 85.991 85.644 82.363 81.838 81.688 81.748 81.667 81.775 81.849 82.435 84.453 85.689 84.542 85.356 85.467 88.932 90.219 89.945 89.44 88.853 88.207 85.603 84.599 82.872 82.255 82.186 82.282 82.116 82.088 82.168 82.23 82.246 82.179 82.432 82.38 82.703 83.159 82.903 84.676 90.637 92.111 91.851 91.922 92.031 90.648 88.334 82.947 82.834 82.447 82.208 82.207 82.101 82.108 82.202 82.141 82.223 82.266 82.347 82.632 83.186 83.601 86.964 90.812 91.944 92.017 91.996 91.943 90.892 83.747 82.5 82.915 83.526 82.541 82.496 82.427 82.489 82.491 82.557 82.451 82.499 83.256 82.799 82.752 86.293 89.437 -9999 -9999 -9999 -9999 -9999 -9999 -9999 -9999 -9999 -9999 -9999 -9999 -9999 -9999 -9999 -9999 -9999 -9999 -9999 -9999 -9999 -9999 -9999 -9999 -9999 -9999 -9999 -9999 -9999 -9999 -9999 -9999 -9999 -9999 -9999 -9999 -9999 -9999 -9999 -9999 -9999 -9999 -9999 -9999 -9999 -9999 -9999 -9999 -9999 -9999 -9999 -9999 -9999 -9999 -9999 -9999 -9999 -9999 -9999 -9999 -9999 -9999 -9999 -9999 -9999 -9999 -9999 -9999 -9999 -9999 -9999 -9999 -9999 76.368 76.152 75.921 75.638 75.873 75.238 74.981
63.822 63.187 63.35 64.378 63.33 63.583 63.711 63.515 63.482 63.89 75.071 73.773 76.111 76.517 76.679 78.257 76.965 77.712 78.397 77.378 78.17 77.662 77.374 77.807 77.192 77.733 77.69 78.131 78.364 78.359 77.401 78.249 77.437 77.712 78.467 77.339 78.174 77.836 78.036 78.472 77.613 77.93 77.637 77.47 78.13 77.542 77.416 78.276 77.765 77.62 77.884 77.287 77.954 77.707 77.485 78.232 76.9 77.547 78.392 77.727 77.774 77.825 77.352 77.83 77.416 77.508 78.154 77.08 77.696 78.353 77.27 77.891 77.713 77.259 78.048 77.439 77.858 77.945 76.854 77.651 77.837 77.273 73.837 76.069 77.237 74.447 76.64 77.506 77.888 77.22 77.737 77.881 77.217 76.758 77.138 77.651 74.379 77.633 77.716 77.516 77.122 77.946 77.483 78.028 77.85 77.092 77.361 73.562 72.461 72.535 73.399 75.705 75.491 75.58 75.64 75.708 75.771 75.857 76.045 78.471 84.598 85.073 85.041 84.367 83.675 82.985 82.861 83.579 84.176 84.727 85.218 84.721 84.18 83.395 82.805 83.169 83.761 84.227 82.118 82.187 81.916 81.579 79.028 78.416 78.397 78.375 80.177 83.448 83.64 83.165 83.875 83.033 83.31 83.954 83.274 83.68 82.97 83.343 83.804 83.125 83.667 83.249 83.142 83.704 82.817 83.467 83.824 83.001 83.792 83.111 83.363 83.784 83.052 83.764 83.807 84.192 84.994 84.678 83.766 80.555 80.196 80.269 80.328 80.346 80.32 81.984 80.527 80.647 80.663 80.789 80.591 81.089 80.878 80.797 80.963 81.016 81.85 81.787 81.308 81.893 82.871 88.29 90.087 90.94 91.609 91.666 90.901 90.611 88.965 83.403 85.546 85.442 86.817 87.057 84.001 83.217 84.935 83.438 85.115 84.173 83.773 83.596 83.739 83.886 83.999 84.393 89.865 90.763 90.759 89.663 85.474 84.722 84.671 85.202 85.338 85.494 85.197 85.072 84.162 86.442 88.586 90.098 89.308 86.179 83.522 83.853 86.786 88.401 83.469 83.333 84.192 83.867 85.898 85.895 84.486 83.247 85.442 85.634 88.246 83.755 83.294 84.429 84.443 84.115 83.491 83.512 83.362 83.38 83.407 83.41 83.41 83.512 83.649 82.989 82.655 86.459 86.308 86.121 85.935 85.778 81.93 81.728 81.632 81.62 81.597 81.699 81.997 85.895 85.956 85.943 85.939 82.522 85.861 88.892 89.63 90.227 89.865 90.565 88.777 89.763 82.271 82.054 82.055 82.119 82.045 82.052 82.101 82.165 82.178 82.181 82.153 83.1 83.131 82.756 83.175 87.852 91.38 91.599 92.513 91.831 91.622 90.37 88.577 82.927 82.488 82.604 82.109 82.137 82.018 82.077 82.103 82.133 82.081 82.225 82.233 82.619 82.845 82.851 85.189 90.766 91.63 92.228 91.898 91.8 90.807 86.419 83.332 82.592 82.473 82.395 82.362 82.372 82.417 82.449 82.483 82.471 82.466 83.149 83.309 83.006 86.269 90.153 90.231 -9999 -9999 -9999 -9999 -9999 -9999 -9999 -9999 -9999 -9999 -9999 -9999 -9999 -9999 -9999 -9999 -9999 -9999 -9999 -9999 -9999 -9999 -9999 -9999 -9999 -9999 -9999 -9999 -9999 -9999 -9999 -9999 -9999 -9999 -9999 -9999 -9999 -9999 -9999 -9999 -9999 -9999 -9999 -9999 -9999 -9999 -9999 -9999 -9999 -9999 -9999 -9999 -9999 -9999 -9999 -9999 -9999 -9999 -9999 -9999 -9999 -9999 -9999 -9999 -9999 -9999 -9999 -9999 -9999 -9999 -9999 -9999 -9999 76.126 76.411 75.72 75.576 75.41 75.231 74.863
63.411 63.24 63.233 64.174 63.364 63.423 63.457 63.484 63.536 63.935 65.389 74.786 75.148 77.646 77.483 77.862 77.8 77.265 78.007 78.361 77.64 78.146 77.08 77.51 78.138 77.231 78.207 78.304 77.382 78.227 77.564 77.796 77.98 77.044 77.945 77.504 77.621 78.419 77.366 77.946 78.326 77.383 78.052 77.818 77.368 78.334 77.405 77.493 77.925 77.245 77.826 77.314 77.346 78.031 76.984 77.548 77.885 77.459 77.779 77.961 77.275 78.54 77.562 77.413 78.279 76.912 77.56 78.177 76.999 77.867 77.376 77.429 78.251 77.487 77.761 77.673 76.801 77.726 77.475 77.215 77.871 77.146 77.15 76.584 77.087 77.056 78.006 77.109 77.402 77.204 77.036 77.944 77.399 77.203 77.973 77.565 77.688 78.224 76.942 77.743 77.869 77.39 77.875 77.601 77.269 75.263 74.02 72.464 72.485 75.384 75.582 75.384 75.407 75.492 75.6 75.603 75.784 76.582 81.903 83.182 83.88 84.553 85.254 84.936 84.274 83.679 82.955 82.879 83.573 84.047 84.743 85.213 84.681 83.937 83.204 82.678 82.501 82.232 82.078 82.288 82.035 81.803 81.208 78.485 78.424 78.458 79.917 82.857 83.709 83.664 83.248 83.817 82.966 83.54 83.942 83.14 83.806 83.253 83.478 83.887 83.142 83.805 82.963 83.196 83.84 83.039 83.611 83.215 83.154 83.978 82.86 83.571 83.504 83.107 83.663 83.571 84.453 84.958 84.495 83.881 81.193 80.235 80.327 80.427 80.388 80.391 80.509 80.848 80.589 80.439 80.505 80.613 80.72 80.81 81.536 81.144 81.217 82.07 81.703 86.486 89.591 90.297 90.746 91.518 91.326 91.321 90.212 87.803 82.881 81.958 85.273 85.989 86.181 85.61 84.153 85.421 83.944 83.532 83.236 83.367 84.951 84.463 83.789 83.855 83.9 84.736 85.626 90.171 91.3 90.613 89.438 84.671 84.456 84.741 85.392 84.957 84.748 84.323 84.048 88.917 90.316 91.159 90.076 87.883 83.665 83.583 83.334 83.363 83.338 83.304 83.544 83.458 85.172 85.185 83.59 83.02 83.103 83.09 85.673 83.723 83.275 83.723 84.485 83.887 83.453 83.332 83.342 83.351 83.325 83.323 83.397 86.734 87.379 84.789 85.3 86.42 86.213 86.03 85.923 84.558 81.669 81.633 81.535 81.496 81.571 81.609 85.019 85.912 85.968 86.083 86.205 85.709 87.424 88.387 89.214 89.778 90.35 90.13 89.598 82.922 81.966 81.989 81.987 82.004 81.99 82.078 82.107 82.089 83.576 82.868 82.357 82.706 82.631 86.331 89.079 90.843 91.565 92.261 92.493 92.272 90.226 89.076 83.217 83.324 83.128 82.399 82.046 81.993 81.999 82.064 82.035 81.939 82.1 82.162 82.374 82.671 88.592 86.737 91.655 91.884 92.475 92.061 91.708 90.379 87.807 83.284 82.706 82.93 82.381 82.347 82.32 82.37 82.368 82.419 82.435 82.431 82.66 82.777 82.902 86.687 90.425 90.966 91.503 -9999 -9999 -9999 -9999 -9999 -9999 -9999 -9999 -9999 -9999 -9999 -9999 -9999 -9999 -9999 -9999 -9999 -9999 -9999 -9999 -9999 -9999 -9999 -9999 -9999 -9999 -9999 -9999 -9999 -9999 -9999 -9999 -9999 -9999 -9999 -9999 -9999 -9999 -9999 -9999 -9999 -9999 -9999 -9999 -9999 -9999 -9999 -9999 -9999 -9999 -9999 -9999 -9999 -9999 -9999 -9999 -9999 -9999 -9999 -9999 -9999 -9999 -9999 -9999 -9999 -9999 -9999 -9999 -9999 -9999 -9999 -9999 -9999 -9999 77.177 75.781 75.545 75.409 75.365 75.021
65.628 63.252 65.204 63.676 63.474 63.457 63.485 63.528 63.602 63.66 64.136 70.406 76.958 77.687 78.592 77.198 77.979 78.023 78.158 78.072 77.812 77.361 78.462 77.336 77.613 78.409 77.49 78.147 77.008 77.602 78.112 77.225 77.995 77.962 77.234 78.193 77.095 77.972 77.721 77.061 78.171 77.336 77.267 78.216 77.071 77.544 78.426 77.426 77.992 77.803 77.21 78.245 77.321 77.529 78.259 77.387 77.599 77.96 77.023 77.937 77.214 77.573 78.243 77.26 76.981 75.596 76.923 77.808 78.12 77.284 78.011 77.728 77.521 78.339 77.025 77.719 76.997 77.25 77.939 77.617 77.226 76.764 77.534 77.321 77.723 77.61 78.067 77.649 77.127 77.843 78.011 77.276 78.02 78.024 77.776 76.501 77.071 77.772 77.923 77.187 77.891 77.366 77.703 78.138 76.963 75.458 72.597 72.472 72.667 75.223 75.304 75.364 75.405 75.447 75.532 75.629 76.451 83.76 83.187 82.786 83.267 84.044 84.525 85.167 84.806 84.316 83.649 82.944 82.933 83.572 84.308 84.997 85.332 84.519 83.913 83.264 82.073 82.012 82.069 82.08 82.127 80.258 78.666 78.493 78.457 78.42 80.473 83.749 83.088 83.764 83.066 83.322 83.897 83.377 83.855 83.493 83.116 83.905 83.052 83.574 83.405 83.186 83.891 83.045 83.333 83.774 83.142 83.746 82.802 83.254 83.85 82.946 83.741 83.182 83.215 83.348 83.53 84.502 85.113 84.353 84.149 81.44 80.315 80.352 80.425 80.444 80.405 80.399 80.428 80.427 80.483 80.619 81.081 80.914 81.17 82.13 81.524 81.302 85.73 89.341 90.141 91.043 91.63 91.217 90.447 89.934 87.447 83.185 82.156 81.846 82.007 85.707 84.017 83.54 83.167 83.719 83.511 83.208 83.208 83.284 84.832 84.861 84.079 83.811 84.018 84.072 84.317 88.076 90.323 91.154 90.388 89.199 84.484 84.869 85.932 84.612 84.001 85.739 89.739 90.606 91.893 92.147 91.132 89.482 84.765 83.36 83.329 83.437 83.324 83.357 83.399 83.533 84.478 83.822 83.183 83.109 84.384 90.198 91.89 90.301 83.515 86.106 84.898 83.638 83.412 83.233 83.292 83.305 83.263 83.257 83.444 87.055 87.578 83.819 85.89 86.372 86.158 86.025 85.676 82.081 81.556 81.533 81.446 81.448 81.547 81.646 84.271 86.031 86.089 86.179 86.273 86.417 85.717 86.759 88.762 89.409 89.001 88.837 82.505 81.879 81.861 81.879 81.95 81.989 82.019 82 82.049 82.124 82.446 82.985 82.518 82.456 86.37 90.252 91.281 91.707 92.354 92.08 91.511 91.172 89.676 83.764 82.3 82.78 82.21 81.881 81.986 81.932 82.003 81.999 81.901 82.009 82.413 82.524 82.571 90.975 91.643 91.502 91.842 92.614 92.282 91.468 89.992 88.536 82.964 82.733 82.59 82.289 82.321 82.274 82.337 82.354 82.304 82.372 82.45 82.574 82.8 82.658 84.949 90.526 91.327 91.917 91.892 -9999 -9999 -9999 -9999 -9999 -9999 -9999 -9999 -9999 -9999 -9999 -9999 -9999 -9999 -9999 -9999 -9999 -9999 -9999 -9999 -9999 -9999 -9999 -9999 -9999 -9999 -9999 -9999 -9999 -9999 -9999 -9999 -9999 -9999 -9999 -9999 -9999 -9999 -9999 -9999 -9999 -9999 -9999 -9999 -9999 -9999 -9999 -9999 -9999 -9999 -9999 -9999 -9999 -9999 -9999 -9999 -9999 -9999 -9999 -9999 -9999 -9999 -9999 -9999 -9999 -9999 -9999 -9999 -9999 -9999 -9999 -9999 -9999 -9999 76.688 75.991 75.486 75.733 75.715 75.548
66.759 65.475 63.45 63.424 63.475 63.5 63.551 63.578 63.67 63.696 63.766 66.921 69.462 72.297 77.658 78.183 78.236 78.234 77.383 77.351 77.998 77.061 77.737 77.658 77.407 78.022 77.424 77.608 78.322 77.332 77.918 77.727 77.178 78.178 78.164 77.663 78.062 77.023 77.765 78.257 77.389 77.897 77.371 77.58 78.205 77.453 78.042 77.595 77.365 78.038 77.896 77.378 78.095 77.764 78.449 77.841 77.307 77.897 77.226 77.259 78.127 77.712 77.393 77.76 77.158 77.831 77.855 77.088 77.872 77.883 77.608 78.202 77.08 77.865 77.764 76.925 78.062 78.085 77.449 77.983 77.403 77.334 77.934 77.276 77.673 78.378 77.339 76.538 75.703 77.155 73.908 77.713 77.546 78.094 77.177 76.504 77.505 77.205 77.71 77.227 77.433 78.061 77.466 76.401 72.494 72.558 74.699 75.121 75.363 75.182 75.217 75.294 75.375 75.442 75.529 77.836 83.677 84.477 83.744 83.144 82.758 83.489 84.017 84.752 85.168 84.787 84.107 83.361 82.929 82.977 83.684 84.359 85.027 85.113 83.195 82.285 82.071 82.059 82.057 82.051 82.121 78.985 79.194 78.561 78.454 78.55 82.867 83.658 83.808 83.148 83.855 83.035 83.533 83.779 83.091 83.943 83.6 83.352 83.834 82.893 83.745 83.152 83.172 83.676 83.044 83.741 83.362 83.128 83.881 83.117 83.482 83.336 83.07 83.856 82.839 83.395 83.75 83.624 84.684 85.03 84.816 83.894 80.506 80.326 80.458 80.487 80.516 80.466 80.453 80.467 80.553 81.344 81.496 82.714 82.359 82.891 82.557 83.885 90.296 90.53 91.402 91.46 90.998 90.315 89.238 83.562 82.379 81.753 82.026 82.018 84.062 84.37 84.683 83.366 83.167 83.228 83.215 83.163 83.166 83.224 85.718 86.209 85.562 84.29 84.025 84.159 84.437 84.439 88.27 90.905 91.237 90.112 85.497 87.25 87.408 84.182 86.74 89.528 90.826 91.918 91.926 91.206 90.575 88.861 84.178 83.338 83.302 83.317 83.287 83.204 83.544 83.132 83.396 83.403 82.948 82.873 83.931 93.05 93.257 91.509 86.368 86.996 84.4 83.32 83.342 83.191 83.27 83.266 83.24 83.274 83.487 86.796 85.45 82.443 86.481 86.33 86.102 85.922 85.61 81.535 81.425 81.393 81.434 81.442 81.594 81.52 82.272 86.064 86.213 86.305 86.411 86.506 86.571 82.705 86.725 88.603 82.637 82.295 81.937 81.987 81.817 81.868 81.95 82.007 81.958 81.919 82.252 82.068 82.767 82.733 82.504 84.166 90.439 91.132 92.618 92.14 91.977 90.902 88.679 87.787 82.758 82.355 82.387 82.676 84 81.92 81.904 81.893 82.082 82.833 82.284 82.211 82.219 82.369 87.957 91.462 91.972 91.902 92.348 92.129 91.772 85.932 87.991 82.821 82.707 82.942 82.317 82.217 82.225 82.26 82.334 82.288 82.27 82.348 82.546 82.692 82.802 84.203 91.385 91.723 92.252 92.03 91.966 -9999 -9999 -9999 -9999 -9999 -9999 -9999 -9999 -9999 -9999 -9999 -9999 -9999 -9999 -9999 -9999 -9999 -9999 -9999 -9999 -9999 -9999 -9999 -9999 -9999 -9999 -9999 -9999 -9999 -9999 -9999 -9999 -9999 -9999 -9999 -9999 -9999 -9999 -9999 -9999 -9999 -9999 -9999 -9999 -9999 -9999 -9999 -9999 -9999 -9999 -9999 -9999 -9999 -9999 -9999 -9999 -9999 -9999 -9999 -9999 -9999 -9999 -9999 -9999 -9999 -9999 -9999 -9999 -9999 -9999 -9999 -9999 -9999 -9999 76.174 76.334 75.961 78.744 80.706 76.057
65.848 63.485 63.378 63.441 63.464 63.546 63.555 63.617 63.661 63.724 63.924 65.043 68.21 72.81 74.752 77.923 78.38 77.387 78.629 77.127 77.676 78.044 77.213 77.992 77.234 77.405 78.01 76.957 77.642 77.807 77.507 77.983 77.523 77.421 78.142 77.41 77.567 77.538 77.029 77.77 77.214 77.896 78.285 77.011 77.821 78.464 77.45 77.954 77.826 77.397 78.318 77.444 77.995 78.576 77.625 77.842 78.244 77.285 77.86 77.029 77.562 78.289 77.486 77.563 78.064 77.237 77.934 77.314 77.356 78.047 77.031 77.941 78.403 77.258 78.026 77.894 77.436 78.244 77.703 77.857 74.607 76.82 77.577 77.954 77.623 77.784 77.749 77.509 78.087 77.713 77.412 78.3 76.827 77.699 77.875 77.275 77.997 77.504 78.12 78.144 77.086 77.775 74.455 73.003 72.767 73.766 75.693 75.082 75.083 75.091 75.18 75.239 75.455 75.661 80.999 83.941 84.991 84.954 84.397 83.657 82.955 82.713 83.436 84.012 84.847 85.252 84.841 84.093 83.395 82.669 83.021 83.715 84.466 83.8 82.114 82.081 82.041 82.049 82.057 82.103 82.093 80.369 79.074 78.618 78.487 78.455 81.789 82.916 83.81 83.276 83.354 84.031 82.946 83.681 83.447 83.376 83.996 83.057 83.608 83.521 83.086 83.85 83.237 83.257 83.579 83.128 83.598 83.447 83.262 83.809 82.843 83.569 83.131 83.164 83.917 82.892 83.495 83.559 83.776 85.156 85.46 84.578 81.872 80.492 80.422 80.523 80.598 80.533 80.514 80.471 80.485 80.83 81.639 85.903 82.275 82.736 86.839 89.057 90.615 91.347 91.588 91.061 90.372 89.797 82.013 82.078 81.853 81.857 81.632 81.868 82.42 82.015 84.622 84.937 83.323 83.281 83.235 83.2 83.264 85.697 87.567 87.041 85.488 85.722 85.835 85.911 85.493 84.833 85.087 89.73 90.772 90.448 87.028 87.006 85.068 84.554 88.564 90.651 91.873 92.003 90.84 89.655 88.713 84.457 83.399 83.33 83.29 83.249 83.231 83.294 83.15 83.293 82.871 82.78 85.905 87.123 88.156 89.393 87.276 86.511 87.565 88.134 84.981 83.299 83.149 83.136 83.199 83.183 83.126 83.197 85.317 88.592 86.072 85.239 86.507 86.354 86.156 85.949 84.696 81.402 81.319 81.344 81.338 81.365 81.416 81.519 81.535 83.34 86.177 86.401 86.493 86.686 82.394 81.706 84.773 83.484 81.799 81.79 82.912 82.158 81.778 81.891 81.881 81.928 82.9 82.276 81.967 82.16 82.527 82.792 83.822 90.474 90.986 91.923 91.94 91.811 90.735 87.831 82.508 82.68 82.071 81.806 82.021 83.863 83.224 81.789 81.828 81.814 81.843 81.948 82.228 82.435 82.236 86.225 90.863 92.157 91.992 92.067 91.879 90.991 85.134 82.137 82.871 82.565 82.569 83.17 82.497 82.169 82.215 82.266 82.104 82.188 82.455 82.596 83.001 86.304 84.834 92.207 92.343 92.442 92.062 92.538 91.854 85.385 -9999 -9999 -9999 -9999 -9999 -9999 -9999 -9999 -9999 -9999 -9999 -9999 -9999 -9999 -9999 -9999 -9999 -9999 -9999 -9999 -9999 -9999 -9999 -9999 -9999 -9999 -9999 -9999 -9999 -9999 -9999 -9999 -9999 -9999 -9999 -9999 -9999 -9999 -9999 -9999 -9999 -9999 -9999 -9999 -9999 -9999 -9999 -9999 -9999 -9999 -9999 -9999 -9999 -9999 -9999 -9999 -9999 -9999 -9999 -9999 -9999 -9999 -9999 -9999 -9999 -9999 -9999 -9999 -9999 -9999 -9999 -9999 -9999 76.004 76.037 77.757 81.014 81.771 81.846
63.369 63.318 63.35 63.426 63.493 63.526 63.608 63.663 63.69 63.743 63.815 63.868 66.079 67.973 68.223 76.773 78.159 77.184 77.572 78.228 76.999 77.707 78.266 77.231 77.91 77.288 77.645 78.5 77.374 77.929 77.976 77.224 78.141 77.468 77.615 78.094 77.667 78.025 78.275 77.329 78.08 77.723 77.684 78.384 78.699 78.328 77.63 77.417 78.087 77.26 77.587 78.216 78.003 77.936 77.649 77.361 78.093 77.809 77.564 77.954 77.318 77.73 78.102 77.252 78.053 78.18 77.811 78.06 76.581 77.482 78.417 77.193 77.883 78.153 77.515 78.238 77.98 77.563 78.315 77.205 77.227 78.032 77.225 77.846 78.071 77.506 77.94 77.492 77.27 77.983 77.101 77.558 77.622 76.971 77.84 77.154 77.791 77.868 77.53 77.462 77.301 75.87 72.474 72.499 74.632 74.869 74.958 75.031 75.059 75.088 75.137 75.207 75.371 80.457 83.082 83.92 84.594 85.045 85.024 84.281 83.591 82.84 82.707 83.54 84.207 84.832 85.195 84.615 84 83.339 82.758 83.096 82.729 81.978 82.012 82.013 82.09 82.087 82.073 82.066 82.049 81.925 78.922 78.653 78.527 78.585 80.658 82.023 83.165 83.997 83.393 83.544 83.96 83.02 83.699 83.153 83.393 83.72 83.16 83.536 83.506 83.208 83.808 82.938 83.528 83.673 83.086 83.82 83.061 83.32 83.702 82.973 83.692 83.132 83.331 84.027 82.822 83.598 83.274 84.678 85.65 85.389 84.668 83.123 80.452 80.517 80.609 80.59 80.549 80.499 84.69 84.74 82.166 81.291 83.611 89.101 90.27 90.599 91.518 91.31 90.716 89.999 88.783 83.664 81.402 82.084 81.757 81.523 81.626 81.736 81.831 82.689 83.167 84.374 86.576 90.036 84.709 83.215 83.441 86.601 87.31 87.4 86.958 86.626 87.538 86.036 84.904 84.725 84.276 85.306 90.066 86.94 86.559 84.973 83.876 83.614 86.518 89.842 91.071 90.885 89.295 85.099 83.404 83.509 83.349 83.388 83.267 83.083 83.228 83.062 82.969 83.199 82.853 82.895 88.459 89.232 88.696 88.388 87.451 82.941 85.594 85.913 84.371 83.297 83.081 83.124 83.142 83.098 83.089 83.175 84.425 86.71 83.683 85.813 86.195 86.087 85.932 85.585 85.326 81.483 81.312 81.311 81.229 81.292 81.369 81.452 81.496 81.548 83.683 86.587 83.488 82.333 81.689 81.646 81.654 82.308 82.085 81.8 81.819 81.802 81.826 81.815 81.805 81.865 82.859 82.038 82.161 82.393 82.491 89.464 90.874 91.806 92.066 91.99 92.241 90.604 90.908 82.621 82.476 83.314 81.796 81.72 81.668 82.598 81.776 81.713 81.751 81.786 81.969 82.281 82.038 82.077 85.994 90.393 91.536 92.393 92.098 91.913 91.623 84.274 83.044 82.381 82.211 82.087 82.114 82.643 82.171 82.123 82.132 82.122 82.141 83.001 82.848 82.606 86.326 90.143 91.321 91.988 92.696 91.982 91.37 90.424 88.141 82.903 -9999 -9999 -9999 -9999 -9999 -9999 -9999 -9999 -9999 -9999 -9999 -9999 -9999 -9999 -9999 -9999 -9999 -9999 -9999 -9999 -9999 -9999 -9999 -9999 -9999 -9999 -9999 -9999 -9999 -9999 -9999 -9999 -9999 -9999 -9999 -9999 -9999 -9999 -9999 -9999 -9999 -9999 -9999 -9999 -9999 -9999 -9999 -9999 -9999 -9999 -9999 -9999 -9999 -9999 -9999 -9999 -9999 -9999 -9999 -9999 -9999 -9999 -9999 -9999 -9999 -9999 -9999 -9999 -9999 -9999 -9999 -9999 -9999 -9999 76.546 80.392 81.936 82.504 82.411
63.226 63.268 63.35 66.6 63.833 65.547 63.683 63.713 63.721 63.775 63.808 63.878 63.927 63.934 64.121 74.239 76.559 78.083 77.439 77.459 78.008 77.223 78.074 77.731 77.521 77.931 77.143 77.709 77.934 77.365 77.986 77.686 77.33 78.197 77.867 77.86 77.721 77.038 78.755 77.135 77.787 78.425 78.294 78.375 77.475 77.424 78.12 77.468 77.673 78.179 77.577 77.838 77.755 77.511 78.073 77.404 77.346 78.327 77.348 77.608 78.302 77.323 77.965 77.832 77.428 78.288 77.413 77.367 77.932 76.631 77.744 77.679 77.23 77.921 77.834 77.339 73.85 76.684 77.883 77.947 77.214 77.32 77.593 77.591 77.536 76.171 77.385 78.08 77.517 77.575 77.951 77.153 77.92 77.575 77.314 77.992 77.301 77.313 77.891 77.205 72.733 72.475 72.481 72.869 75.197 74.811 74.897 74.935 75.015 75.036 75.071 75.25 80.06 83.156 82.843 83.237 83.991 84.659 85.159 84.836 84.249 83.559 82.784 82.871 83.58 84.149 84.824 85.094 84.413 83.883 83.197 82.254 82.022 82.077 82.037 82.028 82.045 82.052 82.09 82.066 82.063 82.046 80.008 78.625 78.535 78.499 79.022 81.264 82.83 83.458 84.025 83.036 83.582 83.737 83.228 83.794 82.902 83.624 83.649 82.987 83.963 83.078 83.377 83.93 83.145 83.719 83.032 83.3 83.866 82.723 83.616 83.671 83.17 83.829 83.178 83.457 83.407 83.15 83.531 84.019 85.122 85.797 85.279 84.423 81.298 80.417 80.52 80.602 80.655 80.533 84.926 85.047 84.863 85.559 89.236 89.944 90.867 91.565 91.395 90.507 89.6 87.33 82.36 82.446 81.861 81.556 81.464 81.513 81.665 81.751 81.841 82.29 82.102 83.163 90.381 91.395 85.463 83.198 83.226 83.445 86.78 87.362 87.452 86.918 86.937 85.084 85.702 84.183 84.197 84.374 84.828 84.405 87.792 88.165 84.053 83.763 84.458 88.469 89.846 89.739 85.001 83.508 83.496 83.322 83.231 83.181 83.118 83.033 83.024 82.939 82.923 82.831 82.755 83.736 88.523 90.342 90.358 89.466 87.876 83.028 83.313 83.38 83.055 83.085 83.041 83.093 83.053 83.024 83.058 83.106 83.211 82.579 82.206 85.126 86.03 85.896 85.669 85.537 85.382 83.97 81.477 81.243 81.221 81.187 81.284 81.331 81.358 81.542 81.608 83.054 81.639 81.626 81.645 81.637 81.64 81.683 82.146 81.735 81.717 81.756 81.763 81.749 81.768 81.749 83.47 82.496 82.226 85.855 91.124 91.843 92.416 92.337 92.126 91.629 90.283 89.895 83.78 82.313 82.077 81.778 81.615 81.596 81.632 81.649 81.636 81.572 81.721 81.783 82.207 82.39 83.003 87.4 90.621 91.186 91.848 91.364 91.964 90.712 85.45 82.957 82.334 82.652 81.967 82.159 82 82.009 82.057 82.077 82.106 82.168 82.778 82.676 82.694 86.216 90.49 91.608 91.684 92.407 92.249 92.274 90.3 88.591 83.029 82.536 82.719 -9999 -9999 -9999 -9999 -9999 -9999 -9999 -9999 -9999 -9999 -9999 -9999 -9999 -9999 -9999 -9999 -9999 -9999 -9999 -9999 -9999 -9999 -9999 -9999 -9999 -9999 -9999 -9999 -9999 -9999 -9999 -9999 -9999 -9999 -9999 -9999 -9999 -9999 -9999 -9999 -9999 -9999 -9999 -9999 -9999 -9999 -9999 -9999 -9999 -9999 -9999 -9999 -9999 -9999 -9999 -9999 -9999 -9999 -9999 -9999 -9999 -9999 -9999 -9999 -9999 -9999 -9999 -9999 -9999 -9999 -9999 -9999 -9999 -9999 82.387 82.96 83.083 82.088
63.215 63.32 68.027 63.807 63.959 63.855 63.797 63.876 63.891 63.802 63.802 63.906 63.935 63.975 63.995 66.288 74.015 77.5 77.816 77.089 77.84 77.391 77.345 78.283 77.359 77.609 78.283 77.113 77.74 77.66 77.269 78.496 77.028 78.056 78.347 77.383 78.118 77.277 77.415 78.391 77.633 78.402 78.293 77.071 77.859 77.284 77.748 78.178 77.052 77.861 78.441 77.222 77.967 77.748 77.454 78.168 77.752 77.786 77.741 77.112 77.817 77.682 77.482 78.114 78.168 77.856 78.443 76.922 77.512 76.486 77.066 77.817 77.07 77.181 78.075 77.715 77.265 78.099 77.612 77.56 77.6 77.085 76.364 76.977 77.243 74.964 77.637 77.565 74.542 76.624 76.6 75.392 77.117 78.075 78.229 77.807 77.798 77.281 77.592 76.902 72.702 72.482 74.52 77.57 74.799 74.792 74.854 74.892 74.981 75.068 75.268 81.44 84.428 83.785 83.114 82.92 83.406 84.055 84.682 85.176 84.873 84.103 83.482 82.904 82.956 83.715 84.391 85.141 85.172 84.338 83.632 82.348 82.02 82.088 82.067 82.024 82.054 82.071 82.059 82.089 82.069 82.067 81.598 78.988 78.545 78.471 78.544 80.771 83.69 82.954 83.359 83.82 83.099 83.711 83.36 83.171 83.914 82.922 83.521 83.523 83.003 83.816 83.01 83.424 83.785 82.859 83.733 83.252 83.348 83.954 83.047 83.748 83.283 83.122 83.798 82.819 83.633 83.594 83.104 83.394 84.061 85.172 85.757 85.01 83.61 81.53 80.51 80.576 80.676 80.627 83.665 82.491 84.009 90.002 90.381 92.385 91.536 90.936 90.511 89.3 81.149 81.267 81.211 82.041 81.781 81.337 81.46 81.559 81.644 81.735 81.766 81.962 82.552 87.092 88.325 91.17 83.353 83.282 83.241 83.278 83.98 87.003 87.545 87.396 86.813 84.76 85.048 84.26 84.113 84.165 84.207 84.153 87.53 87.543 84.038 83.894 83.705 83.779 87.815 84.545 83.51 83.52 83.528 83.675 83.275 83.214 83.255 83.28 83.048 83.364 83.771 82.867 82.737 86.571 89.458 90.963 90.97 89.201 84.391 82.97 83.764 83.168 83.032 82.963 82.989 83.04 83.018 82.981 83.013 83.112 83.027 82.349 83.087 83.426 85.422 85.923 85.707 85.655 85.505 85.474 82.968 81.236 81.231 81.195 81.189 81.259 81.323 81.414 81.477 81.523 81.558 81.632 81.614 81.603 81.999 81.892 81.609 81.647 81.692 81.676 81.661 81.954 81.749 82.201 82.791 83.789 84.325 89.229 90.315 91.699 92.288 92.158 91.198 90.475 87.316 83.305 83.204 82.176 82.346 82.042 81.489 81.541 81.533 81.526 81.497 81.887 82.345 82.003 82.313 86.248 88.373 91.209 91.362 91.907 91.115 91.288 91.215 88.681 82.376 82.135 82.104 81.915 82.102 82.752 82.034 81.966 82.02 82.078 82.092 82.24 82.517 83.052 86.324 91.804 91.944 91.941 92.268 91.691 91.02 86.842 88.042 82.755 82.475 82.849 82.673 -9999 -9999 -9999 -9999 -9999 -9999 -9999 -9999 -9999 -9999 -9999 -9999 -9999 -9999 -9999 -9999 -9999 -9999 -9999 -9999 -9999 -9999 -9999 -9999 -9999 -9999 -9999 -9999 -9999 -9999 -9999 -9999 -9999 -9999 -9999 -9999 -9999 -9999 -9999 -9999 -9999 -9999 -9999 -9999 -9999 -9999 -9999 -9999 -9999 -9999 -9999 -9999 -9999 -9999 -9999 -9999 -9999 -9999 -9999 -9999 -9999 -9999 -9999 -9999 -9999 -9999 -9999 -9999 -9999 -9999 -9999 -9999 -9999 -9999 82.898 83.044 82.586 81.495
63.164 64.446 70.031 64.462 64.399 64.39 64.322 64.17 64.191 63.987 63.906 63.888 63.926 63.999 64.02 64.054 71.502 74.975 77.878 77.756 77.14 78.171 77.315 77.701 77.877 77.52 77.926 78.112 77.436 78.147 76.861 77.73 78.517 78.323 78.069 77.841 77.166 78.244 77.313 77.699 78.403 77.698 77.856 78.347 77.483 78.15 77.53 77.629 78.512 77.369 78.05 77.759 77.402 78.157 77.197 77.698 78.238 76.989 77.909 78.485 77.434 78.054 77.852 78.263 78.317 77.992 77.723 77.372 76.842 77.937 77.708 77.146 78.028 77.048 77.693 78.231 77.326 77.666 77.685 76.85 76.575 76.587 77.932 77.859 77.062 76.817 78.241 77.261 77.653 77.627 77.294 77.999 77.912 77.557 77.881 77.175 77.732 78.034 76.243 76.959 76.436 73.065 77.328 78.22 77.195 74.887 74.815 74.872 75.317 75.211 81.06 84.942 85.021 84.314 83.626 82.969 82.925 83.439 84.11 84.765 85.254 84.71 84.014 83.357 82.76 82.968 83.714 84.33 85.044 83.721 82.298 82.044 82.025 82.044 82.07 82.055 82.072 82.07 82.025 82.03 82.074 82.102 82.073 81.318 78.608 78.521 81.688 84.209 84.478 83.41 82.941 83.686 83.829 83.349 83.866 83.305 83.265 83.719 82.962 83.715 83.17 83.315 83.829 82.98 83.535 83.385 83.095 83.887 83.022 83.514 83.911 83.097 83.722 83.082 83.291 83.577 83.134 83.56 83.042 83.287 83.848 84.597 85.343 85.639 84.883 84.409 80.731 80.546 80.633 80.653 80.622 80.627 82.567 90.205 91.243 91.658 91.304 90.182 90.06 82.472 81.903 81.257 81.218 81.243 81.277 81.389 81.441 81.564 82.398 82.387 81.855 82.436 82.855 85.486 89.822 90.974 85.118 83.344 83.361 83.32 83.359 85.767 87.102 87.549 87.323 86.48 84.572 84.082 84.116 84.118 84.093 85.024 84.313 84.107 83.932 84.118 83.84 83.679 83.56 83.557 83.521 83.45 83.257 83.249 83.271 83.193 84.07 84.285 83.991 84.301 84.23 83.819 83.413 88.112 90.193 91.225 90.416 88.639 82.85 83.016 83.93 83.004 82.996 82.888 82.944 82.943 82.925 82.893 82.999 83.945 82.934 81.934 83.448 82.075 81.984 85.347 85.94 85.776 85.653 84.875 84.214 82.053 81.208 81.179 81.166 81.157 81.265 81.297 81.471 81.471 81.535 81.577 81.603 81.579 81.599 81.544 81.572 81.591 81.585 81.575 81.499 81.645 81.798 82.379 82.126 83.717 89.278 90.261 90.712 91.391 91.961 91.314 88.904 84.574 83.207 81.922 83.626 82.768 81.928 81.663 81.444 81.491 81.481 81.416 82.07 82.914 81.998 82.124 89.197 89.797 91.153 91.881 91.895 91.41 90.165 89.416 89.262 82.167 83.07 82.706 81.83 81.839 81.859 81.905 81.901 81.923 82.021 82.053 82.197 82.682 82.691 86.148 90.749 91.515 92.233 92.108 92.129 90.801 84.805 83.55 82.618 82.845 82.947 83.428 82.619 -9999 -9999 -9999 -9999 -9999 -9999 -9999 -9999 -9999 -9999 -9999 -9999 -9999 -9999 -9999 -9999 -9999 -9999 -9999 -9999 -9999 -9999 -9999 -9999 -9999 -9999 -9999 -9999 -9999 -9999 -9999 -9999 -9999 -9999 -9999 -9999 -9999 -9999 -9999 -9999 -9999 -9999 -9999 -9999 -9999 -9999 -9999 -9999 -9999 -9999 -9999 -9999 -9999 -9999 -9999 -9999 -9999 -9999 -9999 -9999 -9999 -9999 -9999 -9999 -9999 -9999 -9999 -9999 -9999 -9999 -9999 -9999 -9999 -9999 82.333 82.336 81.342 80.139
63.144 65.277 64.802 64.558 64.644 64.677 64.619 64.55 64.358 64.335 64.265 63.963 63.954 63.981 64.061 64.092 64.102 73.833 72.734 77.959 77.024 77.416 78.042 78.06 78.092 78.009 77.275 78.859 77.315 77.515 77.733 78.099 78.083 77.682 77.519 78.234 77.403 77.401 78.149 77.666 78.273 77.616 77.262 78.289 77.553 77.507 77.951 77.24 78.069 78.392 77.373 78.254 77.072 77.671 78.371 77.233 77.766 77.617 77.303 77.992 78.01 77.63 78.242 77.429 77.749 78.132 77.453 76.149 75.972 78.078 78.078 77.768 77.679 77.997 77.258 77.597 77.442 77.308 77.701 77.226 76.58 77.294 77.412 77.545 77.791 77.287 77.526 77.297 77.115 77.763 77.512 77.388 78.181 76.942 77.74 77.887 75.757 74.783 74.16 75.689 77.919 78.165 78.215 78.184 75.844 74.755 74.793 74.889 76.352 80.037 83.853 84.714 85.125 84.919 84.22 83.503 82.962 82.921 83.471 84.196 84.906 85.076 84.727 83.955 83.27 82.735 83.061 83.787 82.779 82.02 82.08 81.967 82.07 82.072 82.079 82.04 82.045 82.042 82.005 82.042 82.11 82.085 82.075 82.004 80.439 79.05 81.868 83.392 84.305 84.248 83.268 83.071 83.706 83.368 83.122 83.969 83.153 83.57 83.678 83.014 83.839 83.13 83.461 83.718 82.905 83.554 83.202 83.183 83.644 82.899 83.562 82.877 83.135 83.772 82.859 83.554 80.749 83.027 83.881 82.816 83.449 83.923 84.646 85.467 85.479 84.835 83.525 80.684 80.622 80.708 80.691 80.613 80.679 86.817 91.307 90.729 90.088 87.424 85.169 81.264 81.275 81.156 81.091 81.118 81.228 81.31 81.435 81.655 81.926 82.586 82.193 82.781 85.46 90.173 91.533 91.993 92.191 84.345 83.35 83.321 83.345 83.816 86.498 87.193 87.534 86.985 84.614 84.446 84.042 84.014 84.527 84.354 85.145 85.241 87.821 85.869 83.847 83.826 83.653 83.594 83.68 83.643 83.336 83.236 83.678 83.663 83.882 84.208 84.414 83.827 83.044 82.89 84.088 89.075 90.591 91.332 89.604 85.54 83.34 83.917 83.414 82.95 82.902 82.869 82.93 82.922 82.817 82.871 82.938 83.91 82.57 83.396 83.749 81.726 83.768 84.525 85.951 85.948 84.753 84.247 84.226 84.22 81.678 81.192 81.203 81.132 81.144 81.207 83.206 82.503 81.494 81.52 81.529 81.503 81.504 81.519 81.547 81.536 81.455 81.441 81.609 82.389 82.419 82.282 83.266 90.231 90.325 91.369 90.89 91.739 90.652 90.668 82.754 81.842 81.84 81.527 82.548 82.361 81.628 81.359 81.424 81.47 81.418 81.64 83.041 82.935 82.152 87.929 89.969 91.257 91.353 91.721 91.204 91.067 84.335 85.089 82.174 82.308 82.423 81.8 81.692 81.751 81.822 81.899 83.156 82.804 82.03 82.215 82.236 82.407 83.78 90.771 91.78 92.196 92.365 91.873 90.651 83.952 82.692 82.333 82.246 82.568 82.432 83.23 82.239 -9999 -9999 -9999 -9999 -9999 -9999 -9999 -9999 -9999 -9999 -9999 -9999 -9999 -9999 -9999 -9999 -9999 -9999 -9999 -9999 -9999 -9999 -9999 -9999 -9999 -9999 -9999 -9999 -9999 -9999 -9999 -9999 -9999 -9999 -9999 -9999 -9999 -9999 -9999 -9999 -9999 -9999 -9999 -9999 -9999 -9999 -9999 -9999 -9999 -9999 -9999 -9999 -9999 -9999 -9999 -9999 -9999 -9999 -9999 -9999 -9999 -9999 -9999 -9999 -9999 -9999 -9999 -9999 -9999 -9999 -9999 -9999 -9999 -9999 -9999 79.942 78.058 76.09
64.487 64.134 65.401 64.644 64.663 64.677 64.63 64.586 64.539 64.513 64.475 64.176 63.991 64.022 64.076 64.125 64.163 64.514 75.404 77.295 78.357 77.275 78.031 78.249 77.228 78.105 77.263 77.592 78.311 77.225 77.688 78.322 77.355 77.949 77.899 77.353 78.365 77.434 79.153 78.096 77.259 78.081 77.5 77.354 78.21 77.766 77.899 77.959 77.489 78.231 77.848 77.453 78.418 77.415 77.779 78.337 77.286 77.847 77.106 77.569 78.395 77.048 77.49 78.153 77.475 -9999 -9999 -9999 -9999 77.938 77.953 78.458 77.953 77.623 76.992 77.06 77.697 77.052 77.343 78.001 77.123 77.637 77.781 77.265 77.781 77.068 77.045 78.324 77.631 77.506 78.007 77.644 77.395 77.562 77.086 77.815 73.011 74.734 72.893 74.597 77.807 78.141 78.149 75.872 74.732 74.771 74.782 75.348 76.639 82.248 83.289 83.982 84.556 85.309 84.873 84.164 83.55 82.981 82.903 83.553 84.388 84.85 85.227 84.597 83.898 83.249 83.326 82.31 82.166 82.055 82.009 82.052 82.045 82.075 82.093 82.029 82.045 82.082 82.083 82.065 82.076 82.09 82.053 81.443 78.612 79.016 78.629 81.802 83.604 84.397 84.065 83.202 83.116 83.897 83.344 83.317 83.952 82.946 83.565 83.197 83.238 83.807 82.829 83.467 83.571 83.297 83.797 82.924 83.426 83.583 82.944 83.697 82.97 83.151 83.963 83.043 83.44 83.092 83.027 83.715 82.786 83.657 83.426 84.767 85.483 85.475 84.703 81.517 80.562 80.619 80.695 80.694 80.656 80.923 88.022 90.116 89.822 83.261 81.576 81.151 81.035 81.133 81.028 81.214 81.258 81.387 81.368 81.458 81.947 83.138 82.104 84.444 90.601 92.929 92.401 92.641 92.3 90.115 83.728 83.349 83.297 83.337 83.471 86.138 86.932 83.677 83.692 84.176 85.629 85.108 84.705 84.56 84.492 90.53 93.24 92.761 85.317 83.771 83.725 83.655 83.518 83.38 83.365 83.781 83.141 84.012 84.11 84.289 83.938 84.437 82.891 82.86 86.46 89.599 91.024 90.865 89.205 84.372 83.168 83.928 82.993 82.889 82.813 82.797 82.843 82.752 82.78 82.845 82.978 83.054 81.805 82.077 81.746 84.923 85.015 84.915 85.628 84.667 84.234 84.265 84.249 84.232 83.608 81.383 81.14 81.135 81.125 81.242 83.402 84.205 81.576 81.772 81.415 81.473 81.465 81.49 81.401 81.426 81.37 81.628 81.917 83.167 83.929 86.514 89.282 90.143 91.017 91.079 90.273 89.781 88.101 82.065 81.812 81.684 81.337 81.259 81.694 81.804 81.311 81.485 81.376 81.51 81.449 81.507 82.182 83.101 86.993 90.447 91.046 91.527 91.421 91.394 90.171 85.304 82.016 81.971 81.783 81.706 82.87 82.142 81.716 81.753 81.838 81.844 82.651 82.648 82.314 82.407 88.837 88.922 91.026 91.222 92.269 91.857 91.998 90.554 83.632 82.413 82.457 82.143 81.961 82.43 82.164 82.085 81.971 81.977 -9999 -9999 -9999 -9999 -9999 -9999 -9999 -9999 -9999 -9999 -9999 -9999 -9999 -9999 -9999 -9999 -9999 -9999 -9999 -9999 -9999 -9999 -9999 -9999 -9999 -9999 -9999 -9999 -9999 -9999 -9999 -9999 -9999 -9999 -9999 -9999 -9999 -9999 -9999 -9999 -9999 -9999 -9999 -9999 -9999 -9999 -9999 -9999 -9999 -9999 -9999 -9999 -9999 -9999 -9999 -9999 -9999 -9999 -9999 -9999 -9999 -9999 -9999 -9999 -9999 -9999 -9999 -9999 -9999 -9999 -9999 -9999 -9999 76.342 76.125 75.967 75.929
65.194 64.804 64.68 64.7 64.704 64.663 64.602 64.656 64.674 64.604 64.565 64.579 64.11 64.07 64.118 64.17 64.178 64.197 66 73.779 77.874 78.49 77.89 77.89 78.371 77.542 78.102 77.839 77.881 78.344 77.136 77.943 78.025 77.277 77.969 77.044 77.916 79.698 79.069 78.001 77.693 77.311 78.301 77.368 77.752 78.001 77.099 78.269 77.339 77.567 78.46 77.559 77.794 78.481 77.18 78.083 77.456 77.279 78.342 78.027 77.665 78.278 77.467 77.831 -9999 -9999 -9999 -9999 -9999 -9999 -9999 78.161 77.576 77.212 77.721 76.935 77.334 78.094 77.282 77.575 77.856 76.965 77.86 77.746 77.234 78.063 76.445 77.272 77.733 77.273 77.562 77.828 77.017 77.792 76.332 74.421 74.64 74.612 73.895 74.371 75.566 77.542 75.674 74.576 74.658 75.118 75.055 78.008 74.963 75.105 82.326 83.363 84.042 84.701 85.194 84.769 84.147 83.433 82.827 83.007 83.664 84.356 84.96 85.059 84.527 83.742 83.057 82.044 82.041 82.073 82.062 82.032 81.998 82.038 82.065 82.071 82.062 82.08 82.088 82.076 82.089 82.228 79.872 77.593 77.61 79.751 78.566 78.662 81.885 83.704 84.559 84.016 83.018 83.222 83.82 83.069 83.387 83.796 83.174 83.616 82.908 83.339 83.81 83.046 83.759 83.732 83.233 83.837 82.929 83.594 83.39 83.148 83.605 83.119 83.386 83.869 82.955 83.689 83.086 83.262 83.691 83.052 83.83 84.098 85.068 85.6 85.231 84.614 80.79 80.551 80.672 80.771 80.694 80.669 81.148 87.498 80.907 81.033 81.529 81.025 81.673 81.377 81.076 81.173 81.236 81.283 81.395 82.574 81.924 81.835 82.615 90.485 91.54 92.146 92.672 92.282 92.098 90.429 85.315 83.644 83.383 83.305 83.429 84.017 83.869 83.571 83.651 85.086 86.231 86.207 85.714 85.057 84.598 87.873 92.019 90.799 86.352 83.642 86.374 86.407 83.875 83.369 86.955 85.781 83.356 83.999 83.685 83.657 83.379 84.687 82.785 83.96 87.646 88.714 89.531 90.068 88.746 82.79 82.793 83.637 82.986 82.8 82.705 82.767 82.786 82.711 82.738 82.822 82.917 82.884 81.372 81.388 84.322 84.942 84.916 84.878 84.799 83.5 84.273 84.28 84.268 84.206 84.241 84.225 81.377 81.231 81.505 81.376 81.811 82.13 81.445 81.398 81.419 81.391 81.382 81.359 81.33 81.38 81.48 81.634 81.645 82.82 88.612 89.526 90.348 91.113 91.164 90.229 89.663 88.498 82.207 81.811 81.739 81.285 81.272 81.184 81.174 81.216 81.94 82.81 81.381 81.363 81.535 81.586 82.484 86.279 90.466 91.49 91.749 91.244 91.132 91.15 85.804 82.564 81.956 81.801 81.607 82.049 82.62 81.792 81.681 82.267 81.819 81.794 82.058 82.22 82.144 85.014 89.784 91.489 91.671 92.317 91.702 91.002 90.124 85.018 82.604 82.302 82.096 81.921 81.918 82.496 81.954 82.014 81.99 81.963 -9999 -9999 -9999 -9999 -9999 -9999 -9999 -9999 -9999 -9999 -9999 -9999 -9999 -9999 -9999 -9999 -9999 -9999 -9999 -9999 -9999 -9999 -9999 -9999 -9999 -9999 -9999 -9999 -9999 -9999 -9999 -9999 -9999 -9999 -9999 -9999 -9999 -9999 -9999 -9999 -9999 -9999 -9999 -9999 -9999 -9999 -9999 -9999 -9999 -9999 -9999 -9999 -9999 -9999 -9999 -9999 -9999 -9999 -9999 -9999 -9999 -9999 -9999 -9999 -9999 -9999 -9999 -9999 -9999 -9999 -9999 -9999 -9999 -9999 76.03 75.927 75.877
65.212 64.692 64.703 64.684 64.676 64.662 64.727 64.731 64.692 64.696 64.545 64.525 64.373 64.135 64.146 64.195 64.213 64.248 64.279 65.8 74.965 77.675 77.818 77.235 78.383 77.259 77.444 78.058 77.081 77.78 78.429 77.198 77.984 77.36 77.601 78.739 79.538 78.333 77.725 77.444 77.988 77.008 77.592 78.266 77.497 77.923 78.055 77.654 78.261 77.674 77.983 77.823 77.228 77.81 77.685 77.39 78.19 77.352 77.663 78.385 77.306 77.746 77.854 -9999 -9999 -9999 -9999 -9999 -9999 -9999 -9999 -9999 -9999 -9999 -9999 77.71 76.856 77.366 77.797 76.857 77.807 76.567 77.234 78.033 77.425 77.19 75.92 76.987 77.764 78.284 77.307 77.617 77.521 77.116 72.666 72.598 72.794 73.937 74.535 74.198 74.397 74.613 74.464 74.527 75.517 76.152 81.389 79.295 75.104 75.964 80.912 82.741 83.632 84.137 84.835 85.174 84.802 84.065 83.328 82.781 83.153 83.735 84.39 85.032 83.245 82.217 81.999 82.041 82.088 82.054 82.067 82.07 82.069 82.043 82.023 82.054 82.015 82.063 82.105 82.047 82.095 82.072 81.213 77.793 77.581 77.763 78.909 78.454 80.497 82.847 83.773 83.474 83.687 82.933 83.51 83.711 82.78 83.631 83.304 83.159 83.874 82.97 83.4 83.851 83.005 83.873 83.149 83.319 83.561 82.971 83.772 83.251 83.276 83.828 83.017 83.551 83.214 83.162 83.888 83.276 83.459 83.448 83.024 83.795 84.171 84.975 85.72 85.165 83.03 80.609 80.608 80.689 80.783 80.705 80.725 80.759 81.926 82.788 80.892 80.776 81.015 80.976 81.054 81.089 81.177 81.35 81.654 81.745 84.279 89.457 91.336 91.474 92.038 92.41 92.138 91.479 90.583 87.907 83.977 84.987 83.572 83.299 83.396 83.404 83.468 83.579 83.569 83.506 85.865 86.384 86.025 85.128 83.876 88.101 91.621 91.163 85.331 83.204 83.585 84.003 83.607 86.882 87.458 87.464 85.443 86.848 85.187 84.233 83.917 83.458 82.683 82.697 82.672 84.98 87.406 88.679 87.808 82.788 82.88 83.079 82.797 82.724 82.679 82.697 82.697 82.656 82.697 82.758 82.9 81.706 83.752 85.055 85.002 84.928 84.833 84.779 84.696 84.574 84.462 84.237 84.25 84.267 84.23 84.219 82.997 81.258 81.318 81.163 81.232 81.246 81.289 81.33 81.352 81.36 81.255 81.221 81.45 82.707 81.509 81.592 82.052 88.949 89.952 90.845 91.004 90.983 90.502 89.313 88.572 82.193 81.466 81.477 81.318 81.577 81.383 81.211 81.172 81.189 82.061 81.859 81.337 81.405 81.781 86.314 87.451 88.801 90.059 91.941 91.394 90.928 89.756 87.002 81.881 81.887 82.084 81.504 81.477 81.559 81.638 81.795 82.624 81.84 81.753 82.105 82.179 82.682 85.784 90.077 92.411 92.147 91.96 91.928 91.195 89.872 87.311 82.42 82.085 81.994 81.845 82.442 82.022 82.016 82.012 81.955 81.916 82.172 -9999 -9999 -9999 -9999 -9999 -9999 -9999 -9999 -9999 -9999 -9999 -9999 -9999 -9999 -9999 -9999 -9999 -9999 -9999 -9999 -9999 -9999 -9999 -9999 -9999 -9999 -9999 -9999 -9999 -9999 -9999 -9999 -9999 -9999 -9999 -9999 -9999 -9999 -9999 -9999 -9999 -9999 -9999 -9999 -9999 -9999 -9999 -9999 -9999 -9999 -9999 -9999 -9999 -9999 -9999 -9999 -9999 -9999 -9999 -9999 -9999 -9999 -9999 -9999 -9999 -9999 -9999 -9999 -9999 -9999 -9999 -9999 -9999 -9999 76.653 76.922 75.99
64.683 64.716 64.702 64.704 64.708 64.713 64.738 64.752 64.731 64.714 64.615 64.574 64.544 64.348 64.158 64.214 64.278 64.331 64.312 64.36 73.77 77.884 78.115 77.56 77.4 78.414 77.506 77.627 77.767 77.168 78.09 77.774 77.64 78.252 78.712 78.912 78.435 77.21 77.971 77.484 77.554 78.368 77.43 77.795 77.848 77.136 78.283 77.419 78.214 78.461 77.412 77.958 78.408 77.478 78.1 77.674 77.573 78.262 77.414 77.661 77.96 -9999 -9999 -9999 -9999 -9999 -9999 -9999 -9999 -9999 -9999 -9999 -9999 -9999 -9999 -9999 76.937 77.054 77.649 77.765 77.025 76.651 77.935 77.608 77.975 76.993 77.388 77.601 77.135 77.595 77.068 77.231 75.301 72.827 72.472 73.091 74.094 74.088 74.06 74.187 74.239 74.354 74.455 74.599 80.393 80.826 82.293 81.418 80.08 75.497 77.112 77.819 82.832 83.502 84.171 84.862 85.155 84.624 83.942 83.327 82.698 83.102 83.846 82.936 83.128 82.099 81.971 82.079 82.037 82.067 82.062 82.027 82.041 82.081 82.095 82.073 82.084 82.056 82.097 82.072 82.042 82.009 82.065 80.082 77.608 77.586 79.242 78.553 78.629 79.275 81.543 82.596 83.724 83.68 83.67 83.534 83.328 83.136 83.855 83.333 83.293 83.91 83.074 83.643 83.247 83.163 84.029 82.905 83.415 83.497 83.167 83.645 82.971 83.52 83.555 83.037 83.685 83.064 83.339 83.412 82.112 83.521 83.079 83.226 83.665 84.149 85.065 84.24 80.513 80.5 80.584 80.664 80.707 80.746 80.726 80.72 80.888 80.67 80.672 80.803 80.918 80.973 81.68 81.275 81.314 82.106 81.708 84.75 89.397 91.025 91.691 92.388 92.498 92.095 91.343 90.012 86.816 83.479 83.408 83.432 84.494 83.373 83.329 83.351 83.435 83.535 83.51 83.548 83.506 85.621 85.988 84.698 83.951 83.749 90.661 91.549 89.511 83.204 83.103 83.089 82.989 83.026 84.031 84.182 86.53 87.497 87.55 86.222 86.152 84.139 82.82 82.758 82.746 82.68 82.757 83.83 83.254 82.704 83.659 82.911 82.747 82.655 82.647 82.671 82.634 82.622 82.653 82.74 82.943 81.618 84.885 84.948 84.897 84.833 84.792 84.744 84.523 84.424 84.294 83.641 84.279 84.259 84.252 84.313 81.718 81.289 81.184 81.161 81.137 81.241 81.261 81.294 81.266 81.248 81.12 82.567 82.178 82.55 81.589 81.715 88.242 90.044 90.766 90.835 91.511 89.897 88.045 84.702 82.411 81.938 81.393 81.064 80.893 80.955 81.091 81.079 81.111 81.055 81.58 81.789 81.476 81.51 87.47 87.745 89.275 89.506 90.397 89.652 91.308 89.491 87.718 82.474 81.724 81.655 81.389 81.383 81.406 81.511 81.566 81.55 81.66 81.693 82.189 82.352 82.143 85.67 90.296 91.315 91.732 91.816 91.609 91.616 85.404 87.816 82.698 82.267 82.729 81.829 81.796 82.017 81.969 82.15 82.716 81.997 82.687 83.777 -9999 -9999 -9999 -9999 -9999 -9999 -9999 -9999 -9999 -9999 -9999 -9999 -9999 -9999 -9999 -9999 -9999 -9999 -9999 -9999 -9999 -9999 -9999 -9999 -9999 -9999 -9999 -9999 -9999 -9999 -9999 -9999 -9999 -9999 -9999 -9999 -9999 -9999 -9999 -9999 -9999 -9999 -9999 -9999 -9999 -9999 -9999 -9999 -9999 -9999 -9999 -9999 -9999 -9999 -9999 -9999 -9999 -9999 -9999 -9999 -9999 -9999 -9999 -9999 -9999 -9999 -9999 -9999 -9999 -9999 -9999 -9999 -9999 -9999 76.386 76.23 75.979
64.701 64.721 64.712 64.703 64.706 64.738 64.755 64.759 64.719 65.02 64.717 64.668 64.559 64.583 64.291 64.244 64.287 64.355 64.379 64.413 64.458 66.521 78.322 78.198 77.299 77.726 78.187 77.126 78.029 78.006 77.462 78.223 77.98 78.918 78.472 77.321 78.406 77.809 77.563 78.184 77.666 77.664 78.36 77.181 78.349 77.312 77.409 78.374 78.417 77.622 78.239 77.366 77.998 77.899 77.33 78.287 77.343 77.86 77.792 77.616 -9999 -9999 -9999 -9999 -9999 -9999 -9999 -9999 -9999 -9999 -9999 -9999 -9999 -9999 -9999 -9999 -9999 -9999 -9999 75.967 75.452 77.08 77.904 77.131 77.288 78.071 76.979 77.653 77.777 77.13 77.404 76.63 72.674 72.554 72.874 73.892 73.974 74 74.067 74.162 74.201 74.336 74.693 78.861 81.317 82.683 82.982 82.28 81.424 77.491 75.288 75.302 78.825 82.992 83.467 84.31 84.963 85.177 84.523 83.91 83.298 82.758 82.526 83.042 82.534 82.202 82.034 82.07 82.076 82.057 82.058 82.057 82.084 82.054 82.045 82.078 82.076 82.094 82.081 82.045 82.017 82.03 82.054 81.989 78.633 77.715 78.015 79.368 78.436 78.765 79.726 80.441 82.785 83.774 83.441 83.045 83.607 83.712 83.242 83.74 82.954 83.508 83.912 83.115 83.569 83.425 83.377 83.984 83.041 83.727 83.272 83.274 83.891 82.988 83.551 83.126 83.111 83.783 82.903 83.516 83.691 83.076 83.766 83.023 83.134 83.291 80.365 80.322 80.28 80.613 80.555 80.616 80.687 80.727 80.767 80.723 80.641 80.639 80.751 80.805 80.809 80.908 81.323 81.432 81.91 81.877 82.344 86.874 90.568 92.943 92.416 92.474 91.685 91.004 88.539 85.125 83.491 83.279 83.218 83.247 83.405 84.712 83.382 83.322 83.309 83.275 83.388 83.557 83.51 83.773 84.836 84.68 83.763 83.881 88.522 89.454 87.957 84.59 83.604 83.347 82.982 82.895 82.886 82.819 84.531 87.242 86.704 84.246 85.902 84.386 82.877 82.778 82.747 82.733 82.72 82.709 82.726 82.726 83.055 82.679 82.715 82.526 82.622 82.607 82.517 82.503 82.598 83.684 82.7 81.446 81.982 84.923 84.851 84.775 84.71 84.479 84.456 84.434 84.432 83.368 83.913 84.292 82.63 82.051 81.334 81.253 81.176 81.113 81.124 81.169 81.246 81.14 81.126 81.07 81.451 82.848 81.998 81.426 85.906 88.952 90.086 90.811 91.033 90.409 90.143 88.988 81.586 81.432 81.302 81.242 80.994 80.835 80.888 80.957 80.998 81.785 81.903 81.323 81.563 81.331 81.546 87.781 89.419 89.529 90.317 89.799 89.378 88.339 85.369 86.226 83.009 82.803 82.664 81.371 81.313 81.359 81.496 81.501 81.488 81.549 81.569 81.707 81.784 82.448 85.525 90.481 91.294 91.904 91.593 91.43 90.514 84.702 83.319 82.944 82.581 82.797 82.823 81.935 81.749 81.819 81.843 81.882 81.923 81.928 82.439 82.341 82.535 -9999 -9999 -9999 -9999 -9999 -9999 -9999 -9999 -9999 -9999 -9999 -9999 -9999 -9999 -9999 -9999 -9999 -9999 -9999 -9999 -9999 -9999 -9999 -9999 -9999 -9999 -9999 -9999 -9999 -9999 -9999 -9999 -9999 -9999 -9999 -9999 -9999 -9999 -9999 -9999 -9999 -9999 -9999 -9999 -9999 -9999 -9999 -9999 -9999 -9999 -9999 -9999 -9999 -9999 -9999 -9999 -9999 -9999 -9999 -9999 -9999 -9999 -9999 -9999 -9999 -9999 -9999 -9999 -9999 -9999 -9999 -9999 -9999 76.1 76.069 75.996
64.726 64.705 64.702 64.72 64.722 64.753 64.77 64.73 64.729 64.735 64.735 64.761 64.673 64.881 64.604 64.423 64.296 64.309 64.404 64.438 64.495 64.742 74.526 70.446 77.989 77.118 77.871 77.949 77.328 78.198 77.271 78.474 78.813 77.465 77.914 78.445 77.191 78.272 77.956 77.661 78.409 77.405 78.024 77.774 77.335 78.189 78.574 77.825 78.208 77.223 77.954 77.732 77.502 78.127 77.109 77.685 78.297 77.446 -9999 -9999 -9999 -9999 -9999 -9999 -9999 -9999 -9999 -9999 -9999 -9999 -9999 -9999 -9999 -9999 -9999 -9999 -9999 -9999 -9999 -9999 -9999 77.184 77.608 77.783 77.11 77.645 77.663 77.216 77.755 77.329 73.16 72.567 72.58 73.593 75.702 74.906 74.014 73.958 74.032 74.105 74.273 74.937 80.271 80.985 81.283 82.117 82.871 83.043 82.111 81.45 76.588 75.357 75.427 78.933 83.016 83.733 84.33 85.056 85.065 84.44 83.793 82.558 83.704 83.4 82.012 82.001 82.034 82.02 82.058 82.025 82.054 82.07 82.073 82.043 82.088 82.05 82.051 82.071 82.08 82.03 82.02 82 82.048 82.078 82.075 81.016 77.674 79.545 78.761 78.317 79.527 80.386 80.776 83.115 83.951 83.33 83.066 83.822 83.151 83.192 83.79 83.001 83.425 83.296 83.096 83.746 83.006 83.438 83.669 83.115 84.001 82.993 83.172 83.503 82.99 83.602 83.122 83.383 83.781 82.856 83.558 83.366 83.152 83.922 82.845 79.985 79.91 79.977 80.117 80.742 80.707 80.515 80.596 80.701 80.825 80.804 80.711 80.677 80.702 80.797 80.78 80.884 81.421 81.238 81.826 83.418 87.877 90.641 91.185 91.777 92.336 92.163 91.887 88.681 83.249 83.022 83.112 82.966 83.01 84.239 83.848 83.606 83.74 83.322 83.292 83.261 83.258 83.451 83.513 83.598 83.698 84.147 83.651 83.553 84.416 84 86.701 87.008 85.18 83.236 82.962 82.985 83.257 82.787 82.776 83.547 82.746 82.765 83.255 84.312 83.918 83.754 83.324 82.817 82.747 82.677 82.72 82.662 83.183 82.638 82.599 82.495 82.528 82.517 82.402 82.523 82.624 83.517 81.846 81.269 85.487 86.897 84.871 84.623 84.485 84.424 84.422 84.438 84.495 84.422 83.805 82.246 81.431 81.348 81.272 81.175 81.094 81.066 81.093 81.118 81.157 81.068 81.052 81.139 81.842 81.643 82.495 87.998 88.975 90.975 91.068 91.114 90.466 89.7 88.883 82.268 81.358 81.24 81.103 81.004 81.132 80.782 80.916 80.915 80.896 80.951 80.997 81.082 81.771 81.419 84.522 90.121 89.579 89.644 89.647 89.011 87.877 82.619 83.002 82.707 81.638 81.387 82.37 81.476 81.275 81.325 81.42 81.346 81.557 82.314 81.785 81.939 81.782 83.084 91.051 91.322 92.2 91.505 91.374 90.172 85.572 82.235 82.309 83.221 82.682 81.647 81.954 81.709 81.712 81.94 82.493 81.94 81.919 82 82.089 82.715 -9999 -9999 -9999 -9999 -9999 -9999 -9999 -9999 -9999 -9999 -9999 -9999 -9999 -9999 -9999 -9999 -9999 -9999 -9999 -9999 -9999 -9999 -9999 -9999 -9999 -9999 -9999 -9999 -9999 -9999 -9999 -9999 -9999 -9999 -9999 -9999 -9999 -9999 -9999 -9999 -9999 -9999 -9999 -9999 -9999 -9999 -9999 -9999 -9999 -9999 -9999 -9999 -9999 -9999 -9999 -9999 -9999 -9999 -9999 -9999 -9999 -9999 -9999 -9999 -9999 -9999 -9999 -9999 -9999 -9999 -9999 -9999 -9999 -9999 -9999 76.083 76.064
64.713 64.736 64.738 64.718 64.733 64.745 64.741 64.711 64.771 64.791 64.801 64.792 64.776 64.662 64.787 64.659 64.436 64.42 64.489 64.469 64.573 64.579 65.995 75.442 77.923 78.386 77.41 77.991 77.771 77.717 78.679 78.62 77.985 79.047 77.418 78.032 77.853 78.297 78.122 77.391 77.905 77.931 77.428 78.035 77.076 77.64 78.079 77.386 78.015 77.912 77.204 78.125 77.281 77.568 78.172 77.135 77.657 -9999 -9999 -9999 -9999 -9999 -9999 -9999 -9999 -9999 -9999 -9999 -9999 -9999 -9999 -9999 -9999 -9999 -9999 -9999 -9999 -9999 -9999 -9999 -9999 -9999 -9999 77.805 77.717 76.994 78.051 78.006 75.439 74.581 72.608 72.623 72.816 73.564 74.583 73.83 73.812 73.906 73.992 74.121 74.779 80.055 81.616 81.514 80.864 81.424 82.411 83.157 82.851 81.994 81.029 76.414 75.442 75.549 80.474 83.053 83.8 84.435 84.963 84.838 83.772 83.158 82.682 82.206 81.972 82.015 81.986 82.002 82.026 82.073 82.057 82.05 82.035 82.114 82.078 82.067 82.076 82.066 82.07 82.041 82.078 82.066 82.06 82.015 79.663 78.996 77.449 77.622 78.739 78.535 78.311 79.094 79.116 80.409 83.295 83.199 81.142 83.101 83.95 83.25 83.312 83.797 82.958 83.471 83.416 83.194 83.818 82.9 83.663 83.247 83.191 83.784 82.901 83.43 83.205 82.978 83.659 83.232 83.26 83.893 83.172 83.695 83.124 80.957 79.654 79.299 79.555 79.735 79.94 80.08 80.711 81.415 80.834 80.768 80.775 80.855 80.833 80.76 80.713 80.633 80.796 81.04 81.153 81.504 85.811 89.971 90.729 91.141 91.614 91.256 92.374 90.987 86.334 83.205 82.936 83.606 82.798 82.975 82.996 84.847 84.043 83.885 83.474 83.271 83.252 83.244 83.254 83.271 83.467 83.494 83.387 83.39 83.688 83.604 83.545 83.646 85.163 86.49 86.923 83.645 83.151 85.096 85.045 82.833 82.675 82.675 82.675 82.689 82.687 82.717 82.676 82.935 83.035 83.59 83.708 82.747 82.688 83.472 82.563 82.537 82.424 82.467 82.481 82.423 82.406 82.529 82.635 82.588 81.579 81.857 87.454 87.609 84.95 84.458 84.471 84.48 84.445 84.412 84.41 84.362 84.238 81.832 81.289 81.181 81.123 81.089 81.015 81.059 81.06 81.034 80.959 81.076 81.105 81.235 81.405 81.305 88.071 88.794 89.909 90.287 91.051 90.558 89.86 85.711 82.293 81.017 81.126 81.093 80.783 81.377 80.948 80.816 80.992 80.738 80.814 80.914 81.022 81.452 82.633 84.821 88.352 89.849 89.955 89.588 89.409 87.894 84.628 81.815 81.332 81.37 81.109 81.237 82.303 81.313 81.258 81.279 81.261 81.352 82.116 82.514 81.869 83.273 82.826 88.834 90.519 92.266 91.95 91.111 89.999 83.456 82.119 81.82 81.876 81.584 81.594 81.619 81.711 81.689 81.79 82.65 82.546 82.018 83.381 82.184 82.571 87.308 -9999 -9999 -9999 -9999 -9999 -9999 -9999 -9999 -9999 -9999 -9999 -9999 -9999 -9999 -9999 -9999 -9999 -9999 -9999 -9999 -9999 -9999 -9999 -9999 -9999 -9999 -9999 -9999 -9999 -9999 -9999 -9999 -9999 -9999 -9999 -9999 -9999 -9999 -9999 -9999 -9999 -9999 -9999 -9999 -9999 -9999 -9999 -9999 -9999 -9999 -9999 -9999 -9999 -9999 -9999 -9999 -9999 -9999 -9999 -9999 -9999 -9999 -9999 -9999 -9999 -9999 -9999 -9999 -9999 -9999 -9999 -9999 -9999 -9999 -9999 76.113 76.105
64.734 64.756 64.712 64.702 64.679 64.712 64.733 64.757 64.783 64.771 64.79 64.797 64.779 64.79 64.639 64.61 64.562 64.477 64.533 64.51 64.605 64.596 64.722 72.198 75.235 78.103 77.688 77.465 78.431 78.688 77.981 78.194 77.12 78.372 77.506 77.446 78.178 77.478 77.873 78.525 77.452 77.901 77.929 77.551 78.247 77.436 77.729 77.765 77.269 78.209 77.718 77.611 78.202 77.55 77.924 77.62 -9999 -9999 -9999 -9999 -9999 -9999 -9999 -9999 -9999 -9999 -9999 -9999 -9999 -9999 -9999 -9999 -9999 -9999 -9999 -9999 -9999 -9999 -9999 -9999 -9999 -9999 -9999 -9999 -9999 77.19 77.621 77.86 72.924 72.617 72.619 73.354 74.693 74.048 74.134 73.771 73.803 73.826 73.951 76.253 80.981 82.217 82.75 82.321 81.514 80.976 81.466 82.438 83.13 82.926 81.927 80.509 76.647 75.607 75.681 81.942 83.127 83.671 83.166 82.883 83.469 82.278 82.044 82.046 82.036 82.072 82.045 82.047 82.036 82.069 82.067 82.059 82.082 82.05 82.087 82.109 82.028 82.111 82.053 82.043 82.038 82.079 81.979 82.106 77.863 77.516 77.492 77.495 79.437 78.97 78.336 78.352 78.387 78.287 79.973 80.431 78.682 82.279 83.292 83.886 82.915 83.757 83.173 83.018 83.725 83.049 83.399 83.508 83.031 83.587 83.078 83.33 83.882 82.992 83.492 83.205 83.082 83.754 82.895 83.552 82.772 82.72 81.004 79.025 79.094 79.228 79.442 79.646 79.803 79.997 80.439 80.437 80.979 80.852 80.78 80.792 80.819 80.763 80.743 80.79 81.355 81.082 83.905 87.249 89.935 90.646 91.406 91.87 91.147 90.468 89.581 87.452 83.711 82.695 82.565 82.553 83.715 82.974 82.828 82.986 84.25 83.53 83.464 84.151 83.684 83.244 83.261 83.263 83.357 83.403 83.432 83.406 83.421 83.571 83.528 83.808 83.78 86.111 87.489 86.261 85.19 85.197 85.198 85.17 82.75 82.559 82.619 82.64 82.673 82.662 82.632 82.615 82.627 82.577 83.022 82.918 84.281 83.808 82.532 82.504 82.358 82.408 82.427 82.36 82.411 82.489 82.644 82.46 81.325 82.592 87.541 87.498 85.39 84.452 84.415 84.449 84.414 84.41 84.397 83.423 81.477 81.132 81.644 81.112 81.026 81.015 81.045 80.974 80.951 80.866 80.883 81.589 81.664 81.76 82.225 87.638 89.925 90.582 90.699 90.433 89.622 89.686 84.323 82.288 81.523 81.401 81.074 80.647 80.721 80.74 80.729 81.292 82.114 80.821 80.819 80.946 80.992 84.047 86.33 88.153 89.234 90.007 88.934 89.35 89.225 85.99 82.941 81.285 81.359 81.053 81.003 81.08 81.122 81.332 81.296 81.229 81.268 82.74 81.702 81.992 85.037 87.953 89.447 89.642 90.86 90.401 91.021 89.884 88.028 82.391 81.996 81.657 81.533 81.516 81.557 81.623 81.574 81.599 81.624 81.822 82.203 81.927 86.235 88.742 90.288 90.288 90.686 -9999 -9999 -9999 -9999 -9999 -9999 -9999 -9999 -9999 -9999 -9999 -9999 -9999 -9999 -9999 -9999 -9999 -9999 -9999 -9999 -9999 -9999 -9999 -9999 -9999 -9999 -9999 -9999 -9999 -9999 -9999 -9999 -9999 -9999 -9999 -9999 -9999 -9999 -9999 -9999 -9999 -9999 -9999 -9999 -9999 -9999 -9999 -9999 -9999 -9999 -9999 -9999 -9999 -9999 -9999 -9999 -9999 -9999 -9999 -9999 -9999 -9999 -9999 -9999 -9999 -9999 -9999 -9999 -9999 -9999 -9999 -9999 -9999 -9999 76.419 76.255
64.727 64.722 64.704 64.69 64.692 64.698 64.722 64.758 64.728 64.78 64.791 64.846 64.772 64.91 64.669 64.522 64.497 65.192 64.631 64.612 64.659 64.699 64.747 64.797 69.796 76.896 78.165 78.815 78.714 78.393 77.287 77.784 77.763 77.551 78.379 77.475 77.792 78.456 77.151 77.894 78.102 77.374 78.003 77.791 77.582 78.284 77.459 78.15 78.248 77.409 78.141 77.564 77.754 78.04 -9999 -9999 -9999 -9999 -9999 -9999 -9999 -9999 -9999 -9999 -9999 -9999 -9999 -9999 -9999 -9999 -9999 -9999 -9999 -9999 -9999 -9999 -9999 -9999 -9999 -9999 -9999 -9999 -9999 -9999 -9999 -9999 -9999 74.531 72.786 73.329 75.191 73.656 74.619 73.737 73.776 73.676 73.737 73.794 73.845 77.399 81.155 81.931 82.818 83.102 82.165 81.334 80.892 81.532 82.389 83.011 82.755 82.021 80.374 76.102 75.719 76.088 82.219 82.874 82.201 82.002 81.981 82.046 82.024 82.035 82.059 82.043 81.971 82.084 82.061 82.042 82.03 82.043 82.018 82.04 82.103 82.085 82.082 82.159 82.313 82.023 82.024 82.092 81.031 77.625 77.524 77.533 77.538 77.52 79.473 79.238 78.436 78.264 78.251 78.247 78.263 78.781 78.206 78.374 81.896 83.43 83.912 83.11 83.716 83.774 83.284 83.468 82.804 83.676 83.154 83.107 83.86 83.25 83.264 83.543 82.979 83.851 83.044 83.253 83.618 82.828 83.622 80.462 80.271 79.15 79.056 79.219 79.376 79.572 79.742 79.795 79.805 79.69 79.909 80.676 80.804 80.763 80.808 80.844 80.777 80.742 80.896 80.848 88.59 90.617 92.018 91.705 91.587 90.901 90.327 89.576 86.201 82.343 82.632 82.708 82.427 82.422 82.539 82.694 82.824 83.804 83.126 84 83.413 84.014 83.616 83.258 83.209 83.194 83.19 83.45 83.394 83.408 83.392 83.497 83.959 83.811 83.869 87.667 87.712 86.875 85.214 85.255 85.33 85.372 85.324 82.671 82.506 82.508 82.555 82.598 82.563 82.584 82.595 82.556 82.473 82.536 83.26 82.872 82.484 82.422 82.293 82.354 82.353 82.31 82.382 82.454 83.484 81.652 81.311 85.103 87.477 87.526 87.528 85.094 84.39 84.403 84.448 84.41 82.602 81.09 81.051 81.137 81.028 80.978 80.997 80.982 80.957 80.84 80.764 80.902 81.276 81.478 81.896 83.452 88.66 89.668 90.479 90.526 90.072 89.351 88.514 83.012 81.558 80.997 81.634 81.079 81.596 80.882 80.622 80.662 80.701 81.715 81.244 81.345 80.857 81.08 86.745 87.111 89.313 88.99 89.632 88.725 88.183 84.425 82.353 82.316 81.904 81.82 80.948 80.987 80.969 81.051 81.068 81.296 81.519 81.176 82.013 82.096 81.752 84.459 87.697 89.394 89.743 90.723 89.889 88.421 85.265 85.048 81.724 82.598 82.078 81.491 81.38 81.454 81.551 82.25 82.106 81.655 81.72 81.928 82.047 85.355 90.568 90.462 91.089 91.203 90.991 -9999 -9999 -9999 -9999 -9999 -9999 -9999 -9999 -9999 -9999 -9999 -9999 -9999 -9999 -9999 -9999 -9999 -9999 -9999 -9999 -9999 -9999 -9999 -9999 -9999 -9999 -9999 -9999 -9999 -9999 -9999 -9999 -9999 -9999 -9999 -9999 -9999 -9999 -9999 -9999 -9999 -9999 -9999 -9999 -9999 -9999 -9999 -9999 -9999 -9999 -9999 -9999 -9999 -9999 -9999 -9999 -9999 -9999 -9999 -9999 -9999 -9999 -9999 -9999 -9999 -9999 -9999 -9999 -9999 -9999 -9999 -9999 -9999 -9999 -9999 76.89
64.704 64.708 64.697 64.688 64.686 64.661 64.702 64.749 64.778 64.78 64.758 64.988 64.744 64.681 64.544 64.634 64.791 64.658 64.621 64.663 64.72 64.781 64.836 64.91 65.373 68.379 77.276 78.174 77.341 77.783 77.662 77.267 78.141 78.354 77.939 78.433 77.225 77.841 78.493 77.16 77.866 77.725 77.528 78.355 77.486 77.919 77.916 77.179 78.207 77.596 77.621 78.246 77.372 -9999 -9999 -9999 -9999 -9999 -9999 -9999 -9999 -9999 -9999 -9999 -9999 -9999 -9999 -9999 -9999 -9999 -9999 -9999 -9999 -9999 -9999 -9999 -9999 -9999 -9999 -9999 -9999 -9999 -9999 -9999 -9999 -9999 -9999 -9999 -9999 74.753 74.74 73.397 73.5 73.536 73.568 73.584 73.652 73.698 73.758 74.074 78.712 81.409 82.373 83 82.958 82.121 81.171 80.887 81.591 82.478 83.201 82.729 81.882 80.01 75.966 75.836 76.165 81.879 82.062 82.037 82.036 82.032 82.02 82.041 81.965 82.02 82.032 82.036 82.01 82.051 82.067 82.064 82.063 82.056 82.101 82.165 82.777 82.115 82.198 82.001 82.057 78.955 77.637 77.591 77.501 77.561 77.545 77.551 77.598 79.876 78.664 78.469 78.787 78.198 78.197 78.186 78.17 78.2 78.349 82.405 83.522 83.237 82.786 83.935 83.083 83.184 83.746 82.921 83.454 83.345 83.341 83.947 83.114 83.576 83.386 83.114 83.84 82.904 83.518 83.573 81.22 80.127 78.92 78.932 79.06 79.239 79.407 79.475 79.626 79.632 79.588 79.536 79.624 80.476 81.411 80.813 80.728 80.76 80.796 80.792 80.785 82.691 89.838 91.013 91.589 91.774 91.472 91.271 89.044 82.93 82.139 82.693 82.125 82.087 82.207 82.325 82.436 82.607 83.276 83.054 84.254 84.044 83.61 86.74 89.98 84.994 83.247 83.153 83.144 83.334 83.346 83.372 83.492 83.285 83.759 83.731 86.326 87.603 86.823 86.796 85.648 85.327 85.348 85.477 85.462 84.235 82.521 82.488 82.489 82.53 82.524 82.535 82.533 82.5 82.45 82.48 83.602 82.367 82.395 82.354 82.287 82.333 82.259 85.101 82.419 82.394 82.259 81.331 81.228 85.162 87.511 87.477 87.452 86.432 84.583 84.424 84.331 84.157 81.189 81.061 81.021 80.964 80.925 80.979 80.976 80.965 80.898 80.753 80.661 81.377 81.92 81.711 86.977 88.83 90.467 90.451 90.766 90.063 89.451 88.229 81.892 81.257 81.509 80.655 80.586 81.154 81.178 80.56 80.553 80.55 80.521 80.686 80.827 81.566 81.195 85.826 87.282 88.791 89.135 89.355 88.571 87.768 83.412 81.966 81.376 81.332 81.65 82.513 81.89 80.883 80.915 81.009 80.972 81.023 81.209 81.372 82.031 83.558 85.683 87.871 88.874 89.606 90.268 89.842 88.841 84.202 83.193 81.828 82.15 81.838 81.365 81.353 81.403 81.441 81.913 82.577 81.733 81.998 81.863 81.876 83.15 88.922 90.449 90.619 91.333 91.144 90.515 86.626 82.483 -9999 -9999 -9999 -9999 -9999 -9999 -9999 -9999 -9999 -9999 -9999 -9999 -9999 -9999 -9999 -9999 -9999 -9999 -9999 -9999 -9999 -9999 -9999 -9999 -9999 -9999 -9999 -9999 -9999 -9999 -9999 -9999 -9999 -9999 -9999 -9999 -9999 -9999 -9999 -9999 -9999 -9999 -9999 -9999 -9999 -9999 -9999 -9999 -9999 -9999 -9999 -9999 -9999 -9999 -9999 -9999 -9999 -9999 -9999 -9999 -9999 -9999 -9999 -9999 -9999 -9999 -9999 -9999 -9999 -9999 -9999 -9999 -9999 -9999
64.742 64.709 64.699 64.678 64.676 64.696 64.738 64.742 64.766 65.121 64.852 64.773 64.64 64.567 64.711 65.62 66.19 64.9 64.83 64.778 64.813 64.854 64.92 65.016 65.04 67.733 75.349 77.347 78.261 77.207 78.154 78.278 78.361 78.326 77.441 77.596 77.833 77.322 78 77.961 77.526 78.318 77.466 77.763 77.985 77.229 77.99 77.8 77.383 78.228 77.388 -9999 -9999 -9999 -9999 -9999 -9999 -9999 -9999 -9999 -9999 -9999 -9999 -9999 -9999 -9999 -9999 -9999 -9999 -9999 -9999 -9999 -9999 -9999 -9999 -9999 -9999 -9999 -9999 -9999 -9999 -9999 -9999 -9999 -9999 -9999 -9999 -9999 -9999 -9999 -9999 -9999 73.471 73.424 73.479 73.557 73.61 73.672 73.734 73.745 73.745 78.817 81.368 82.161 83.078 82.915 82.103 81.345 81.16 81.761 82.627 83.136 82.584 81.618 77.829 75.962 75.92 77.433 82.236 82.018 82.052 82.065 82.052 82.046 82.016 82.031 82.088 82.031 82.035 81.986 82.076 82.076 82.056 82.052 82.059 82.328 83.035 82.087 82.041 82.116 79.114 77.606 77.493 77.509 77.493 77.5 77.545 77.573 77.615 77.809 79.022 78.388 79.668 78.482 78.159 78.17 78.169 78.177 78.148 79.318 82.79 83.645 83.48 83.144 83.691 82.871 83.569 83.141 82.976 83.776 83.326 83.413 83.705 82.975 83.584 83.042 83.19 83.533 82.359 78.853 78.798 78.981 78.884 78.958 79.093 79.171 79.645 79.431 79.439 79.468 79.479 79.471 79.566 79.574 80.57 80.827 80.778 80.757 80.851 80.835 80.76 80.837 85.402 91.502 91.228 90.991 90.142 86.942 82.722 82.09 82.778 81.949 82.389 82.233 82.194 82.545 83.532 82.577 83.677 83.516 83.477 83.944 89.128 91.695 91.851 92.529 83.658 83.234 83.178 83.225 83.341 83.451 83.204 83.101 83.174 83.874 85.438 86.06 84.842 86.764 86.491 85.394 85.453 85.46 85.452 85.459 83.245 82.48 82.408 82.438 82.444 82.438 82.451 82.435 82.406 83.067 82.998 82.337 82.323 82.195 82.267 82.261 82.19 82.237 82.337 82.324 81.914 81.236 83.593 87.389 87.467 87.439 87.414 87.417 86.97 82.881 82.164 81.073 81.042 81.022 80.928 80.881 80.935 80.92 80.901 80.811 80.797 80.72 80.617 80.686 81.206 86.034 88.86 89.685 90.355 90.703 90.089 89.231 86.398 82.242 80.817 80.783 80.696 80.49 80.458 80.447 80.463 80.692 80.973 80.501 80.574 80.665 80.741 80.722 86.161 87.594 88.639 89.005 89.213 88.553 87.294 82.085 82.056 80.808 80.731 81.108 80.747 81.569 80.796 80.876 80.927 80.846 81.179 81.04 81.525 81.794 83.35 84.585 87.987 88.97 89.822 89.628 89.591 88.513 83.372 81.929 81.604 81.42 82.014 82.458 81.609 81.309 81.38 81.731 82.013 81.66 81.534 82.168 82.036 82.592 89.829 90.145 90.555 90.984 90.943 91.186 89.313 84.382 81.948 81.886 -9999 -9999 -9999 -9999 -9999 -9999 -9999 -9999 -9999 -9999 -9999 -9999 -9999 -9999 -9999 -9999 -9999 -9999 -9999 -9999 -9999 -9999 -9999 -9999 -9999 -9999 -9999 -9999 -9999 -9999 -9999 -9999 -9999 -9999 -9999 -9999 -9999 -9999 -9999 -9999 -9999 -9999 -9999 -9999 -9999 -9999 -9999 -9999 -9999 -9999 -9999 -9999 -9999 -9999 -9999 -9999 -9999 -9999 -9999 -9999 -9999 -9999 -9999 -9999 -9999 -9999 -9999 -9999 -9999 -9999 -9999 -9999 -9999
64.724 64.69 64.669 64.668 64.683 64.696 64.701 64.736 64.718 64.738 64.739 64.577 64.635 64.771 65.554 66.55 65.703 64.976 64.989 64.937 64.912 64.914 65.004 65.061 65.116 65.149 65.931 74.71 78.061 77.93 77.498 78.37 77.346 77.5 77.99 76.996 77.96 77.946 77.533 78.35 77.733 77.854 78.634 77.173 77.981 77.91 78.46 78.4 77.675 77.774 -9999 -9999 -9999 -9999 -9999 -9999 -9999 -9999 -9999 -9999 -9999 -9999 -9999 -9999 -9999 -9999 -9999 -9999 -9999 -9999 -9999 -9999 -9999 -9999 -9999 -9999 -9999 -9999 -9999 -9999 -9999 -9999 -9999 -9999 -9999 -9999 -9999 -9999 -9999 -9999 -9999 -9999 -9999 73.416 73.431 73.529 73.59 73.617 73.633 73.699 73.725 73.761 79.351 81.402 82.14 83.159 82.877 81.928 81.219 81.152 81.752 82.664 83.121 82.24 81.425 80.266 76.682 76.1 79.577 82.98 82.064 82.028 82.029 82.043 81.987 82.02 82.022 82.054 82.079 82.048 82.054 82.095 82.013 82.082 82.798 82.498 82.32 82.069 82.025 78.629 77.596 77.482 77.476 77.514 77.519 77.529 77.548 77.548 77.581 77.664 78.95 78.492 79.165 78.505 78.169 78.154 78.141 78.111 78.111 78.039 81.264 82.978 83.747 83.264 83.427 83.787 83.239 83.684 83.164 83.17 83.583 82.977 83.428 83.197 83.122 83.749 82.625 82.512 79.296 78.631 78.693 78.796 78.848 78.972 79.912 79.176 79.176 79.232 79.334 79.399 79.409 79.44 79.478 79.54 79.791 80.579 80.85 80.768 80.769 80.829 80.855 80.813 81.373 89.086 90.436 89.463 85.268 82.92 81.883 82.555 81.783 82.722 82.465 82.04 82.132 83.977 83.916 82.733 84.325 83.643 85.244 88.006 91.248 92.545 92.944 93.049 88.821 83.522 83.242 83.347 83.227 83.26 83.136 83.107 83.123 85.847 85.603 85.246 86.059 97.171 107.793 87.968 85.412 85.477 85.446 85.426 85.395 82.988 82.368 82.345 82.376 82.368 82.301 82.31 82.304 83.186 82.886 82.225 82.193 82.13 82.228 82.195 82.109 82.2 82.277 83.31 81.583 81.192 81.161 84.725 87.385 87.442 87.419 87.379 87.348 81.513 81.039 81.035 81.031 80.981 80.944 80.898 80.918 80.841 80.824 80.714 80.714 80.631 80.57 80.498 80.495 85.718 89.797 90.337 90.659 89.826 90.055 84.174 81.892 80.81 81.149 80.689 80.321 80.364 80.402 80.416 80.364 81.205 80.659 80.453 80.68 80.893 81.478 84.311 87.919 89.471 89.4 88.677 88.191 87.395 81.877 80.768 80.611 80.681 80.506 81.293 80.806 80.67 80.687 80.809 80.863 81.006 82.188 81.495 81.651 81.572 83.218 88.17 88.942 90.144 89.536 89.508 89.553 82.834 81.535 81.518 81.359 81.276 81.398 81.643 81.235 81.284 81.544 82.623 83.478 82.13 81.655 81.866 83.728 89.582 90.844 90.779 90.907 90.873 90.761 87.1 87.832 82.385 81.804 81.813 81.747 -9999 -9999 -9999 -9999 -9999 -9999 -9999 -9999 -9999 -9999 -9999 -9999 -9999 -9999 -9999 -9999 -9999 -9999 -9999 -9999 -9999 -9999 -9999 -9999 -9999 -9999 -9999 -9999 -9999 -9999 -9999 -9999 -9999 -9999 -9999 -9999 -9999 -9999 -9999 -9999 -9999 -9999 -9999 -9999 -9999 -9999 -9999 -9999 -9999 -9999 -9999 -9999 -9999 -9999 -9999 -9999 -9999 -9999 -9999 -9999 -9999 -9999 -9999 -9999 -9999 -9999 -9999 -9999 -9999 -9999 -9999 -9999
64.694 64.688 64.685 64.691 64.707 64.699 64.697 64.709 64.717 64.709 64.577 64.651 64.828 65.939 66.431 65.561 65.247 65.103 65.059 65.09 65.03 65.025 65.067 65.142 65.224 65.24 65.269 73.548 75.324 78.02 77.707 77.637 78.391 77.694 77.822 78.16 77.211 78.28 77.519 77.659 78.261 77.044 77.876 78.252 78.182 78.395 77.5 77.827 -9999 -9999 -9999 -9999 -9999 -9999 -9999 -9999 -9999 -9999 -9999 -9999 -9999 -9999 -9999 -9999 -9999 -9999 -9999 -9999 -9999 -9999 -9999 -9999 -9999 -9999 -9999 -9999 -9999 -9999 -9999 -9999 -9999 -9999 -9999 -9999 -9999 -9999 -9999 -9999 -9999 -9999 -9999 -9999 -9999 -9999 -9999 -9999 -9999 73.649 73.63 73.648 73.656 73.691 74 80.455 81.416 82.312 83.165 82.703 81.955 81.149 81.202 81.906 82.761 83.169 82.352 81.543 78.85 76.331 76.219 80.434 82.105 82.092 82.065 82.049 82.042 82.025 81.984 82.008 82.049 82.045 82.068 82.065 82.047 82.075 82.506 82.048 82.277 81.168 78.134 77.522 77.489 77.492 77.513 77.509 77.57 77.532 77.564 77.585 77.598 77.609 78.836 79.059 78.896 78.274 78.178 78.152 78.076 78.131 78.088 78.068 78.105 81.597 83.073 83.793 83.094 83.382 83.187 82.972 83.867 83.112 83.217 83.394 82.996 83.656 83.159 83.328 79.564 78.553 78.554 78.641 78.722 78.804 78.834 78.903 79.132 79.055 79.043 79.111 79.239 79.355 79.373 79.385 79.436 79.481 79.685 80.695 80.897 80.967 80.783 80.822 80.908 80.854 80.854 81.801 88.949 85.358 81.615 82.744 83.261 81.553 81.562 81.764 81.848 81.927 82.519 82.79 82.83 82.967 82.796 83.255 87.807 91.519 92.284 93.417 92.974 92.498 91.547 86.606 83.748 83.297 83.249 83.17 83.133 83.127 84.664 85.307 86.638 86.386 86.302 99.508 105.221 93.771 83.079 85.364 85.455 85.368 83.874 84.154 82.453 82.324 82.286 82.247 82.224 82.155 82.185 83.119 82.327 82.197 82.032 82.056 82.131 82.103 82.101 82.211 82.209 83.224 81.333 81.151 81.142 81.298 85.089 87.39 87.394 85.067 81.776 81.249 81.012 81.019 80.945 80.922 80.899 80.918 80.854 80.714 80.696 80.705 80.623 80.599 80.499 80.433 80.316 82.998 90.034 90.431 89.923 87.017 83.352 81.81 80.707 80.976 80.375 80.237 80.241 80.271 80.316 80.49 80.406 80.254 81.364 80.705 80.874 83.951 86.541 87.994 88.606 89.42 88.518 87.87 86.835 83.19 81.243 80.696 80.459 80.401 80.516 81.386 80.657 80.578 81.217 80.81 80.725 81.799 81.5 82.027 85.943 86.278 88.277 89.343 90.24 89.363 89.167 87.708 82.603 81.335 81.447 81.262 81.212 81.961 81.655 81.221 81.236 81.237 81.736 81.706 81.964 82.166 85.537 87.773 89.986 91.083 90.984 90.79 90.775 89.832 84.121 83.593 82.46 81.985 81.852 81.729 81.675 81.66 -9999 -9999 -9999 -9999 -9999 -9999 -9999 -9999 -9999 -9999 -9999 -9999 -9999 -9999 -9999 -9999 -9999 -9999 -9999 -9999 -9999 -9999 -9999 -9999 -9999 -9999 -9999 -9999 -9999 -9999 -9999 -9999 -9999 -9999 -9999 -9999 -9999 -9999 -9999 -9999 -9999 -9999 -9999 -9999 -9999 -9999 -9999 -9999 -9999 -9999 -9999 -9999 -9999 -9999 -9999 -9999 -9999 -9999 -9999 -9999 -9999 -9999 -9999 -9999 -9999 -9999 -9999 -9999 -9999 -9999 -9999
