ncols 434
nrows 31
xllcorner    433042
yllcorner    435490
cellsize     2
NODATA_value -9999
63.819 63.724 63.636 63.583 63.594 63.527 63.512 63.559 63.441 63.341 63.409 63.397 63.318 63.255 63.308 63.418 63.362 63.309 63.252 63.169 63.15 63.055 62.969 62.896 62.808 62.707 62.678 62.523 62.544 62.534 62.685 66.647 68.66 69.016 68.502 68.112 62.953 64.549 64.231 63.573 62.999 61.117 59.87 59.897 59.868 61.892 63.01 63.53 64.133 64.661 61.126 59.839 60.923 61.1 60.81 59.918 62.279 60.072 60.206 60.455 60.334 60.899 60.2 59.928 60.869 60.598 63.579 66.821 67.486 65.465 62.887 62.43 62.542 62.577 62.583 62.601 62.6 62.558 62.464 62.343 62.142 61.881 61.56 61.107 60.626 60.138 59.795 59.258 58.783 58.553 58.411 58.258 58.188 58.15 58.027 57.894 58.749 59.731 60.113 58.95 57.708 57.619 57.615 57.631 57.678 57.722 57.535 57.579 57.77 57.595 57.256 57.1 57.016 57.363 60.718 62.327 61.017 56.727 55.35 55.036 54.726 54.841 54.737 54.453 54.442 54.488 54.452 54.452 54.342 54.271 54.32 54.226 54.091 54.282 54.372 54.439 54.465 54.49 54.487 54.494 54.469 54.22 54.859 59.603 61.478 62.327 59.828 55.631 54.161 55.522 54.907 54.838 54.968 55.026 54.606 54.588 54.712 55.438 55.123 55.082 55.053 55.124 55.598 54.994 55.048 55.163 55.038 54.966 54.95 55.98 55.27 55.176 55.223 55.197 55.722 55.454 55.428 55.418 57.135 57.529 55.495 55.502 56.993 61.899 57.495 57.444 58.672 56.219 58.271 57.184 60.266 63.876 61.213 56.886 55.538 55.758 57.264 57.284 56.936 56.072 55.731 55.651 55.629 56.802 56.663 55.478 55.532 55.642 55.736 55.846 56.205 56.157 56.258 56.253 56.321 56.397 56.31 56.304 56.378 56.399 56.385 56.28 56.36 56.455 56.496 56.5 56.434 56.622 56.667 57.048 56.858 56.783 56.794 56.809 56.739 56.789 56.917 56.955 56.994 56.925 57.04 57.069 57.163 57.273 58.119 57.904 58.346 57.903 57.875 58.045 58.437 57.658 57.976 69.227 70.459 70.22 70.204 70.221 70.215 70.173 70.182 70.201 70.214 70.233 70.203 70.194 70.178 70.443 72.826 72.896 73.802 73.966 74.16 70.247 66.221 57.769 57.716 57.713 57.521 57.389 57.891 57.336 57.308 57.256 57.155 57.201 57.643 58.776 58.89 58.219 58.611 57.892 57.638 59.552 57.632 59.503 59.252 58.555 57.814 57.31 57.408 57.097 57.128 63.891 65.406 65.002 67 59.105 56.725 56.946 56.769 56.91 56.595 56.32 58.709 57.774 56.207 60.019 64.583 65.901 62.786 59.033 57.123 57.277 56.245 55.809 55.832 55.883 55.921 55.926 55.986 56.024 56.057 56.047 56.055 56.051 56.037 56.041 56.032 56.042 55.976 55.944 55.917 55.872 55.832 55.812 55.796 55.909 56.082 58.739 58.387 58.527 59.145 59.431 59.754 60.092 60.446 60.73 61.046 61.444 61.743 62.16 62.539 62.709 61.587 61.577 61.594 61.621 61.649 61.814 61.549 61.207 60.978 60.873 60.586 60.535 60.672 60.868 61.148 61.342 61.613 57.14 55.109 55.137 55.074 55.057 55.078 55.136 55.119 55.137 55.182 55.274 55.409 55.432 55.464 55.35 56.255 54.943 54.569 54.22 54.045 53.676 53.641 53.591 53.603 53.615 53.605 53.627 53.654 53.631 53.655 53.641 53.646 53.631 53.637 53.636 53.67 53.686 53.638 53.658 53.703 53.708 53.722 53.699 53.704 53.777 53.734 53.735 53.727 53.729 53.744 53.773 53.761 53.76
65.508 63.876 63.688 63.652 63.585 63.576 63.521 63.544 63.523 63.467 63.486 63.4 63.42 63.283 63.347 63.62 63.526 63.449 63.43 63.386 63.333 63.232 63.152 63.023 62.931 62.846 62.767 62.627 62.638 62.654 62.595 62.752 66.666 69.59 68.833 69.066 67.145 62.902 63.536 62.979 62.334 59.863 59.913 59.949 59.923 59.905 61.923 62.986 63.574 61.817 59.82 59.836 60.128 60.093 60.042 62.537 64.299 60.143 60.845 60.09 60.585 60.885 60.933 60.747 61.38 64.63 65.321 64.486 67.42 66.717 62.473 62.469 62.5 62.515 62.551 62.53 62.534 62.489 62.368 62.171 61.94 61.671 62.84 60.737 60.215 59.778 59.255 58.777 58.613 58.526 58.333 58.259 58.276 58.193 58.135 58.49 61.12 62.132 61.62 58.447 57.817 57.658 57.656 57.723 57.807 57.795 57.764 57.704 57.72 57.608 57.334 57.274 57.127 56.996 59.522 62.577 61.336 62.798 60.499 55.986 55.053 54.735 54.724 54.59 54.455 54.384 54.369 54.382 54.313 54.25 54.186 54.29 54.111 54.108 54.281 54.334 54.379 54.374 54.397 54.439 55.049 54.532 55.163 60.194 62.052 61.669 57.119 56.085 55.444 55.611 55.166 54.781 55.553 54.99 54.591 54.595 54.598 55.657 55.049 55.024 55.009 55.108 55.565 54.931 55.016 55.011 55.048 54.894 54.889 54.953 55.368 55.327 55.285 55.564 56.209 55.623 55.425 55.509 56.353 57.412 55.436 55.474 55.874 60.018 59.067 55.634 56.166 56.554 55.574 57.012 64.164 65.387 62.771 57.385 56.312 56.751 56.2 55.881 55.917 56.622 55.807 55.484 55.775 55.738 56.227 56.268 55.604 55.715 55.786 55.887 55.972 56.753 56.142 56.236 56.295 56.292 56.247 56.294 56.368 56.3 56.214 56.303 56.427 56.45 56.397 58.561 57.956 57.072 57.399 60.594 59.26 57.717 56.79 56.708 56.771 56.817 56.887 56.881 56.87 57.027 57.143 57.114 57.211 57.905 57.665 59.234 58.838 58.535 57.788 57.674 57.62 57.597 57.798 68.628 70.329 70.208 70.465 70.173 70.194 70.185 70.189 70.165 70.161 70.186 70.233 70.199 70.208 70.279 72.233 73.914 73.88 73.883 74.041 70.246 67.748 57.838 58.088 57.551 57.472 57.353 58.15 57.253 57.251 57.204 57.073 57.107 57.734 57.39 57.442 60.513 61.653 61.709 61.823 62.936 59.327 59.24 57.405 57.311 57.253 57.264 57.389 57.84 59.075 60.08 67.127 68.611 68.991 65.506 57.507 59.383 57.971 57.008 57.113 56.369 56.298 56.315 56.25 58.38 61.978 65.769 59.655 57.563 56.487 56.794 55.794 55.821 55.857 55.868 55.934 55.925 56.002 55.998 56.02 56.055 56.082 56.033 56.044 56.049 56.029 56.016 55.965 55.963 55.927 55.852 55.822 55.793 55.86 56.534 58.058 57.843 58.103 59.135 59.388 59.709 60.046 60.371 60.725 60.941 61.233 61.73 62.063 62.443 62.747 63.143 62.754 61.916 61.647 61.668 61.774 62.013 61.783 61.545 61.413 61.169 60.941 60.8 60.601 60.617 60.848 61.083 58.235 57.532 57.906 55.511 56.041 56.225 55.058 55.106 55.089 55.143 55.177 55.296 55.339 55.39 55.418 55.287 55.202 54.71 54.29 54.037 55.07 53.61 53.577 53.599 53.601 53.6 53.612 53.615 53.621 53.606 53.628 53.639 53.631 53.635 53.652 53.665 53.674 53.668 53.686 53.679 53.664 53.639 53.687 53.72 53.742 53.736 53.718 53.73 53.724 53.696 53.737 53.755 53.772 53.771
66.094 63.979 63.854 63.991 64.008 64.08 63.617 63.561 63.513 63.474 63.479 63.444 63.426 63.406 63.359 63.821 63.413 63.399 63.421 63.471 63.439 63.404 63.31 63.157 63.08 63.022 62.896 62.792 62.739 62.739 62.71 62.688 63.019 67.224 67.431 67.633 64.177 60.267 60.505 62.239 59.869 59.905 59.996 60.019 60.037 59.973 59.907 61.945 60.841 60.581 59.996 62.35 61.476 62.068 62.479 63.909 61.309 60.699 60.25 60.408 61.097 60.9 60.993 60.821 62.012 69.004 68.855 66.629 63.419 63.008 62.471 62.489 62.502 62.523 62.526 62.511 62.459 62.354 62.229 62.004 61.729 61.383 61.639 60.352 59.839 59.33 58.822 58.626 58.581 58.434 58.367 58.351 58.294 58.276 58.351 59.387 61.298 61.733 58.912 58.238 57.904 57.83 57.807 57.868 57.879 57.866 57.825 57.765 57.725 57.594 57.449 57.419 57.387 57.346 56.967 58.516 59.312 61.819 61.911 56.281 55.211 54.838 54.614 54.608 54.59 54.416 54.335 54.305 54.263 54.222 54.138 54.126 54.15 53.965 53.991 54.189 54.208 54.263 54.287 54.367 54.645 53.981 58.635 60.397 61.304 60.316 55.564 55.189 55.836 55.869 55.748 55.138 56.127 55 54.593 54.548 54.593 55.418 55.038 55.058 55.191 55.166 56.903 54.956 54.985 55.11 54.966 54.923 54.929 55.01 55.303 55.196 55.226 55.243 56.255 55.535 55.462 55.526 56.498 57.349 55.466 55.551 57.729 60.173 56.828 55.682 55.925 56.076 56.289 58.586 64.849 66.463 65.467 60.669 57.327 57.146 56.736 55.554 55.472 55.848 55.586 55.497 55.176 55.021 55.373 55.638 56.598 56.818 56.461 56.502 56.166 56.117 56.296 56.147 56.186 56.21 56.211 56.29 56.268 56.207 56.275 56.352 56.369 56.357 56.308 57.073 60.291 60.761 56.961 60.737 63.203 58.674 56.622 56.714 56.777 56.861 56.846 56.822 56.959 57.092 57.123 57.252 58.058 58.851 59.93 59.884 58.672 59.778 57.911 57.693 57.568 57.588 57.768 65.12 70.676 70.267 70.203 70.188 70.183 70.186 70.162 70.148 70.247 70.212 70.22 70.197 70.204 70.268 72.199 73.982 74.017 73.649 67.157 66.13 66.508 61.441 58.115 57.456 57.391 57.313 57.135 57.171 57.18 57.154 57.064 57.087 57.992 57.962 57.634 58.545 63.419 64.104 64.293 63.35 61.01 59.534 57.359 57.339 57.23 57.922 57.779 57.436 57.452 57.004 65.344 68.322 68.599 63.145 56.652 59.177 64.561 58.483 56.982 56.474 56.262 56.23 56.263 59.577 62.013 62.674 60.779 58.364 55.95 55.865 55.732 55.812 55.866 55.867 55.931 55.946 55.907 55.986 55.999 56.034 56.062 56.056 56.08 56.049 56.026 56.02 55.995 55.969 55.923 55.897 55.802 55.795 55.922 56.094 59.712 57.931 58.874 59.253 59.597 59.923 60.213 60.583 60.857 61.135 61.531 61.869 62.321 62.621 63.043 63.259 63.028 62.793 61.8 61.666 62.54 62.541 62.119 61.917 61.742 61.501 61.325 61.152 60.946 60.611 60.564 60.666 56.629 57.919 58.072 58.196 56.315 55.105 55.067 55.053 55.059 55.106 55.195 55.288 55.282 55.31 55.243 56.506 55.083 54.442 54.11 54.571 54.081 53.546 53.54 53.568 53.597 53.612 53.594 53.627 53.63 53.634 53.625 53.616 53.628 53.639 53.648 53.65 53.631 53.653 53.668 53.664 53.682 53.673 53.668 53.675 53.725 53.71 53.733 53.708 53.696 53.744 53.738 53.747 53.737 53.768
65.206 64.093 64.053 64.017 65.581 64.295 65.263 65.012 63.554 67.204 63.64 63.49 63.468 63.457 63.422 63.376 63.395 63.306 63.299 63.356 63.347 63.362 63.408 63.333 63.271 63.148 62.984 62.863 62.842 62.835 62.826 62.824 62.843 62.967 64.146 65.33 62.823 62.264 61.419 59.896 59.866 59.933 59.969 60.008 60.002 60.019 59.98 59.875 61.808 64.489 63.99 64.206 62.927 62.537 63.291 62.447 63.075 61.729 60.265 61.871 60.726 61.267 61.209 60.834 64.483 68.621 68.58 66.517 63.066 62.59 62.529 62.497 62.489 62.493 62.48 62.449 62.361 62.188 62.015 61.645 61.415 60.925 60.408 59.874 59.377 58.951 58.68 58.604 58.467 58.439 58.409 58.374 58.428 59.591 60.185 59.172 59.099 58.633 58.539 58.155 58.027 57.908 57.951 58.014 58.059 57.949 57.915 57.927 57.778 57.767 57.631 57.556 57.326 57.192 57.073 56.639 57.154 58.319 61.924 64.071 59.125 55.65 54.723 54.462 54.614 54.532 54.309 54.235 54.21 54.187 54.14 54.093 54.13 54.013 53.882 53.987 54.152 54.16 54.104 55.008 54.096 54.154 53.995 57.074 59.375 59.704 54.877 53.947 54.781 54.552 54.311 54.612 56.051 55.946 55.851 54.587 54.656 55.229 55.401 55.096 55.072 55.132 55.89 54.915 54.919 54.961 55.012 54.96 54.957 55.075 55.595 55.204 55.244 55.216 55.408 55.922 55.678 55.588 55.527 57.621 55.548 55.526 57.639 60.131 60.12 59.826 56.204 56.625 55.89 60.015 63.317 65.741 65.568 60.238 56.139 56.636 56.55 56.529 55.52 55.465 55.329 55.13 55.005 58.051 60.911 56.282 55.458 55.612 55.74 56.062 56.108 56.663 57.192 56.263 56.105 56.193 56.252 56.194 56.18 56.315 56.292 56.303 56.302 56.318 56.45 57.377 59.215 59.23 57.532 58.076 58.323 57.026 56.627 56.744 56.766 56.753 56.759 56.829 57.043 57.02 57.127 57.424 57.183 59.326 58.533 57.687 58.9 59.075 57.851 57.719 57.59 57.546 57.604 61.893 72.035 73.04 70.365 70.193 70.217 70.242 70.19 70.162 70.173 70.175 70.222 69.963 70.246 70.126 62.282 62.047 62.202 63.922 64.471 64.481 64.43 60.374 57.765 57.442 57.357 57.254 57.109 57.076 57.089 57.068 56.974 57.019 57.936 57.587 58.131 58.482 63.081 64.445 64.574 63.454 61.393 60.276 60.183 58.632 57.473 57.579 57.437 57.345 56.902 56.793 56.719 58.308 58.102 56.723 56.598 57.246 63.662 59.169 56.81 56.397 56.218 56.207 56.163 59.831 61.857 64.269 66.399 63.07 57.098 55.845 55.744 55.797 55.839 55.881 55.86 55.918 55.95 55.969 55.988 56.023 56.007 56.031 56.061 56.03 56.015 55.998 55.997 55.975 55.914 55.854 55.837 55.925 55.887 57.137 56.763 58.746 59.139 59.473 59.694 60.11 60.502 60.804 61.074 61.341 61.831 62.224 62.545 62.848 63.27 63.22 62.911 62.546 62.201 61.852 61.966 62.444 62.409 62.246 61.992 61.804 61.634 61.47 61.153 60.981 60.78 59.617 58.313 58.062 58.051 58.039 58.037 58.441 55.706 55.043 55.068 55.085 55.245 55.255 55.261 55.23 55.14 54.864 54.532 54.247 53.976 53.648 53.545 53.574 53.586 53.577 53.558 53.577 53.573 53.6 53.607 53.595 53.629 53.637 53.626 53.614 53.618 53.611 53.626 53.662 53.666 53.668 53.683 53.67 53.695 53.695 53.685 53.697 53.712 53.702 53.733 53.712 53.753 53.738 53.737 53.771
68.151 66.559 64.886 64.617 65.537 64.086 64.032 63.943 63.868 65.459 63.647 63.606 63.53 63.405 63.45 64.207 63.615 63.347 63.356 63.335 63.341 63.287 63.3 63.35 63.296 63.182 63.075 62.935 62.976 62.944 62.904 62.897 62.87 62.979 63.201 63.75 63.526 62.735 61.925 61.347 60.118 59.913 59.949 59.94 59.954 59.922 59.838 59.818 62.917 64.711 64.209 62.608 61.488 62.113 61.876 61.864 63.253 61.989 62.028 61.541 61.852 67.072 62.66 61.627 62.069 62.75 62.608 62.599 62.601 62.599 62.549 62.493 62.481 62.45 62.432 62.341 62.214 61.983 61.747 61.401 61.034 60.55 60.065 59.556 59.069 58.783 58.669 58.507 58.485 58.471 58.428 58.439 59.19 60.828 59.157 59.264 58.736 58.506 58.452 58.277 58.078 58.059 58.14 58.119 58.079 57.999 57.947 58.076 57.965 57.82 57.725 57.725 58.29 57.612 56.929 56.764 56.59 57.424 62.153 63.857 60.968 60.194 55.159 54.631 54.506 54.499 54.376 54.276 54.15 54.121 54.078 54.004 53.956 53.998 54.012 53.892 53.81 54.029 53.997 55.073 53.76 53.78 53.786 53.733 53.815 54.859 55.046 54.114 53.453 53.357 54.893 54.488 55.218 56.248 55.806 54.875 54.763 56.671 55.756 55.144 55.011 55.338 57.721 54.891 54.884 54.933 55.145 54.96 54.963 55.081 55.885 55.195 55.221 55.289 56.143 55.961 55.593 55.666 55.546 57.695 55.907 55.523 55.686 59.598 59.441 57.29 56.412 56.486 58.919 60.116 61.171 64.088 60.896 56.611 55.922 55.423 55.608 56.479 55.929 55.325 55.146 55.127 59.695 61.465 62.882 60.785 56.227 55.459 55.726 55.863 55.869 56.022 56.983 55.993 55.995 56.14 56.129 56.085 56.2 56.269 56.237 56.219 56.166 56.416 56.499 56.628 59.289 60.553 56.779 56.703 56.533 56.594 56.668 56.705 56.692 56.648 56.855 56.91 56.892 56.969 57.381 57.151 57.13 57.203 57.358 57.47 57.656 58.469 57.879 57.716 57.556 57.486 57.487 58.309 69.453 73.889 71.292 70.221 70.207 70.192 70.218 69.954 70.073 65.96 59.171 57.561 57.492 57.556 57.53 57.474 57.544 64.45 67.922 68.111 67.103 60.685 57.481 57.422 57.44 57.236 57.07 56.958 56.997 57.001 56.924 56.901 56.972 58.333 58.058 58.469 62.522 65.289 65.228 63.893 62.496 60.697 60.56 58.346 57.47 57.518 59.28 59.085 56.913 56.78 56.681 56.656 56.584 56.549 56.678 59.199 64.208 59.5 56.671 56.333 56.191 56.146 56.13 56.374 59.062 60.862 66.281 67.278 66.562 57.309 55.978 55.779 55.83 55.843 55.878 55.932 55.955 56.016 55.983 55.978 55.991 56.038 56.064 56.028 56.016 55.999 55.999 55.916 55.913 55.834 55.9 55.928 56.976 55.962 58.311 59.054 59.418 59.755 60.064 60.246 60.567 60.921 61.209 61.509 62.003 62.42 62.735 63.14 63.274 63.018 62.647 62.396 62.041 62.024 62.581 62.424 62.722 62.578 62.396 62.205 61.995 61.776 61.579 61.288 60.227 58.638 58.145 58.103 58.072 58.057 58.068 58.044 55.925 55.042 55.022 55.103 55.255 55.262 55.207 55.176 55.078 54.629 54.22 54.044 54.845 53.598 53.493 53.561 53.58 53.591 53.556 53.565 53.58 53.573 53.592 53.603 53.612 53.603 53.626 53.592 53.628 53.641 53.596 53.668 53.637 53.657 53.65 53.647 53.656 53.663 53.668 53.672 53.671 53.699 53.692 53.71 53.691 53.727 53.715 53.719
70.069 70.797 70.342 69.636 68.362 65.438 64.238 64.208 65.098 64.518 63.792 63.733 63.621 63.529 63.561 63.782 64.01 63.791 64.284 63.56 63.352 63.348 63.283 63.283 63.197 63.193 63.093 63.03 63.038 63.019 62.934 62.98 62.962 62.914 63.016 63.222 63.72 63.573 62.46 61.771 61.162 60.208 60.075 59.908 60.26 60.47 60.005 59.895 60.437 62.246 61.379 61.793 61.918 61.179 61.152 60.796 60.889 61.182 63.28 65.16 67.731 68.619 64.85 62.206 62.576 62.571 62.627 62.641 62.603 62.569 62.539 62.468 62.425 62.384 62.343 62.214 61.991 61.725 61.386 61.06 60.414 59.895 59.389 59.074 58.789 58.675 58.582 58.546 58.54 58.489 58.479 58.837 59.698 59.761 59.404 59.023 58.719 58.556 58.363 58.252 58.125 58.107 58.154 58.28 58.218 58.241 58.066 58 57.878 57.753 57.7 57.597 57.831 59.311 56.964 56.863 56.667 56.472 57.585 62.743 62.634 63.262 57.539 54.842 54.636 54.373 54.406 54.351 54.193 54.069 54.038 53.991 53.892 53.919 53.988 53.932 53.788 53.757 53.894 54.263 53.793 53.776 53.757 53.735 53.811 54.862 53.185 54.542 54 53.294 53.724 53.561 53.538 54.033 55.768 56.322 56.564 57.782 58.668 57.721 57.265 58.092 58.267 54.874 54.71 54.916 55.129 54.97 54.922 55.041 55.87 55.349 55.234 55.315 56.071 56.573 55.559 55.528 55.511 57.224 55.945 55.635 55.701 59.315 58.694 59.624 59.809 59.823 58.621 58.696 58.256 58.208 57.157 55.541 57.095 55.648 55.215 55.167 56.626 55.959 57.774 59.486 62.013 63.178 63.024 61.547 57.633 55.281 55.663 55.848 56.346 56.364 56.036 55.902 55.917 55.935 55.955 56.06 56.161 56.167 56.091 56.132 56.345 56.424 58.13 60.366 62.922 62.018 57.561 56.491 56.551 56.624 56.635 56.63 56.688 56.819 56.901 56.908 56.87 57.192 57.035 57.05 57.111 57.157 57.321 57.445 57.586 59.097 57.947 57.743 57.592 57.513 57.508 58.176 69.609 71.198 70.857 62.025 61.059 61.128 61.15 57.548 57.516 57.534 57.513 57.504 57.468 57.433 57.402 57.436 57.517 64.051 67.077 68.534 66.893 65.558 57.495 57.34 59.566 57.294 57.047 56.967 56.895 56.92 56.914 56.796 56.987 58.988 58.151 57.325 60.656 63.668 64.469 63.844 62.785 61.126 59.7 57.816 59.506 60.301 60.553 60.783 58.937 57.11 57.397 57.458 56.529 56.604 56.346 56.497 65.848 65.748 56.74 56.214 56.156 56.059 56.035 56.052 56.479 57.079 58.094 64.532 67.736 64.394 63.754 56.143 55.822 55.837 55.878 55.875 55.926 55.967 55.978 55.993 55.991 56.037 56.033 56.009 55.991 55.983 55.972 55.935 55.875 55.805 55.978 56.018 57.265 57.215 58.878 59.253 59.646 59.878 60.218 60.541 60.876 61.242 61.433 61.891 62.319 62.624 62.958 63.301 63.056 62.755 62.43 62.036 61.85 62.267 62.783 63.281 63.524 61.075 60.969 62.092 62.365 62.122 61.904 61.643 58.95 58.243 58.125 58.081 58.071 58.048 58.037 56.473 55.075 55.043 55.09 55.182 55.207 55.218 55.14 55.079 55.089 54.532 54.189 54.61 54.056 53.526 53.542 53.559 53.557 53.587 53.565 53.57 53.565 53.547 53.576 53.578 53.595 53.613 53.604 53.603 53.625 53.624 53.653 53.627 53.604 53.624 53.665 53.682 53.668 53.699 53.696 53.676 53.668 53.665 53.684 53.674 53.695 53.698 53.731 53.77
70.795 72.058 71.992 71.518 71.046 70.499 69.343 64.783 65.697 64.272 63.98 63.928 63.839 63.772 63.681 63.616 63.561 63.471 63.607 63.6 63.341 63.336 63.335 63.282 63.286 63.225 63.202 63.169 63.119 63.114 63.08 63.038 63.051 63.008 62.941 63.096 63.536 63.663 63.333 63.273 61.491 61.399 60.895 61.056 61.11 61.576 61.696 61.245 61.053 61.848 61.7 60.951 60.981 61.342 61.239 61.296 65.499 65.49 68.257 69.596 68.071 67.765 62.868 62.604 62.682 62.681 62.668 62.625 62.578 62.53 62.479 62.416 62.358 62.249 62.171 61.98 61.721 61.372 60.99 60.541 59.854 59.414 59.042 58.863 58.736 58.625 58.615 58.605 58.562 58.522 58.613 58.77 59.087 59.556 59.218 58.728 58.855 58.585 58.358 58.265 58.224 58.185 58.365 58.376 58.309 58.224 58.202 58.197 58.023 57.874 57.804 57.627 57.47 57.184 56.912 56.817 56.688 56.491 56.316 56.697 60.467 61.57 62.588 59.047 57.733 57.53 54.385 54.291 54.255 54.113 53.966 53.915 53.854 54.497 54.943 53.937 53.886 53.723 54.185 54.379 53.866 53.835 53.813 54.85 54.171 53.799 58.749 58.908 54.097 53.782 53.156 53.209 53.44 54.838 54.488 53.724 57.207 59.564 63.619 62.271 58.737 58.781 59.01 55.871 54.727 54.75 55.843 54.998 54.888 55.007 55.79 55.344 55.297 55.314 55.396 55.846 55.516 55.526 55.553 57.041 56.903 57.839 55.97 58.908 60.332 60.169 57.848 57.724 58.012 58.072 57.808 57.76 57.427 55.626 55.869 56.505 55.551 55.193 55.179 58.059 59.512 62.072 63.11 62.947 61.684 60.275 55.651 55.139 55.525 56.06 56.265 56.042 56.075 56.355 55.846 55.894 56.033 56.06 56.066 56.055 56.201 56.332 56.344 56.413 56.507 59.519 61.57 57.76 56.448 56.538 56.625 56.61 56.595 56.667 56.767 56.809 56.851 56.888 57.337 57.023 57.073 57.233 61.203 60.769 59.821 57.461 57.438 58.601 58.301 57.82 57.647 57.567 57.546 57.817 63.782 66.363 59.412 57.551 57.524 57.505 57.478 57.505 57.49 57.502 57.457 57.448 57.415 57.351 57.322 57.398 57.484 63.436 67.332 68.38 67.02 65.809 57.436 57.407 62.987 63.817 61.114 59.961 56.818 56.812 56.771 56.731 56.757 57.62 57.154 57.238 60.864 63.526 63.647 63.422 63.004 61.155 58.768 57.276 57.954 60.49 60.31 60.047 58.302 56.986 56.9 56.317 56.202 56.194 56.147 56.098 60.614 63.03 56.688 56.124 56.094 56.003 55.894 55.91 55.937 55.915 55.899 56.979 62.25 62.794 66.187 59.37 55.948 55.99 55.832 55.875 55.902 55.937 55.937 55.972 55.985 55.96 55.959 55.964 55.966 55.96 55.945 55.911 55.838 55.947 56.018 57.087 56.201 58.4 59.033 59.392 59.727 60.068 60.373 60.812 61.101 61.437 61.693 62.073 60.214 59.843 62.357 63.199 62.879 62.487 62.202 61.943 62.22 62.681 63.304 63.524 63.213 62.832 61.971 59.774 60.217 62.375 62.242 59.892 57.775 58.103 58.074 58.026 58.045 58.035 57.938 55.397 55.041 55.011 55.127 55.131 55.168 55.066 55.04 54.989 54.628 54.255 54.012 53.717 53.551 53.532 53.511 53.561 53.551 53.557 53.497 53.53 53.567 53.57 53.558 53.574 53.56 53.572 53.6 53.591 53.598 53.653 53.625 53.66 53.62 53.619 53.637 53.651 53.667 53.682 53.659 53.69 53.675 53.696 53.679 53.663 53.688 53.687 53.685 53.7
69.709 70.431 70.986 71.592 71.971 71.711 70.439 65.709 65.936 64.37 64.408 64.16 64.078 63.941 63.879 63.849 63.78 63.683 63.534 63.551 63.444 63.444 63.36 64.15 63.923 63.288 63.252 63.211 63.135 63.119 63.116 63.041 63.078 63.079 63.016 62.995 63.08 63.772 63.857 63.816 63.001 62.12 61.895 61.966 62.155 62.815 62.118 61.834 61.23 61.643 61.407 61.51 61.705 62.511 67.726 63.9 65.636 67.535 69.624 68.523 64.672 63.035 62.668 62.726 62.749 62.699 62.673 62.596 62.553 62.454 62.397 62.361 62.266 62.127 61.975 61.738 61.329 60.959 60.467 59.967 59.457 59.144 58.915 58.733 58.692 58.671 58.643 58.62 58.664 58.673 58.608 58.94 59.525 59.341 58.902 58.903 58.837 58.657 58.58 58.549 58.395 58.318 58.396 58.399 58.312 58.394 58.217 58.125 58.022 57.964 57.861 57.706 57.569 57.512 57.208 57.027 56.765 56.439 56.268 56.169 55.985 61.34 63.575 62.32 61.194 59.355 54.484 54.251 54.249 54.248 54.072 53.859 53.839 53.812 54.04 53.735 53.762 53.693 53.644 53.744 54.223 55.009 54.466 53.743 53.319 59.365 60.127 60.058 58.87 54.852 53.015 52.981 54.939 54.548 53.601 53.625 56.355 60.29 63.332 57.962 58.771 59.06 59.501 59.183 56.524 57.139 55.961 54.962 55.035 55.201 55.012 55.665 55.406 55.316 55.31 56.538 55.568 55.553 55.857 56.987 58.893 59.932 60.197 60.3 60.241 59.485 56.935 58.155 57.905 56.103 55.847 57.544 56.657 55.888 55.799 55.801 56.707 55.415 57.777 60.542 63.179 63.641 62.442 61.65 60.29 55.836 55.215 55.528 56.237 55.991 55.899 55.968 55.896 55.777 55.866 55.938 55.983 56.01 55.963 57.914 60.547 56.622 56.365 56.427 56.503 56.502 57.382 56.4 56.477 56.533 56.573 56.539 56.613 56.701 57.015 56.791 57.309 57.241 57.048 57.077 57.659 61.495 63.91 63.621 64.945 60.913 57.337 57.764 58.183 57.837 57.744 57.598 57.562 57.559 58.597 65.568 59.696 57.49 57.45 57.408 57.446 57.483 57.462 57.434 57.441 57.401 57.439 57.394 57.379 57.43 57.448 59.041 66.602 68.343 67.633 66.27 58.953 59.348 63.722 64.631 62.997 58.092 56.698 56.675 56.649 56.621 56.634 56.93 57.063 57.099 60.354 62.713 58.855 59.384 58.924 58.028 58.219 58.605 58.534 58.781 58.752 58.813 58.007 56.551 56.293 56.517 56.14 56.117 56.151 56.141 57.74 57.796 56.522 56.258 56.018 55.938 55.852 55.781 55.808 55.837 55.806 55.783 56.558 56.987 59.199 56.086 56.247 60.161 56.212 55.996 55.771 55.892 55.914 55.912 55.956 55.933 55.932 55.922 55.937 55.94 55.902 55.867 55.88 55.937 61.406 60.735 57.049 59.015 59.328 59.648 59.994 60.251 60.57 60.923 61.247 61.52 61.983 61.605 59.084 58.837 59.559 62.06 62.594 62.381 61.988 62.029 62.339 62.967 63.526 63.282 62.982 62.5 61.88 61.398 60.804 59.318 62.178 58.313 55.918 55.121 56.893 57.978 58.079 58.021 55.937 55.088 55.005 55.072 55.126 55.133 55.06 54.98 54.824 54.577 54.344 54.063 53.909 53.58 53.527 53.524 53.539 53.497 53.535 53.55 53.578 53.546 53.564 53.561 53.576 53.59 53.606 53.579 53.589 53.611 53.612 53.626 53.64 53.625 53.625 53.649 53.601 53.663 53.649 53.67 53.656 53.661 53.628 53.644 53.65 53.688 53.642 53.667 53.668 53.686
64.649 65.152 68.425 69.595 70.341 70.766 69.71 66.566 65.399 69.293 69.892 70.09 68.85 67.946 64.205 64.016 63.955 63.807 63.697 63.632 63.557 63.508 63.967 63.541 63.633 63.291 63.174 63.225 63.146 63.117 63.142 63.093 63.079 63.033 63.07 63.032 62.959 62.992 63.254 64.167 63.491 63.203 62.754 63.371 63.582 63.038 62.384 62.11 61.995 62.09 62.017 62.186 62.18 62.261 66.761 64.569 62.96 65.78 69.221 64.168 63.892 62.763 62.767 62.741 62.699 62.669 62.626 62.559 62.459 62.397 62.362 62.273 62.064 61.848 61.668 61.378 61.004 60.4 59.967 59.482 59.084 58.94 58.792 58.722 58.718 58.689 58.612 58.675 59.298 59.17 59.126 59.738 59.555 58.904 59.121 58.953 58.823 58.87 58.772 58.664 58.641 58.504 58.4 58.457 58.342 58.277 58.231 58.194 58.088 58.094 57.952 57.843 57.784 57.543 57.344 57.1 56.906 56.671 56.538 56.375 56.132 59.712 59.431 62.102 63.239 57.938 55.145 54.423 54.191 54.149 54.138 53.852 53.784 53.741 53.778 53.722 53.696 53.641 53.678 53.598 54.205 53.926 53.729 53.237 54.052 58.652 60.384 61.22 60.236 58.966 54.118 54.89 54.124 53.351 54.095 55.51 55.628 53.787 54.172 54.396 56.758 57.991 59.142 59.467 59.73 58.697 57.81 56.908 56.792 55.064 55.349 55.442 55.258 55.262 55.426 57.051 57.901 58.259 58.565 58.811 60.044 60.154 60.174 57.869 57.548 56.37 55.825 57.226 55.652 55.598 55.484 55.773 56.816 56.26 55.542 55.508 55.38 57.919 60.496 62.157 64.084 62.491 61.043 57.589 55.132 55.893 55.542 56.265 55.95 56.235 55.898 55.821 55.766 55.771 55.872 55.893 55.961 55.899 56.096 61.186 63.091 62.133 56.474 56.438 56.484 56.28 56.366 56.477 56.499 56.49 56.464 56.5 56.625 60.993 64.427 62.32 64.513 58.785 57.066 57.195 60.961 63.986 65.039 64.713 63.597 62.62 58.499 57.498 58.004 57.911 57.789 57.675 57.64 57.573 57.529 59.137 57.691 57.489 57.392 57.344 57.416 57.457 57.47 57.457 57.425 57.442 57.392 57.387 57.4 57.405 57.439 58.711 66.304 68.131 67.974 66.074 59.833 60.293 63.34 62.306 58.745 56.721 56.59 56.582 56.613 56.516 56.457 56.545 57.627 58.099 57.794 57.258 57.627 58.198 57.475 57.007 56.447 56.538 58.688 58.685 58.569 57.39 56.877 56.219 56.142 56.158 56.107 56.091 56.195 59.231 62.297 58.382 58.263 56.402 55.864 55.878 55.791 55.702 55.753 55.785 55.756 55.694 55.681 55.72 55.746 56.556 62.228 66.88 66.087 57.698 56.006 55.818 55.843 55.882 55.929 55.912 55.908 55.927 55.925 55.887 55.875 55.813 56.005 62.12 66.758 65.422 55.364 56.275 59.427 59.867 60.164 60.481 60.843 61.159 61.533 61.919 62.098 59.545 58.858 58.846 58.794 58.798 60.618 61.948 61.901 62.19 62.608 63.232 63.524 63.118 62.587 62.178 61.54 61.106 59.31 58.596 57.804 56.344 55.373 55.134 55.078 55.767 57.925 57.798 55.097 55.03 54.96 55.136 55.085 55.082 54.974 54.941 54.606 54.226 53.953 53.85 53.655 53.542 53.514 53.53 53.537 53.529 53.526 53.526 53.567 53.538 53.55 53.57 53.546 53.564 53.584 53.58 53.585 53.572 53.53 53.569 53.612 53.631 53.629 53.641 53.616 53.641 53.658 53.647 53.627 53.662 53.673 53.658 53.659 53.619 53.654 53.688 53.68 53.692
64.528 65.608 67.989 65.812 65.676 67.37 66.878 67.131 68.325 71.318 70.974 71.549 71.14 70.675 69.426 64.457 64.031 63.8 63.756 63.731 63.591 63.644 63.56 63.942 64.039 63.56 63.443 63.245 63.173 63.085 63.126 63.083 63.07 63.05 63.034 62.998 62.954 62.875 62.93 63.166 63.482 64.363 64.223 63.351 63.54 62.839 62.707 62.635 62.604 62.677 62.755 62.816 62.765 62.834 62.76 62.827 62.803 62.797 62.765 62.75 62.808 62.827 62.786 62.751 62.678 62.614 62.509 62.446 62.36 62.31 62.245 62.105 61.884 61.769 61.38 61 60.416 59.959 59.563 59.095 58.979 58.931 58.748 58.793 58.717 58.669 58.759 59.206 59.629 59.488 59.734 59.474 59.104 59.087 59.04 58.915 58.946 58.882 58.785 58.666 58.729 58.629 58.372 58.437 58.344 58.26 58.233 58.289 58.206 58.131 58.109 58.103 57.915 57.728 57.58 57.404 57.049 56.855 56.76 56.539 56.247 56.124 57.221 60.332 62.205 58.553 54.811 54.554 54.412 54.105 54.033 53.939 53.791 53.675 53.664 53.676 53.627 53.512 53.589 53.638 53.526 54.673 53.988 53.469 53.537 54.054 58.677 60.316 61.207 60.198 58.115 54.122 53.696 53.02 54.314 55.326 53.462 53.572 53.991 56.216 55.335 54.733 55.183 58.613 59.591 59.652 59.968 59.876 58.569 56.979 56.517 56.075 55.9 57.689 58.011 59.007 60.439 60.495 60.649 60.615 59.583 58.798 59.768 59.494 56.981 55.796 55.626 56.635 55.936 55.538 55.448 55.861 56.267 56.397 55.151 55.401 57.782 60.55 62.256 63.169 62.371 61.058 57.479 55.226 55.223 55.409 56.324 55.888 55.685 55.868 56.291 55.622 55.701 55.751 55.868 55.838 55.843 55.924 55.959 60.35 62.3 58.027 56.372 56.382 56.216 56.271 56.33 56.481 56.546 56.519 56.511 56.533 56.666 65.231 66.515 66.591 67.204 65.938 58.899 60.152 63.643 64.958 65.425 64.75 63.622 62.489 57.268 57.284 57.928 58.05 57.831 57.777 57.713 57.625 57.528 57.53 57.517 57.473 57.43 57.416 57.434 57.455 57.435 57.435 57.453 57.451 57.425 57.407 57.416 57.42 57.45 57.55 65.11 67.906 68.301 67.384 62.092 57.347 58.345 56.991 56.788 56.621 56.443 56.465 56.492 56.446 56.335 56.388 57.181 56.583 56.681 56.794 56.752 59.508 60.354 58.967 58.907 56.472 56.326 56.374 56.261 56.25 56.197 56.169 56.156 56.368 56.35 59.094 56.153 58.782 57.74 59.483 57.664 55.934 55.723 55.716 55.682 55.636 55.651 55.686 55.659 55.605 55.595 55.581 55.619 55.687 57.178 61.566 67.236 65.183 62.56 59.559 55.9 55.8 55.844 55.877 55.856 55.838 55.88 55.842 55.837 55.861 55.908 63.191 66.867 57.769 55.316 55.329 56.189 59.83 60.279 60.684 61.112 61.35 61.691 62.018 61.383 58.845 58.8 58.799 58.81 59.007 60.912 61.637 61.98 62.463 62.95 63.44 63.304 62.8 62.292 61.726 61.255 59.932 58.866 58.538 58.162 57.224 55.263 55.09 55.1 55.064 55.648 55.064 55.044 55.009 55.065 55.069 55.012 54.914 54.915 55.471 54.258 53.916 53.743 53.642 53.529 53.486 53.539 53.507 53.536 53.517 53.524 53.52 53.529 53.534 53.545 53.551 53.549 53.589 53.574 53.567 53.578 53.578 53.556 53.572 53.571 53.593 53.616 53.612 53.601 53.638 53.674 53.644 53.643 53.647 53.624 53.671 53.656 53.639 53.66 53.664 53.654 53.675
65.455 66.259 67.95 65.034 64.72 64.539 65.595 66.654 68.499 70.269 71.652 72.246 72.197 71.215 70.725 66.864 64.085 63.925 65.291 64.818 63.851 63.728 63.659 63.728 63.648 63.585 63.845 63.378 63.313 63.219 63.11 63.081 63.022 63.023 62.994 62.959 62.953 62.867 62.796 62.794 63.045 64.094 64.573 63.342 63.188 63.152 63.093 63.029 63.038 63.043 63.356 63.012 63.059 62.935 62.882 62.861 62.822 62.822 62.78 62.785 62.782 62.793 62.761 62.698 62.624 62.534 62.438 62.343 62.332 62.268 62.116 61.911 61.663 61.576 60.944 60.599 60.087 59.554 59.131 59.055 58.916 58.819 58.766 58.745 58.723 58.8 59.061 59.733 59.88 59.86 59.849 59.151 59.114 58.955 58.965 59.016 58.97 58.914 58.831 58.833 58.784 58.709 58.598 58.409 58.334 58.301 58.303 58.268 58.262 58.132 58.126 58.084 57.97 57.863 57.714 57.499 57.2 57.078 56.912 56.63 56.332 56.118 55.899 55.936 55.958 56.138 56.545 55.358 55.376 54.259 53.962 54.013 53.938 53.707 53.638 53.639 53.58 53.532 53.483 53.529 53.559 53.441 54.271 53.887 53.591 54.465 54.444 58.632 60.133 61.918 60.354 58.912 56.718 54.69 54.91 53.095 53.495 59.57 60.509 56.543 54.618 54.571 54.351 55.841 58.166 58.615 59.537 59.809 59.865 61.915 60.251 60.192 58.546 59.53 61.264 63.113 60.276 61.329 59.592 59.35 58.039 57.924 58.862 59.634 59.378 58.341 56.302 55.343 56.01 56.694 55.752 55.404 55.717 56.019 55.174 58.775 60.869 62.589 63.334 62.571 61.193 57.469 55.896 55.639 55.172 56.182 55.565 55.431 55.635 55.545 55.648 55.561 55.687 55.677 55.746 55.77 55.882 56.049 56.052 56.056 56.169 56.247 56.307 56.159 56.195 56.314 56.393 56.342 56.45 56.451 56.538 56.604 57.287 65.351 67.599 63.316 67.569 65.752 63.044 61.981 64.849 64.494 64.27 63.622 59.725 57.184 57.215 58.217 61.409 62.641 62.445 58.54 57.755 57.663 57.571 57.503 57.521 57.503 57.466 57.488 57.46 57.468 57.471 57.451 57.429 57.424 57.407 57.418 57.404 57.362 57.428 57.445 64.105 67.343 68.462 67.314 64.724 57.365 57.12 56.981 56.738 56.495 56.239 56.288 56.333 56.358 56.231 56.234 56.362 57.139 57.843 59.076 60.598 61.76 62.585 61.625 59.206 56.722 56.656 56.517 56.743 57.089 56.23 55.808 55.729 55.873 55.639 58.021 55.625 55.533 56.124 58.762 59.084 56.305 55.607 55.581 55.563 55.545 55.519 55.594 55.567 55.529 55.492 55.513 55.554 55.512 55.521 55.576 57.87 63.919 66.733 65.798 59.498 55.93 55.821 55.799 55.824 55.84 55.821 55.82 55.716 55.944 57.843 60.742 56.437 55.755 55.425 55.388 55.341 55.352 57.079 60.584 61.11 61.579 61.959 61.702 59.112 58.814 58.778 58.828 58.873 60.438 61.493 61.984 62.461 62.939 63.299 63.451 62.954 62.456 61.98 61.395 60.816 59.067 58.696 58.368 57.876 55.954 55.23 55.114 55.096 55.065 55.088 55.091 55.026 55.099 55.083 55.043 54.968 54.88 55.791 54.438 54.051 53.821 53.7 53.549 53.454 53.475 53.479 53.506 53.524 53.502 53.512 53.505 53.501 53.537 53.545 53.537 53.524 53.563 53.552 53.569 53.58 53.541 53.584 53.588 53.601 53.579 53.58 53.577 53.61 53.61 53.636 53.625 53.678 53.65 53.665 53.664 53.63 53.662 53.67 53.678 53.663 53.678
66.482 68.662 67.639 65.19 66.648 66.892 66.651 66.531 64.973 68.53 70.076 70.678 71.258 70.898 70.84 64.84 63.997 67.341 69.708 69.84 69.671 68.09 67.668 64.798 63.724 63.611 63.481 63.357 63.358 63.36 63.326 63.207 63.065 62.997 62.942 62.896 62.882 62.847 62.802 62.702 62.684 63.078 64.431 63.119 63.145 63.081 63.054 63.063 63.036 63.054 63.025 62.974 62.934 62.944 62.908 62.892 62.853 62.812 62.793 62.787 62.802 62.768 62.719 62.653 62.608 62.522 62.414 62.299 62.205 62.064 61.837 61.572 61.245 60.973 60.458 60.036 59.583 59.197 59.079 58.967 58.841 58.836 58.82 58.732 58.858 60.361 59.545 60.134 60.103 59.557 59.163 59.309 59.087 58.931 58.947 58.858 58.905 58.838 58.794 58.833 58.771 58.755 58.525 58.326 58.351 58.294 58.209 58.318 58.24 58.216 58.16 58.147 58.024 57.939 57.706 57.532 57.409 57.299 57.147 56.84 56.652 56.421 56.079 55.882 55.588 56.116 57.468 59.525 59.207 55.372 54.13 53.887 53.903 53.796 53.549 53.576 53.538 53.472 53.456 53.435 53.477 53.478 53.403 54.177 54.565 53.287 53.189 54.404 58.705 59.915 61.315 60.069 58.403 57.162 55.61 53.536 54.447 63.748 63.573 56.811 53.419 53.924 55.655 56.848 55.092 59.257 58.291 58.252 58.577 63.276 70.032 73.667 66.827 59.811 61.739 65.533 65.026 61.432 58.314 58.56 57.43 57.049 57.64 56.445 59.113 58.753 57.731 56.824 55.309 56.737 56.208 56.463 54.883 56.293 55.554 54.928 59.57 61.776 62.394 61.112 57.9 55.169 55.063 55.875 56.211 55.478 55.341 55.319 55.346 55.411 55.486 55.578 55.651 55.646 55.675 55.851 55.964 56.001 56.194 56.893 55.987 56.031 56.07 56.136 56.239 56.304 56.289 56.254 56.366 56.521 56.566 56.473 58.074 66.661 67.065 68.183 65.328 59.742 58.369 58.139 63.98 63.302 63.227 58.715 57.173 57.229 57.457 59.102 63.843 65.278 64.884 58.768 57.81 57.67 57.579 57.527 57.515 57.511 57.502 57.537 57.525 57.481 57.453 57.441 57.43 57.376 57.407 57.335 57.349 57.383 57.392 57.414 59.381 66.861 68.307 67.033 65.829 57.233 56.998 56.822 56.595 56.403 56.196 56.083 56.19 56.203 56.118 56.079 56.513 56.392 56.236 57.484 62.116 63.099 63.218 62.283 60.038 57.699 59.297 57.136 56.206 56.211 55.593 55.691 55.486 55.473 55.482 55.479 55.518 55.487 55.605 58.207 59.157 57.236 55.46 55.438 55.387 55.393 55.41 55.44 55.481 55.446 55.39 55.397 55.409 55.494 55.462 55.483 55.529 59.226 64.334 66.315 62.641 57.073 56.04 55.873 55.746 55.785 55.775 55.786 55.888 56.079 58.153 57.724 55.537 55.504 55.484 55.434 55.424 55.389 55.321 55.314 59.631 61.651 62.097 60.304 59.233 58.784 58.801 58.812 59.943 61.279 61.711 62.191 62.8 63.259 63.355 63.139 62.666 62.192 61.741 61.125 59.56 58.814 58.496 58.171 57.67 55.271 55.212 55.149 55.055 55.068 55.023 55.012 55.035 55.087 55.025 55.01 54.898 54.859 54.984 54.085 53.845 53.686 53.596 53.477 53.467 53.477 53.478 53.489 53.47 53.496 53.545 53.531 53.519 53.534 53.536 53.532 53.543 53.558 53.546 53.553 53.558 53.575 53.586 53.589 53.609 53.582 53.567 53.545 53.597 53.623 53.625 53.649 53.696 53.671 53.664 53.656 53.64 53.638 53.638 53.657 53.649 53.689
67.077 68.834 66.535 66.492 66.78 67.772 67.229 65.132 64.357 64.341 64.963 66.484 69.34 69.329 67.278 64.076 63.894 69.141 70.97 71.252 71.224 70.842 69.984 68.206 64.74 63.606 63.458 63.371 63.353 63.307 63.302 63.346 63.768 64.008 63.334 62.895 62.836 62.764 62.703 62.653 62.567 62.575 62.692 62.823 62.873 62.871 62.903 62.89 62.953 62.945 62.978 62.974 62.989 62.934 62.89 62.889 62.837 62.798 62.8 62.814 62.773 62.713 62.662 62.615 62.527 62.445 62.334 62.204 62.052 61.836 61.587 61.308 60.926 60.623 60.017 59.627 59.273 59.129 58.985 58.896 58.951 58.885 58.834 58.994 61.728 61.329 60.301 60.507 59.889 59.33 59.454 59.252 59.069 58.997 58.953 58.828 58.909 58.861 58.877 58.843 58.831 58.838 58.54 58.431 58.303 58.32 58.233 58.2 58.369 58.252 58.264 58.211 58.096 57.903 57.874 57.676 57.593 57.328 57.167 56.869 58.11 57.18 56.314 56.072 56.074 57.109 58.443 59.614 59.804 57.811 54.961 54.349 53.79 53.862 53.755 53.662 53.497 53.439 53.412 53.431 53.357 53.493 53.498 53.396 53.327 53.355 53.338 53.568 57.177 58.342 60.085 61.114 60.251 58.771 57.423 56.088 54.554 61.359 60.927 54.374 55.283 55.721 54.578 54.114 54.817 59.553 56.44 54.999 56.242 60.892 67.642 68.847 61.002 58.527 61.27 66.435 65.057 61.82 55.532 56.896 57.064 55.757 55.322 55.265 55.959 58.92 59.279 57.653 55.151 55.218 56.779 55.225 56.927 58.79 60.035 56.348 55.059 59.934 60.748 56.794 55.042 55.059 55.173 56.143 55.362 55.384 55.398 55.209 55.25 55.368 55.451 55.513 55.552 55.542 58.896 60.972 57.103 55.951 59.898 61.644 56.97 55.984 56.034 56.183 56.203 56.227 56.213 56.361 56.491 56.547 56.431 56.404 56.531 58.965 63.926 66.578 66.152 59.325 57.884 59.961 61.382 59.556 58.504 57.176 57.209 57.343 57.634 58.478 62.397 64.15 63.392 58.407 57.796 57.685 57.588 57.517 57.531 57.482 57.492 57.503 57.481 57.438 57.465 57.45 57.419 57.398 57.392 57.372 57.328 57.389 57.379 57.419 58.552 58.243 57.312 57.217 57.153 57.031 56.935 56.83 56.863 56.333 56.201 56.004 56.006 56.022 56.053 55.978 56.054 56.244 56.148 56.429 61.761 63.351 63.533 62.857 60.091 57.397 59.144 57.173 56.005 55.659 55.662 55.795 55.562 55.49 55.557 55.503 55.592 55.539 55.959 56.198 59.534 58.028 55.288 55.269 55.23 55.213 55.251 55.314 55.294 55.287 55.262 55.28 55.336 55.37 55.364 55.371 55.993 60.506 61.82 62.129 57.756 56.973 56.866 56.126 55.909 55.723 55.735 55.839 56.25 60.059 61.222 56.292 55.504 55.533 55.47 55.459 55.444 55.467 55.459 55.404 55.378 56.696 58.761 58.408 59.854 59.79 59.08 58.782 60.292 61.492 62.007 62.517 63.004 63.457 63.19 62.696 62.299 61.905 61.25 60.108 58.916 58.537 58.212 57.759 55.492 55.195 55.21 55.137 55.116 55.052 55 55.052 55.096 55.053 54.997 54.932 54.832 54.599 54.193 53.89 53.709 53.639 53.502 53.443 53.45 53.475 53.476 53.474 53.496 53.475 53.481 53.492 53.517 53.508 53.496 53.535 53.553 53.559 53.541 53.527 53.555 53.556 53.544 53.554 53.572 53.572 53.616 53.63 53.57 53.589 53.564 53.621 53.62 53.644 53.63 53.654 53.682 53.648 53.651 53.636 53.651 53.677
66.142 69.016 66.651 68.066 68.109 68.523 67.312 66.015 67.08 64.583 64.426 64.706 64.208 64.82 64.451 64.129 63.928 69.33 70.301 71.541 72.104 71.515 70.831 70.273 63.85 63.574 63.431 64.345 63.656 63.304 63.264 63.332 63.32 63.263 63.371 63.542 63.088 62.805 62.688 62.675 62.565 62.484 62.523 62.58 62.67 62.721 62.757 62.804 62.845 62.911 62.932 62.932 62.962 62.921 62.899 62.857 62.834 62.815 62.797 62.782 62.747 62.678 62.635 62.564 62.465 62.35 62.184 61.98 61.849 61.601 61.309 60.836 60.594 60.048 59.634 59.268 59.179 59.024 58.943 58.92 58.932 58.846 60.549 61.562 60.592 60.055 60.247 60.289 59.569 59.433 59.34 59.145 59.088 58.952 58.918 59.009 58.87 58.856 58.87 58.888 58.852 58.814 58.708 58.562 58.285 58.171 58.169 58.135 58.199 58.197 58.258 58.221 58.015 57.872 57.929 57.825 57.682 57.502 57.461 57.261 56.852 57.548 56.413 56.223 56.019 56.262 58.194 59.663 58.98 58.591 57.996 54.85 54.034 53.706 53.795 53.773 53.606 53.366 53.382 53.438 53.382 53.381 53.363 53.359 53.337 54.207 54.463 53.499 53.141 54.753 58.229 59.749 60.387 59.365 57.575 55.4 53.113 53.332 52.945 52.954 53.953 53.506 53.441 53.633 54.969 54.967 55.122 54.074 55.668 57.643 57.765 57.284 55.647 57.318 59.887 64.817 63.483 62.884 58.64 55.331 55.17 56.588 55.499 55.123 55.118 55.802 58.787 58.787 55.548 54.752 54.771 54.598 58.576 61.059 61.284 60.279 55.959 55.948 56.431 55.128 55.033 55.06 55.828 55.192 55.115 55.332 55.199 55.151 55.268 55.343 55.39 55.43 55.504 55.73 55.933 62.223 57.269 55.922 59.38 59.79 56.328 55.946 56.071 56.115 56.149 56.154 56.33 56.37 56.359 56.378 56.422 56.543 56.484 56.714 57.467 58.832 56.656 56.667 58.319 61.062 58.251 57.169 57.161 57.184 57.342 57.595 57.627 57.688 58.606 62.087 62.029 57.916 57.772 57.646 57.602 57.52 57.481 57.482 57.487 57.476 57.431 57.427 57.382 57.406 57.348 57.366 57.38 57.313 57.311 57.33 57.366 57.392 57.384 57.375 57.321 57.834 58.058 56.64 57.036 57.162 56.384 56.23 56.094 55.93 55.851 55.934 55.897 55.865 56.216 56.681 56.532 56.792 61.108 62.798 63.68 62.819 61.248 57.72 55.809 55.985 55.968 55.531 55.554 55.61 55.492 55.46 58.17 57.866 57.904 56.811 56.306 58.353 58.713 57.106 55.224 55.133 55.125 55.091 55.093 55.139 55.236 55.166 55.141 55.143 55.202 55.194 55.203 55.18 55.197 59.284 60.505 64.405 60.146 56.873 56.603 56.589 56.441 55.944 55.863 55.965 62.467 63.411 59.178 55.534 55.516 55.507 55.481 55.504 55.487 55.504 55.505 55.404 55.303 55.279 55.84 57.896 58.057 58.331 59.156 59.308 61.294 61.852 62.333 62.811 63.217 63.289 62.829 62.351 61.97 61.538 60.982 59.336 58.636 58.305 57.936 56.451 55.22 55.196 55.171 55.148 55.092 55.021 55.095 55.126 55.02 54.924 54.898 54.804 54.699 54.332 53.985 53.771 53.636 53.52 53.459 53.447 53.442 53.456 53.454 53.462 53.486 53.476 53.486 53.465 53.491 53.508 53.492 53.509 53.522 53.509 53.53 53.557 53.554 53.531 53.56 53.582 53.585 53.598 53.575 53.591 53.584 53.583 53.575 53.608 53.587 53.602 53.632 53.653 53.636 53.628 53.596 53.628 53.651 53.659
65.717 65.975 66.344 66.545 69.358 67.842 68.072 68.514 68.78 68.073 67.575 68.101 64.361 64.313 64.22 64.178 63.936 67.371 69.491 69.947 70.399 70.557 70.351 70.505 65.852 65.616 66.878 69.111 69.423 65.458 64.419 63.468 63.429 63.382 63.248 63.308 64.036 62.832 62.722 63.532 62.543 62.43 62.357 62.347 62.447 62.55 62.638 62.684 62.786 62.837 62.886 62.897 62.917 62.88 62.87 62.84 62.814 62.814 62.79 62.723 62.656 62.612 62.601 62.523 62.373 62.249 61.986 61.743 61.518 61.21 60.884 60.565 60.039 59.635 59.309 59.21 59.106 59.001 58.983 58.942 58.877 58.968 61.427 62.489 60.926 59.963 60 60.035 59.639 59.453 59.357 59.284 59.11 58.962 59.018 59.02 58.982 58.911 58.942 58.919 58.845 58.849 58.743 58.556 58.327 58.149 58.246 58.469 58.326 58.178 58.096 58.186 58.219 58 57.958 57.939 57.689 57.657 57.56 57.29 57.111 56.715 56.492 57.375 56.507 55.977 58.459 58.811 58.34 59.803 60.783 56.614 54.609 54.342 53.617 53.725 53.653 53.516 53.314 53.341 53.355 53.318 53.783 53.423 53.385 53.231 54.431 53.763 53.124 53.746 53.269 58.405 59.285 56.24 55.034 56.801 52.517 52.771 53.49 53.721 52.918 53.082 53.247 54.229 53.848 53.56 53.717 54.813 55.596 56.083 54.87 55.739 54.733 55.061 56.308 63.457 65.179 63.192 58.01 55.912 54.774 54.898 56.118 55.107 55.102 55.073 57.997 58.701 57.728 54.464 57.444 58.886 62.221 62.676 61.971 60.697 59.559 55.242 54.988 54.973 55.143 55.308 55.001 55 54.991 55.022 55.11 55.173 55.236 55.366 55.354 55.411 55.66 55.709 55.766 55.781 55.881 55.852 55.871 55.813 55.86 56.006 56.05 56.066 56.07 56.225 56.3 56.228 56.206 56.277 56.458 56.522 56.387 56.522 57.301 56.657 56.817 56.742 56.745 57.424 57.029 57.172 57.216 57.489 57.599 57.592 57.621 57.673 58.408 60.139 57.926 57.848 57.813 57.71 57.606 57.507 57.453 57.44 57.421 57.396 57.363 57.354 57.35 57.37 57.337 57.357 57.321 57.339 57.385 57.408 57.601 57.683 58.353 56.679 56.807 56.054 56.228 59.826 57.281 56.465 56.197 56.754 56.072 56.036 55.739 55.759 55.754 55.724 56.697 56.331 56.227 56.34 59.993 62.559 63.05 62.824 61.836 58.037 55.952 56.262 57.047 57.893 57.746 55.518 55.657 56.373 58.604 57.737 57.682 55.201 54.943 55.052 56.274 57.494 55.15 54.991 54.979 54.965 54.936 54.99 55.077 55.03 55.038 55.052 55.039 55.057 55.026 55.059 55.183 55.358 59.371 62.757 58.502 57.177 56.316 56.67 56.225 56.019 55.802 60.126 65.144 63.076 55.827 55.471 55.49 55.496 55.412 55.516 55.553 55.505 55.463 55.357 55.333 55.324 55.293 55.278 56.029 57.644 56.657 61.068 61.6 62.177 62.659 63.119 63.467 63.073 62.618 62.118 61.696 61.236 59.726 58.958 58.4 58.048 56.475 55.442 55.185 55.166 55.155 55.073 55.059 55.045 55.096 55.074 54.877 54.788 54.756 54.679 55.379 54.098 53.77 53.659 53.529 53.417 53.43 53.438 53.411 53.426 53.479 53.457 53.463 53.469 53.466 53.434 53.461 53.462 53.504 53.533 53.531 53.536 53.54 53.52 53.536 53.561 53.531 53.561 53.589 53.567 53.562 53.597 53.57 53.588 53.603 53.603 53.606 53.608 53.617 53.61 53.616 53.633 53.653 53.641 53.639 53.639
65.533 65.421 65.287 65.488 66.504 66.97 67.543 68.477 68.579 68.79 68.937 68.832 69.368 68.553 65.512 64.527 64.173 64.033 64.057 66.488 66.949 69.093 68.721 65.262 64.028 65.588 69.609 71.906 70.707 70.308 69.638 68.093 64.497 63.399 63.276 64.298 63.085 62.799 62.704 62.642 62.528 62.388 62.34 62.177 62.203 62.323 62.41 62.522 62.603 62.715 62.787 62.854 62.9 62.879 62.875 62.881 62.806 62.8 62.765 62.681 62.631 62.589 62.533 62.451 62.303 62.108 61.844 61.554 61.218 60.814 60.463 60.071 59.712 59.341 59.235 59.118 59.057 59.025 59.004 58.947 59.13 59.17 59.222 60.396 60.097 59.893 59.821 59.702 59.424 59.321 59.438 59.271 59.146 59.087 59.06 59.082 59.12 59.02 59.016 58.952 58.803 58.821 58.772 58.495 58.326 58.235 58.231 58.211 58.179 58.105 58.19 58.132 58.197 58.236 58.037 58.031 57.737 57.694 57.577 57.395 57.259 56.848 56.604 56.398 56.358 56.336 56.042 58.128 58.839 59.083 59.141 56.498 55.775 54.201 54.095 53.743 53.609 53.545 53.39 53.311 53.29 53.284 53.522 53.889 53.36 53.355 53.192 53.512 53.966 53.449 53.008 54.048 58.104 54.232 56.55 58.774 58.324 53.265 53.772 52.43 52.748 52.871 53.114 53.089 53.22 53.3 54.23 54.963 54.152 55.422 54.777 54.14 54.228 56.683 55.119 56.548 63.054 60.626 56.534 55.217 56.123 54.695 55.027 56.277 55.269 54.72 54.252 57.719 56.529 54.408 59.736 61.297 62.369 62.276 60.851 59.536 55.25 57.155 55.427 54.911 54.879 54.945 55.039 54.935 54.832 54.959 55.089 55.167 55.196 55.262 55.37 60.172 59.4 55.729 57.329 60.683 60.124 55.794 55.696 55.757 55.916 55.893 55.957 55.97 56.077 56.168 56.121 56.124 56.148 56.282 56.425 56.452 56.312 56.541 56.677 56.631 56.755 56.799 56.867 56.872 56.972 57.242 57.391 57.586 57.55 57.587 57.593 57.646 57.901 59.206 57.928 57.856 57.818 57.756 57.629 57.529 57.472 57.436 57.421 57.421 57.354 57.352 57.314 57.335 57.367 57.96 57.566 57.999 58.137 58.251 58.266 58.318 56.146 55.984 60.368 61.701 61.992 61.948 57.628 55.937 55.953 56.3 55.947 55.919 55.658 55.611 55.663 55.525 55.705 55.767 56.013 56.086 57.178 61.984 61.971 61.856 58.694 57.759 55.878 56.312 57.96 57.858 56.908 55.492 55.191 55.042 54.855 55.076 55.278 54.849 54.843 54.805 57.039 58.583 55.067 55.025 54.856 54.803 54.778 54.85 54.869 54.899 54.92 54.922 54.966 54.947 54.874 56.964 59.739 59.989 63.411 61.735 57.576 56.51 55.969 55.924 55.655 55.293 56.051 64.596 62.369 57.365 55.485 55.451 55.465 55.47 55.488 55.527 55.527 55.511 55.411 55.347 55.369 55.31 55.275 55.283 55.256 55.335 57.06 61.28 62.073 62.483 62.984 63.458 63.378 62.72 62.22 61.769 61.35 60.8 59.079 58.621 58.21 57.824 55.492 55.209 55.176 55.18 55.154 55.099 55.048 55.048 55.123 54.977 54.848 54.708 54.538 54.427 54.173 53.908 53.671 53.532 53.416 53.408 53.439 53.433 53.419 53.455 53.417 53.45 53.428 53.476 53.451 53.471 53.472 53.49 53.457 53.508 53.536 53.496 53.55 53.534 53.533 53.512 53.526 53.533 53.542 53.562 53.586 53.579 53.567 53.591 53.607 53.579 53.568 53.584 53.569 53.58 53.571 53.622 53.634 53.588 53.617 53.641
69.035 66.954 65.378 65.327 65.518 65.874 65.885 66.049 68.192 67.903 69.141 68.841 69.981 69.141 68.653 67.18 67.336 64.777 65.226 64.365 64.746 63.727 63.642 64.589 63.814 66.911 69.016 70.718 71.5 71.656 70.513 69.425 65.498 63.32 63.293 63.257 62.377 62.45 62.578 62.571 62.487 62.328 62.218 62.174 62.06 62.083 62.173 62.305 62.457 62.586 62.687 62.801 62.817 62.799 62.834 62.892 62.86 62.763 62.704 62.666 62.582 62.521 62.457 62.331 62.151 61.87 61.583 61.256 60.837 60.361 60.047 59.668 59.357 59.316 59.155 59.099 59.088 59.018 59.139 60.202 59.352 59.291 59.555 60.105 59.988 59.707 59.777 59.544 59.382 59.577 59.457 59.325 59.182 59.152 59.237 59.088 59.035 59.051 58.999 58.921 58.828 58.789 58.681 58.398 58.334 58.296 58.295 58.199 58.234 58.17 58.414 58.125 58.148 58.23 58.155 57.841 57.84 57.719 58.71 57.445 57.216 57.014 56.79 56.683 56.399 56.253 55.96 55.777 56.092 56.283 55.336 55.076 54.665 58.25 54.466 53.984 53.516 53.506 53.405 53.361 53.285 53.253 53.216 53.216 53.225 53.668 53.2 53.176 53.977 53.899 53.334 53.892 54.093 55.2 58.391 59.861 59.45 57.671 52.792 52.359 52.466 53.045 52.84 52.925 53.055 55.404 55.121 53.646 54.38 55.383 54.346 53.946 54.768 56.327 54.805 58.336 59.954 56.854 54.802 56.263 60.731 56.8 54.505 54.759 56.008 54.898 53.714 53.557 56.439 54.204 58.103 60.701 62.068 61.1 59.734 55.36 55.042 57.254 55.395 54.872 54.789 54.814 54.974 54.815 54.912 55.014 55.041 55.101 55.077 55.112 55.461 60.778 60.785 55.699 56.488 60.456 56.564 55.626 55.707 55.773 55.831 55.817 55.862 55.945 55.983 56.021 56.05 56.243 56.308 56.242 56.317 56.368 56.246 57.015 57.28 56.613 56.701 56.786 56.817 56.929 57.095 57.202 57.375 57.682 57.58 57.532 57.581 58.208 59.64 62.102 58.569 57.882 57.829 57.775 57.702 57.548 57.517 57.462 57.42 57.437 57.38 57.42 57.367 57.441 57.854 57.479 56.622 56.307 56.602 56.697 56.721 56.327 55.995 55.932 58.603 62.356 63.054 62.086 60.23 55.966 56.09 57.484 56.225 55.836 55.597 55.452 55.464 55.386 56.047 55.69 56.141 55.896 55.937 57.461 56.457 55.879 56.323 55.842 56.691 57.495 57.902 58.115 58.005 57.18 54.86 54.836 54.821 54.84 54.828 54.819 54.82 56.986 57.341 57.636 58.188 54.788 54.68 54.604 54.653 54.707 54.714 54.758 54.826 54.82 54.81 54.803 54.783 57.893 60.753 61.416 60.724 58.157 56.904 55.639 55.06 55.594 54.478 54.354 56.774 64.125 64.561 58.728 57.662 56.253 55.392 55.433 55.468 55.493 55.434 55.464 55.356 55.322 55.32 55.275 55.294 55.285 55.259 55.272 55.304 56.556 62.183 62.83 63.281 63.275 63.243 62.491 62.009 61.55 61.141 59.365 58.771 58.289 57.904 56.408 55.171 55.172 55.161 55.149 55.117 55.075 55.041 55.029 54.963 54.84 54.726 54.543 55.863 54.306 54.063 53.863 53.669 53.465 53.4 53.392 53.412 53.405 53.403 53.432 53.444 53.459 53.473 53.482 53.455 53.464 53.506 53.459 53.468 53.471 53.499 53.516 53.525 53.525 53.529 53.523 53.527 53.537 53.552 53.54 53.558 53.555 53.561 53.606 53.58 53.586 53.599 53.571 53.565 53.596 53.56 53.63 53.612 53.651 53.634 53.621
69.408 69.847 68.999 68.375 65.307 65.562 65.715 65.698 65.531 65.767 67.549 67.175 67.738 68.714 68.129 67.992 69.41 68.814 69.261 68.621 68.129 64.709 63.634 65.101 64.267 63.459 67.238 69.384 70.233 70.96 71.472 70.527 66.314 63.315 63.789 64.832 62.415 62.308 62.697 62.574 62.433 62.346 62.145 62.075 61.996 61.912 61.938 62.07 62.211 62.381 62.574 62.676 62.718 62.709 62.78 62.844 62.786 62.745 62.691 62.656 62.601 62.499 62.377 62.2 61.951 61.628 61.27 60.853 60.536 60.069 59.739 59.438 59.385 59.189 59.146 59.125 59.089 59.165 63.82 63.449 59.707 59.937 60.169 60.18 59.81 59.807 59.699 59.556 59.503 59.497 59.436 59.335 59.327 59.207 59.168 59.14 59.047 59.02 59.038 58.926 58.903 58.869 58.702 58.481 58.408 58.416 58.328 58.169 58.205 58.201 58.123 58.158 58.235 58.097 58.062 57.928 57.706 57.67 57.91 57.413 57.267 57.066 57.27 57.841 56.458 56.153 55.793 55.744 55.577 55.529 55.544 55.28 59.099 61.262 60.833 55.459 53.84 53.443 53.452 53.529 53.39 53.243 53.217 53.195 54.67 55.371 53.57 53.214 53.101 53.264 53.359 54.205 53.515 56.105 58.067 59.383 60.317 59.733 57.758 53.006 53.222 52.81 52.717 52.938 54.439 55.856 54.037 53.418 54.953 55.159 54.017 53.96 55.212 54.357 54.478 55.353 58.029 56.721 54.946 54.335 55.665 54.935 54.418 54.332 54.659 55.522 53.646 56.308 58.113 57.264 54.325 58.188 60.387 57.113 55.889 55.486 55.034 54.604 54.62 54.696 54.68 54.678 54.715 54.82 54.881 54.947 54.999 54.99 55.116 55.285 55.374 55.448 55.403 55.604 56.303 55.782 55.496 55.6 55.718 55.729 55.763 55.771 55.85 55.939 55.922 55.995 56.123 56.281 56.302 56.237 56.175 56.256 56.172 56.317 56.723 56.601 56.717 56.722 56.795 56.87 56.976 57.242 57.375 57.462 57.549 58.969 60.475 59.522 59.844 59.178 57.937 57.917 57.82 57.746 57.703 57.613 57.547 57.488 57.508 57.515 57.538 57.756 57.343 57.379 57.659 57.317 56.635 55.881 55.84 55.99 55.992 56.005 55.959 55.931 58.727 62.32 63.413 62.622 61.427 56.557 57.017 58.057 58.564 55.629 55.632 55.328 55.331 55.334 55.296 55.544 55.388 55.615 56.396 56.614 55.621 56.213 55.099 55.166 55.961 57.906 57.733 56.194 57.204 55.191 54.828 54.798 54.778 54.765 54.764 56.009 59.337 58.166 58.352 58.448 58.773 55.366 55.071 54.479 54.497 54.522 54.539 54.615 54.701 54.701 54.728 54.73 54.659 55.569 59.271 63.814 61.806 56.59 56.738 56.647 55.002 54.346 53.664 54.926 55.236 57.467 61.197 61.928 62.834 59.47 55.526 55.322 55.403 55.392 55.422 55.462 55.364 55.339 55.348 55.355 55.264 55.25 55.266 55.284 55.24 55.236 55.3 60.754 63.367 63.209 62.742 62.179 61.751 61.117 59.494 58.943 58.47 58.082 57.675 55.454 55.191 55.162 55.157 55.133 55.108 55.067 54.951 54.83 54.806 54.692 54.578 54.424 54.574 54.115 53.944 53.775 53.585 53.378 53.363 53.409 53.407 53.422 53.416 53.411 53.438 53.431 53.44 53.453 53.486 53.48 53.452 53.487 53.455 53.478 53.457 53.512 53.506 53.509 53.533 53.526 53.545 53.535 53.507 53.515 53.532 53.571 53.577 53.577 53.563 53.513 53.567 53.586 53.598 53.578 53.561 53.569 53.615 53.621 53.624 53.618
69.386 68.856 68.182 67.255 65.316 65.411 65.591 65.721 65.73 65.559 65.427 65.401 65.428 66.368 66.475 66.777 67.303 70.427 70.607 70.454 70.092 68.39 67.663 67.748 63.708 63.68 63.448 64.506 65.907 69.075 69.111 68.988 63.979 63.782 62.367 67.271 67.747 63.389 62.312 62.897 63.038 62.327 62.21 62.013 61.941 61.865 61.771 61.791 61.861 62.109 62.328 62.508 62.626 62.68 62.763 62.785 62.779 62.742 62.725 62.676 62.562 62.385 62.196 61.994 61.66 61.329 60.887 60.399 60.07 59.756 59.497 59.404 59.275 59.175 59.178 59.137 59.381 61.865 63.736 63.57 60.485 60.376 60.244 59.751 59.938 59.821 59.603 59.562 59.585 59.54 59.536 59.423 59.344 59.183 59.149 59.096 59.098 59.067 59.085 59.077 59.115 59.083 58.938 58.575 58.348 58.335 58.25 58.18 58.107 58.149 58.117 58.15 58.151 58.061 58.105 57.889 57.683 57.574 57.546 57.387 57.194 57.616 58.453 57.948 56.301 55.931 56.795 56.284 55.599 55.526 55.587 55.909 60.578 62.049 55.494 58.193 54.199 53.84 53.39 53.494 53.475 53.316 53.165 53.2 53.193 54.16 53.174 53.059 53.102 53.045 54.6 54.084 53.452 53.207 54.651 58.004 59.601 60.52 59.39 57.962 52.914 52.215 53.807 54.266 53.785 54.041 53.967 53.343 53.775 54.714 53.767 53.81 54.935 54.037 54.089 54.495 54.544 54.967 54.315 54.287 54.433 54.758 55.001 56.29 54.018 55.752 57.002 58.544 60.774 60.043 57.331 54.51 57.904 54.913 55.328 55.088 55.512 54.552 54.608 56.49 54.69 54.585 54.714 54.809 54.884 54.865 54.957 58.227 58.677 55.781 56.803 57.701 56.183 55.534 55.355 55.415 55.498 55.561 55.618 55.656 55.726 55.835 55.821 55.842 55.91 56.022 56.038 56.111 56.225 56.185 56.098 56.178 56.138 56.349 56.836 56.577 56.592 56.773 56.819 56.878 57.033 57.164 57.334 57.37 57.533 59.231 58.349 57.892 57.992 57.587 58.886 60.006 58.241 57.99 57.794 57.592 57.557 57.626 57.633 57.293 57.247 57.215 57.081 57.061 57.565 57.396 55.963 55.85 55.921 55.886 55.954 55.919 56.362 57.084 57.872 61.891 63.427 63.014 61.562 57.832 56.017 55.82 55.898 55.536 55.502 55.158 55.219 55.199 55.066 55.107 55.21 55.221 55.252 56.56 59.278 59.209 59.332 60.34 55.144 54.954 54.91 54.852 54.848 54.82 54.779 54.714 56.278 56.348 55.572 54.924 59.389 59.136 58.423 60.763 61.541 57.758 57.732 55.016 54.358 54.335 54.392 54.481 54.562 54.63 54.658 54.586 54.522 56.121 55.205 62.203 56.759 56.769 56.67 57.2 55.189 53.678 53.768 54.787 55.353 56.586 57.871 57.798 64.207 65.017 63.113 59.322 59.951 55.666 56.406 55.382 55.396 55.406 55.39 55.381 55.308 55.249 55.248 55.235 55.226 55.247 55.249 55.293 55.454 60.754 62.268 61.937 61.449 60.9 59.117 58.671 58.229 57.76 55.474 55.2 55.153 55.147 55.162 55.145 55.067 54.877 54.847 54.743 54.647 54.526 54.402 55.567 54.357 53.943 53.835 53.645 53.478 53.332 53.367 53.403 53.384 53.38 53.416 53.395 53.415 53.42 53.425 53.425 53.462 53.427 53.422 53.441 53.471 53.473 53.471 53.479 53.477 53.478 53.514 53.507 53.532 53.513 53.523 53.504 53.545 53.564 53.572 53.565 53.577 53.595 53.575 53.575 53.549 53.539 53.566 53.613 53.588 53.606 53.588 53.622
70.057 68.516 68.593 65.574 65.164 65.032 65.016 65.16 65.354 65.475 65.44 65.305 65.117 64.947 64.645 64.822 65.215 66.555 69.498 69.813 70.28 70.298 70.278 68.111 63.711 63.95 63.47 63.696 63.327 64.378 65.19 65.522 63.91 64.084 67.253 68.896 69.007 67.861 63.354 62.439 62.315 62.789 62.188 62.048 61.861 61.803 61.715 61.615 61.647 61.823 62.06 62.296 62.455 62.564 62.65 62.719 62.76 62.723 62.684 62.618 62.477 62.335 62.109 61.84 61.501 61.019 60.538 60.08 59.742 59.572 59.48 59.309 59.265 59.263 59.191 59.233 62.366 63.497 63.495 62.909 60.641 60.219 59.695 59.917 59.804 59.644 59.783 59.646 59.597 59.51 59.589 59.455 59.35 59.307 59.219 59.074 59.084 59.048 59.033 59.075 59.089 59.036 58.776 58.403 58.284 58.306 58.282 58.253 58.117 58.093 58.208 58.19 58.193 57.963 57.892 57.776 57.687 57.553 57.38 57.263 57.094 56.837 56.903 56.379 56.19 55.929 55.852 55.684 55.721 55.857 55.541 55.616 58.652 60.776 60.667 59.04 55.208 54.047 53.611 53.348 53.478 53.486 53.848 53.104 53.108 53.123 53.067 53.014 53.029 53.031 53.013 53.256 53.164 53.892 53.194 55.432 58.008 59.598 61.385 59.054 57.804 52.544 53.945 53.767 52.746 53.853 53.645 53.128 53.205 54.464 53.351 53.487 54.809 53.795 53.877 54.616 55.159 55.129 54.74 54.284 54.195 54.29 54.958 54.932 53.569 57.913 59.279 60.967 61.581 60.48 59.28 54.878 54.351 54.319 54.369 55.289 55.286 54.576 54.88 55.771 55.599 54.627 54.727 54.797 54.788 54.764 54.891 58.667 60.578 56.5 57.297 60.37 59.995 55.616 55.247 55.409 55.493 55.535 55.543 55.611 55.748 55.788 55.781 55.812 55.988 56.091 55.907 55.971 56.128 56.163 56.118 56.052 56.057 56.762 56.498 56.643 56.609 56.678 56.723 56.834 57.02 57.056 57.186 57.226 57.328 57.623 57.271 57.27 57.275 59.176 61.694 61.269 60.334 58.798 58.012 57.36 57.266 57.314 57.344 56.966 56.94 57.09 56.829 56.732 57.042 56.975 57.909 63.142 63.504 58.499 57.885 58.772 56.028 55.525 55.987 61.237 62.789 62.848 61.67 57.366 56.082 55.822 55.68 55.349 55.331 55.067 55.07 55.078 54.946 54.916 55.033 55.035 55.075 57.296 60.841 61.427 61.742 60.939 56.572 54.963 54.887 55.009 54.879 55.366 55.53 54.823 56.863 56.847 54.871 54.435 54.897 57.545 59.157 61.446 59.699 61.595 57.817 55.072 54.232 54.248 54.291 54.335 54.39 54.485 54.517 54.459 55.007 59.097 59.229 55.927 55.56 56.384 56.929 56.116 55.341 52.986 52.984 53.506 54.345 55.497 56.996 55.684 57.546 63.029 61.067 61.684 61.837 61.575 60.028 56.1 55.366 55.375 55.39 55.371 55.277 55.25 55.224 55.228 55.259 55.223 55.208 55.19 55.249 55.282 58.753 61.381 60.99 59.351 58.82 58.397 57.905 56.385 55.167 55.162 55.196 55.185 55.154 55.013 54.859 54.683 54.729 54.691 54.62 54.411 54.284 54.613 53.95 53.847 53.7 53.518 53.388 53.375 53.322 53.362 53.404 53.399 53.358 53.438 53.392 53.385 53.422 53.438 53.428 53.442 53.46 53.476 53.467 53.462 53.477 53.432 53.451 53.513 53.496 53.476 53.516 53.545 53.525 53.511 53.527 53.527 53.522 53.545 53.584 53.515 53.544 53.585 53.579 53.577 53.523 53.608 53.574 53.555 53.629 53.622
70.82 69.07 69.164 65.535 65.028 64.924 64.99 64.807 64.876 64.889 64.936 64.954 64.882 64.833 64.794 64.504 64.47 64.382 64.893 69.107 69.868 70.432 70.635 67.705 64.898 66.062 63.535 63.509 63.351 63.37 63.313 63.854 63.623 63.399 66.492 69.918 69.643 68.706 67.654 63.342 62.112 62.129 62.277 61.984 62.262 62.635 61.695 61.599 61.498 61.558 61.667 61.902 62.261 62.414 62.499 62.588 62.644 62.646 62.589 62.471 62.331 62.126 61.869 61.487 61.054 60.7 60.284 59.745 59.594 59.559 59.408 59.317 59.284 59.251 59.227 60.128 62.1 63.042 61.536 60.567 60.014 59.761 59.817 59.702 59.703 59.881 59.752 59.799 59.976 59.653 59.562 59.553 59.469 59.449 59.356 59.167 59.062 59.092 59.006 59.05 59.07 58.965 58.583 58.568 58.451 58.427 58.293 58.338 58.22 58.16 58.069 58.192 58.145 58.042 57.881 57.732 57.658 57.443 57.188 57.084 56.825 56.804 56.687 56.557 56.34 56.06 55.906 55.759 55.659 55.673 55.56 55.61 56.244 58.436 56.109 56.566 54.943 54.334 54.034 53.472 53.33 53.424 53.422 53.269 53.083 53.061 53.001 53.031 52.967 53.053 52.991 52.926 54.551 55.843 52.631 52.576 53.844 57.265 60.591 60.279 59.099 57.811 54.24 52.677 52.74 53.857 53.475 53.071 53.132 53.714 52.985 53.035 54.294 54.087 53.651 53.711 53.945 53.734 53.814 55.972 54.31 54.188 54.522 54.547 57.103 59.243 60.874 61.459 60.465 59.601 56.071 53.653 53.879 54.273 55.655 55.225 54.47 54.5 55.995 54.852 54.501 54.642 54.67 54.672 54.721 54.879 55.014 58.255 58.856 55.716 55.303 59.032 57.199 55.165 55.313 55.384 55.398 55.43 55.528 55.653 55.725 55.699 55.759 55.901 56.036 56.108 55.987 55.99 55.991 56.097 56.094 55.976 55.992 56.494 56.582 56.479 56.546 56.613 56.78 56.735 56.709 56.601 56.743 56.965 57.136 57.14 57.101 57.062 57.024 59.44 62.452 62.293 60.931 58.612 58.032 57.954 56.948 57.017 56.926 56.988 56.926 57.023 56.671 56.423 56.436 62.045 62.503 64.951 65.985 57.901 58.207 58.894 57.363 55.37 55.442 60.565 62.189 61.93 61.46 57.217 56.054 56.449 55.368 55.256 55.126 54.956 54.953 55 54.88 54.785 54.914 55.034 54.993 55.72 60.702 62.018 62.163 61.149 58.061 56.863 56.291 56.087 56.149 54.871 54.812 54.427 54.78 54.535 54.223 54.198 54.198 55.003 54.847 60.15 61.596 61.116 60.257 63.226 55.706 54.082 54.146 54.185 54.27 54.367 54.35 54.409 58.371 60.14 59.737 57.632 55.054 55.089 55.257 55.19 53.899 52.853 52.826 52.831 53.066 53.535 54.305 55.572 55.335 57.165 56.923 63.435 64.168 58.689 56.804 55.601 55.313 55.373 55.392 55.341 55.278 55.265 55.224 55.209 55.21 55.227 55.201 55.232 55.241 55.227 55.246 55.268 58.862 58.929 58.521 58.096 57.613 55.262 55.181 55.211 55.221 55.135 55.136 54.792 54.573 54.496 54.573 54.548 54.472 54.364 54.749 54.006 53.908 53.721 53.557 53.416 53.35 53.369 53.374 53.388 53.394 53.418 53.403 53.383 53.415 53.415 53.453 53.435 53.428 53.46 53.441 53.463 53.454 53.461 53.473 53.451 53.459 53.499 53.491 53.486 53.475 53.521 53.508 53.517 53.503 53.486 53.523 53.529 53.53 53.536 53.551 53.555 53.564 53.571 53.56 53.586 53.559 53.587 53.555 53.615
68.45 68.802 66.379 65.468 64.959 65.031 64.667 64.843 64.64 64.644 64.773 64.645 64.61 64.61 64.577 64.515 64.53 64.53 64.449 64.829 64.511 64.63 67.396 67.143 69.907 69.572 67.014 63.363 63.291 63.39 63.349 64.191 62.754 62.284 62.356 66.419 68.545 69.741 68.9 66.89 63.275 62.224 62.092 62.712 61.862 62.092 61.98 61.501 61.426 61.344 61.437 61.515 61.8 62.135 62.281 62.399 62.463 62.538 62.473 62.337 62.149 61.88 61.488 61.065 60.59 60.298 59.886 59.662 59.594 59.391 59.408 59.313 59.296 59.291 59.607 59.904 60.389 60.853 60.92 60.12 59.848 59.875 59.74 59.775 59.817 59.772 59.691 59.799 60.493 60.147 59.692 59.587 59.504 59.486 59.335 59.148 59.094 59.11 59.064 59.033 59.105 59.11 59.104 58.934 58.997 58.637 58.4 58.363 58.171 58.134 58.035 58.08 58.099 57.968 57.873 57.838 57.671 57.405 57.139 56.801 56.665 56.358 56.169 56.52 55.943 55.898 55.922 55.862 55.762 55.689 55.57 55.515 55.598 55.405 57.519 58.774 59.888 55.679 54.387 53.965 53.57 53.294 53.382 53.347 53.188 53.002 53.019 53.03 53.001 52.942 52.95 52.944 52.863 53.702 53.108 52.567 53.494 53.689 58.143 59.498 60.217 59.129 57.929 53.443 52.729 53.972 53.08 52.955 53.782 53.68 52.895 52.924 53.823 53.421 55.294 53.925 53.689 53.647 54.123 54.688 55.571 55.862 55.566 57.28 58.111 61.221 61.707 60.641 59.268 56.173 54.23 54.268 54.046 54.82 54.221 54.221 54.347 54.421 55.065 54.521 54.531 54.552 54.567 54.63 58.066 55.088 55.006 54.987 55.013 55.043 55.169 55.044 55.052 55.195 55.304 55.293 55.276 55.444 55.539 55.596 55.628 55.66 55.838 55.893 56.024 56.088 56.122 55.999 55.943 55.955 56.002 55.971 55.932 56.753 56.469 56.398 56.487 56.492 56.479 56.127 55.889 55.99 56.388 56.634 56.919 57.006 56.933 56.823 56.774 57.547 57.931 61.944 58.317 57.983 58.158 57.482 56.665 56.747 56.874 56.795 56.673 56.711 56.449 56.117 56.182 61.659 66.408 63.417 58.476 56.691 58.764 59.786 58.363 55.45 56.694 56.743 57.144 56.875 55.689 55.435 55.974 55.407 55.661 55.154 55.059 54.865 54.843 54.843 54.81 54.676 54.83 54.959 55.007 56.559 60.486 62.206 63.547 61.497 56.863 54.671 54.795 54.42 54.392 54.348 54.316 54.268 55.387 54.252 54.168 54.139 54.138 54.161 54.833 57.879 59.197 62.312 63.648 63.874 60.156 55.16 54.004 54.095 54.125 54.167 54.22 54.214 57.211 59.43 58.776 55.993 55.271 54.543 54.436 53.881 52.817 52.782 52.801 52.763 52.863 53.028 53.277 54.91 55.483 55.029 56.215 58.766 63.396 62.416 56.455 55.174 55.276 55.326 55.35 55.318 55.324 55.292 55.254 55.186 55.215 55.214 55.206 55.229 55.226 55.229 55.25 55.238 55.268 57.77 58.332 57.768 55.461 55.187 55.164 55.166 55.21 55.197 55.003 54.708 54.391 54.301 54.365 54.373 54.294 54.388 54.427 53.929 53.777 53.646 53.465 53.342 53.314 53.368 53.342 53.407 53.378 53.376 53.351 53.394 53.411 53.416 53.441 53.445 53.433 53.421 53.448 53.433 53.444 53.458 53.462 53.477 53.419 53.457 53.47 53.503 53.486 53.502 53.486 53.504 53.514 53.516 53.509 53.496 53.536 53.538 53.523 53.539 53.541 53.552 53.561 53.545 53.55 53.529 53.589 53.654
65.152 65.512 65.467 65.355 65.138 64.848 64.764 64.749 64.634 64.611 64.556 64.548 64.553 64.569 64.539 64.466 64.453 64.635 64.641 64.565 64.392 64.224 64.953 67.652 69.677 69.871 67.551 63.428 63.268 63.239 64.042 63.124 63.67 62.73 62.334 62.812 66.786 68.674 69.855 69.061 66.655 62.216 62.954 61.889 62.473 61.89 61.568 61.396 61.381 61.334 61.265 61.271 61.447 61.74 61.959 62.118 62.241 62.324 62.238 62.018 61.808 61.472 61.175 60.607 60.216 59.888 59.695 59.629 59.453 59.42 59.388 59.346 59.334 59.643 59.892 60.069 60.701 60.722 60.506 59.841 60.01 59.84 59.724 59.866 59.912 59.839 59.722 59.778 59.751 59.731 59.62 59.527 59.564 59.469 59.396 59.204 59.095 59.033 59.029 59.061 59.086 59.341 59.337 59.382 59.102 58.98 58.528 58.374 58.232 58.127 58.091 57.999 58.005 57.876 57.817 58.212 57.799 57.206 56.928 56.756 56.172 56.21 56.071 56.264 55.989 56.025 55.983 55.922 55.819 55.737 55.679 55.54 55.506 55.463 59.145 62.129 62.406 55.431 54.426 54.235 53.85 53.472 53.264 53.342 53.307 53.148 52.974 52.976 52.943 52.95 52.865 52.965 52.902 52.95 53.283 53.993 53.234 53.225 53.889 58.132 59.495 60.321 59.045 56.778 53.648 54.265 52.971 52.81 52.837 53.319 52.823 52.877 54.125 53.403 53.637 54.148 53.521 53.534 53.783 54.331 53.656 54.348 58.271 59.347 61.041 62.022 60.63 59.424 56.183 53.894 54.504 54.118 54.084 54.113 54.115 54.121 54.072 54.938 54.659 54.44 54.513 54.452 54.507 57.553 60.452 59.061 55.061 58.627 58.365 54.959 54.917 54.985 55.094 55.151 55.164 55.181 55.389 55.454 55.511 55.508 55.519 55.73 55.835 55.896 55.987 56.023 56.033 56.044 55.91 55.796 55.934 55.945 55.861 55.974 57.502 56.659 55.903 56.369 60.143 61.044 60.381 58.753 60.042 56.835 56.745 56.838 56.754 56.625 56.492 56.439 56.207 57.126 56.391 57.001 57.71 57.411 56.564 56.439 56.741 56.55 56.802 56.295 56.159 55.939 55.924 56.249 60.115 56.403 56.653 56.639 57.49 58.994 57.417 56.842 55.895 55.942 55.811 56.113 55.703 55.099 55.243 55.296 55.115 55.035 54.91 54.875 54.714 54.714 54.673 54.534 54.703 55.106 55.027 55.12 59.682 61.78 62.252 61.673 58.828 54.702 54.862 54.36 54.436 54.41 55.613 56.122 56.578 54.998 54.054 54.427 54.451 54.073 55.02 57.305 57.788 61.587 63.312 62.095 57.767 53.916 53.933 53.981 54.048 54.097 54.146 54.123 54.142 55.478 55.339 55.736 56.117 54.495 53.4 52.89 52.783 52.772 52.792 52.786 52.796 52.785 52.946 53.282 53.609 53.73 54.568 57.407 58.003 57.761 57.039 56.817 55.165 55.231 55.299 55.275 55.294 55.334 55.295 55.237 55.239 55.263 55.238 55.21 55.193 55.194 55.188 55.22 55.218 55.217 56.036 55.889 55.199 55.196 55.166 55.195 55.19 55.152 54.934 54.656 54.369 54.157 54.143 54.17 54.182 55.915 56.03 53.852 53.678 53.466 53.315 53.343 53.367 53.271 53.338 53.338 53.362 53.39 53.373 53.365 53.387 53.394 53.404 53.393 53.407 53.407 53.442 53.43 53.458 53.466 53.466 53.444 53.438 53.445 53.464 53.498 53.468 53.513 53.525 53.498 53.53 53.515 53.538 53.509 53.508 53.546 53.528 53.532 53.551 53.529 53.549 53.538 53.559 53.511 53.584 53.696
65.507 65.557 65.402 65.035 65.141 64.62 64.963 64.764 64.527 64.633 64.526 64.544 64.677 64.569 64.653 64.694 64.578 64.86 64.597 64.478 64.436 64.24 64.233 66.813 68.655 69.467 69.241 68.37 66.88 63.994 63.597 62.718 62.595 62.458 62.945 62.834 62.641 66.463 68.671 68.06 63.245 62.948 62.2 62.532 61.834 61.839 61.531 61.404 61.264 61.248 61.149 60.999 61.069 61.204 61.443 61.675 61.871 62.065 61.895 61.836 61.543 61.137 60.69 60.245 59.9 59.748 59.682 59.491 59.481 59.434 59.407 59.374 59.719 60.099 60.134 60.725 60.747 60.283 59.798 60.021 60.063 59.856 59.93 59.98 59.942 59.834 59.79 59.922 59.776 59.715 59.791 60.385 59.597 59.415 59.401 59.272 59.183 59.086 59.097 59.115 59.069 59.275 59.298 59.325 59.221 59.019 58.575 58.453 58.381 58.206 58.116 58.059 57.873 57.767 57.712 57.893 57.862 56.98 56.669 56.56 56.183 56.133 56.076 55.978 56.005 56.101 56.096 55.979 55.85 55.799 55.657 55.663 55.76 55.454 59.224 61.727 60.966 55.614 54.666 54.441 54.134 53.762 53.491 53.221 53.233 53.265 53.143 52.944 52.933 52.961 52.932 52.86 52.946 52.958 52.781 52.947 53.124 52.656 53.398 54.27 58.496 59.02 57.296 55.464 53.119 56.007 57.265 56.887 56.593 55.751 55.586 53.283 53.905 55.25 55.666 53.639 52.957 53.007 54.387 53.832 53.609 57.418 59.818 61.235 61.599 60.185 59.091 55.343 53.663 53.614 54.653 54.844 54.022 54.016 54.004 53.992 54.096 54.175 54.289 54.33 54.364 54.303 54.56 58.2 61.402 59.676 54.89 58.489 56.39 54.773 54.908 55.009 55.05 55.082 55.037 55.129 55.289 55.426 55.412 55.491 55.71 55.772 55.8 55.825 55.957 55.956 55.971 56.004 55.958 55.78 55.84 55.877 55.825 55.807 56.686 55.826 55.803 56.794 61.901 62.987 61.921 62.276 62.428 60.272 56.426 56.4 56.374 56.243 56.221 56.091 56.082 56.165 57.212 57.158 57.144 56.841 56.287 56.064 56.251 56.251 56.095 55.977 55.959 55.787 55.677 57.257 56.404 56.853 56.861 56.881 56.83 56.94 57.095 57.094 56.576 54.889 54.854 57.84 59.023 58.837 55.441 54.759 54.843 55.414 54.845 54.992 54.943 54.604 54.627 54.511 54.515 54.887 54.922 54.91 58.008 61.052 61.371 61.065 60.396 54.753 54.727 55.394 54.635 54.466 56.099 56.879 56.775 54.389 53.95 54.2 54.036 53.886 53.848 55.46 57.028 58.384 59.351 55.512 53.762 53.792 53.822 53.845 53.909 53.966 54.023 53.961 58.373 63.641 57.274 56.577 55.919 54.756 53.216 52.821 52.736 52.758 52.801 52.778 52.785 52.833 52.851 52.917 53.062 53.174 53.911 55.204 56.11 56.556 57.246 56.847 55.557 54.966 55.161 55.197 55.208 55.273 55.265 55.248 55.229 55.251 55.244 55.256 55.284 55.215 55.2 55.245 55.198 55.212 55.181 55.198 55.194 55.182 55.24 57.067 55.764 55.098 54.906 54.658 54.333 54.035 53.926 53.992 56.053 56.454 55.008 53.588 53.564 53.403 53.302 53.312 53.341 53.322 53.321 53.386 53.358 53.379 53.342 53.397 53.378 53.42 53.399 53.368 53.418 53.418 53.407 53.414 53.455 53.433 53.457 53.424 53.453 53.453 53.449 53.488 53.461 53.499 53.515 53.496 53.491 53.517 53.48 53.51 53.479 53.494 53.526 53.5 53.522 53.538 53.546 53.588 53.563 53.559 53.639 53.64
66.192 65.59 66.432 65.047 64.982 64.906 64.771 64.692 64.618 64.63 64.48 64.542 64.535 64.544 65.178 65.29 64.814 64.726 64.773 64.656 64.327 64.26 64.325 64.269 65.237 69.085 70.205 70.149 69.383 65.507 63.095 62.884 62.804 63.179 63.106 62.269 62.351 63.725 66.411 64.64 62.191 64.693 65.593 62.161 61.751 61.632 61.544 61.462 61.327 61.136 61.086 60.979 60.916 60.916 61.056 61.246 61.485 61.625 61.629 61.464 61.12 60.681 60.276 59.901 59.769 59.713 59.544 59.535 59.506 59.442 59.45 59.571 59.865 60.13 60.287 60.967 60.564 60.02 60.201 59.992 59.885 59.864 59.994 59.992 59.851 59.948 60.823 60.885 59.902 59.799 59.962 62.739 61.976 59.567 60.076 59.26 59.242 59.14 59.128 59.086 59.044 59.26 59.202 59.32 59.088 58.827 58.784 58.49 58.224 58.171 58.168 58.058 57.854 57.827 57.674 57.379 56.984 56.714 56.406 56.308 56.178 56.226 56.143 56.025 56.023 56.084 55.927 55.903 55.87 55.845 55.716 55.938 55.931 55.683 55.401 56.694 55.753 55.307 57.506 55.862 55.367 54.063 53.674 53.422 53.145 53.175 53.225 53.075 52.933 52.912 52.932 52.91 52.803 52.859 53.835 52.983 53.526 53.476 52.746 52.533 53.807 57.45 54.372 54.785 54.911 56.398 59.046 59.782 59.67 59.248 59.211 59.176 59.093 58.389 58.259 54.357 53.019 52.989 52.981 53.718 57.73 59.803 61.105 61.452 60.003 58.881 55.034 54.38 53.737 54.198 54.163 53.894 54.017 54.95 54.124 53.998 54.125 54.233 54.221 54.267 54.348 54.422 54.582 54.614 57.57 54.994 54.783 54.756 54.66 54.801 54.9 54.952 54.987 54.974 55.183 55.248 55.2 55.275 55.367 55.489 55.604 55.675 55.713 55.791 55.829 55.876 55.887 55.905 55.922 55.79 55.666 55.866 55.789 55.757 55.734 55.816 55.818 56.826 61.897 63.026 63.748 63.962 63.326 61.799 56.943 55.989 56.089 56.116 56.075 55.969 55.98 56.001 55.987 57.156 56.695 56.69 56.134 55.856 55.951 55.904 55.804 55.796 55.759 55.721 55.385 55.942 55.794 56.455 56.976 55.497 55.552 56.199 56.908 57.051 57.216 57.65 60.079 60.84 60.977 60.709 56.239 54.712 54.813 55.217 54.751 54.805 54.676 54.484 54.494 54.417 54.41 54.984 54.908 55.744 57.79 60.385 56.609 56.844 56.333 54.745 55.54 54.788 54.689 54.465 55.041 55.071 54.357 53.882 53.887 53.91 54.186 53.965 53.857 54.393 57.669 57.416 54.481 53.76 53.745 53.678 53.711 53.776 53.802 53.908 53.867 54.79 60.306 63.785 59.97 56.656 55.797 53.85 52.914 52.795 52.775 52.799 52.781 52.817 52.823 52.836 52.878 52.877 52.915 52.93 53.047 53.623 54.523 55.122 56.458 54.778 55.128 55.142 54.98 54.944 55.532 55.074 55.164 55.223 55.238 55.249 55.281 55.277 55.288 55.252 55.231 55.253 55.227 55.193 55.154 55.157 55.203 55.168 56.565 57.61 56.024 55.143 54.928 54.616 54.307 54.011 53.794 53.863 54.299 54 53.678 53.542 53.389 53.289 53.277 53.301 53.337 53.286 53.297 53.311 53.346 53.358 53.365 53.37 53.365 53.378 53.401 53.386 53.404 53.401 53.441 53.425 53.442 53.414 53.454 53.442 53.45 53.456 53.454 53.427 53.453 53.464 53.507 53.497 53.496 53.49 53.498 53.482 53.486 53.491 53.483 53.526 53.514 53.515 53.578 53.532 53.56 53.588 53.665 53.639
65.522 66.592 65.575 65.21 65.087 64.96 64.622 64.671 64.494 64.696 64.536 64.465 64.499 64.723 65.39 65.657 65.041 64.881 64.751 64.704 64.249 64.248 64.269 64.283 64.341 66.872 69.241 69.299 69.661 67.781 63.544 62.908 63.344 62.795 62.258 62.217 62.166 63.368 62.219 63.793 65.63 67.329 68.054 66.143 63.618 62.274 62.719 61.678 61.257 61.113 60.976 60.918 60.87 60.767 60.814 60.896 61.064 61.077 61.123 60.96 60.657 60.297 59.972 59.823 59.652 59.607 59.603 59.525 59.467 59.55 61.365 60.288 60.085 60.402 60.798 60.896 60.212 60.298 60.193 60.004 59.943 59.997 59.971 59.956 59.954 59.834 60.067 60.095 59.846 60.337 59.606 61.554 61.388 59.423 59.465 59.338 59.202 59.414 59.139 59.104 59.055 59.049 59.079 59.093 59.098 58.973 58.676 58.318 58.161 58.047 57.963 57.946 57.849 57.755 57.557 57.173 56.898 56.52 56.391 56.451 56.247 56.267 56.159 56.014 55.994 56.016 55.999 55.966 55.915 56.012 55.963 55.993 55.739 55.573 55.482 55.452 55.204 57.27 61.425 62.082 55.977 54.331 54.107 53.726 53.375 53.115 53.137 53.174 52.97 52.895 52.868 52.848 52.782 52.749 52.812 52.872 52.735 53.734 53.109 52.493 52.594 52.644 54.293 55.279 55.285 55.368 59.464 61.399 60.935 61.03 60.964 61.517 61.129 60.782 60.06 59.923 59.84 58.981 55.231 54.096 58.116 61.546 61.5 60.422 57.51 54.739 53.81 53.69 54.686 54.31 53.84 53.828 53.783 53.797 53.994 54.001 54.075 54.12 54.143 54.238 54.378 54.454 54.5 54.538 54.63 54.687 54.591 54.558 54.684 54.769 54.857 54.867 54.819 55.066 55.194 55.207 55.167 55.784 56.299 55.448 55.4 55.447 55.481 55.544 55.6 55.74 55.744 55.794 55.811 55.769 55.618 55.669 55.745 55.791 55.652 55.755 55.781 55.882 60.546 63.303 64.359 64.344 63.81 62.301 57.012 55.903 55.9 55.964 55.931 55.944 57.276 56.151 55.841 56.622 56.577 56.526 55.963 55.517 55.799 55.761 55.506 55.508 55.509 55.471 55.268 55.839 56.409 57.33 57.178 57.144 57.009 56.547 56.79 57.743 57.784 57.089 59.781 61.285 61.902 60.911 59.928 54.795 54.805 54.812 54.702 54.727 54.484 54.401 54.429 54.295 54.258 54.401 54.618 54.892 54.664 54.727 55.235 56.033 55.135 54.924 54.264 53.904 55.213 55.111 54.89 54.374 53.99 53.868 53.816 53.775 53.958 54.247 55.422 54.31 57.144 59.31 57.264 54.288 53.659 53.592 53.596 53.686 53.753 53.773 53.775 56.701 59.576 61.082 58.614 55.846 55.481 53.215 52.822 52.797 52.805 52.798 52.823 52.84 52.854 52.84 52.899 52.918 52.898 52.839 52.935 53.006 53.105 53.515 53.653 53.808 55.924 57.242 57.25 56.967 56.379 54.89 54.903 55.03 55.172 55.136 55.171 55.233 55.305 55.283 55.218 55.177 55.179 55.197 55.196 55.206 55.165 55.209 57.107 56.498 55.251 55.111 54.834 54.494 54.194 53.984 53.733 53.616 55.63 54.778 53.573 53.432 53.355 53.282 53.27 53.29 53.287 53.315 53.318 53.314 53.318 53.342 53.381 53.359 53.38 53.373 53.382 53.373 53.393 53.392 53.388 53.406 53.433 53.42 53.424 53.41 53.412 53.453 53.423 53.421 53.449 53.448 53.469 53.48 53.467 53.499 53.495 53.491 53.487 53.501 53.474 53.498 53.542 53.534 53.534 53.509 53.59 53.67 53.698 53.656
65.525 65.425 65.3 65.19 65.235 65.182 64.905 64.81 65.325 64.61 64.596 64.555 64.607 64.841 65.383 65.739 65.183 65.016 65.011 64.649 64.228 64.535 64.262 64.308 64.27 64.209 65.575 68.993 68.301 67.491 64.427 63.663 62.892 62.274 62.227 62.114 62.972 63.596 62.711 62.149 65.436 69.327 68.978 68.046 66.34 64.49 61.88 61.372 61.167 61.139 61.04 60.825 60.759 60.69 60.642 60.67 60.712 60.715 60.661 60.53 60.357 60.108 59.908 59.809 59.688 59.605 59.607 59.512 59.586 60.712 61.473 60.347 60.356 60.84 60.667 60.273 60.317 60.185 60.094 60.103 60.045 60.133 60.119 59.892 59.91 59.891 59.898 59.772 59.759 59.729 59.713 59.577 59.366 59.304 59.399 59.341 59.24 59.169 59.163 59.159 59.086 59.095 59.124 59.19 59.219 59.057 58.565 58.267 58.143 58.018 57.989 58 57.78 57.62 57.418 57 56.761 56.784 56.47 56.517 56.306 56.262 56.226 56.156 56.039 56.065 56.059 56.03 55.976 56.005 55.863 55.847 55.713 55.672 55.457 55.412 55.336 55.244 61.833 61.236 58.813 54.584 54.303 53.981 53.627 53.282 53.02 53.139 53.101 52.917 52.843 52.795 52.774 52.742 52.731 52.784 52.827 52.701 53.779 52.978 52.555 52.792 54.942 55.182 54.259 55.609 59.004 59.436 59.743 60.084 60.174 60.299 60.622 60.425 60.836 60.874 60.88 58.704 54.949 55.494 55.605 59.126 59.715 58.703 54.177 53.789 54.698 53.579 54.094 53.708 53.893 53.752 53.697 53.807 53.917 53.97 54.003 54.022 54.122 54.287 54.343 54.418 54.446 54.481 54.539 54.461 54.46 54.578 54.716 54.743 54.744 54.742 54.977 55.077 55.148 55.12 56.057 56.53 55.91 56.147 57.002 56.444 55.949 55.583 55.609 55.496 55.502 55.544 55.608 55.66 55.617 55.533 55.716 55.785 55.703 55.683 55.747 55.71 60.23 62.651 63.499 63.167 62.351 61.395 57.358 55.819 55.879 55.78 55.683 56.402 57.81 56.009 56.399 57.328 56.415 56.408 55.825 55.47 55.378 55.476 55.3 55.21 55.4 55.287 55.246 55.619 56.139 57.403 55.758 56.231 57.621 57.411 54.678 56.835 55.935 54.936 57.673 61.082 62.102 61.293 59.336 54.543 54.42 54.301 54.747 54.54 54.404 54.33 54.307 54.26 54.125 54.206 54.781 54.989 54.105 54.152 54.299 53.8 54.151 53.928 54.068 56.076 56.087 54.12 53.872 53.726 53.692 53.877 53.662 53.665 53.748 53.9 53.66 54.428 56.858 57.264 56.901 53.785 53.531 53.486 53.499 53.571 53.636 53.635 55.076 58.133 58.773 57.318 56.134 55.54 53.902 52.878 52.838 52.818 52.834 52.861 52.887 52.873 52.887 52.918 52.937 52.94 52.918 52.928 52.882 52.897 52.967 53.102 53.181 53.286 54.557 57.271 57.366 58.238 60.065 55.921 54.63 54.766 54.902 54.896 54.988 55.097 55.168 55.229 55.269 55.161 55.16 55.138 55.15 55.145 55.126 57.012 57.735 55.522 55.164 54.958 54.63 54.292 53.942 53.615 53.593 53.551 53.564 54.005 53.556 53.469 53.343 53.33 53.279 53.239 53.298 53.29 53.321 53.297 53.325 53.327 53.351 53.365 53.371 53.394 53.367 53.363 53.377 53.389 53.419 53.42 53.404 53.415 53.461 53.418 53.428 53.424 53.44 53.422 53.417 53.418 53.457 53.435 53.479 53.468 53.468 53.449 53.483 53.494 53.462 53.511 53.491 53.528 53.516 53.56 53.62 53.716 53.665 54.901
65.515 65.427 65.307 65.192 65.075 64.99 65.542 65.255 64.682 64.712 64.727 64.934 66.248 65.078 65.309 65.457 65.024 64.861 64.908 64.757 64.399 64.61 64.258 64.282 64.433 64.217 64.16 64.793 66.542 65.495 64.511 64.267 62.785 62.271 62.231 62.153 62.132 62.883 63.779 62.046 62.246 65.631 68.235 69.137 68.461 66.775 64.256 61.505 62.072 61.252 61.04 60.891 60.677 60.6 60.53 60.476 60.455 60.47 60.353 60.225 60.101 59.987 59.819 59.717 59.66 59.668 59.603 59.677 60.424 61.041 60.384 60.389 60.767 60.735 59.945 60.315 60.143 60.023 60.149 60.198 60.201 60.125 60.02 59.953 59.868 59.923 60.067 59.759 59.726 59.707 59.716 59.633 59.492 59.193 59.47 59.447 59.264 59.117 59.53 59.243 59.171 59.116 59.047 59.055 59.045 58.768 58.458 58.235 58.228 58.035 58.281 57.885 57.595 57.582 57.325 56.902 56.748 56.64 57.223 56.508 56.344 56.357 56.306 56.239 56.103 56.107 56.102 56.145 56.222 55.99 55.811 55.755 55.636 55.538 55.418 55.378 55.353 55.239 57.601 56.757 55.409 54.933 54.637 54.303 53.982 53.636 53.304 53.05 53.107 53.053 52.915 52.804 52.736 52.76 52.677 53.648 52.884 52.818 52.604 53.726 53.064 52.794 53.492 54.914 54.543 53.233 54.291 55.958 58.197 58.379 58.334 58.465 58.6 58.79 58.937 59.528 59.664 58.366 54.82 54.828 55.603 56.108 58.697 54.714 53.706 53.566 53.571 53.536 53.66 53.811 53.846 53.684 53.722 53.841 53.878 53.847 53.892 54.002 54.173 54.247 54.313 54.364 54.39 54.441 54.301 54.337 54.455 54.639 54.638 54.599 54.611 54.792 54.99 54.968 55.023 56.14 57.195 56.275 55.503 55.391 55.386 57.251 55.863 55.479 55.454 55.545 55.674 55.516 55.508 55.523 55.71 55.618 55.598 55.763 55.721 55.595 55.634 55.676 56.721 61.768 62.213 63.044 61.242 56.786 55.73 55.738 55.703 55.512 55.169 55.034 55.537 55.99 56.334 56.594 56.407 56.34 55.979 55.315 55.262 55.418 55.122 55.081 55.109 55.236 55.156 55.215 55.92 56.837 55.276 54.504 55.59 55.329 54.753 54.371 54.403 55.371 57.279 60.97 62.09 61.412 60.156 54.607 54.281 54.283 54.563 54.444 54.299 54.155 54.209 54.214 54.108 54.098 54.337 54.019 54.023 57.645 58.514 59.146 60.116 57.987 54.053 55.61 54.53 54.135 53.775 53.611 53.571 54.004 53.67 53.493 53.547 54.296 54.319 55.99 56.515 57.647 56.36 53.404 53.443 53.437 53.443 53.51 53.511 53.541 54.658 57.687 58.859 56.397 55.417 53.589 52.964 52.851 52.856 52.856 52.861 52.876 52.909 52.908 52.944 52.96 52.949 52.956 52.968 52.92 52.894 52.876 52.858 52.861 52.943 53.038 53.462 54.643 56.866 56.913 57.873 56.656 54.382 54.449 54.569 54.639 54.698 54.85 54.956 55.008 55.076 55.129 55.124 55.161 55.038 55.057 55.152 57.733 55.904 55.08 54.919 54.742 54.337 53.95 53.638 53.397 53.504 53.751 53.522 53.539 53.553 53.644 53.487 53.439 53.33 53.309 53.305 53.271 53.29 53.308 53.331 53.33 53.329 53.371 53.356 53.348 53.349 53.372 53.353 53.375 53.366 53.369 53.39 53.396 53.415 53.411 53.414 53.406 53.419 53.418 53.399 53.452 53.41 53.445 53.445 53.448 53.456 53.471 53.5 53.494 53.501 53.509 53.492 53.49 53.536 53.564 53.662 53.654 53.638 53.625
65.502 65.412 65.327 65.232 65.125 64.992 64.875 64.77 65.082 64.821 64.939 66.029 66.171 65.255 65.286 65.468 64.855 65.363 65.218 64.276 64.327 64.262 64.418 64.335 64.223 64.266 64.146 64.152 64.04 64.272 65.073 63.207 62.505 62.338 62.477 62.343 62.32 62.117 62.704 61.857 61.884 62.161 66.168 68.275 69.202 68.436 67.332 63.412 61.566 62.61 61.677 60.837 60.682 60.493 60.482 60.369 60.34 60.275 60.149 60.052 59.938 59.848 59.746 59.745 59.662 59.642 62.91 62.396 60.939 60.423 60.412 60.731 60.844 60.275 60.397 60.343 60.099 60.179 60.224 60.176 60.247 60.135 60.054 60.02 59.898 59.84 59.827 59.716 59.683 59.637 59.629 59.664 59.627 59.326 59.446 59.502 59.207 58.954 59.012 60.898 60.663 59.17 59.445 59.97 59.007 58.866 58.529 58.299 58.206 57.976 59.131 58.208 57.496 57.23 56.772 56.73 56.733 56.66 56.727 56.637 56.432 56.375 56.363 56.285 56.203 56.118 56.18 56.277 56.172 55.888 55.879 55.586 55.527 55.444 55.372 55.354 55.358 55.421 55.29 55.064 55.274 58.617 60.25 57.749 54.152 53.979 53.641 53.265 53.217 53.053 53.042 52.862 52.732 52.722 52.723 53.421 53.197 52.848 52.75 52.572 53.865 53.028 52.802 52.896 52.993 52.816 52.783 52.84 53.95 52.932 53.735 53.998 54.41 54.399 55.823 54.383 58.04 58.088 54.73 54.179 54.581 53.631 53.443 53.805 53.517 54.637 54.97 53.584 53.402 53.73 53.654 53.703 53.805 53.787 53.817 53.792 53.968 54.088 54.162 54.186 54.265 54.342 54.372 54.239 54.263 54.367 54.464 54.502 54.506 54.563 54.76 54.747 54.824 54.984 58.144 58.778 56.243 55.295 55.4 55.411 55.387 55.402 55.377 55.45 55.522 55.567 55.517 55.519 55.559 55.722 56.483 56.763 55.869 55.622 55.748 55.534 55.523 55.582 55.753 60.753 61.229 62.683 57.449 56.29 56.355 56.063 56.129 55.531 54.972 54.983 55.293 55.409 55.878 56.297 56.027 55.9 55.716 55.105 54.938 55.288 55.16 54.953 54.953 55.172 55.035 54.898 55.599 56.835 56.798 54.671 54.245 54.144 54.236 54.557 54.753 54.959 55.773 60.188 61.665 61.398 60.506 54.906 54.261 54.276 54.904 54.364 54.249 54.078 54.113 54.1 53.987 54.024 54.082 54.009 53.982 58.219 60.036 60.937 60.368 59.308 54.381 53.765 53.81 53.754 53.59 54.046 54.082 53.626 53.439 53.603 53.424 53.283 53.405 53.219 53.828 56.844 56.243 53.261 53.356 53.374 53.315 53.374 53.416 53.522 57.257 58.628 58.47 55.744 54.85 53.159 52.89 52.878 52.881 52.911 52.897 52.931 52.969 52.968 52.99 52.995 52.981 52.982 52.935 52.903 52.908 52.876 52.856 52.859 52.861 52.823 53.039 53.888 54.833 56.675 61.573 57.955 54.827 54.141 54.289 54.314 54.423 54.54 54.701 54.77 54.947 54.989 55 54.969 54.899 54.961 55.482 55.548 55.083 54.904 54.726 54.451 54.03 53.599 53.249 53.247 53.138 53.5 53.731 53.365 53.726 53.557 53.575 53.526 53.476 53.378 53.31 53.27 53.272 53.285 53.316 53.311 53.344 53.329 53.337 53.34 53.367 53.35 53.396 53.375 53.353 53.398 53.374 53.397 53.407 53.404 53.413 53.427 53.436 53.422 53.404 53.401 53.38 53.448 53.452 53.42 53.425 53.431 53.471 53.455 53.453 53.485 53.479 53.492 53.555 53.632 53.659 53.688 54.077 53.529
64.992 65.23 65.312 65.245 65.147 65.032 64.945 64.825 64.732 64.802 64.974 66.669 64.978 65.501 65.414 65.408 64.601 65.264 64.646 64.249 64.209 64.276 64.225 64.475 64.301 64.2 64.191 64.127 64.114 64.015 64.157 63.942 62.837 62.672 62.975 62.847 62.015 61.893 61.814 61.777 61.828 62.934 63.079 66.959 68.3 68.264 67.099 62.203 62.53 63.581 61.734 60.902 60.677 60.472 60.342 60.346 60.251 60.163 60.097 59.966 59.91 59.864 59.821 59.719 59.687 59.819 62.589 62.682 60.672 60.61 60.784 60.804 60.15 60.699 60.483 60.214 60.143 60.266 60.277 60.267 60.339 60.24 60.101 60.062 59.953 59.892 59.801 59.723 59.683 59.651 59.601 59.577 59.505 59.55 59.653 59.312 59.073 59.157 58.938 61.358 61.517 59.519 59.325 59.04 59.031 59.047 58.925 58.478 58.187 58.001 58.405 58.037 57.377 57.162 57.947 56.866 56.786 56.683 56.678 56.579 56.505 56.453 56.381 56.341 56.306 56.288 56.208 56.213 56.049 55.837 55.634 55.597 55.472 55.445 55.345 55.307 55.311 55.272 55.238 55.151 55.092 59.478 60.83 58.273 56.323 57.148 53.853 53.593 53.119 52.923 52.922 52.943 52.806 52.701 52.679 52.738 53.216 53.008 52.869 52.759 52.554 52.644 52.99 53.986 53.326 53.298 53.694 53.707 53.918 53.034 53.737 54.463 53.794 53.345 53.893 52.899 52.852 52.822 54.435 53.537 53.724 53.663 53.449 53.409 54.45 53.743 53.423 53.374 53.313 53.402 53.485 53.632 53.757 53.761 53.695 53.815 53.972 54.041 54.09 54.161 54.203 54.244 54.119 54.151 54.282 54.369 54.439 54.428 54.427 54.701 54.791 54.797 54.787 56.16 58.192 58.511 55.582 55.293 55.349 55.324 55.39 55.409 55.41 55.519 55.556 55.603 55.575 55.559 55.625 56.516 56.605 56.204 55.897 55.794 55.758 55.625 55.406 55.511 55.573 55.685 57.125 55.894 55.85 56 55.646 55.18 55.509 55.312 55.011 54.903 54.986 55.096 55.17 55.875 55.873 55.258 55.211 54.937 54.753 55.001 54.94 54.782 54.821 55.057 55.056 54.927 55.213 55.475 56.288 54.286 53.847 53.865 53.901 54.182 54.508 54.193 54.448 59.335 60.459 60.243 59.92 55.082 55.123 54.496 54.359 54.237 54.101 53.972 54.002 54.06 53.897 53.906 54.566 54.147 54.583 57.082 59.817 61.057 60.264 59.112 54.056 54.054 54.242 53.695 54.082 54.143 53.813 53.221 53.207 53.212 53.2 53.207 53.24 53.234 53.751 57.497 57.072 53.126 53.193 53.281 53.202 53.261 53.33 55.073 57.112 58.262 58.722 54.782 54.485 52.903 52.893 52.904 52.964 52.936 52.886 52.929 52.966 52.971 52.998 53.007 53.005 52.971 52.967 52.928 52.933 52.887 52.899 52.881 52.837 52.827 52.797 52.943 53.74 58.243 61.446 59.64 55.126 53.903 54.026 54.068 54.118 54.269 54.408 54.534 54.723 54.786 54.764 54.737 54.749 54.858 54.917 54.931 54.904 54.759 54.522 54.27 53.864 53.313 53.1 53.326 53.117 53.133 53.191 53.912 53.262 53.643 53.584 53.554 53.548 53.508 53.399 53.324 53.264 53.296 53.288 53.318 53.304 53.325 53.341 53.35 53.37 53.358 53.383 53.368 53.402 53.363 53.38 53.375 53.387 53.384 53.401 53.4 53.444 53.403 53.409 53.394 53.407 53.397 53.429 53.435 53.454 53.453 53.49 53.466 53.473 53.475 53.469 53.524 53.571 53.757 54.389 54.938 53.618 53.378
65.415 64.767 64.652 64.64 64.87 65.02 64.995 64.9 64.795 64.725 64.668 64.721 64.598 64.932 65.15 65.229 64.608 64.757 64.245 64.234 64.23 64.243 64.199 64.223 64.258 64.215 64.196 64.186 64.096 63.93 63.827 63.791 63.916 65.274 65.476 62.582 61.906 61.846 61.783 62.82 63.396 62.179 61.943 61.897 66.029 67.138 63.546 63.009 62.94 61.643 61.065 60.933 60.612 61.789 60.353 60.312 60.26 60.18 60.074 59.979 59.896 59.849 59.802 59.741 59.836 61.618 61.345 60.423 60.426 60.692 60.6 60.224 60.455 60.537 60.235 60.261 60.273 60.255 60.326 60.235 60.287 60.191 60.177 59.994 59.978 59.894 59.903 59.743 59.671 59.624 59.626 59.599 59.596 59.88 59.681 59.227 59.111 59.216 59.459 59.417 59.569 58.891 59.028 58.909 58.9 59.048 59.024 59.017 58.597 58.138 57.723 57.483 57.191 57.012 56.944 56.884 56.835 56.729 56.654 56.603 56.477 56.533 56.47 56.393 56.526 56.562 56.284 55.94 55.838 55.681 55.521 55.446 55.458 55.376 55.359 55.359 55.267 55.264 55.231 55.183 55.035 55.667 58.006 55.326 56.56 56.433 54.151 53.815 53.485 53.701 52.851 52.919 52.958 52.784 52.661 52.636 52.706 54.117 53.285 52.59 52.619 52.586 52.622 52.639 52.678 52.705 52.796 52.96 52.735 52.763 53.026 53.219 53.134 53.043 53.065 53.109 53.123 53.041 55.075 55.606 55.103 55.168 54.645 53.266 53.442 53.185 53.319 53.435 53.322 53.421 53.552 53.602 53.581 53.621 53.715 53.856 53.885 53.986 54.04 54.084 54.123 53.991 54.048 54.166 54.195 54.185 54.281 54.314 54.417 54.62 54.656 54.698 55.591 56.465 55.94 55.44 55.303 55.29 55.327 55.339 55.401 55.43 55.476 55.497 55.657 55.708 55.522 55.513 56.166 55.914 56.108 55.965 55.652 55.715 55.717 55.698 55.36 55.359 55.506 56.047 55.868 55.651 55.434 55.348 55.183 55.037 55.285 55.366 54.921 54.922 54.866 55.138 54.872 54.899 54.966 54.852 55.049 54.856 54.725 54.937 55.045 54.746 54.74 54.915 54.989 54.657 54.888 55.227 54.953 53.992 53.749 53.767 54.556 54.237 54.013 54.025 54.154 55.801 54.912 55.557 54.585 54.892 54.707 55.108 55.029 54.184 54.044 53.896 53.91 53.942 53.839 53.821 53.919 54.615 54.72 55.529 59.658 61.006 60.732 59.461 55.028 53.749 53.619 53.545 53.548 53.483 54.872 53.214 53.169 53.172 53.127 53.114 53.09 53.092 53.521 57.538 57.431 52.998 53.059 53.084 53.124 53.163 53.311 55.684 57.854 56.679 54.584 53.171 52.895 52.858 52.878 52.931 52.935 52.932 52.947 52.976 52.991 53.013 53.024 53.027 53.006 52.991 52.987 52.96 52.949 52.914 52.903 52.892 52.859 52.843 52.852 53.034 54.3 55.753 56.97 54.836 53.564 53.647 53.781 53.836 53.89 54.062 54.164 54.314 54.494 54.541 54.512 54.539 54.675 54.817 54.792 54.795 54.706 54.516 54.273 53.954 53.539 53.104 53.826 53.12 53.131 53.105 53.145 53.126 53.133 54.822 53.414 53.486 53.545 54.031 54.913 53.443 53.343 53.332 53.287 53.279 53.299 53.333 53.297 53.336 53.353 53.34 53.363 53.355 53.384 53.367 53.357 53.347 53.397 53.382 53.393 53.386 53.38 53.404 53.395 53.408 53.389 53.4 53.393 53.43 53.453 53.423 53.46 53.46 53.455 53.458 53.449 53.506 53.586 53.671 54.46 54.087 53.506 53.273
