ncols 435
nrows 32
xllcorner    433056
yllcorner    430740
cellsize     2
NODATA_value -9999
23.168 31.352 31.457 31.026 30.438 30.247 29.885 29.415 29.095 28.775 28.18 27.768 23.283 22.474 21.615 21.331 21.255 21.238 21.229 21.297 21.301 21.317 21.301 21.331 21.338 21.301 21.325 21.284 21.29 21.273 21.323 21.37 21.426 21.417 21.443 21.454 21.467 21.461 21.489 21.421 21.469 21.459 21.442 21.458 21.403 21.374 21.193 21.121 21.092 21.085 21.151 21.079 21.122 21.275 21.308 21.265 21.275 21.29 21.253 21.217 21.209 21.203 21.231 21.255 21.236 26.178 30.664 31.134 31.679 32.052 32.57 32.944 33.452 34.061 34.532 35.026 35.233 35.711 36.29 36.272 35.722 35.537 34.956 34.449 34.06 33.501 33.055 32.755 32.133 31.724 31.132 30.622 30.556 30.817 31.395 31.855 32.355 32.762 33.159 33.619 34.161 34.636 35.014 35.549 36.143 36.39 36.003 35.565 35.131 34.566 34.446 33.803 33.258 32.889 32.255 31.891 31.343 30.952 30.625 30.553 31.173 31.435 32.108 32.667 32.921 33.489 33.847 34.29 34.803 35.184 35.697 36.313 36.073 35.749 35.277 34.923 34.301 33.905 33.449 32.954 32.609 32.134 26.327 21.238 21.277 21.182 21.17 21.214 21.267 21.285 21.275 21.265 21.312 21.349 21.424 22.47 21.584 21.548 21.515 21.559 21.523 21.477 21.438 21.456 21.619 21.956 22.169 22.339 22.403 22.052 21.737 21.335 20.931 20.881 20.874 21.565 21.732 21.363 21.226 20.897 20.777 -9999 -9999 -9999 20.364 20.356 20.284 20.311 20.818 21.903 24.037 23.234 25.226 25.785 23.562 23.714 23.452 26.052 26.882 27.844 27.756 28.414 25.677 23.871 21.887 20.978 20.535 20.045 19.729 19.466 19.274 19.239 -9999 -9999 -9999 -9999 -9999 -9999 -9999 -9999 -9999 -9999 -9999 18.87 18.774 19.152 19.019 18.882 19.677 20.155 20.246 20.604 21.065 21.367 21.748 21.988 22.397 22.616 22.894 23.03 23.191 23.441 23.794 23.941 23.914 23.927 23.923 23.76 23.559 23.439 23.356 23.676 23.232 22.102 21.321 21.611 21.884 21.797 21.639 21.555 21.455 21.427 21.319 21.243 21.224 21.167 21.183 21.13 21.133 21.143 21.128 21.165 21.115 21.108 21.155 21.069 21.055 21.113 21.09 21.109 21.234 21.435 22.02 21.625 21.39 21.361 21.313 21.671 21.094 20.941 20.852 20.88 20.984 20.883 20.811 20.764 20.76 20.677 20.687 -9999 -9999 20.702 20.73 20.766 20.803 20.801 20.846 20.697 20.717 20.689 20.732 20.758 20.69 20.734 20.798 20.847 20.909 20.989 21.045 21.107 21.113 21.13 21.102 21.095 21.154 21.086 21.183 21.12 21.058 21.075 21.021 21.067 21.149 21.246 21.084 21.104 21.106 21.209 21.198 21.168 21.063 21.154 21.136 21.122 21.222 21.092 22.07 25.778 26.941 27.395 27.642 25.291 25.77 25.973 25.979 26.04 26 25.986 25.841 26.718 25.401 25.282 25.281 25.418 25.02 23.824 23.318 22.822 22.323 23.416 23.017 23.546 23.144 21.6 21.522 21.589 21.973 21.685 -9999 -9999 21.708 21.433 21.516 21.478 21.531 21.826 21.971 21.904 22.022 22.886 22.434 22.276 22.392 23.353 24.908 25.15 25.251 25.314 25.479 25.517 25.637 25.73 25.745 25.804 25.91 25.589 25.274 24.589 24.052 24.064 22.793 22.499 22.474 22.456 22.418 22.423 22.76 22.442 22.597 23.261 23.334 23.458 23.385 23.546 23.583 23.707 24.475 24.017 24.146 24.363 24.401 24.404 24.649 24.731 24.75
21.259 29.006 30.556 30.297 29.921 29.553 28.12 28.671 28.346 24.614 24.459 21.313 21.349 21.305 21.281 21.29 21.268 21.235 21.274 21.256 21.293 21.316 21.352 21.352 21.322 21.35 21.323 21.285 21.275 21.303 21.302 21.345 21.435 21.488 21.458 21.482 21.421 21.478 21.426 21.443 21.474 21.429 21.414 21.386 21.413 21.304 21.162 21.091 21.094 21.096 21.113 21.145 21.131 21.21 21.262 21.264 21.216 21.199 21.82 21.577 21.176 21.222 21.419 27.773 29.705 31.166 31.569 32.102 32.406 32.945 33.398 33.907 34.519 34.673 35.26 35.895 36.313 36.174 35.826 35.599 34.989 34.556 33.958 33.481 33.247 32.767 32.349 31.639 31.167 30.833 30.536 30.842 31.345 31.81 32.32 32.682 33.129 33.633 34.109 34.435 34.914 35.582 35.835 36.323 36.176 35.668 35.13 34.599 34.367 33.864 33.279 32.814 32.126 31.938 31.505 31.006 30.591 30.662 31.081 31.56 32.063 32.332 32.879 33.44 33.895 34.281 34.805 35.129 35.709 36.309 36.112 35.908 35.611 34.935 34.515 33.91 33.602 32.934 32.687 32.243 31.566 31.385 30.602 26.374 21.327 21.235 21.299 21.373 21.238 21.511 21.304 21.341 21.379 22.357 21.642 21.426 21.516 21.555 21.507 21.488 21.336 21.345 21.36 21.394 21.555 21.842 22.127 22.296 22.395 22.325 21.487 21.433 21.823 20.939 20.876 21.018 21.369 21.026 20.881 20.758 20.697 20.731 -9999 -9999 20.366 20.356 20.326 -9999 20.438 20.588 21.671 24.913 25.558 26.508 25.769 23.854 23.982 25.3 26.372 26.935 28.603 28.229 25.407 22.051 23.191 22.447 20.948 20.436 19.943 19.553 19.309 19.225 18.566 -9999 -9999 -9999 -9999 -9999 -9999 -9999 -9999 -9999 -9999 19.336 19.638 20.392 19.154 18.945 19.914 19.802 19.913 20.395 22.465 22.922 21.527 21.779 22.339 22.52 22.788 23.008 23.182 23.366 23.811 23.907 23.913 23.989 23.953 23.736 23.545 23.46 23.392 23.712 23.013 21.863 21.364 21.808 21.879 21.732 21.649 21.564 21.512 21.425 21.472 21.271 21.254 21.167 21.161 21.157 21.115 21.197 21.084 21.118 21.152 21.128 21.142 21.057 21.035 21.077 21.048 21.144 21.2 21.286 21.317 21.316 21.304 21.31 21.383 21.441 21.221 20.99 20.871 20.835 20.871 20.822 20.772 20.713 20.706 20.66 -9999 -9999 -9999 20.722 20.735 20.75 20.815 20.843 20.805 20.654 20.659 -9999 -9999 20.681 20.678 20.72 20.775 20.809 21.113 20.989 21.044 21.09 21.12 21.132 21.095 21.078 21.068 21.128 21.112 21.146 21.037 21.023 21.012 21.088 21.151 21.24 21.149 20.994 21.072 21.212 21.172 21.099 21.078 21.115 21.161 21.145 21.166 21.239 22.416 25.078 27.033 26.647 26.768 25.536 25.777 25.872 25.922 25.979 25.981 25.991 25.712 25.469 25.374 25.264 25.323 26.575 24.914 24.291 23.245 22.853 22.463 23.449 23.683 24.01 23.334 22.666 21.702 21.639 21.784 21.788 -9999 -9999 21.72 21.453 21.461 21.512 21.537 21.961 21.937 21.999 22.058 22.16 22.224 22.378 22.505 23.654 24.719 25.219 25.372 25.435 25.531 25.555 25.652 25.772 25.868 25.842 25.991 26.138 25.53 25.548 24.388 23.728 23.592 22.631 22.471 22.463 22.445 22.434 22.461 22.658 24.52 23.313 23.144 23.288 23.349 23.423 23.452 23.477 23.712 24.669 24.541 24.115 24.269 24.379 24.442 24.636 24.793
21.286 23.287 29.889 29.619 29.257 28.825 28.315 27.907 22.023 21.383 21.891 21.551 21.332 21.32 21.325 21.242 21.23 21.249 21.285 21.315 21.306 21.32 21.318 21.323 21.316 21.307 24.095 22.208 21.26 21.278 21.265 21.345 21.455 21.462 21.457 21.477 21.454 21.458 21.457 21.467 21.423 21.432 21.437 21.34 21.273 21.205 21.05 21.117 21.093 21.06 21.126 21.102 21.138 21.163 21.277 21.313 21.329 21.289 21.491 22.668 21.717 27.725 28.156 31.088 31.46 32.117 32.36 32.972 33.488 33.949 34.386 34.661 35.237 35.849 36.193 36.196 35.946 35.623 35.014 34.547 33.932 33.457 33.335 32.699 32.243 31.697 31.264 30.86 30.501 30.912 31.146 31.819 32.218 32.603 33.265 33.462 34.098 34.525 34.818 35.439 35.911 36.335 36.11 35.709 35.243 34.572 34.344 33.775 33.437 32.937 32.255 32.244 31.584 30.991 30.712 30.707 31.073 31.441 31.965 32.641 32.854 33.46 33.898 34.303 34.64 35.146 35.724 36.096 36.317 36.019 35.508 34.964 34.504 33.956 33.474 33.295 32.684 32.159 32.218 31.284 30.768 29.956 23.788 21.441 22.822 22.306 21.301 21.217 21.17 21.289 21.283 21.318 21.526 21.354 21.686 21.418 21.455 21.597 21.417 21.285 21.242 21.288 21.319 21.358 21.456 21.65 21.934 22.154 22.172 21.884 21.807 21.572 21.618 21.93 20.92 21.391 21.16 21.07 20.881 20.772 20.696 20.787 -9999 -9999 -9999 -9999 -9999 20.343 20.345 20.794 21.465 25.549 25.194 25.013 24.83 24.545 23.894 23.35 26.061 24.834 28.438 28.919 26.602 26.325 23.233 23.295 21.361 20.794 20.744 19.719 19.424 19.303 19.359 -9999 -9999 -9999 -9999 -9999 -9999 -9999 -9999 -9999 -9999 19.775 20.044 20.376 19.789 18.98 19.67 20.079 20.407 21.714 22.659 22.91 22.686 22.584 22.133 22.539 22.82 22.98 23.124 23.344 23.771 23.972 23.884 23.908 23.907 23.756 23.57 23.523 23.455 24.215 27.511 27.651 22.501 21.831 21.804 21.695 21.646 21.563 21.56 21.476 21.511 21.336 21.305 21.193 21.132 21.12 21.137 21.116 21.122 21.557 21.1 21.099 21.097 21.098 21.056 21.045 21.039 21.059 21.347 21.146 21.201 21.216 21.218 21.386 21.398 21.31 21.226 21.027 20.837 20.834 20.786 20.689 20.781 20.697 -9999 20.71 -9999 -9999 20.749 20.7 20.761 20.79 20.82 20.79 20.8 20.684 -9999 -9999 -9999 20.684 20.703 20.775 20.766 21.082 21.575 22.106 21.369 21.069 21.08 21.06 21.116 21.088 21.13 21.225 21.165 21.188 21.117 21.128 21.043 21.045 21.109 21.149 21.079 21.028 21.064 21.147 21.087 21.059 21.048 21.078 21.135 21.193 21.177 21.221 21.318 24.692 23.939 25.336 24.783 25.416 25.788 25.875 25.973 25.947 25.962 26.02 25.698 25.385 25.368 25.386 25.426 26.362 24.396 23.204 23.061 22.779 22.384 22.183 22.743 23.293 23.269 22.142 21.701 21.625 21.472 -9999 -9999 21.718 21.482 21.509 21.507 21.566 21.673 21.993 21.931 22.041 22.104 22.226 22.279 22.479 22.534 23.476 24.924 25.38 25.447 25.449 25.565 25.647 25.756 25.848 25.836 25.902 25.931 26.056 26.073 25.605 24.987 23.678 23.364 23.427 22.778 22.483 22.5 22.443 22.472 22.653 23.174 22.996 22.489 23.234 23.367 23.37 23.344 23.402 23.413 23.433 24.24 24.051 24.119 24.118 24.279 24.386 24.493
21.328 22.769 27.586 28.844 28.526 28.103 24.426 22.026 21.443 21.809 22.403 22.539 21.333 21.323 21.277 21.276 21.31 21.325 21.295 21.31 21.285 21.316 21.311 21.289 21.928 22.175 24.419 25.774 22.114 23.626 21.866 21.324 21.432 21.474 21.44 21.436 21.403 21.451 21.461 21.417 21.425 21.404 21.36 21.264 21.175 21.053 21.082 21.127 21.105 21.144 21.097 21.051 21.073 21.18 21.349 21.546 24.175 21.971 21.297 26.421 28.899 31.035 31.483 31.833 32.375 32.96 33.312 33.882 34.476 34.686 35.103 35.904 36.153 36.105 35.899 35.103 33.623 33.382 33.988 33.637 32.764 32.134 32.128 31.821 31.277 31.003 30.632 30.823 31.21 31.588 32.236 32.729 32.996 33.51 33.835 34.487 34.979 35.412 35.947 36.25 36.31 35.845 35.521 34.966 34.382 33.907 33.376 32.851 32.5 32.178 31.496 31.166 30.667 30.611 30.937 31.385 31.923 32.24 32.901 33.242 33.757 34.334 34.517 35.064 35.669 36.163 36.226 36.073 35.6 34.92 34.612 33.911 33.58 33.254 32.692 32.18 31.81 31.239 31.009 30.068 23.803 21.342 21.167 21.207 22.292 21.251 21.269 21.265 21.217 21.243 21.257 22.282 21.988 22.448 21.427 21.717 21.416 21.418 21.223 21.215 21.28 21.261 21.357 21.326 21.357 21.5 21.684 21.883 21.852 21.533 21.649 21.59 21.616 21.838 22.25 22.256 21.593 21.097 21.03 20.955 20.911 20.858 -9999 -9999 -9999 -9999 -9999 -9999 -9999 -9999 -9999 -9999 25.891 26.648 24.232 23.864 24.274 24.564 26.127 24.913 27.766 25.346 28.519 27.191 22.787 22.343 21.251 20.768 20.388 19.927 19.653 19.49 19.61 19.515 -9999 -9999 -9999 -9999 -9999 -9999 -9999 -9999 -9999 19.682 19.63 22.898 19.265 21.3 19.456 19.569 21.456 22.551 22.353 21.245 23.163 23.471 22.384 22.393 22.804 22.929 23.128 23.224 23.649 24.003 24.019 23.972 23.866 23.676 23.562 23.463 23.427 27.009 29.708 28.804 25.586 21.927 21.806 21.769 21.686 21.577 21.634 21.444 21.505 21.301 21.322 21.218 21.171 21.081 21.15 21.082 21.083 21.052 21.11 21.051 21.058 21.073 21.06 21.077 21.061 21.079 21.073 21.116 21.127 21.121 21.101 21.133 21.227 21.192 21.186 21.061 20.94 20.894 20.89 20.884 20.708 20.642 20.729 20.752 20.759 20.734 20.759 20.73 20.738 20.77 20.817 20.808 20.686 20.708 -9999 -9999 -9999 -9999 20.748 20.766 21.377 21.703 22.343 22.013 21.985 21.183 21.046 21.12 21.118 21.108 21.138 21.215 21.122 21.162 21.169 21.157 21.047 21.061 21.071 21.086 21.098 21.082 21.079 21.081 21.087 21.103 21.061 21.118 21.132 21.187 21.142 21.392 21.53 25.177 25.456 25.86 24.938 25.429 25.77 25.69 25.887 25.956 26.004 26.067 25.853 25.457 25.442 25.479 25.476 25.414 24.274 23.022 22.896 22.445 22.179 21.932 23.052 23.11 22.898 22.161 21.694 21.431 21.366 21.454 21.455 21.624 21.757 21.547 21.511 21.586 21.685 21.856 21.95 22.11 22.189 22.204 22.34 22.419 22.689 23.467 24.827 25.399 25.53 25.605 25.608 25.686 25.779 25.86 25.932 25.954 26.022 26.104 26.187 26.168 25.857 24.644 23.803 23.779 23.499 22.63 22.466 22.498 22.467 22.459 22.559 22.713 22.227 22.421 23.131 23.329 23.245 23.31 23.302 23.384 23.586 24.054 23.856 23.891 24.079 24.221 24.348
21.309 22.03 23.199 27.998 24.443 22.062 22.355 21.759 22.125 22.087 22.28 21.592 21.295 21.331 21.353 21.356 21.312 21.309 21.311 21.299 21.334 21.313 22.917 23.142 21.562 23.106 21.348 25.57 25.163 24.785 24.212 21.351 21.385 21.445 21.434 21.465 21.448 21.464 21.442 21.375 21.359 21.278 21.202 21.128 21.081 21.026 21.098 21.145 21.08 21.044 21.132 21.12 21.334 23.663 24.439 24.444 24.424 27.444 29.651 30.933 31.549 31.86 32.342 32.914 33.41 33.604 34.12 34.644 35.152 35.717 36.147 36.233 36.12 35.448 35.122 33.347 30.195 33.78 33.296 32.926 32.334 31.871 31.367 31.058 30.596 30.794 31.27 31.587 32.037 32.496 32.966 33.514 33.93 34.379 34.962 35.362 35.757 36.214 36.246 35.841 35.492 34.903 34.443 33.952 33.587 32.852 32.648 32.118 31.52 31.176 30.694 30.455 30.857 31.411 31.84 32.24 32.869 33.261 33.829 34.305 34.536 35.102 35.551 35.974 36.213 36.242 35.577 35.145 34.488 34.143 33.53 33.297 32.622 32.182 31.763 31.275 30.884 30.293 23.845 22.085 21.215 21.183 21.209 21.19 21.257 21.306 21.292 21.3 21.285 21.303 21.297 21.256 21.274 21.382 21.292 21.256 21.305 21.264 21.209 21.25 21.289 21.252 21.314 21.32 21.362 21.422 21.49 21.556 22.125 21.681 21.54 21.531 21.6 21.88 22.583 22.588 22.066 21.334 21.103 21.149 21.026 20.812 20.834 -9999 -9999 -9999 -9999 -9999 -9999 -9999 -9999 -9999 24.933 24.107 24.339 25.077 25.092 22.928 23.578 22.609 26.832 27.288 26.29 28.492 26.005 21.779 22.191 21.236 20.77 20.705 21.161 20.695 19.91 19.125 19.324 -9999 -9999 -9999 -9999 -9999 -9999 -9999 -9999 -9999 20.76 19.077 19.696 18.89 21.336 23.01 23.153 22.589 22.341 21.73 22.567 23.999 22.19 22.059 22.547 22.844 22.951 23.111 23.668 23.853 23.993 23.877 23.85 23.697 23.556 23.433 23.362 26.567 28.536 27.45 23.374 22.007 21.895 21.71 21.655 21.56 21.497 21.426 21.397 21.347 21.218 21.173 21.17 21.126 21.151 21.084 21.055 21.044 21.022 21.019 21.09 21.047 21.064 21.059 21.027 21.028 20.986 21.111 21.177 21.097 21.055 21.03 21.066 21.073 21.103 21.081 21.012 21.014 20.931 20.911 20.643 20.677 20.733 20.716 20.788 20.765 20.756 20.757 20.765 20.811 20.768 20.728 20.714 20.667 -9999 -9999 -9999 -9999 20.757 20.725 21.025 21.733 22.401 22.201 22.173 21.238 21.041 21.115 21.182 21.14 21.078 21.125 21.265 21.185 21.168 21.168 21.09 21.091 21.077 21.055 21.1 21.089 21.074 21.11 21.177 21.095 21.196 21.18 21.093 21.171 21.099 21.226 21.327 23.948 26.03 24.079 24.558 25.257 25.394 25.471 25.679 25.968 26.012 26.073 25.691 25.579 25.597 25.577 25.637 25.837 24.678 22.979 22.599 22.269 21.916 21.711 21.829 22.331 22.421 21.601 21.61 21.36 21.414 21.446 21.421 21.606 21.59 21.612 21.514 21.559 21.83 21.879 21.911 22.101 22.209 22.27 22.37 22.504 22.682 23.67 25.025 25.593 25.687 25.63 25.752 25.787 25.866 25.986 25.979 26.044 26.112 26.135 26.15 26.265 26.117 25.556 24.453 23.557 24.121 23.446 22.569 22.505 22.506 22.459 22.443 22.569 22.635 22.395 22.729 23.316 23.19 23.258 23.217 23.317 23.402 23.472 23.618 23.678 23.854 24.08 24.22
21.281 21.327 21.451 23.18 21.339 22.802 23.246 23.258 21.483 21.299 21.286 21.271 21.332 21.337 21.353 21.308 21.265 21.34 21.343 21.301 21.278 21.264 23.611 24.097 21.836 23.079 21.176 24.347 24.879 24.858 24.905 21.322 21.287 21.45 21.45 21.479 21.418 21.389 21.31 21.317 21.22 21.102 21.02 21.087 21.111 21.097 21.099 21.02 21.094 21.117 21.199 23.032 24.516 24.473 24.453 27.644 29.793 30.983 31.337 31.812 32.429 32.727 33.213 33.522 34.052 34.629 35.095 35.61 36.14 36.38 36.099 35.648 35.213 34.165 32.915 33.729 31.558 32.927 32.406 31.868 31.328 31.079 30.602 30.793 31.276 31.56 31.993 32.514 32.966 33.319 33.943 34.364 34.97 35.263 35.814 36.196 36.294 35.853 35.373 35.052 34.629 34.035 33.622 33.25 32.683 32.045 31.566 31.164 30.714 30.603 30.933 31.435 31.926 32.227 32.664 33.24 33.635 34.303 34.522 35 35.567 35.988 36.279 36.057 35.512 35.097 34.614 34.206 33.748 33.311 32.713 32.502 31.974 31.607 31.008 30.271 23.757 22.121 21.205 21.184 21.182 21.237 22.301 21.22 21.254 21.265 21.291 21.293 21.253 21.28 21.292 21.249 21.345 21.351 21.203 21.339 21.256 21.283 21.277 21.253 21.285 21.286 21.326 21.383 21.391 21.384 21.469 21.505 21.655 21.452 21.53 21.585 21.64 22.156 22.742 22.623 21.626 21.248 21.127 21.217 21.132 20.745 20.8 20.961 21.086 -9999 -9999 20.369 20.372 -9999 -9999 -9999 24.77 24.208 24.464 24.102 24.29 22.037 23.716 23.912 25.36 25.839 25.915 28.12 27.442 26.059 23.573 24.616 22.645 22.71 23.066 21.717 20.313 18.751 19.348 -9999 -9999 -9999 -9999 -9999 -9999 -9999 -9999 20.237 20.824 18.818 18.849 19.818 21.214 22.2 20.721 20.728 21.352 20.945 21.02 22.364 21.629 21.596 22.082 22.573 23 23.113 23.314 23.736 23.938 23.999 23.95 23.712 23.533 23.407 23.388 24.156 23.969 21.753 22.263 22.298 21.92 21.686 21.681 21.549 21.495 21.487 21.329 21.281 21.263 21.23 21.146 21.137 21.125 21.107 21.065 20.998 21.026 21.014 21.076 21.121 21.086 21.101 21.093 21.008 20.946 21.059 21.081 21.084 21.07 21.037 20.996 20.993 21.016 21.19 21.063 21.012 20.981 20.958 20.811 20.934 20.79 20.751 20.733 20.765 20.802 20.783 20.77 20.755 20.735 20.746 20.727 -9999 -9999 -9999 -9999 -9999 -9999 20.714 20.735 21.693 22.25 21.609 22.281 21.056 21.052 21.012 21.164 21.095 21.064 21.126 21.11 21.14 21.135 21.184 21.114 21.198 21.128 21.08 21.185 21.132 21.139 21.143 21.154 21.117 21.145 21.19 21.105 21.17 21.223 21.313 25.596 26.019 27.452 25.927 24.701 25.354 25.382 25.463 25.612 25.735 25.871 25.931 25.687 25.623 25.66 25.748 25.653 26.452 24.538 22.836 22.329 22.007 21.8 21.692 21.679 21.663 21.604 21.542 21.576 21.565 21.586 21.476 21.536 22.067 21.665 21.655 21.556 21.59 21.739 21.854 21.973 22.128 22.198 22.22 22.384 22.499 22.798 24.077 25.09 25.603 25.739 25.758 25.853 25.871 25.966 26.044 26.051 26.118 26.205 26.207 26.255 26.368 26.347 26.117 25.45 24.568 23.946 24.367 23.23 22.557 22.497 22.445 22.469 22.45 22.685 22.556 22.408 22.608 22.964 23.132 23.217 23.185 23.275 23.286 23.362 23.635 23.71 23.886 24.086
21.345 21.346 21.309 21.358 21.378 22.568 21.558 22.802 21.257 21.262 21.292 21.267 21.26 21.326 21.38 21.354 21.345 21.367 21.294 21.263 21.252 21.279 21.418 24.411 23.542 21.273 21.187 21.217 25.384 23.146 24.979 22.259 21.173 21.215 21.375 21.398 21.383 21.279 21.161 21.073 21.054 21.069 21.081 21.109 21.137 21.07 21.076 21.061 21.191 22.99 24.097 24.448 24.474 27.722 28.894 30.775 31.344 31.78 32.231 32.63 33.267 33.631 34.073 34.695 35.081 35.594 35.821 36.254 36.111 35.65 35.223 34.676 34.418 32.69 29.334 32.791 32.399 31.808 31.618 31.008 30.518 30.766 31.107 31.443 32.067 32.441 33.014 33.337 33.784 34.38 34.849 35.302 35.764 36.259 36.278 36.056 35.563 35.016 34.694 34.078 33.607 33.301 32.765 32.365 31.811 31.414 30.818 30.47 30.771 31.283 31.881 32.199 32.838 33.2 33.649 34.072 34.548 34.981 35.522 36.073 36.328 36.241 35.756 35.233 34.815 34.441 33.936 33.435 32.821 32.465 31.828 31.582 30.882 30.509 28.518 23.825 21.245 21.268 21.203 21.25 21.259 21.381 21.262 21.288 21.272 21.31 21.342 21.291 21.233 21.264 21.299 21.239 21.36 21.333 21.244 21.169 21.366 21.201 21.256 23.538 22.413 21.337 21.303 21.379 21.399 21.444 21.443 21.477 22.933 21.865 21.508 21.566 21.679 22.245 22.534 22.319 21.059 21.03 20.91 21.011 20.948 20.854 21.037 20.91 21.122 -9999 20.431 20.351 20.368 20.369 20.563 -9999 24.422 24.242 24.822 25.038 23.16 21.228 23.239 23.472 26.151 27.052 26.093 27.681 26.802 25.454 25.368 27.111 27.564 26.228 23.727 21.692 21.657 20.378 19.449 19.229 -9999 -9999 -9999 -9999 -9999 -9999 -9999 20.034 20.518 22.592 18.725 19.449 25.438 20.811 21.169 21.369 21.005 19.976 20.054 20.182 20.771 20.99 21.836 22.554 22.911 23.02 23.439 23.742 24.155 23.985 24.031 23.796 23.56 23.516 23.363 23.575 22.985 21.362 22.058 22.202 21.956 21.801 21.663 21.621 21.458 21.395 21.313 21.25 21.279 21.236 21.157 21.158 21.113 21.092 21.045 21.009 21.013 21.021 21.032 21.118 21.154 21.134 21.075 21.058 21.07 21.041 21.041 21.024 21.059 21.057 20.952 21.003 20.977 20.968 21.042 21.031 21.027 20.994 20.95 20.924 20.919 20.852 20.852 20.815 20.821 20.782 20.758 20.759 20.745 20.724 20.748 20.706 20.665 -9999 -9999 20.745 20.738 20.7 20.743 21.066 21.214 21.307 21.107 21.205 21.027 21.052 21.124 21.098 21.106 21.085 21.071 21.157 21.174 21.258 21.275 21.177 21.131 21.159 21.11 21.076 21.157 21.138 21.188 21.062 21.111 21.063 21.122 21.146 21.187 23.443 26.405 27.571 26.819 26.615 25.742 25.428 25.385 25.478 25.624 25.64 25.724 25.787 25.606 25.604 25.796 25.789 25.574 25.805 24.046 22.966 22.259 22.069 21.815 21.667 21.547 21.696 21.605 21.516 21.573 21.65 21.634 21.514 21.603 21.67 21.63 21.624 21.705 21.761 21.862 21.97 22.084 22.122 22.2 22.253 22.41 22.433 22.689 23.67 25.342 25.644 25.758 25.882 25.915 25.958 26.02 26.112 26.13 26.184 26.218 26.33 26.26 26.345 26.489 26.531 26.011 25.513 24.274 23.567 23.805 23.289 22.527 22.491 22.457 22.431 22.423 22.802 22.61 22.395 22.725 22.945 23.063 23.151 23.194 23.19 23.241 23.327 23.583 23.737 23.881
21.295 21.344 21.314 21.344 21.299 21.291 21.337 21.335 21.314 21.296 21.306 21.312 21.336 21.35 21.361 21.341 21.3 21.301 21.277 21.215 21.237 21.221 21.183 23.397 22.499 21.157 21.115 21.154 24.211 24.61 25.033 22.947 21.061 21.101 21.204 21.317 21.263 21.147 21.058 21.052 21.059 21.058 21.071 21.073 21.066 21.063 21.138 21.196 21.182 21.252 24.361 25.005 28.847 30.778 31.234 31.753 32.243 32.745 33.347 33.569 34.004 34.506 35.119 35.555 35.87 36.262 36.042 35.676 35.241 34.901 34.375 33.86 33.418 32.881 32.38 31.855 31.656 31.077 30.477 30.826 30.983 31.388 31.891 32.518 33.026 33.393 33.83 34.289 34.762 35.341 35.746 36.152 36.261 36.048 35.55 35.221 34.514 34.131 33.774 33.289 32.679 32.233 31.997 31.307 30.766 30.602 30.838 31.337 31.877 32.267 32.668 33.24 33.59 33.904 34.393 34.997 35.468 36.069 36.183 36.051 35.731 35.202 34.748 34.288 33.87 33.221 32.826 32.23 32.068 31.66 30.833 30.543 24.588 23.715 21.198 21.195 21.238 21.234 21.265 21.258 21.292 21.294 21.304 21.305 21.298 21.274 21.307 21.271 21.27 21.31 21.235 21.245 21.277 21.345 21.306 21.206 21.552 21.253 21.786 24.406 24.292 22.251 21.354 21.393 21.389 21.431 21.475 21.462 21.497 23.121 21.55 21.581 21.698 22.152 22.259 22.075 21.637 21.376 20.873 20.925 21.038 21.269 21.754 21.166 21.139 21.167 20.45 20.341 20.365 20.372 20.336 -9999 -9999 24.173 24.555 24.742 24.756 23.679 23.15 24.995 24.086 24.915 24.568 27.809 27.853 26.667 26.447 29.199 28.499 25.969 23.134 21.949 21.353 19.887 18.84 18.825 19.123 -9999 -9999 -9999 -9999 -9999 -9999 -9999 20.965 20.904 20.995 19.962 22.144 20.559 24.635 19.95 19.616 19.676 19.844 19.993 20.211 20.607 21.488 22.28 22.837 23.044 23.263 23.718 24.031 24.012 24.044 23.836 23.57 23.426 23.385 23.488 22.999 22.142 21.869 22.286 21.98 21.871 21.621 21.566 21.348 21.354 21.33 21.312 21.244 21.199 21.153 21.173 21.146 21.054 21.017 21.02 21.014 20.991 21.029 21.059 21.113 21.093 21.111 21.084 21.094 21.054 21.065 21.039 21.014 20.992 20.965 20.951 20.971 20.943 20.984 20.991 20.99 21.033 21.029 20.972 20.971 21.012 21.092 20.919 20.848 20.818 20.773 20.729 20.712 20.676 20.724 20.673 20.622 20.645 -9999 20.741 20.737 20.687 20.667 20.825 21.075 20.975 21.023 21.144 21.045 21.054 21.088 21.166 21.1 21.095 21.099 21.134 21.163 21.244 21.092 21.082 21.107 21.055 21.144 21.111 21.024 21.076 21.144 21.063 21.132 21.097 21.174 21.131 21.182 21.613 25.436 26.174 26.218 27.929 25.76 25.421 25.482 25.615 25.799 26.165 25.786 25.765 25.692 25.73 25.949 25.731 25.571 25.672 23.992 23.119 22.312 22.074 21.992 21.79 21.751 21.779 21.757 21.627 21.649 21.741 21.773 21.722 21.638 21.61 21.61 21.658 21.762 21.836 22 22.055 22.026 22.082 22.179 22.297 22.359 22.48 22.782 23.852 25.193 25.85 25.831 25.94 26.007 26.047 26.095 26.2 26.206 26.245 26.294 26.319 26.363 26.402 26.499 26.607 26.714 26.936 26.035 25.075 23.776 24.122 23.166 22.517 22.45 22.45 22.463 22.538 22.706 22.455 22.301 22.517 22.908 23.051 23.152 23.126 23.122 23.315 23.418 23.616 23.721
21.305 21.321 21.285 21.272 21.338 21.344 21.33 21.287 21.294 21.282 21.314 21.346 21.301 21.374 21.309 21.352 21.293 21.312 21.22 21.214 21.183 21.17 21.141 21.069 21.086 21.158 21.119 21.062 21.916 23.081 22.213 21.482 21.055 21.07 21.159 21.209 21.248 21.202 21.124 21.094 21.104 21.045 21.045 21.094 21.142 21.115 21.154 21.203 21.225 21.557 28.833 30.716 31.212 31.584 32.162 32.788 33.083 33.597 34.163 34.473 35.049 35.355 35.806 36.263 36.152 35.74 35.375 34.838 34.365 33.834 33.406 32.893 32.507 32.131 31.636 31.126 30.616 30.828 30.873 31.466 31.928 32.45 32.989 33.469 33.796 34.244 34.739 35.356 35.686 36.139 36.371 36.029 35.488 35.172 34.697 34.236 33.767 33.314 32.689 32.234 31.966 31.456 31.076 30.588 30.898 31.184 31.596 32.077 32.519 33.072 33.645 33.934 34.501 34.971 35.442 36.094 36.323 36.26 35.686 35.102 34.681 34.392 33.91 33.371 32.899 32.399 32.206 31.574 31.105 30.562 24.247 25.226 21.254 21.232 21.198 21.225 21.181 21.269 21.236 21.302 21.309 21.346 21.362 21.273 21.287 21.966 21.394 21.632 21.262 21.292 21.325 21.311 21.405 21.349 21.268 21.198 21.22 22.256 21.558 23.929 24.467 23.857 21.382 21.334 21.424 21.407 21.438 21.444 21.461 21.472 21.505 21.633 21.425 21.364 21.239 21.158 20.99 20.957 20.957 21.356 21.43 21.668 22.335 21.636 21.285 21.288 -9999 -9999 -9999 20.361 20.349 20.341 -9999 24.762 24.154 24.172 24.43 24.125 24.459 23.811 26.227 25.417 24.585 27.957 28.33 23.235 25.576 24.689 26.554 24.156 24.666 22.025 21.291 20.117 18.987 18.836 -9999 -9999 -9999 -9999 -9999 -9999 -9999 -9999 -9999 18.919 19.852 19.178 18.777 18.944 20.42 19.291 19.291 19.415 19.688 19.74 19.872 20.234 20.824 21.942 22.73 22.911 23.198 23.55 23.851 23.995 24.122 23.658 23.585 23.496 23.404 23.487 23.083 22.182 21.976 22.067 21.894 21.717 21.474 21.563 21.457 21.377 21.409 21.357 21.25 21.159 21.174 21.188 21.155 21.081 21.088 20.981 21.005 21.021 21.105 21.039 21.109 21.112 21.957 21.351 21.111 21.098 21.034 21.069 21.034 20.99 20.951 20.943 20.954 20.925 20.921 20.949 20.931 20.977 21.166 21.868 21.028 20.974 20.922 20.909 20.824 20.824 20.831 20.726 20.722 20.713 20.645 20.637 20.667 20.671 -9999 -9999 -9999 20.673 20.706 20.764 20.783 20.969 21.479 21.019 21.077 21.064 21.006 21.047 21.094 21.118 21.093 21.117 21.147 21.201 21.086 21.091 21.083 21.116 21.052 21.276 21.172 21.096 21.14 21.1 21.08 21.08 21.133 21.165 21.212 23.516 26.034 26.511 24.185 26.147 25.794 25.461 25.467 25.639 25.754 25.978 26.486 25.847 25.837 25.845 25.985 25.895 25.625 25.435 24.754 22.927 22.283 22.069 21.896 21.657 21.731 21.725 21.72 21.805 21.718 21.645 21.732 21.693 21.65 21.659 21.639 21.958 21.799 21.959 22.135 22.052 22.083 22.229 22.277 22.466 22.319 22.411 23.047 23.552 25.396 25.763 25.913 26.032 26.097 26.123 26.164 26.189 26.267 26.329 26.351 26.364 26.44 26.503 26.518 26.634 26.769 27.337 27.37 25.762 24.182 23.858 23.748 22.809 22.447 22.457 22.472 22.482 22.542 22.679 22.514 22.42 22.633 23.013 23.139 23.126 23.077 23.21 23.34 23.763 23.69
21.285 21.321 21.326 21.3 21.317 21.321 21.307 21.34 21.339 21.325 21.312 21.296 21.311 21.299 21.358 21.26 23.495 24.726 21.237 21.14 21.108 21.107 21.098 21.078 21.141 21.082 21.021 21.027 21.122 21.136 21.145 21.127 21.067 21.041 21.115 21.145 21.132 21.108 21.097 21.037 21.052 21.089 21.114 21.057 21.157 21.185 21.223 21.448 27.748 30.716 31.164 31.741 32.193 32.482 33.06 33.502 33.985 34.628 35.01 35.308 35.878 36.32 36.095 35.649 35.137 34.923 34.328 33.961 33.5 33.016 32.657 32.162 31.573 31.187 30.803 30.735 30.932 31.526 32.026 32.423 32.923 33.319 33.801 34.234 34.728 35.347 35.67 36.065 36.357 36.031 35.719 35.127 34.677 34.155 33.906 33.251 32.728 32.318 31.945 31.511 30.989 30.681 30.635 31.081 31.659 32.069 32.533 32.964 33.403 33.896 34.315 34.909 35.275 36.088 36.3 36.24 35.882 35.198 34.958 34.443 33.934 33.428 32.895 32.49 32.21 31.628 31.098 30.465 25.62 23.804 21.258 21.271 21.24 21.223 21.234 21.259 21.222 21.326 21.293 21.304 21.274 21.355 21.402 22.333 21.835 22.144 21.695 21.302 21.286 21.244 21.339 23.14 24.408 22.698 21.361 21.211 21.176 21.27 21.591 22.746 24.271 24.279 21.87 21.45 21.372 21.354 21.407 21.417 21.499 21.523 22.331 22.866 21.693 21.638 21.786 21.207 21.12 21.047 20.944 20.891 21.747 22.899 21.98 21.424 21.369 21.408 21.382 -9999 -9999 -9999 20.327 20.351 20.341 -9999 -9999 24.363 23.911 24.055 25.011 25.514 23.413 25.554 25.705 29.451 30.057 28.03 27.031 26.156 25.029 24.631 24.221 23.517 21.176 19.953 19.332 19.047 18.967 18.985 -9999 -9999 -9999 -9999 -9999 -9999 -9999 -9999 -9999 18.434 18.266 -9999 -9999 19.272 19.222 19.395 19.53 19.601 19.714 19.896 20.393 21.625 22.397 22.768 23.072 23.391 23.79 23.907 23.91 23.759 23.521 23.414 23.334 23.415 23.136 21.974 21.777 21.963 21.831 21.794 21.592 21.574 21.481 21.45 21.448 21.401 21.379 21.608 21.248 21.217 21.172 21.067 21.096 20.989 20.985 21.059 21.05 21.061 21.086 21.078 21.418 21.07 21.085 21.034 20.994 21.002 20.983 20.976 20.982 20.98 20.955 20.929 20.954 21.012 20.914 20.925 20.982 21.037 21.073 20.924 20.88 20.857 20.853 20.782 20.762 20.797 20.804 20.731 20.697 20.755 20.738 20.727 -9999 -9999 -9999 -9999 20.725 20.74 20.703 20.759 20.903 20.912 21.015 21.069 21.07 21.087 21.17 21.167 21.059 21.114 21.136 21.09 21.081 21.103 21.086 21.072 21.091 21.484 21.605 21.255 21.15 21.114 21.054 21.136 21.11 21.14 22.47 24.245 25.741 26.459 24.182 24.85 25.208 25.298 25.47 25.61 25.704 25.786 25.811 25.908 25.871 25.924 25.961 25.846 25.663 25.399 24.574 23.295 22.584 22.157 21.912 21.743 21.673 21.712 21.699 21.738 21.794 21.816 22.261 21.895 21.745 21.633 21.68 21.702 21.811 21.941 22.007 22.288 22.212 22.335 22.381 22.339 22.311 22.405 23.255 23.923 25.182 25.854 26.08 26.122 26.19 26.192 26.262 26.252 26.348 26.388 26.381 26.447 26.507 26.543 26.615 26.686 26.811 28.049 27.175 25.935 25.116 24.168 23.722 23.816 22.739 22.473 22.451 22.45 22.448 22.739 22.73 22.244 22.401 22.819 23.221 23.182 23.08 23.105 23.225 23.339 24.447
21.247 21.316 21.26 21.293 21.305 21.336 21.329 21.322 21.319 21.322 21.294 21.323 21.306 21.271 21.287 21.272 22.323 25.433 22.084 21.124 21.127 21.127 21.157 21.121 21.085 21.002 21.054 21.111 21.122 21.101 21.081 21.084 20.977 21.059 21.106 21.08 21.091 21.073 21.019 21.064 21.07 21.139 21.167 21.201 21.165 21.351 27.764 29.637 31.268 31.576 32.233 32.426 32.96 33.582 34.001 34.428 34.795 35.249 35.79 36.214 36.156 35.654 35.37 34.895 34.408 33.963 33.469 33.076 32.629 32.065 31.738 31.163 30.743 30.547 30.895 31.522 31.976 32.442 32.812 33.166 33.68 34.261 34.729 35.117 35.602 36.11 36.378 35.958 35.74 35.107 34.642 34.264 33.842 33.269 32.786 32.344 31.872 31.577 31.043 30.753 30.608 31.148 31.572 31.988 32.601 32.859 33.428 33.778 34.439 34.845 35.288 35.826 36.272 36.173 35.73 35.202 34.966 34.377 33.964 33.466 32.9 32.729 32.209 31.578 31 30.668 27.12 23.7 21.279 21.262 21.223 21.244 21.229 21.202 21.282 22.335 21.278 21.668 21.305 21.388 21.36 22.026 21.765 22.3 23.728 25.215 22.18 21.388 21.259 21.714 30.692 31.638 28.936 22.922 21.635 21.313 21.275 21.227 21.198 21.299 22.098 21.41 22.892 21.969 21.381 21.44 21.428 21.437 21.487 21.583 24.085 24.281 21.957 21.545 21.753 21.294 21.175 21.045 21.008 21.335 21.517 21.879 22.156 21.852 21.631 21.338 21.267 21.165 -9999 -9999 20.301 20.319 -9999 -9999 -9999 -9999 24.573 23.618 23.899 22.973 23.434 24.994 24.962 26.924 28.239 28.35 26.989 22.681 25.983 25.659 25.058 23.743 21.556 20.104 19.506 19.246 18.918 18.998 -9999 -9999 -9999 -9999 -9999 -9999 -9999 -9999 -9999 -9999 -9999 -9999 -9999 18.311 19.182 19.281 19.414 19.561 19.696 19.606 20.115 21.054 22.082 22.586 22.891 23.257 23.458 23.753 23.973 23.776 23.55 23.443 23.375 23.415 23.344 22.433 21.774 21.955 21.744 21.681 21.674 21.657 21.623 21.52 21.409 21.383 21.333 21.312 21.254 21.162 21.09 21.069 21.057 21.056 21.033 21.057 21.086 21.067 21.109 21.144 21.171 21.032 21.001 20.986 20.97 20.975 20.959 20.972 20.999 20.997 20.971 20.946 20.959 21.004 20.945 20.975 20.952 21.012 21.048 20.987 20.908 20.902 20.883 20.818 20.817 20.814 20.795 20.781 20.654 20.691 20.75 20.746 20.686 20.61 20.644 20.648 20.644 20.763 20.797 20.743 20.754 20.83 20.986 21.028 21.006 21.069 21.128 21.152 21.11 21.139 21.166 21.165 21.076 21.107 21.102 21.071 21.622 21.921 21.676 21.787 21.134 21.092 21.161 21.212 21.139 21.146 23.227 25.145 25.095 23.559 23.669 24.906 25.195 25.359 25.493 25.631 25.723 25.804 25.868 25.885 25.834 25.942 25.867 25.784 25.58 25.566 24.701 24.039 22.745 22.384 21.822 21.639 21.856 21.612 21.728 22.149 21.638 23.865 22.475 22.54 21.817 21.625 21.68 21.797 22.001 22.016 22.012 22.138 22.165 22.257 22.302 23.073 22.691 22.499 23.221 24.041 25.282 25.961 26.123 26.208 26.255 26.278 26.33 26.321 26.387 26.415 26.481 26.462 26.502 26.619 26.676 26.778 26.804 26.838 26.936 26.223 25.884 25.174 23.872 23.485 23.278 22.621 22.433 22.48 22.429 22.446 22.742 22.454 22.219 22.588 22.984 23.127 23.074 23.08 23.169 23.257 23.348
21.238 21.253 21.301 21.26 21.284 21.305 21.319 21.284 21.314 21.348 21.294 21.265 21.248 21.24 21.243 21.213 21.166 24.158 24.909 21.947 21.17 21.113 21.115 21.072 21.104 21.078 21.055 21.036 21.037 21.089 21.057 21.038 21.039 21.023 21.102 21.091 21.061 21.071 21.139 21.142 21.177 21.435 21.321 23.253 21.765 28.004 31.216 31.557 31.946 32.417 32.938 33.453 33.815 34.509 34.759 35.234 35.825 36.261 36.128 35.915 35.35 34.9 34.424 33.945 33.394 33.142 32.686 32.179 31.735 31.276 30.606 30.665 30.899 31.293 31.832 32.274 32.597 33.223 33.651 34.143 34.704 35.045 35.52 35.983 36.321 35.971 35.638 35.262 34.722 34.387 33.79 33.459 32.765 32.485 32.075 31.552 31.053 30.6 30.657 31.187 31.506 32.016 32.448 32.873 33.465 33.756 34.252 34.713 35.117 35.733 36.234 36.196 35.907 35.268 35.045 34.471 34.007 33.481 32.987 32.569 32.241 31.703 31.171 30.785 28.042 26.581 25.385 22.289 21.29 21.27 21.291 21.279 21.236 21.314 21.317 21.278 21.313 21.381 21.923 21.497 21.663 21.928 22.27 22.139 22.633 24.99 21.766 27.207 29.724 31.061 31.876 32.044 31.25 23.448 21.372 21.317 21.331 21.245 21.196 22.308 22.684 22.697 22.118 21.356 21.386 21.365 21.394 21.435 21.488 21.418 23.634 24.424 22.943 21.817 21.86 21.285 21.206 21.167 21.063 21.273 21.069 20.957 22.217 22.423 22.228 21.195 21.098 21.121 -9999 -9999 -9999 -9999 -9999 -9999 -9999 -9999 23.46 24.006 23.162 23.354 24.441 26.352 23.461 25.907 25.739 27.382 27.062 23.246 26.311 26.446 27.213 27.95 23.884 20.783 19.942 19.486 19.114 19.082 19.058 -9999 -9999 -9999 -9999 -9999 -9999 -9999 -9999 -9999 -9999 -9999 17.976 17.793 18.13 19.215 19.195 19.43 19.599 19.475 19.52 20.345 21.5 22.336 22.803 23.039 23.341 23.674 23.876 23.836 23.549 23.435 23.375 23.332 23.481 22.749 24.478 22.13 21.786 21.885 21.835 21.71 21.615 21.564 21.452 21.374 21.287 21.222 21.124 21.077 21.11 21.108 21.046 21.058 21.026 21.063 21.077 21.075 21.095 21.127 21.101 21.691 21.099 21.006 20.954 20.96 20.988 21.019 20.978 20.968 20.99 21.03 20.985 20.965 20.959 20.962 21.734 21.049 21.031 21.005 20.967 20.971 20.895 20.846 20.835 20.836 20.835 20.789 20.678 20.683 20.745 20.758 20.607 20.708 20.724 20.637 20.748 20.739 20.718 20.756 20.772 20.834 20.876 20.916 20.947 20.98 21.115 21.147 21.119 21.192 21.251 21.225 21.123 21.124 21.121 21.103 21.615 21.728 21.758 21.837 21.838 21.336 21.231 21.181 21.152 21.214 21.343 22.307 22.939 22.544 23.878 24.953 25.193 25.318 25.512 25.659 25.815 25.846 25.88 25.812 25.79 25.841 25.74 25.658 25.528 25.551 25.042 24.212 22.808 22.225 21.928 21.683 21.645 22.368 21.655 21.724 23.274 23.769 23.291 23.65 22.064 21.67 21.754 21.812 22.053 22.256 22.123 22.219 22.172 22.294 23.549 22.851 22.849 22.588 23.053 23.748 25.479 26.037 26.296 26.366 26.35 26.397 26.461 26.43 26.514 26.556 26.56 26.504 26.597 26.673 26.801 26.882 26.915 27.013 27.18 27.15 26.733 26.032 25.133 23.687 23.453 23.944 22.581 22.469 22.433 22.42 22.414 22.727 22.529 22.154 22.687 23.087 23.161 23.127 23.132 23.173 23.27
21.28 21.294 21.266 21.301 21.309 21.389 21.332 21.319 21.307 21.296 21.272 21.27 21.223 21.205 21.223 21.223 21.194 21.275 25.12 22.582 21.097 21.131 21.096 21.106 21.073 21.085 21.064 21.119 21.052 21.033 21.049 21.062 21.06 21.061 21.005 21.058 21.105 21.114 21.373 21.502 21.319 21.454 26.184 29.704 31.133 31.619 31.917 32.518 32.874 33.238 33.885 34.117 34.824 35.21 35.654 36.242 36.054 35.931 35.461 34.983 34.434 33.769 33.431 33.074 32.536 32.086 31.547 31.175 30.603 30.468 30.773 31.215 31.854 32.226 32.522 33.134 33.545 34.217 34.536 35.002 35.464 36.013 36.19 36.165 35.64 35.272 34.842 34.311 33.83 33.441 32.889 32.559 32.061 31.498 31.01 30.632 30.643 30.987 31.439 32.067 32.261 32.804 33.195 33.658 34.309 34.876 35.173 35.694 36.124 36.321 35.963 35.614 35.042 34.754 33.997 33.504 33.047 32.75 32.251 31.673 31.297 30.822 29.527 26.797 26.16 25.732 25.559 24.197 21.461 21.25 21.299 21.41 21.253 21.313 21.381 21.374 21.356 22.389 21.718 21.508 21.506 23.169 22.961 22.996 22.487 26.918 26.535 30.777 31.29 31.081 31.554 32.243 31.891 29.348 22.52 21.948 21.385 21.438 21.235 22.301 21.315 21.29 22.463 22.84 21.757 21.386 21.455 21.453 21.427 21.447 21.546 24.516 24.638 22.437 21.911 21.887 21.268 21.189 21.325 21.287 21.238 21.166 21.787 22.864 21.759 21.363 21.25 21.28 21.348 -9999 -9999 -9999 -9999 -9999 -9999 -9999 -9999 23.562 22.963 23.851 24.821 25.829 25.968 25.566 24.527 25.884 26.936 27.057 27.046 26.594 27.438 29.047 26.092 21.016 20.118 19.62 19.4 18.986 18.918 -9999 -9999 -9999 -9999 -9999 -9999 -9999 -9999 -9999 -9999 -9999 -9999 17.978 -9999 19.22 19.191 19.43 19.502 19.387 19.373 19.875 20.886 21.951 22.646 23.042 23.183 23.476 23.732 23.867 23.692 23.507 23.447 23.335 23.498 22.84 23.375 22.419 21.83 21.873 21.83 21.774 21.545 21.519 21.389 21.325 21.33 21.18 21.205 21.115 21.08 21.095 21.056 21.089 21.042 21.037 21.072 21.211 21.154 21.146 21.123 21.717 21.159 21.054 21.027 20.991 21.076 21.009 20.988 20.99 20.961 20.908 20.925 20.943 20.966 20.945 20.974 20.995 21.021 21.05 21.014 21.022 21.042 20.97 21.083 21.252 21.146 21.474 20.789 20.75 20.784 20.775 20.808 20.614 20.661 20.721 20.741 20.792 20.759 20.731 20.755 20.856 20.899 20.877 20.885 21.023 21.06 21.159 21.134 21.117 21.195 21.148 21.27 21.307 21.129 21.103 21.591 22.004 21.741 21.668 21.785 21.654 21.128 21.149 21.146 21.228 21.296 22.527 23.094 22.7 23.999 25.12 25.243 25.42 25.55 26.255 26.157 25.919 25.867 25.858 25.751 25.701 25.642 25.573 25.466 25.272 25.346 24.237 23.314 22.14 21.88 21.831 22.61 22.03 21.585 21.553 22.196 23.557 23.772 23.574 22.745 21.698 21.879 22.034 22.035 22.176 22.181 22.287 22.276 23.215 22.437 23.418 22.593 22.508 23.227 24.242 25.665 26.223 26.416 26.459 26.508 26.522 26.502 26.512 26.621 26.623 26.569 26.61 26.651 26.731 26.851 26.919 26.999 27.034 27.184 27.438 26.942 26.537 26.121 25.002 23.671 23.446 23.575 22.671 22.433 22.447 22.444 22.534 22.77 22.194 22.401 22.849 23.146 23.161 23.158 23.241 23.248
21.281 21.31 21.315 21.354 21.334 21.298 21.313 21.298 21.3 21.252 21.254 21.198 21.214 21.243 21.214 21.202 21.181 21.124 24.06 24.597 21.853 21.063 21.107 21.093 21.083 21.097 21.079 21.017 21.022 21.043 21.11 21.103 21.018 21.05 21.043 21.116 21.158 21.508 21.379 21.537 26.108 30.612 31.056 31.633 31.973 32.5 32.933 33.303 33.904 34.143 34.772 35.245 35.676 36.183 36.355 35.875 35.535 35.029 34.437 33.982 33.696 33.054 32.624 32.198 31.747 31.257 30.973 30.429 30.76 31.349 31.857 32.151 32.543 33.028 33.567 34.084 34.542 34.917 35.551 35.985 36.169 36.269 35.814 35.37 34.942 34.373 33.952 33.445 32.958 32.465 31.932 31.611 31.255 30.563 30.642 31.015 31.417 32.019 32.322 32.903 33.327 33.702 34.25 34.601 35.174 35.549 36.011 36.187 36.076 35.663 34.974 34.5 34.109 33.668 33.205 32.651 32.213 31.754 31.283 30.898 30.519 27.93 26.244 25.672 25.584 25.55 25.476 25.349 22.29 21.317 21.27 21.556 21.315 21.308 21.381 21.309 21.388 21.44 21.458 21.412 21.479 21.712 22.386 22.524 27.988 30.87 31.337 31.971 32.172 32.23 31.001 32.025 32.038 31.303 28.207 22.131 21.515 21.401 21.307 21.278 21.286 22.276 22.947 21.703 21.392 21.386 21.389 21.387 21.418 21.492 21.482 23.69 23.006 22.298 21.906 21.838 21.742 21.245 21.398 21.31 21.42 21.422 21.536 21.845 21.682 21.807 21.853 21.425 21.206 -9999 -9999 -9999 -9999 -9999 20.42 -9999 -9999 -9999 23.703 23.391 23.287 23.905 26.106 25.626 23.366 25.888 27.027 26.714 27.852 26.457 26.463 28.16 26.581 22.863 20.265 19.79 19.595 18.961 18.886 -9999 -9999 -9999 -9999 -9999 -9999 -9999 -9999 -9999 -9999 -9999 -9999 -9999 -9999 18.853 19.12 19.198 19.257 19.247 19.381 19.562 20.435 21.564 22.508 23.026 23.171 23.327 23.618 23.782 23.582 23.468 23.407 23.361 23.421 23.032 21.834 21.718 21.747 21.75 21.764 21.613 21.507 21.549 21.409 21.374 21.369 21.222 21.167 21.131 21.098 21.111 21.066 21.075 21.073 21.014 21.031 21.104 21.135 21.137 21.085 21.088 21.033 21.031 21.045 20.997 21.02 21.043 21.008 21.014 20.953 21.038 20.962 20.927 20.992 20.925 20.952 21 21.114 21.091 21.126 22.559 21.233 21.017 20.968 21.13 21.692 21.097 20.977 20.749 20.751 20.789 20.723 20.745 20.763 20.709 20.752 20.749 20.755 20.734 20.786 20.83 20.933 21.402 21.143 21.059 20.967 20.981 21.088 21.103 21.128 21.102 21.135 21.158 21.128 21.315 21.694 22.008 22.04 21.739 21.676 21.725 21.412 21.149 21.312 21.504 23.958 26.186 24.991 23.43 24.627 25.159 25.261 25.442 25.709 25.779 26.202 25.915 25.88 25.848 25.816 25.752 25.659 25.553 25.48 25.132 25.272 24.521 23.13 22.174 21.95 21.8 21.933 21.803 21.672 21.682 21.722 21.651 21.644 21.621 21.7 21.791 21.86 21.938 22.061 22.132 22.211 22.262 22.226 22.67 22.475 22.61 22.717 22.787 23.406 24.151 25.753 26.342 26.529 26.59 26.57 26.581 26.585 26.565 26.636 26.708 26.721 26.7 26.726 26.848 26.974 27.028 27.054 27.138 27.145 27.226 27.277 26.493 25.952 25.201 24.448 25.492 23.748 22.934 22.452 22.415 22.459 22.441 22.468 22.728 22.23 22.669 23.07 23.149 23.138 23.233 23.249
21.318 21.316 21.335 21.291 21.295 21.33 21.284 21.327 21.281 21.265 21.226 21.236 21.214 21.202 21.127 21.131 21.162 21.156 21.809 24.409 22.096 21.05 21.13 21.049 21.058 21.022 21.012 21.055 21.077 21.047 21.038 20.93 21.049 21.109 21.127 21.116 21.139 21.227 26.236 30.472 31.132 31.334 31.941 32.335 32.926 33.394 33.637 34.25 34.55 35.142 35.578 35.906 36.26 36.061 35.442 35.105 34.554 33.976 33.681 33.129 32.763 32.195 31.681 31.209 30.971 30.539 30.826 31.129 31.593 31.93 32.705 33.076 33.544 34.069 34.456 34.946 35.549 35.831 36.342 36.151 35.871 35.394 34.938 34.407 33.886 33.428 33.058 32.622 32.179 31.717 31.178 30.744 30.588 31.061 31.462 31.862 32.228 32.751 33.216 33.736 34.056 34.591 35.133 35.561 36.055 36.262 36.174 35.619 35.147 34.784 34.205 33.741 33.316 32.856 32.528 32.009 31.287 30.895 30.387 29.343 26.29 25.637 25.613 25.635 25.468 25.409 25.321 24.852 24.019 21.688 21.299 21.38 21.343 21.342 21.3 21.353 21.331 21.409 22.088 21.441 23.22 24.289 28.476 30.811 31.258 31.801 32.122 32.536 33.13 33.743 31.457 31.511 32.279 31.614 29.267 24.448 21.751 21.377 21.325 21.269 21.328 21.322 21.74 21.315 21.372 21.404 21.416 21.406 21.381 21.452 21.457 21.51 21.502 21.511 21.607 21.691 21.786 21.34 21.276 21.236 21.263 21.172 21.195 21.352 21.792 22.338 22.547 21.707 21.321 21.255 -9999 -9999 -9999 20.356 20.363 20.366 -9999 -9999 -9999 23.104 22.784 22.555 23.578 24.051 22.98 25.009 26.679 27.475 26.29 22.559 25.523 27.16 26.64 23.384 20.637 20.119 19.883 19.436 19.128 18.632 -9999 -9999 -9999 -9999 -9999 -9999 -9999 -9999 -9999 -9999 -9999 -9999 -9999 -9999 19.049 18.999 19.126 19.17 19.297 19.445 19.925 20.815 22.129 22.863 23.017 23.24 23.386 23.862 23.654 23.483 23.418 23.34 23.365 23.551 22.328 21.276 21.583 21.952 21.716 21.631 21.496 21.454 21.536 21.493 21.337 21.282 21.249 21.124 21.111 21.234 21.139 21.092 21.104 21.07 21.043 21.095 21.111 21.145 21.133 21.07 21.057 21.023 21.068 21.032 21.044 21.002 21.049 21.033 20.97 20.93 20.934 20.952 20.989 20.969 21 21.044 21.173 21.168 21.2 21.432 21.354 21.059 21.027 21.06 21.055 20.902 20.803 20.824 20.865 20.803 20.78 20.761 20.683 20.709 20.787 20.742 20.737 20.595 20.672 20.784 20.957 21.908 22.055 21.341 20.948 20.922 21.015 21.06 21.088 21.102 21.155 21.139 21.161 21.163 21.591 21.986 22.037 21.991 21.762 21.677 21.14 21.428 21.401 21.24 25.201 27.027 23.967 23.196 24.535 25.119 25.176 25.409 25.68 26.016 26.254 25.936 25.911 25.885 25.837 25.757 25.616 25.517 25.444 25.257 25.2 24.496 22.968 22.011 21.846 21.849 21.755 21.884 21.794 21.795 21.67 21.756 21.729 21.754 21.835 21.999 21.932 21.934 22.013 22.132 22.183 22.48 22.212 22.494 22.86 22.46 23.18 22.79 23.347 24.579 25.764 26.427 26.651 26.656 26.645 26.666 26.621 26.658 26.695 26.744 26.701 26.763 26.783 26.947 26.979 27.108 27.155 27.187 27.211 27.279 27.387 26.669 26.928 29.032 30.001 29.369 29.46 23.685 23.113 22.525 22.418 22.431 22.409 22.605 22.679 22.32 22.645 23.037 23.151 23.228 23.201
21.268 21.277 21.327 21.324 21.286 21.303 21.321 21.265 21.263 21.216 21.19 21.173 21.16 21.175 21.188 21.127 21.138 21.108 21.119 21.797 21.465 20.965 20.979 21.061 21.05 21.075 21.04 21.071 21.021 20.997 21.122 21.126 21.15 21.159 21.184 21.352 25.524 29.643 30.842 31.479 31.785 32.411 32.857 33.039 33.778 34.063 34.626 35.185 35.609 36.029 36.25 36.056 35.637 35.039 34.685 34.212 33.706 33.12 32.739 32.279 31.665 31.422 30.959 30.423 30.627 30.997 31.342 31.854 30.536 29.079 31.581 34.075 34.36 34.914 35.235 35.916 36.281 36.382 35.812 35.431 34.956 34.324 33.899 33.558 32.988 32.683 32.302 31.763 31.043 30.776 30.589 30.859 31.567 31.848 32.319 32.701 33.218 33.615 34.092 34.599 34.957 35.503 35.85 36.291 36.176 35.622 35.234 34.814 34.231 33.842 33.315 32.861 32.329 31.986 31.597 31.111 30.55 26.859 26.202 25.648 25.63 25.536 25.456 25.396 25.355 24.892 24.631 21.493 21.585 21.351 21.389 21.398 21.316 21.329 21.264 21.316 21.295 21.272 21.504 21.71 27.545 30.86 31.256 31.735 32.188 32.515 33.146 33.515 33.938 34.413 34.1 31.048 31.82 32.1 31.399 28.279 22.307 21.702 21.395 21.329 21.315 21.308 21.29 21.374 21.459 21.449 21.348 21.405 21.414 21.436 21.429 21.436 21.612 21.528 21.52 21.727 21.757 21.512 21.173 21.032 20.886 20.988 21.066 21.315 21.792 22.032 22.06 21.185 21.328 21.331 -9999 -9999 -9999 20.354 20.356 -9999 -9999 -9999 -9999 24.875 22.826 22.984 24.119 23.116 23.272 24.394 26.467 27.407 27.758 25.18 24.372 23.445 24.737 22.354 20.618 20.291 19.927 19.52 19.168 19.046 17.897 -9999 -9999 -9999 -9999 -9999 -9999 -9999 -9999 -9999 -9999 -9999 -9999 -9999 18.215 18.909 19.026 19.125 19.197 19.436 19.63 20.684 21.763 22.599 22.924 23.074 23.225 23.69 23.783 23.514 23.437 23.315 23.326 23.558 22.923 21.476 21.651 21.885 21.75 21.785 21.634 21.591 21.5 21.532 21.396 21.306 21.295 21.231 21.164 21.228 21.129 21.045 21.074 21.065 21.088 21.09 21.114 21.094 21.119 21.084 21.055 21.045 21.071 21.002 21.018 20.993 21.047 20.967 21.081 20.946 20.965 21.027 21.048 20.992 21.022 21.062 22.022 22.176 21.96 21.272 21.253 21.2 21.129 21.089 21.075 20.984 20.862 20.835 20.872 20.846 20.835 20.843 20.834 20.733 20.707 20.729 20.705 20.688 20.707 20.762 20.984 21.796 22.051 21.055 20.888 20.879 20.942 20.943 20.99 21.084 21.088 21.174 21.216 21.136 21.114 21.252 21.6 21.694 21.863 21.929 21.173 21.162 21.292 21.2 23.774 25.292 22.755 23.698 24.62 25.168 25.167 25.325 25.711 25.989 26.134 26.048 25.979 25.967 25.834 25.758 25.693 25.519 25.424 25.254 25.086 24.554 23.763 22.219 21.753 21.629 21.716 21.605 21.752 21.771 21.71 21.799 21.754 21.823 21.942 21.966 21.984 21.997 22.052 22.079 22.155 22.175 22.222 22.266 22.34 22.425 22.605 23.124 23.68 24.607 25.806 26.544 26.633 26.695 26.696 26.723 26.675 26.692 26.721 26.711 26.775 26.876 26.902 26.931 27.033 27.138 27.206 27.263 27.327 27.34 27.376 27.291 26.568 30.38 31.693 31.426 29.523 28.081 22.981 22.726 22.414 22.426 22.417 22.399 22.488 22.584 22.224 22.674 23.008 23.132 23.25
21.273 21.312 21.297 21.264 21.264 21.271 21.263 21.269 21.242 21.2 21.207 21.142 21.185 21.178 21.109 21.094 21.091 21.126 21.082 21.065 20.971 20.97 21.045 21.047 21.079 21.023 21.055 21.027 20.985 21.142 21.171 21.104 21.105 21.152 21.602 28.745 30.924 31.451 31.883 32.297 32.936 33.221 33.64 34.16 34.574 35.081 35.705 35.949 36.292 35.988 35.428 35.081 34.696 34.252 33.646 33.313 32.866 32.26 31.9 31.462 30.953 30.567 30.868 30.95 31.272 26.562 31.304 28.432 29.893 30.074 34.106 34.82 35.35 35.716 36.098 36.347 35.861 35.453 34.835 34.487 33.997 33.563 33.2 32.707 32.346 31.889 31.331 30.937 30.534 30.899 31.292 31.774 32.267 32.794 33.327 33.623 34.105 34.576 35.037 35.584 35.979 36.26 36.135 35.575 35.263 34.752 34.332 33.868 33.322 32.934 32.417 31.95 31.485 31.146 30.634 29.19 26.777 25.465 25.664 25.482 25.476 25.422 25.343 24.792 24.318 21.434 21.353 21.345 21.286 21.379 21.383 21.297 21.326 21.286 21.297 21.309 21.285 21.478 26.162 30.664 31.119 31.582 31.961 32.612 33.019 33.55 33.921 34.566 34.87 35.312 35.72 31.453 31.256 32.167 31.818 29.741 23.748 21.686 21.394 21.856 21.305 22.898 21.433 23.324 24.491 23.134 21.712 21.404 21.371 21.412 21.434 21.482 21.493 21.637 21.547 21.613 21.6 21.38 21.126 21.015 20.808 20.858 21.661 21.527 21.729 21.97 21.75 21.531 21.195 21.286 21.331 -9999 -9999 20.356 20.323 20.425 -9999 -9999 -9999 -9999 23.02 23.748 24.161 22.747 22.357 24.376 25.625 27.2 28.023 26.73 26.345 25.613 22.744 22.23 20.947 20.807 20.496 19.917 19.325 18.98 17.792 17.909 -9999 -9999 -9999 -9999 -9999 -9999 -9999 -9999 -9999 -9999 -9999 -9999 -9999 18.928 18.988 19.094 19.142 19.292 19.538 20.486 21.338 22.474 22.848 22.997 23.161 23.397 23.786 23.569 23.429 23.423 23.329 23.417 23.256 21.975 21.49 21.931 21.644 21.541 21.46 21.482 21.495 21.493 21.412 21.269 21.274 21.29 21.27 21.259 21.154 21.072 21.142 21.094 21.084 21.105 21.108 21.06 21.082 21.075 21.049 21.08 21.026 20.947 21.013 20.98 21.166 21.067 21.05 21.043 21.092 21.11 21.063 21.066 21.073 21.064 21.163 23.153 22.668 21.219 21.291 21.248 21.187 22.505 21.692 21.124 21.349 21.062 20.905 20.847 20.887 20.869 20.847 20.646 20.671 20.685 20.795 20.744 20.742 20.77 20.933 21.113 20.918 20.913 20.917 20.836 20.94 20.904 20.952 20.952 21.068 21.105 21.167 21.13 21.13 21.151 21.198 21.23 21.867 21.686 21.215 21.51 21.246 21.297 21.416 21.803 22.636 23.722 24.653 25.143 25.143 25.369 25.808 25.905 26.215 26.159 26.081 26.055 25.904 25.774 25.763 25.563 25.384 25.417 25.42 24.886 26.245 25.464 22.862 21.79 21.68 21.869 21.749 21.638 21.588 21.676 21.88 21.85 21.916 21.902 21.995 22.023 22.048 22.067 22.162 22.241 22.135 22.215 22.302 22.363 22.467 22.455 23.774 24.269 26.073 26.578 26.691 26.723 26.699 26.708 26.715 26.762 26.793 26.786 26.877 26.875 26.947 27.026 27.105 27.137 27.276 27.354 27.441 27.426 27.409 27.476 27.542 29.952 31.783 32.185 30.958 28.761 24.27 23.38 22.542 22.411 22.456 22.453 22.408 22.528 22.535 22.199 22.746 23.085 23.114
21.256 21.254 21.235 21.273 21.26 21.259 21.188 21.206 21.199 21.198 21.145 21.201 21.117 21.082 21.085 21.098 21.086 21.075 21.055 21.068 21.108 21.047 21.041 21.033 20.968 21.071 21.077 21.105 21.142 21.174 21.16 21.17 21.637 28.066 30.884 31.286 31.996 32.405 32.666 33.147 33.531 34.105 34.46 35.132 35.467 35.913 36.309 36.072 35.609 34.988 34.792 34.313 33.713 33.234 32.752 32.305 31.988 31.554 30.927 30.488 30.782 30.872 31.31 31.839 26.934 32.889 29.249 29.647 28.97 34.587 34.166 35.86 36.084 36.34 35.962 35.436 34.861 34.508 34.119 33.592 33.194 32.776 32.21 31.777 31.468 30.868 30.595 30.663 31.52 31.681 32.197 32.555 33.24 33.561 34.022 34.459 34.924 35.319 35.766 36.241 36.308 35.797 35.345 34.851 34.485 33.917 33.543 33.002 32.481 31.98 31.577 31.186 30.818 31.262 28.326 25.958 25.558 25.451 25.525 25.346 25.344 25.252 24.5 21.726 21.341 21.313 21.354 21.353 21.518 21.958 23.771 21.395 23.622 22.028 21.303 21.227 26.115 30.783 31.159 31.609 31.954 32.533 33.114 33.594 33.798 34.272 34.901 35.294 35.847 36.237 36.341 33.844 31.02 31.875 32.16 31.355 25.175 22.493 21.407 21.42 21.326 21.282 21.833 23.904 24.462 22.664 21.726 21.497 21.403 21.412 21.449 21.433 21.488 21.505 21.495 21.506 21.485 21.304 21.152 20.988 20.833 21.014 21.396 21.781 21.896 21.857 21.773 22.203 21.792 21.478 21.409 -9999 -9999 -9999 20.386 20.415 20.416 -9999 -9999 -9999 25.134 23.302 23.382 23.211 23.233 23.928 26.22 25.471 26.604 26.9 26.003 25.168 25.81 24.406 24.067 22.273 20.741 20.41 19.39 18.732 18.698 -9999 -9999 -9999 -9999 -9999 -9999 -9999 -9999 -9999 -9999 -9999 -9999 -9999 -9999 19.519 19.008 19.169 19.062 19.179 19.508 20.077 21.1 22.2 22.795 22.924 23.047 23.378 23.622 23.652 23.408 23.346 23.306 23.301 23.344 22.484 21.168 21.544 21.684 21.553 21.528 21.492 21.451 21.474 21.391 21.283 21.246 21.24 21.208 21.191 21.136 21.119 21.096 21.051 21.138 21.108 21.026 21.018 21.046 21.074 21.034 21.074 20.966 21.122 21.009 21.103 20.995 20.946 21.135 21.098 21.112 21.084 21.048 21.028 20.985 21.029 21.077 21.111 21.282 21.353 21.321 21.335 21.388 22.217 22.451 22.178 22.657 20.982 20.898 20.837 20.86 20.875 20.844 20.693 20.756 20.697 20.707 20.801 20.752 20.831 20.892 20.901 20.911 20.903 20.886 20.974 20.931 20.937 20.974 20.921 21.02 21.116 21.145 21.167 21.188 21.149 21.097 21.122 21.17 21.179 21.16 21.602 21.243 21.27 21.527 22.11 22.987 23.928 24.692 24.891 24.958 25.272 25.806 26.133 26.356 26.314 26.228 26.133 25.932 25.789 25.73 25.551 25.444 25.256 25.092 26.287 26.539 26.416 23.541 21.865 21.694 21.828 21.744 21.643 21.757 21.837 21.819 21.858 21.889 21.979 21.942 21.985 22.029 22.089 22.097 22.11 22.159 22.247 22.662 22.321 22.56 22.881 23.349 24.887 26.44 26.631 26.698 26.715 26.707 26.784 26.813 26.815 26.862 26.842 26.921 26.949 27.05 27.097 27.132 27.168 27.296 27.374 27.474 27.482 27.514 27.501 27.593 29.186 31.435 30.403 29.81 26.627 24.841 27.542 25.87 22.584 22.462 22.42 22.405 22.418 22.51 22.47 22.339 22.671 23.081
21.237 21.213 21.22 21.223 21.215 21.213 21.242 21.2 21.215 21.133 21.12 21.09 21.114 21.088 21.109 21.062 21.069 21.038 21.019 21.057 21.043 21.057 21.094 21.015 21.064 21.114 21.16 21.151 21.149 21.188 26.026 28.322 30.779 31.375 31.69 32.335 32.629 33.212 33.535 34.087 34.516 35.231 35.432 35.965 36.298 35.985 35.564 35.244 34.771 34.191 33.741 33.248 32.776 32.534 31.905 31.518 31.037 30.584 30.769 30.933 31.515 31.902 32.351 29.063 30.608 33.684 34.107 28.644 34.281 35.581 36.038 36.158 35.938 35.496 35.008 34.586 34.171 33.591 33.189 32.782 32.245 32.046 31.452 30.865 30.744 30.641 31.202 31.71 32.126 32.636 33.223 33.502 34.066 34.438 34.918 35.469 35.794 36.232 36.153 35.729 35.328 34.846 34.466 33.888 33.437 32.961 32.494 32.178 31.558 31.161 30.778 31.351 31.549 31.503 30.514 28.444 25.976 25.47 25.409 25.201 23.834 21.646 21.541 21.394 21.349 21.363 21.5 24.123 25.976 22.886 21.929 23.803 24.826 24.229 26.131 29.853 31.221 31.608 31.921 32.488 32.959 33.619 33.7 34.294 34.773 35.336 35.971 36.208 36.34 35.844 35.419 34.876 31.616 31.394 32.258 31.822 30.692 22.442 21.569 21.374 21.369 21.281 21.302 21.639 21.96 21.496 22.344 22.424 21.433 21.423 21.371 21.445 21.496 21.495 21.438 21.519 21.538 21.353 21.248 21.025 20.912 20.996 21.216 21.886 21.868 21.014 22.112 22.068 21.779 21.455 21.389 21.29 -9999 -9999 -9999 20.427 20.402 20.394 -9999 -9999 -9999 23.553 23.678 23.385 23.886 22.756 24.329 23.693 25.649 27.246 24.296 26.509 28.03 26.709 25.984 23.861 21.147 20.246 19.488 18.531 18.463 18.567 -9999 -9999 -9999 -9999 -9999 -9999 -9999 -9999 -9999 -9999 -9999 -9999 -9999 19.289 18.619 18.825 18.934 19.109 19.313 19.81 20.704 21.998 22.723 22.81 22.893 23.149 23.459 23.662 23.42 23.359 23.349 23.266 23.36 23.061 22.159 22.156 21.668 21.609 21.616 21.52 21.455 21.482 21.562 21.388 21.226 21.141 21.174 21.188 21.159 21.151 21.165 21.091 21.087 21.105 21.035 21.057 21.083 21.062 21.043 21.053 21.007 21.085 21.074 21.322 20.986 21.048 20.984 21.013 21.081 21.036 21.011 21.096 21.027 21.003 21.01 21.031 21.096 21.55 22.459 21.278 21.543 21.393 21.204 21.108 21.405 20.983 20.921 20.852 20.814 20.835 20.767 20.757 20.755 20.661 20.708 20.692 20.807 20.924 20.889 20.945 20.917 20.929 20.939 20.913 20.926 20.881 20.952 20.948 21.072 21.125 21.13 21.144 21.138 21.138 21.067 21.088 21.129 21.097 21.174 21.233 21.145 21.237 21.624 22.229 23.178 24.337 24.854 24.964 25.104 25.352 25.91 26.096 26.428 26.389 26.463 26.075 25.854 25.748 25.702 25.479 25.388 25.328 25.369 25.695 26.007 24.998 22.435 21.723 21.698 22.202 21.612 21.594 21.626 21.773 21.86 22.016 21.883 21.854 22.004 22.231 22.058 22.066 22.16 22.18 22.098 22.217 22.352 22.318 22.405 22.869 23.707 24.853 26.184 26.677 26.698 26.744 26.798 26.81 26.846 26.851 26.873 26.953 27.024 27.073 27.088 27.172 27.222 27.24 27.301 27.344 27.474 27.566 27.547 27.555 27.604 27.638 27.376 27.224 26.427 26.491 25.999 27.198 24.707 22.864 22.608 22.46 22.4 22.424 22.387 22.614 22.413 22.333 22.892
21.194 21.188 21.191 21.17 21.203 21.197 21.203 21.171 21.128 21.158 21.154 21.096 21.036 21.078 21.063 21.051 21.013 20.983 21.033 21.047 21.042 21.054 21.134 21.082 21.158 21.115 21.237 21.207 21.343 26.27 30.687 31.287 31.722 32.358 32.586 32.996 33.611 34.174 34.598 34.89 35.413 35.857 36.327 36.091 35.797 35.301 34.78 34.397 33.86 33.341 32.999 32.475 32.118 31.543 31.047 30.696 30.411 30.922 31.435 29.029 28.619 28.407 29.691 30.25 27.775 34.532 35.024 35.633 36.028 36.221 35.849 35.383 35.044 34.673 34.065 33.611 33.263 32.721 32.187 31.946 31.472 30.887 30.73 30.686 31.179 31.545 32.168 32.702 33.011 33.515 33.887 34.363 34.994 35.197 35.782 36.242 36.214 35.853 35.391 34.897 34.45 34.067 33.57 33.08 32.608 32.19 31.621 31.331 30.884 31.363 31.537 31.52 31.479 31.49 31.585 27.597 26.012 24.676 24.785 22.716 21.238 21.321 21.262 21.376 21.325 21.57 25.748 26.714 26.703 23.427 23.788 23.216 22.095 29.619 31.063 31.463 31.982 32.459 32.924 33.345 33.648 34.239 34.73 35.295 35.503 35.978 36.267 35.79 35.305 34.793 34.549 34.104 32.439 31.572 31.707 32.273 31.351 25.747 22.219 21.453 21.376 21.333 21.319 21.884 23.815 24.456 22.452 21.526 21.372 21.439 21.438 21.414 21.439 21.507 21.513 21.501 21.468 21.429 21.259 21.076 20.948 20.928 21.045 21.17 21.317 21.039 21.922 22.286 22.132 21.566 21.242 21.134 -9999 -9999 -9999 -9999 20.396 20.404 -9999 -9999 -9999 23.689 24.381 25.297 24.134 22.97 23.129 23.214 23.877 26.11 25.582 26.351 27.338 27.167 27.099 25.489 21.994 20.579 19.991 19.088 18.34 18.564 -9999 -9999 -9999 -9999 -9999 -9999 -9999 -9999 -9999 -9999 -9999 -9999 -9999 -9999 18.967 18.836 18.898 19.1 19.376 19.608 20.366 21.598 22.609 22.709 22.747 22.944 23.337 23.586 23.424 23.357 23.339 23.233 23.335 24.326 27.983 24.475 21.677 21.667 21.595 21.551 21.445 21.487 21.57 21.373 21.198 21.156 21.179 21.198 21.138 21.177 21.069 21.067 21.144 21.114 21.056 21.045 21.009 21.022 20.98 20.963 20.965 20.966 20.962 21.102 20.921 20.981 20.905 20.916 20.98 21.001 21.113 21.158 21.079 21.036 21.061 21.09 21.19 21.042 21.119 21.214 21.294 21.261 21.192 21.119 21.013 20.968 20.989 20.889 20.88 20.832 20.776 20.76 20.661 21.028 20.952 20.791 20.808 20.87 20.846 20.89 20.954 20.987 20.941 20.939 20.926 20.934 20.944 20.949 20.96 21.1 21.153 21.222 21.255 21.232 21.08 21.14 21.161 21.115 21.188 21.121 21.165 21.3 21.726 22.21 23.304 24.281 25.021 25.099 25.253 25.54 25.973 26.361 26.482 26.395 26.343 26.018 25.773 25.696 25.604 25.52 25.296 25.332 25.568 26.574 25.888 24.148 21.909 21.786 21.851 22.041 21.653 21.752 21.727 21.717 21.836 21.886 21.9 22.035 22.174 22.026 22.089 22.11 22.139 22.157 22.165 22.392 22.47 22.524 22.795 24.589 25.883 25.121 26.395 26.706 26.749 26.758 26.814 26.889 26.93 26.932 26.965 26.969 27.043 27.113 27.201 27.334 27.281 27.338 27.348 27.357 27.369 27.535 27.634 27.636 27.679 27.693 27.698 27.082 26.31 25.67 25.566 25.411 23.856 23.287 22.918 22.513 22.452 22.431 22.43 22.405 22.661 22.257 22.269
21.191 21.182 21.17 21.169 21.168 21.14 21.123 21.144 21.129 21.09 21.102 21.054 21.045 21.012 21.009 20.976 20.995 21.101 21.035 21.093 21.105 21.115 21.152 21.221 21.163 21.287 21.397 23.87 30.789 31.135 31.761 32.086 32.581 32.984 33.638 33.966 34.297 34.891 35.506 35.894 36.226 36.063 35.765 35.19 34.918 34.399 33.801 33.298 33.121 32.543 32.151 31.668 31.195 30.904 30.618 30.882 31.346 31.764 29.355 26.996 26.637 30.477 26.624 28.609 34.323 35.404 36.005 36.389 35.844 35.38 35.019 34.634 33.982 33.716 33.342 32.822 32.271 31.936 31.369 30.891 30.641 30.836 31.197 31.606 32.045 32.281 32.888 33.423 33.827 34.36 34.641 35.395 35.796 36.256 36.216 35.789 35.286 34.961 34.507 34.035 33.615 33.027 32.651 32.157 31.747 31.4 30.9 31.296 31.501 31.488 31.493 31.472 31.455 31.437 31.47 32.179 24.245 21.974 21.959 21.402 21.368 21.354 21.485 24.691 25.241 26.673 26.684 26.722 26.685 26.592 26.86 30.577 31.032 31.45 31.968 32.528 32.86 33.158 33.647 34.228 34.759 35.23 35.737 36.007 36.327 35.909 35.32 35.072 34.704 34.097 33.751 33.246 32.81 31.838 31.453 32.235 31.843 30.824 22.273 21.429 21.362 21.414 21.36 21.327 22.409 23.86 23.714 21.887 21.443 21.378 21.393 21.457 21.437 21.481 21.458 21.49 21.498 21.459 21.305 21.15 21.091 22.565 21.831 20.89 20.952 21.336 21.864 22.418 22.606 21.566 21.002 21.075 21.175 -9999 -9999 -9999 -9999 20.436 -9999 -9999 -9999 23.678 24.192 24.575 24.037 24.215 23.357 22.893 23.49 25.502 26.288 23.962 27.14 25.827 26.375 25.403 23.079 20.961 20.263 19.183 18.709 18.653 -9999 -9999 -9999 -9999 -9999 -9999 -9999 -9999 -9999 -9999 -9999 -9999 -9999 -9999 -9999 18.197 18.926 19.256 19.395 19.422 19.983 20.917 22.13 22.56 22.64 22.848 23.009 23.421 23.623 23.363 23.365 23.296 23.265 23.726 25.051 26.593 21.21 21.664 21.651 21.524 21.564 21.5 21.543 21.45 21.263 21.2 21.173 21.128 21.103 21.165 21.084 21.107 21.067 21.055 21.062 21.023 20.991 21.012 20.974 21.019 20.999 21.063 21.103 21.009 20.961 21 21.008 20.944 20.924 20.942 20.992 21.075 21.079 21.538 21.136 21.017 21.012 21.021 21.023 21.096 21.221 21.243 21.116 21.077 21.073 21.002 21.04 21.013 20.894 20.828 20.801 20.87 20.831 21.174 21.144 20.953 20.85 20.919 20.922 20.882 20.92 20.963 20.937 20.982 20.913 20.925 20.861 20.924 20.93 21.058 21.176 21.24 21.358 21.22 21.173 21.133 21.17 21.157 21.182 21.2 21.251 21.308 21.695 22.434 23.386 24.428 25.002 25.237 25.326 25.614 25.901 26.224 26.471 26.451 26.374 26.005 25.796 25.621 25.578 25.491 25.339 25.248 25.293 28.093 26.408 22.831 21.882 21.892 21.798 21.778 21.578 21.778 21.827 21.741 21.947 21.944 22.034 21.956 22.063 22.068 21.958 21.992 22.056 22.091 23.042 22.312 22.365 22.485 26.229 27.815 27.442 25.546 26.212 26.735 26.783 26.836 26.865 26.911 26.905 26.905 27.007 27.059 27.298 27.8 28.128 28.624 28.264 27.887 27.638 27.685 27.428 27.449 27.597 27.687 27.782 27.738 27.806 27.629 26.98 26.22 25.705 25.413 24.6 23.639 23.163 24.003 22.509 22.463 22.452 22.426 22.404 22.514 22.257
21.133 21.154 21.125 21.105 21.141 21.135 21.126 21.06 21.098 21.106 21.111 21.013 20.964 21.023 21.028 21.075 21.051 21.01 21.092 21.128 21.165 21.18 21.175 21.194 21.206 26.636 30.766 31.178 31.865 32.031 32.778 33.06 33.577 34.109 34.326 34.898 35.337 35.867 36.237 36.313 35.755 35.392 34.886 34.386 33.881 33.63 32.974 32.582 32.097 31.563 31.073 30.579 30.48 30.901 31.256 31.041 28.754 29.878 27.953 27.134 26.725 27.244 33.054 35.377 36.007 36.197 35.962 35.552 35.172 34.557 33.918 30.495 26.662 32.69 32.405 31.956 31.34 30.848 30.636 30.742 31.214 31.673 32.122 32.448 32.853 33.512 33.835 34.439 34.694 35.386 35.711 36.254 36.183 36.033 35.494 35.102 34.622 34.06 33.589 33.166 32.681 32.179 32.155 31.211 30.867 31.193 31.562 31.519 31.437 31.49 31.385 31.577 31.479 31.499 27.219 25.114 22.421 21.3 21.394 21.399 21.488 24.777 25.562 26.737 26.624 26.629 26.682 26.756 29.19 30.274 30.736 31.388 31.945 32.381 32.906 33.207 33.705 34.201 34.717 35.285 35.537 36.081 36.319 35.886 35.357 34.946 34.585 34.126 33.629 33.275 32.678 32.432 31.839 31.28 31.084 31.812 32.253 31.381 25.449 22.075 21.411 21.44 21.362 21.324 21.366 22.875 24.469 23.28 21.603 21.401 21.373 21.426 21.42 21.438 21.44 21.446 21.44 21.442 21.376 21.315 24.41 23.035 22.095 21.132 20.919 21.067 21.037 21.806 21.809 21.457 21.27 21.327 21.314 20.559 20.456 -9999 -9999 -9999 -9999 -9999 -9999 -9999 23.986 24.356 24.428 24.751 25.041 22.314 22.785 24.1 25.926 26.676 27.546 26.442 24.641 23.409 22.21 20.933 20.404 19.577 18.885 18.755 18.373 -9999 -9999 -9999 -9999 -9999 -9999 -9999 -9999 -9999 -9999 -9999 -9999 -9999 -9999 18.391 18.538 19.176 19.365 19.494 19.862 20.249 21.37 22.213 22.523 22.619 22.91 23.28 23.619 23.425 23.313 23.296 23.253 23.266 22.975 21.711 20.86 21.6 21.622 21.573 21.544 21.532 21.731 21.527 21.477 21.36 21.231 21.146 21.181 21.173 21.099 21.113 21.059 21.062 21.122 21.017 21.035 21.061 21.077 20.996 21.068 20.996 21.002 21.053 21.005 21.045 21.091 21.085 20.951 20.935 20.95 21.013 21.076 21.029 21.111 21.028 21.016 21.053 20.988 20.974 21.062 21.196 21.172 21.143 21.164 21.386 21.102 21.025 20.938 20.889 20.883 20.819 20.978 21.22 21.189 20.929 20.863 20.854 20.888 20.947 20.936 20.932 20.941 20.907 20.899 20.887 20.856 20.851 20.884 20.991 21.131 21.15 21.23 21.166 21.148 21.13 21.085 21.212 21.173 21.24 21.296 21.379 21.956 22.959 23.681 24.369 24.927 25.132 25.318 25.593 25.831 26.471 26.612 26.48 26.469 26.042 25.723 25.565 25.534 25.57 25.312 25.21 26.647 27.783 25.832 22.397 21.732 21.714 22.079 21.783 21.583 21.894 21.785 21.854 21.874 21.826 21.934 21.993 22.116 22.173 21.939 22.038 22.172 22.296 22.271 23.375 22.314 22.906 25.241 26.786 26.01 25.55 26.602 26.797 26.806 26.866 26.937 26.882 26.948 26.967 27.075 27.619 28.418 29.032 29.484 29.617 29.798 29.374 28.959 28.291 27.562 27.481 27.625 27.755 27.821 27.846 27.811 27.863 27.71 26.733 26.333 25.774 25.368 24.748 23.548 23.321 22.675 22.473 22.444 22.41 22.432 22.402 22.584
21.096 21.115 21.106 21.088 21.095 21.091 21.097 21.087 21.07 20.941 21.042 20.995 21.052 21.064 21.012 21.062 21.068 21.029 21.156 21.143 21.159 21.14 21.44 27.704 29.805 31.244 31.469 32.166 32.499 33.002 33.489 33.728 34.436 34.742 35.335 35.611 36.193 36.205 35.817 35.424 34.828 34.36 34.139 33.46 33.055 32.58 32.051 31.542 31.049 30.833 30.513 30.958 31.335 31.785 31.859 31.49 26.842 27.715 27.822 27.478 29.061 35.515 35.888 36.057 35.924 35.445 35.193 34.641 34.146 30.178 27.544 30.293 31.915 31.912 31.401 31.158 30.787 30.742 31.054 31.478 32.108 32.431 32.964 33.418 33.909 34.408 34.652 35.101 35.614 36.128 36.215 36.098 35.467 35.026 34.607 34.056 33.564 33.13 32.753 32.339 31.807 31.345 31.035 31.323 31.573 31.507 31.534 31.474 31.451 31.474 31.496 31.48 27.643 24.492 22.256 21.287 21.26 21.354 21.422 24.296 25.925 28.974 28.551 27.195 26.697 26.713 29.506 30.152 31.031 31.299 31.775 32.401 32.878 33.211 33.749 34.243 34.725 35.245 35.477 36.034 36.363 35.905 35.51 35.052 34.678 34.091 33.624 33.179 32.796 32.435 31.987 31.415 30.881 30.552 31.054 31.454 32.363 31.835 30.954 21.983 21.38 21.402 21.413 21.353 21.664 21.968 22.364 21.4 21.379 21.435 21.355 21.376 21.387 21.413 21.426 21.411 21.461 21.476 21.562 21.468 22.066 23.069 22.941 21.998 21.045 21.022 21.071 21.508 21.555 21.419 21.325 21.401 21.254 20.568 20.437 20.426 -9999 -9999 -9999 -9999 -9999 -9999 -9999 22.828 23.715 23.626 24.257 23.452 23.561 26.343 27.201 27.794 26.069 26.829 25.32 23.737 22.006 21.353 20.741 20.136 19.568 19.105 18.864 18.896 -9999 -9999 -9999 -9999 -9999 -9999 -9999 -9999 -9999 -9999 -9999 -9999 -9999 -9999 18.471 19.139 19.358 19.611 20.339 20.459 20.813 21.602 22.084 22.528 22.83 23.051 23.573 23.568 23.381 23.34 23.265 23.172 23.303 22.384 21.199 21.317 21.576 21.544 21.485 21.445 21.478 21.495 21.442 21.389 21.229 21.236 21.186 21.171 21.305 21.195 21.119 21.091 21.075 21.086 21.088 21.027 21.027 20.966 21.049 21.056 21.08 21.119 20.993 20.987 21.088 21.088 21.087 21.046 21.116 21.129 21.026 20.929 21.003 21.085 21.069 21.013 20.998 21.001 21.05 21.135 21.193 21.159 21.156 21.249 21.49 21.376 21.149 21.05 20.956 20.888 21.017 21.305 21.167 20.965 20.817 20.925 20.904 20.923 20.911 20.945 20.876 20.893 20.872 20.831 20.837 20.857 20.829 20.929 21.115 21.13 21.186 21.18 21.317 21.165 21.16 21.133 21.117 22.905 23.777 21.823 22.222 22.917 23.811 24.588 24.942 25.059 25.41 25.821 25.666 26.452 26.616 26.563 26.58 26.099 25.801 25.691 25.623 25.571 25.4 25.318 25.16 26.568 24.343 23.188 22.122 21.688 22.451 21.613 21.572 21.723 21.77 21.793 21.827 21.921 21.849 21.923 22.086 22.005 21.943 22.028 22.613 22.296 22.176 22.355 22.368 22.843 23.428 23.725 24.473 25.814 26.703 26.814 26.849 26.928 26.923 26.973 26.976 27.145 27.399 28.305 29.312 30.234 31.05 31.346 31.184 30.877 30.163 29.361 28.598 27.832 27.6 27.695 27.812 27.898 27.905 27.889 27.865 27.435 26.828 26.335 25.84 25.375 24.428 23.381 23.22 22.624 22.427 22.425 22.448 22.447 22.39
21.141 21.086 21.088 21.084 21.039 21.082 21.07 21.008 20.984 20.991 21.018 21.016 20.973 21.017 21.02 21.097 21.059 21.117 21.165 21.146 21.114 24.03 28.419 31.022 31.521 32.099 32.579 33.127 33.527 33.915 34.333 34.827 35.306 35.713 36.207 36.181 35.882 35.358 34.907 34.332 34.06 33.574 32.956 32.487 32.243 31.542 31.126 30.813 30.541 30.969 31.21 31.835 32.146 32.286 31.952 28.826 27.26 29.108 28.03 35.349 35.979 36.073 35.99 35.766 35.078 34.678 34.169 30.756 26.857 27.909 30.972 31.873 31.42 31.109 30.755 30.771 31.045 31.52 31.948 32.466 32.948 33.404 33.819 34.375 34.579 35.2 35.697 36.141 36.361 35.993 35.582 35.186 34.756 34.138 33.797 33.381 32.744 32.315 31.872 31.29 30.808 30.558 31.39 31.517 31.473 31.497 31.44 31.478 31.482 31.496 31.249 26.155 21.469 21.286 21.304 21.339 21.31 21.918 25.237 28.688 28.829 27.355 27.278 27.984 27.099 30.03 30.886 31.317 31.799 32.253 32.951 33.123 33.715 34.111 34.633 35.095 35.446 35.995 36.289 35.891 35.745 35.208 34.636 34.235 33.642 33.182 32.779 32.345 31.855 31.4 30.863 30.669 30.521 30.964 31.256 31.269 31.816 32.344 31.449 24.552 21.679 21.444 21.426 21.406 21.351 21.361 21.377 22.787 24.228 22.351 21.404 21.394 21.392 21.373 21.402 21.43 21.359 21.417 21.523 21.417 21.193 21.594 22.902 21.315 21.067 21.071 21.058 21.024 21.07 21.523 21.418 21.199 21.05 21.024 21.045 20.451 -9999 -9999 -9999 -9999 -9999 -9999 -9999 22.137 23.245 23.095 24.272 24.812 24.088 25.064 27.31 27.912 27.108 27.08 26.392 23.84 21.642 21.688 21.124 20.413 19.96 19.314 18.544 18.882 -9999 -9999 -9999 -9999 -9999 -9999 -9999 -9999 -9999 -9999 -9999 -9999 -9999 -9999 18.128 19.337 19.464 20.075 21.4 21.357 21.446 21.174 21.753 22.247 22.641 23.055 23.362 23.572 23.405 23.356 23.316 23.217 23.285 22.969 21.563 20.899 21.524 21.542 21.483 21.484 21.557 21.53 21.439 21.42 21.364 21.309 21.195 21.204 21.216 21.153 21.173 21.161 21.137 21.112 21.058 21.007 20.976 21.043 21.081 21.075 21.076 21.137 21.092 21.098 20.975 21.06 21.081 21.096 21.137 21.146 21.035 20.937 20.988 21.017 21.082 21.106 20.968 21.089 21.083 21.124 22.036 21.662 21.23 21.481 21.315 21.825 21.51 22.81 22.537 21.026 20.922 21.062 21.079 20.987 20.891 20.909 20.96 20.943 20.897 20.913 20.904 20.891 20.856 20.813 20.804 20.673 20.869 20.911 21.041 21.13 21.166 21.186 21.982 21.247 21.126 21.101 21.134 22.867 22.276 21.4 22.02 22.865 23.585 24.55 24.981 25.097 25.483 25.633 25.662 28.425 28.462 26.593 26.418 26.021 25.825 25.775 25.697 25.602 25.452 25.264 25.271 25.182 24.372 23.671 22.008 21.601 22.122 21.684 21.625 21.666 21.666 21.896 21.86 21.929 21.878 21.876 21.906 22.066 22.064 22.278 22.2 22.227 22.116 22.253 22.422 22.939 23.409 23.804 25.077 26.426 26.948 26.856 26.922 26.942 26.976 27.058 27.069 27.618 28.201 29.517 30.746 31.82 32.396 33.024 32.518 32.353 31.577 30.5 29.279 28.124 27.614 27.66 27.8 27.932 27.938 27.95 27.91 27.94 27.467 26.923 26.236 25.847 25.519 24.19 23.151 22.753 22.626 22.448 22.425 22.407 22.419
22.19 21.111 21.05 21.072 21.058 20.986 20.953 20.989 21.013 21.043 21.006 21.01 20.944 20.996 21.014 21.049 21.01 21.023 21.133 21.165 21.152 22.327 26.141 30.675 32.477 33.048 33.537 33.812 34.176 34.745 35.152 35.775 36.134 36.276 36.001 35.467 34.956 34.356 34.105 33.648 33.164 32.752 32.16 31.582 31.381 30.857 30.467 30.931 31.085 31.268 27.709 32.157 29.317 30.177 27.389 31.006 34.073 34.573 35.788 36.252 36.215 35.661 35.141 34.596 34.256 30.135 27.847 27.839 30.8 31.927 31.57 31.129 30.484 30.704 30.97 31.295 31.849 32.419 32.821 33.21 33.833 34.184 34.582 35.005 35.636 36.171 36.374 36.025 35.622 35.203 34.781 34.108 33.789 33.379 32.904 32.333 31.986 31.231 31.094 31.302 31.461 31.503 31.495 31.471 31.462 31.463 31.488 31.466 27.721 25.591 22.542 21.293 21.315 21.318 21.365 21.347 21.332 22.585 26.229 27.031 27.534 28.609 28.984 30.392 30.685 31.178 31.654 32.08 32.813 33.008 33.645 34.123 34.618 35.106 35.441 36.021 36.361 35.988 35.828 35.33 34.729 34.254 33.908 33.312 32.925 32.33 31.779 31.36 31.024 30.706 30.469 30.872 31.352 31.869 32.139 31.334 31.421 32.242 31.98 30.915 22.552 21.676 21.41 21.436 21.423 21.338 21.72 23.232 24.521 24.505 21.402 21.403 21.405 21.375 21.422 21.428 21.427 21.406 21.426 21.37 21.165 20.838 21.396 20.768 21.955 21.15 21.126 21.071 21.292 21.38 21.957 21.693 20.812 20.88 21.04 -9999 -9999 -9999 -9999 -9999 -9999 -9999 -9999 -9999 23.026 22.928 23.233 23.012 23.502 23.669 25.963 25.912 25.211 24.44 26.144 23.6 21.532 21.539 21.22 20.773 20.667 19.994 19.242 19.062 18.839 -9999 -9999 -9999 -9999 -9999 -9999 -9999 -9999 -9999 -9999 -9999 -9999 -9999 -9999 18.493 19.505 19.928 20.206 20.682 21.497 20.736 21.277 21.962 22.45 22.761 23.113 23.551 23.401 23.318 23.335 23.261 23.267 23.348 22.48 20.965 21.296 21.465 21.488 21.529 21.611 21.578 21.498 21.437 21.393 21.306 21.317 21.279 21.229 21.15 21.148 21.285 21.121 21.135 21.079 21.037 21.025 21.045 21.061 21.083 21.072 21.135 21.129 21.126 21.047 21.085 21.138 21.072 21.115 21.159 21.055 21.075 21.006 21.067 21.066 21.021 21.106 21.073 21.126 21.138 21.938 21.749 21.322 21.325 21.319 21.691 21.482 22.068 21.454 21.729 20.986 21.079 21.006 21.046 20.968 21.109 20.923 20.939 20.933 20.951 20.889 20.848 20.86 20.891 20.793 20.828 20.918 20.892 20.991 21.077 21.092 21.145 21.226 21.197 21.241 21.422 21.346 21.148 21.394 22.899 23.231 22.832 23.593 24.688 25.023 25.08 25.421 25.775 25.924 29.533 29.717 26.57 27.067 26.408 25.81 25.755 25.686 25.614 25.453 25.303 25.272 25.356 24.127 23.387 22.077 21.704 22.127 21.815 21.554 21.632 21.72 21.741 21.839 21.87 21.895 21.864 21.971 22.182 22.236 22.093 22.088 22.42 22.266 22.194 22.993 23.495 23.521 24.6 26.03 26.679 26.91 26.905 26.942 27.011 27.088 27.133 27.331 28.293 29.555 30.408 31.536 32.381 32.885 33.086 33.444 32.777 32.161 31.176 30.032 28.359 27.711 27.729 27.814 27.922 27.988 27.974 27.965 28.015 28.06 27.522 27.428 26.283 25.777 25.243 24.069 23.009 22.707 22.698 22.466 22.434 22.416
21.119 21.573 21.067 21.384 21.007 20.979 20.949 20.967 21.009 20.933 20.944 20.973 21.006 21.005 21.001 20.974 21.041 21.089 21.111 21.084 21.14 21.109 24.079 27.483 33.281 33.841 34.234 34.831 35.226 35.606 36.078 36.106 36.058 35.492 34.872 34.61 34.135 33.719 33.192 32.669 32.173 31.829 31.256 30.924 30.453 30.736 31.207 31.506 27.407 26.734 27.579 25.953 28.87 23.763 31.877 35.268 35.765 36.064 36.198 35.663 35.116 34.801 34.285 33.73 30.458 27.117 30.736 31.412 31.612 31.21 30.538 30.589 31.011 31.267 31.943 32.318 32.831 33.244 33.897 34.144 34.566 35.093 35.644 36.161 36.326 35.975 35.654 35.163 34.642 34.237 33.807 33.402 32.931 32.397 31.871 31.553 30.991 31.278 31.499 31.471 31.466 31.462 31.487 31.471 31.422 31.471 31.449 25.137 21.537 21.295 21.32 21.319 21.343 21.362 21.334 21.319 21.305 21.31 22.544 27.41 28.539 30.255 30.584 31.253 31.753 32.169 32.61 33.241 33.579 34.016 34.628 34.975 35.374 35.876 36.303 36.156 35.856 35.286 34.746 34.143 33.655 33.318 33.016 32.462 31.971 31.545 30.966 30.96 30.573 30.84 31.315 31.716 32.208 32.75 33.258 33.44 31.124 31.858 32.202 31.539 24.491 21.776 23.608 21.523 21.372 21.378 22.618 21.876 24.203 24.535 23.817 21.492 21.342 21.379 21.392 21.387 21.445 21.399 21.376 21.364 21.303 20.994 20.932 23.478 23.217 21.402 21.097 21.091 21.1 21.335 22.233 21.892 21.202 21.15 21.106 -9999 -9999 -9999 -9999 -9999 -9999 -9999 -9999 -9999 -9999 22.509 22.848 23.313 22.603 25.295 26.412 26.482 26.758 26.693 25.745 25.521 22.949 21.505 21.281 21.292 21.854 20.574 19.734 18.8 18.719 -9999 -9999 -9999 -9999 -9999 -9999 -9999 -9999 -9999 -9999 -9999 -9999 -9999 -9999 18.675 19.304 19.489 19.52 19.775 20.216 20.42 20.807 21.705 22.178 22.546 22.869 23.186 23.45 23.324 23.298 23.271 23.2 23.423 22.99 21.518 20.89 21.387 21.448 21.509 21.548 21.597 21.543 21.45 21.374 21.322 21.289 21.32 21.276 21.252 21.151 21.207 21.182 21.171 21.146 21.136 21.078 21.099 21.087 21.049 21.048 21.042 21.143 21.199 21.134 21.078 21.161 21.103 21.122 21.129 21.12 21.068 21.053 21.086 21.044 21.042 21.126 21.074 21.132 21.126 21.198 21.14 21.518 21.326 21.691 21.276 21.269 21.226 23.738 24.301 22.917 21.509 21.007 20.986 21.095 21.1 21.051 20.941 20.95 20.889 20.835 20.858 20.883 20.838 20.859 20.84 20.933 20.936 21.009 21.114 21.099 21.127 21.144 21.49 22.344 22.354 22.118 21.394 23.122 25.831 25.99 23.709 23.941 24.651 24.983 25.133 25.436 25.698 25.871 27.151 27.217 26.581 26.486 26.054 25.817 25.714 25.69 25.629 25.484 25.442 25.194 25.154 23.899 23.262 22.063 21.571 22.231 21.682 21.597 21.674 21.698 21.731 21.739 21.795 22.078 22.127 21.982 22.066 22.011 22.167 22.725 22.202 22.213 22.421 23.211 23.602 23.922 24.607 26.084 26.89 26.951 26.971 26.971 27.044 27.075 27.493 28.132 28.923 29.749 31.019 31.889 32.217 32.524 32.469 32.356 32.37 31.165 30.024 29.136 28.05 27.745 27.78 27.947 27.943 28.029 28.044 27.989 28.026 28.055 28.086 27.903 27.066 26.195 25.825 24.951 23.857 22.995 22.685 22.692 22.462 22.469
21.226 21.161 22.394 21.011 20.979 20.977 20.937 20.917 20.904 20.945 21.021 20.96 21.024 21.009 21.047 20.997 20.993 21.089 21.055 21.106 21.133 21.153 21.19 26.36 34.022 34.69 35.344 35.538 36.169 36.286 35.922 35.446 35.172 34.549 34.072 33.642 33.086 32.677 32.419 31.919 31.475 30.909 30.493 30.771 30.911 31.573 28.252 30.067 30.197 28.32 29.294 28.827 31.175 34.71 35.83 36.165 36.19 35.859 35.42 34.831 34.106 30.318 30.13 27.87 30.924 31.199 31.584 31.223 30.755 30.601 30.952 31.287 31.894 32.357 32.654 32.973 33.575 34.144 34.763 35.022 35.591 35.862 36.229 36.123 35.638 35.299 34.73 34.173 33.751 33.309 32.908 32.399 31.935 31.528 31.09 30.688 31.31 31.554 31.505 31.448 31.418 31.486 31.542 31.468 31.328 25.984 22.734 21.583 21.323 21.357 21.333 21.395 21.39 21.431 21.372 21.253 21.266 21.384 23.045 29.768 30.648 31.199 31.542 32.177 32.497 32.929 33.375 33.926 34.517 34.86 35.324 35.893 36.203 36.33 35.914 35.377 34.807 34.228 33.899 33.465 32.931 32.471 31.941 31.502 31.089 30.722 30.459 30.742 26.085 31.363 32.147 32.735 33.329 33.568 34.142 34.531 32.09 31.454 32.145 31.972 30.567 26.88 23.583 22.271 21.419 21.508 23.678 22.172 22.992 24.557 23.933 21.65 21.405 21.385 21.428 21.361 21.451 21.428 21.442 21.418 21.778 24.212 24.356 23.475 24.261 22.556 21.386 21.083 21.089 21.107 21.584 21.713 21.495 21.573 21.232 21.337 -9999 -9999 -9999 -9999 -9999 -9999 -9999 -9999 -9999 22.488 22.435 22.594 22.636 23.397 26.121 25.643 24.989 25.985 26.497 27.049 24.751 24.401 22.685 22.724 22.196 20.986 20.024 18.954 18.724 18.8 -9999 -9999 -9999 -9999 -9999 -9999 -9999 -9999 -9999 -9999 -9999 -9999 -9999 -9999 18.222 18.85 18.733 19.247 19.697 19.988 20.594 21.93 22.465 22.436 22.771 22.992 23.894 23.734 23.275 23.22 23.197 23.221 23.352 22.244 20.884 21.324 21.473 21.454 21.553 21.589 21.563 21.388 21.353 21.357 21.386 21.321 21.306 21.264 21.18 21.269 21.179 21.154 21.157 21.114 21.094 21.036 21.097 21.211 21.146 21.053 21.131 21.1 21.165 21.14 21.111 21.106 21.087 21.163 21.091 21.007 20.942 21.082 21.116 21.117 21.035 21.086 21.256 21.144 22.065 21.133 21.741 22.722 21.468 21.29 22.014 21.303 21.288 23.308 22.801 22.048 21.213 21.186 21.148 21.057 20.99 20.891 20.887 20.847 20.83 20.867 20.833 20.853 20.822 20.867 20.871 20.914 20.991 21.072 21.066 21.064 21.11 21.724 22.204 22.415 22.159 22.01 24.969 24.187 27.904 23.737 23.938 24.698 24.914 25.256 25.35 25.522 25.833 26.363 26.679 26.546 26.531 25.93 25.733 25.654 25.642 25.629 25.469 25.299 25.251 25.435 24.523 23.623 22.377 21.691 21.751 22.205 21.584 21.769 21.652 21.694 21.876 21.784 21.878 21.927 22.136 22.188 22.077 22.035 22.128 22.101 22.154 22.686 23.416 23.876 24.237 25.591 26.655 27.004 26.996 27.011 27.076 27.054 27.104 27.384 28.276 29.422 29.945 30.812 31.893 31.952 32.009 31.442 31.064 30.244 29.162 28.786 28.298 27.951 27.764 27.833 27.959 28.041 28.042 28.045 28.069 28.065 28.07 28.066 28.079 27.877 26.903 26.304 25.755 25.024 23.928 22.904 22.775 22.751 22.46
20.92 20.961 20.955 20.995 20.999 20.951 20.888 20.944 20.967 20.989 20.946 21.025 21.035 21.003 21.045 21.027 20.975 21.104 21.086 21.116 21.136 21.122 21.158 22.298 26.121 35.182 36.004 36.358 35.979 35.463 35.166 34.765 34.287 33.762 33.279 32.864 32.363 31.829 31.411 30.958 30.577 30.827 31.03 31.438 30.974 27.365 28.64 29.866 32.524 34.131 32.445 34.44 35.536 35.972 36.216 35.771 35.276 34.89 34.27 33.904 31.21 26.752 28.313 31.534 31.568 31.123 30.77 30.575 30.776 31.356 31.78 32.272 32.654 32.992 33.599 34.081 34.714 34.983 35.493 35.965 36.296 36.114 35.758 35.178 34.869 34.484 33.872 33.422 33.061 32.498 32.088 31.713 31.158 30.761 31.378 31.511 31.475 31.477 31.482 31.48 31.337 29.317 23.645 26.092 22.702 21.258 21.311 21.265 21.336 21.335 21.907 22.248 21.935 21.666 21.652 21.435 23.249 28.688 30.661 31.273 31.66 31.931 32.525 32.896 33.354 33.966 34.267 34.901 35.29 35.704 36.267 36.245 35.985 35.391 34.828 34.365 34.125 33.584 32.949 32.565 31.97 31.545 31.349 30.718 30.531 30.745 31.055 31.522 32.063 32.57 33.099 26.994 33.742 34.528 34.963 35.469 35.557 31.115 31.698 32.257 31.502 29.587 25.548 23.447 21.47 21.625 24.171 24.087 22.745 22.013 21.436 21.428 21.412 21.391 21.408 21.402 21.441 21.448 21.411 21.38 23.629 24.002 23.717 23.624 23.514 23.943 22.321 21.112 21.113 21.077 21.505 21.978 21.871 21.544 21.061 21.491 21.899 -9999 -9999 -9999 -9999 -9999 -9999 -9999 -9999 -9999 23.111 22.712 23.139 23.599 24.597 25.457 23.226 23.207 26.275 23.545 26.162 25.243 23.975 23.789 23.02 21.458 20.174 19.424 18.728 18.659 18.681 -9999 -9999 -9999 -9999 -9999 -9999 -9999 -9999 -9999 -9999 -9999 -9999 17.882 17.829 18.473 18.167 19.018 19.572 19.937 21.005 22.393 22.936 22.384 22.502 22.758 24.516 23.956 23.255 23.284 23.208 23.186 23.373 22.842 21.307 20.901 21.387 21.512 21.713 21.591 21.531 21.382 21.36 21.4 21.349 21.307 21.279 21.244 21.196 21.178 21.15 21.169 21.11 21.066 21.049 21.039 21.206 21.121 21.078 21.075 21.055 21.139 21.107 21.09 21.084 21.091 21.095 21.128 21.059 20.997 21.051 21.13 21.129 21.116 21.04 20.957 21.014 21.132 21.217 21.096 22.828 22.865 21.196 21.248 21.264 21.284 21.826 21.349 22.82 21.705 21.152 21.09 21.11 21.022 20.957 20.922 20.902 20.854 20.855 20.892 20.855 20.882 20.878 20.841 20.875 20.884 20.889 21.092 21.115 21.116 21.213 21.827 22.19 22.244 21.901 23.053 25.493 28.136 27.518 24.816 23.883 24.544 24.805 24.867 25.192 25.435 25.684 27.014 26.943 26.899 26.287 25.857 25.62 25.601 25.622 25.538 25.481 25.252 25.054 25.26 24.495 23.172 22.006 21.781 21.731 21.731 21.655 21.682 21.702 21.719 21.78 21.939 21.984 22.025 21.883 22.118 21.963 22.189 22.209 22.217 22.155 22.585 23.563 24.225 26.022 26.36 26.755 27.002 27.037 27.083 27.122 27.173 27.182 27.341 28.527 29.904 30.46 30.712 31.083 31.292 31.084 30.172 29.166 28.608 28.075 27.824 27.788 27.766 27.811 27.888 28.063 28.076 28.106 28.091 28.06 28.107 28.086 28.079 28.07 28.098 27.627 27.152 26.353 25.635 25.409 23.992 22.949 23.078 22.554
20.964 20.993 20.973 20.982 20.944 20.924 20.968 20.95 20.968 20.972 20.972 20.987 21.001 21.012 21.005 21.054 21.049 21.014 21.082 21.024 21.131 21.135 21.159 21.182 23.258 32.343 35.971 35.751 35.24 34.809 34.098 33.724 33.239 32.955 32.354 31.861 31.28 30.948 30.641 30.599 30.989 31.503 31.824 29.659 27.43 26.928 30.473 27.706 32.405 35.308 35.644 36.25 36.283 35.841 35.316 34.907 34.614 33.783 31.963 26.825 26.42 31.237 31.735 31.099 30.83 30.597 30.87 31.419 31.787 32.168 32.75 33.096 33.58 33.998 34.342 34.977 35.376 35.976 36.313 36.037 35.798 35.226 34.897 34.255 34.008 33.507 32.936 32.463 32.106 31.592 31.198 30.817 31.456 31.538 31.461 31.505 31.491 31.428 31.519 28.27 24.998 22.902 21.316 21.266 21.33 21.276 21.345 21.351 22.601 21.75 22.087 23.974 24.459 23.883 21.771 26.241 29.43 31.018 31.64 32.115 32.609 32.9 33.299 33.92 34.253 34.776 35.272 35.655 36.221 36.287 36.02 35.661 35.103 34.413 34.04 33.574 33.079 32.652 32.175 31.736 31.278 30.76 30.553 30.891 31.113 31.675 32.189 32.594 32.938 33.379 33.866 33.184 34.876 35.33 35.723 36.232 36.16 32.412 31.451 32.208 31.937 31.066 26.694 25.422 21.672 21.686 23.279 22.354 21.761 22.485 21.574 21.383 21.462 21.458 21.423 21.403 21.377 21.396 21.405 21.425 22.032 23.914 23.817 23.863 23.749 23.532 22.721 21.427 21.078 21.074 21.071 21.839 22.283 22.267 22.136 21.793 22.193 -9999 -9999 -9999 -9999 -9999 -9999 -9999 -9999 -9999 -9999 22.489 23.107 23.575 23.909 23.192 23.811 24.399 25.397 26.484 26.278 25.1 23.801 24.045 24.049 21.143 20.28 19.799 19.134 18.644 18.735 -9999 -9999 -9999 -9999 -9999 -9999 -9999 -9999 -9999 -9999 -9999 -9999 -9999 17.886 18.582 18.658 19.057 19.506 19.829 20.781 21.613 22.841 22.391 22.887 22.583 23.783 23.893 23.329 23.201 23.162 23.141 23.217 23.266 22.264 20.884 22.355 21.638 21.759 21.651 21.538 21.412 21.381 21.419 21.41 21.354 21.268 21.287 21.214 21.231 21.216 21.14 21.134 21.075 21.013 21.023 21.084 21.098 21.154 21.128 21.203 21.2 21.12 21.068 21.087 21.104 21.106 21.022 20.965 20.989 21.118 21.158 21.116 21.124 21.058 21.186 21.327 21.164 21.148 21.059 21.146 21.04 21.162 21.114 21.171 21.276 21.282 21.391 21.321 21.285 21.299 21.108 21.126 21.083 20.985 20.894 20.926 20.891 20.884 20.866 20.913 20.91 20.888 20.863 20.88 20.879 20.958 21.009 21.038 21.134 21.2 21.542 21.69 22.254 21.254 21.57 24.672 26.483 26.352 23.485 23.628 24.195 24.531 24.746 25.019 25.267 25.535 26.372 26.542 26.533 26.399 25.812 25.67 25.623 25.593 25.543 25.378 25.238 25.043 25.438 24.442 23.432 22.407 21.718 21.699 21.551 21.599 21.821 21.699 21.763 21.782 21.972 21.78 22.004 22.047 21.929 22.114 22.036 22.098 22.302 22.164 22.856 23.705 24.249 25.079 26.583 26.948 27.055 27.089 27.119 27.131 27.216 27.341 27.387 28.266 30.222 30.773 30.732 30.765 30.811 30.554 29.481 28.357 27.851 27.691 27.685 27.796 27.802 27.878 28.027 28.111 28.095 28.09 28.125 28.115 28.079 28.129 28.101 28.058 28.135 28.033 27.662 27.109 26.178 25.839 25.157 23.759 23.009 23.259
20.985 20.939 20.927 21.059 20.931 20.943 20.93 20.991 20.98 20.992 21.009 21.008 21.067 21.033 21.016 21.017 21.03 21.028 21.047 21.064 21.058 21.112 21.087 21.105 23.005 22.693 34.953 34.741 34.316 33.804 33.447 32.898 32.435 32.015 31.533 31.061 30.489 30.467 30.914 31.447 31.701 28.669 28.473 27.7 30.733 31.668 27.737 33.627 35.564 36.153 36.269 35.866 35.275 34.93 34.487 34.032 33.523 32.96 31.376 31.18 31.917 31.208 30.93 30.611 30.779 31.263 31.718 32.107 32.459 33.059 33.533 34.035 34.397 34.845 35.53 35.814 36.356 36.227 35.748 35.358 34.97 34.354 34.011 33.418 32.905 32.531 32.103 31.739 31.156 30.633 31.543 31.535 31.495 31.461 31.503 31.483 31.447 31.295 23.086 21.445 21.664 21.878 21.291 21.332 21.372 21.391 21.359 22.061 23.592 23.857 24.122 24.473 24.977 27.633 28.931 31.223 31.588 31.945 32.27 32.919 33.369 33.74 34.199 34.738 35.066 35.677 35.937 36.315 36.1 35.602 35.027 34.515 34.274 33.704 33.273 32.593 32.256 31.72 31.335 30.81 30.532 30.935 31.115 31.719 31.885 30.816 33.098 33.43 33.86 34.317 34.849 35.408 35.776 36.213 36.241 35.533 35.121 34.216 30.875 31.613 32.181 31.687 29.743 25.983 21.929 21.376 21.476 21.507 21.575 21.967 21.376 21.602 22.375 22.207 21.446 21.355 21.41 21.42 21.432 21.369 21.453 22.254 23.949 23.969 23.63 23.297 24.227 22.879 21.12 21.106 21.073 21.108 23.108 23.65 23.784 23.117 22.565 22.014 -9999 -9999 -9999 -9999 -9999 -9999 -9999 -9999 -9999 23.021 23.235 24.004 23.353 23.289 23.913 24.025 23.337 26.214 26.363 25.883 25.702 24.658 22.4 21.58 20.648 20.084 19.532 18.65 18.629 18.85 -9999 -9999 -9999 -9999 -9999 -9999 -9999 -9999 -9999 -9999 -9999 -9999 -9999 -9999 18.907 18.998 19.344 20.112 20.975 21.882 22.702 22.788 23.368 22.948 22.82 23.081 23.378 23.229 23.219 23.134 23.1 23.277 22.642 21.677 21.679 21.505 21.701 21.652 21.589 21.496 21.445 21.445 21.43 21.316 21.335 21.28 21.247 21.201 21.223 21.189 21.162 21.167 21.396 21.058 21.676 21.289 21.758 21.125 21.104 21.117 21.138 21.125 21.112 21.119 21.095 20.974 20.965 21.139 21.167 21.086 21.119 21.104 21.043 21.088 21.046 21.331 21.396 20.945 21.138 20.963 21.055 21.112 21.265 21.211 21.24 21.265 21.318 21.578 21.409 22.386 21.096 21.098 21.071 20.981 20.99 20.958 20.85 20.876 20.933 20.801 20.801 20.81 20.806 20.938 20.919 21.065 21.188 21.141 21.165 21.121 21.163 21.655 21.381 21.211 22.36 25.111 22.899 23.829 23.363 23.864 24.314 24.656 24.912 25.217 25.714 26.348 26.531 26.503 26.23 25.849 25.693 25.699 25.697 25.609 25.458 25.279 25.229 26.488 24.842 23.958 23.365 22.433 21.583 21.686 21.548 21.61 21.717 21.741 21.793 21.909 21.776 22.506 22.018 21.968 21.942 21.98 22.118 22.227 22.352 23.007 23.552 24.452 25.831 26.862 27.074 27.081 27.128 27.139 27.175 27.233 27.286 27.517 28.692 30.352 30.67 30.67 30.736 30.895 30.394 29.088 28.141 27.715 27.712 27.796 27.848 27.941 28.088 28.024 28.099 28.076 28.131 28.14 28.144 28.081 28.107 28.138 28.066 28.064 28.067 28.02 27.681 26.983 26.455 25.828 24.933 23.836 23.142
20.924 20.919 22.018 21.088 21.326 20.97 20.947 20.993 21.005 21.001 21.003 21.036 21.025 21.034 21.077 21.078 21.052 20.975 21.03 21.041 21.111 21.046 21.108 21.088 21.029 21.212 31.22 33.723 33.386 33.002 32.454 31.87 31.558 30.968 30.642 30.645 31.016 31.355 31.763 27.451 28.432 29.165 27.495 27.618 31.726 33.714 35.503 35.989 36.19 35.882 35.373 35.093 34.614 33.988 29.403 28.507 32.551 32.323 31.944 31.347 30.921 30.561 30.76 31.16 31.633 32.154 32.626 33.123 33.463 33.875 34.451 34.801 35.408 35.629 36.333 36.235 35.711 35.388 35.039 34.463 33.912 33.427 32.956 32.611 31.989 31.56 31.122 30.701 29.911 28.643 31.468 31.491 31.469 31.442 31.456 28.058 24.788 21.766 21.347 21.676 21.308 21.343 21.349 21.303 21.358 21.408 21.418 23.405 24.406 24.466 25.228 28.065 30.651 31.19 31.504 31.867 32.312 32.773 33.28 33.774 34.323 34.746 35.139 35.598 36.201 36.399 36.267 35.761 35.144 34.582 34.348 33.762 33.333 32.828 32.322 31.881 31.314 30.832 30.511 30.699 31.018 31.552 32.01 32.777 27.909 33.229 33.908 34.476 34.883 35.299 35.578 36.146 35.873 36.004 35.201 34.881 34.262 33.901 31.452 31.163 32.033 31.914 31.151 26.604 25.423 21.633 21.439 21.378 21.443 21.978 22.739 21.877 21.398 21.42 21.408 21.412 21.393 21.419 21.427 21.384 21.33 21.406 23.744 24.011 24.038 23.827 23.525 23.468 21.583 21.131 21.065 22.075 22.537 23.254 23.555 23.064 22.087 21.905 -9999 -9999 -9999 -9999 -9999 -9999 -9999 -9999 -9999 22.93 22.986 23.159 23.162 22.951 22.141 22.993 22.889 25.392 25.84 26.292 26.967 24.644 21.445 21.341 21.821 20.578 19.843 19.189 18.844 19.167 -9999 -9999 -9999 -9999 -9999 -9999 -9999 -9999 -9999 -9999 -9999 -9999 -9999 -9999 18.671 18.709 18.572 19.378 20.053 21.079 21.407 21.464 22.276 22.417 22.636 22.9 23.371 23.344 23.197 23.133 23.114 23.099 23.188 22.321 21.212 21.397 21.635 21.656 21.591 21.5 21.49 21.487 21.417 21.423 21.407 21.317 21.276 21.409 21.251 21.247 21.21 21.243 21.429 21.142 21.152 21.241 23.378 23.216 21.79 21.202 21.086 21.086 21.103 21.088 21.089 21.041 20.971 21.022 21.106 21.127 21.103 21.057 21.116 21.175 20.963 21.268 21.215 21.269 20.999 21.022 20.947 21.029 21.126 21.414 21.516 21.234 21.237 21.283 21.986 21.675 21.188 21.103 21.051 21.044 21.022 20.917 20.8 20.833 20.904 20.793 20.785 20.792 20.781 20.911 20.916 20.916 21.009 21.076 21.151 21.162 21.195 21.213 21.412 21.208 21.53 22.11 22.12 22.594 23.24 23.787 24.321 24.595 24.808 25.124 25.453 26.464 26.524 26.469 26.317 25.784 25.738 25.716 25.712 25.642 25.498 25.353 25.224 25.562 24.535 25.509 24.782 23.233 21.693 21.568 21.541 21.57 21.701 21.782 21.707 21.755 21.843 21.829 21.839 21.887 22.046 22.317 22.146 22.21 22.296 23.433 24.161 25.121 26.033 27.02 27.078 27.116 27.19 27.213 27.2 27.265 27.324 27.633 28.861 30.088 30.665 30.712 30.762 30.924 30.48 29.415 27.913 27.805 27.823 27.997 28.104 28.075 28.054 28.055 28.156 28.064 28.185 28.135 28.136 28.445 28.092 28.124 28.131 28.071 28.031 28.079 27.995 27.51 27.179 26.61 25.968 24.898 23.78
21.976 21.758 21.96 21.754 21.024 20.973 20.944 21.006 21.027 21.012 21.023 21.067 21.017 21.043 21.035 21.045 21.066 21.022 20.939 21.005 21.037 21.018 21.054 21.099 22.113 22.573 24.464 32.549 32.412 32.108 31.541 30.977 30.714 30.518 31.126 31.488 28.939 28.209 29.993 27.12 31.598 31.068 29.906 34.126 35.675 36.15 36.055 35.9 35.569 34.988 34.574 33.946 32.478 29.581 30.429 30.827 31.677 31.258 30.788 30.581 30.621 31.164 31.613 31.997 32.515 33.081 33.505 33.847 34.42 34.764 35.393 35.865 36.344 36.186 35.994 35.388 35.042 34.506 33.914 33.54 33.145 32.689 32.058 31.748 31.283 30.905 30.19 28.424 27.732 27.717 30.411 31.404 31.447 31.121 22.497 21.419 21.335 21.467 21.283 21.38 21.341 21.287 22.38 22.961 21.532 23.742 24.123 24.382 24.462 27.507 30.439 30.986 31.521 31.844 32.479 32.856 33.39 33.804 34.302 34.722 35.062 35.682 36.016 36.301 36.167 35.68 35.22 34.718 34.184 33.751 33.255 32.777 32.537 32.039 31.456 30.9 30.628 30.62 30.958 31.561 32.032 32.547 32.917 33.313 32.703 34.288 34.799 35.381 35.586 36.074 36.885 36.036 35.117 34.841 34.237 33.899 33.489 33.024 32.489 31 31.822 32.336 31.729 29.938 26.22 22.704 21.476 21.413 21.466 21.437 22.831 22.33 21.802 21.415 21.392 21.385 21.404 21.433 21.373 21.449 21.427 21.507 21.452 24.024 24.011 23.734 23.582 23.489 23.057 21.267 21.144 21.099 22.125 22.821 22.561 21.4 21.491 21.755 20.434 -9999 -9999 -9999 -9999 -9999 20.267 -9999 -9999 22.952 22.987 23.039 23.362 22.061 22.733 24.144 22.538 22.759 23.452 26.175 26.266 24.856 21.834 22.109 21.751 20.589 20.109 20.208 20.312 19.76 19.431 -9999 -9999 -9999 -9999 -9999 -9999 -9999 -9999 -9999 -9999 -9999 -9999 -9999 17.879 18.612 18.606 18.806 19.479 19.985 20.506 21.104 21.793 22.187 22.424 22.749 23.109 23.288 23.235 23.169 23.109 23.077 23.267 22.855 21.281 20.903 21.511 21.626 21.6 21.603 21.519 21.509 21.565 21.433 21.4 21.317 21.258 21.606 21.618 21.276 21.203 21.198 21.174 21.209 21.164 21.191 22.107 22.553 21.119 21.274 21.133 21.042 21.072 21.095 21.125 21.089 21.066 20.988 21.043 21.093 21.071 21.138 21.156 21.056 21.042 21.074 21.014 21.065 21.019 21.042 20.914 21.052 21.038 21.057 21.422 21.193 21.462 21.21 21.176 22.893 22.795 21.319 21.113 21.058 21.06 20.984 20.909 20.884 20.86 20.767 20.766 20.771 20.77 20.799 20.883 20.943 20.913 21.032 21.053 21.115 21.17 21.862 21.226 23.222 24.542 23.316 22.069 22.654 23.195 23.803 24.218 24.575 24.859 25.465 26.468 26.581 26.521 26.432 26.158 25.768 25.7 25.655 25.715 25.612 25.461 25.293 25.066 25.144 24.103 23.606 23.314 22.192 21.587 21.594 21.59 21.681 21.686 21.734 21.754 21.824 21.828 21.795 21.777 21.874 21.93 22.21 22.161 22.284 22.979 23.696 24.481 25.873 26.734 27.083 27.095 27.163 27.201 27.226 27.251 27.266 27.34 27.59 28.584 30.146 30.785 30.729 30.531 30.343 30.385 28.962 27.991 27.924 27.922 28.045 28.196 28.127 28.087 28.087 28.106 28.126 28.224 28.241 28.183 28.142 28.117 28.117 28.163 28.119 28.043 28.082 28.074 28.053 27.466 27.39 26.621 25.476 25.036
