ncols 430
nrows 32
xllcorner    433138
yllcorner    436676
cellsize     2
NODATA_value -9999
95.358 95.051 94.701 94.592 94.602 101.623 103.94 104.427 102.054 97.598 99.762 99.799 99.824 99.867 98.221 97.638 99.539 99.555 99.068 98.737 99.57 97.092 95.94 97.792 99.076 98.592 97.227 94.344 94.194 94.206 94.203 98.092 106.01 112.089 112.935 111.518 107.463 102.958 104.819 107.141 105.321 100.798 94.964 93.625 94.786 93.671 95.715 95.76 95.768 95.897 97.406 98.286 97.614 95.176 92.818 92.735 92.898 92.779 92.862 93.309 92.728 92.721 94.466 98.064 98.02 95.974 96.778 97.367 96.759 97.339 92.486 92.23 94.067 92.571 93.398 93.557 92.08 92.325 93.117 92.303 95.274 92.76 94.141 93.109 90.205 90.124 90.549 91.747 91.504 90.193 90.076 89.659 94.624 95.862 95.883 95.468 93.282 89.464 92.649 94.69 93.074 88.955 88.873 88.815 88.729 88.718 88.606 88.449 88.317 88.261 94.158 95.378 95.738 90.553 87.003 87.163 91.918 91.673 86.489 86.289 86.206 86.127 86.084 85.986 85.899 86.017 85.67 88.594 88.814 85.938 85.706 85.276 85.176 85.322 85.003 85.793 86.441 85.208 84.645 84.524 84.587 84.656 84.516 84.372 84.287 84.122 83.9 83.782 83.771 83.677 83.773 83.809 83.669 84.041 86.23 86.147 84.388 85.782 87.843 88.237 88.231 88.274 87.998 82.455 83.356 82.204 81.419 81.346 81.367 81.576 84.384 87.734 88.169 89.615 88.344 87.057 85.35 85.617 81.124 80.992 80.788 80.057 79.861 79.778 79.821 81.272 81.271 80.272 79.595 79.632 79.516 79.436 79.338 79.234 78.905 78.743 78.655 78.61 78.511 78.411 78.302 78.27 82.875 81.185 87.213 88.296 88.898 86.275 87.019 88.613 80.442 80.705 77.921 78.904 83.406 85.196 80.657 77.874 77.845 78.086 78.2 81.207 89.227 86.356 85.976 79.407 79.151 77.523 77.405 82.474 83.762 84.481 84.351 83.577 82.729 78.592 78.766 77.8 77.09 76.566 76.266 76.284 76.343 76.326 76.28 76.262 76.399 76.793 76.356 76.289 76.383 75.944 75.779 75.775 75.793 76.972 83.955 87.566 86.55 79.507 78.3 76.985 76.714 76.905 76.212 75.979 75.887 75.796 75.637 75.612 75.726 76.265 79.383 86.334 79.458 76.469 85.615 82.136 82.571 80.164 91.753 91.025 91.546 93.537 92.465 94.223 93.962 92.93 90.378 73.188 75.814 78.923 79.708 79.374 78.592 77.965 74.717 72.213 73.242 72.065 72.163 71.882 71.595 71.769 70.667 70.486 70.363 70.37 70.551 70.086 70.309 70.042 70.149 69.572 69.907 69.704 69.443 70.478 73.373 73.915 74.452 75.531 74.675 74.199 69.446 68.124 67.821 66.858 67.214 74.18 77.553 78.532 79.897 79.588 76.78 77.493 68.13 64.014 62.95 62.607 63.566 71.743 71.495 72.304 71.506 77.096 77.625 71.452 69.71 65.756 75.269 75.063 75.576 86.268 83.626 83.617 82.094 77.654 69.186 74.374 70.553 68.801 62.214 62.028 62.642 64.699 64.927 66.092 66.477 66.865 67.651 67.052 68.172 70.614 70.876 69.16 69.58 68.847 70.917 70.701 72.516 73.937 74.549 73.723 69.339 70.503 69.561 71.008 80.971 83.584 76.031 85.81 84.647 82.416 83.053 79.256 74.635 65.581 65.497 65.653 70.838 77.652 78.669 77.748 74.638 67.088 65.742 65.38 65.343 65.276 67.075 74.12 75.488 78.408 69.115 66.664 65.767 66.363 67.058 65.036 64.875 63.11 62.89 62.899 65.468 65.952 63.959 63.256 64.412 62.857
95.444 95.231 94.629 94.562 96.796 100.477 102.982 102.501 98.941 99.55 100.538 100.508 100.52 100.509 100.475 97.568 100.393 100.351 100.371 100.357 100.326 96.867 96.548 99.105 100.061 99.352 95.535 94.012 94.081 94.035 94.456 98.14 109.026 111.732 112.467 111.625 107.976 101.78 102.96 104.935 103.277 100.098 95.171 94.978 95.735 94.345 95.238 93.705 95.349 98.316 98.815 99.321 98.627 96.241 93.393 92.84 92.726 92.644 93.418 92.654 94.641 97.262 98.485 99.224 98.496 97.791 96.178 96.371 95.294 92.486 92.091 91.93 91.825 91.758 93.541 94.748 93.653 93.682 91.312 92.052 95.138 93.523 93.185 93.212 90.403 91.675 92.252 92.193 92.138 90.832 89.62 89.668 94.229 95.156 95.029 95.043 90.984 89.395 90.129 89.159 88.993 88.891 88.851 88.867 88.835 88.759 88.661 88.51 88.291 88.082 89.902 92.476 89.393 87.192 87.006 86.783 86.676 86.547 86.3 86.258 86.235 86.085 86.016 85.932 85.834 85.754 85.669 85.614 85.483 85.409 85.371 85.234 85.179 85.121 85.017 84.888 84.84 84.733 84.737 84.805 84.754 86.632 84.562 84.449 84.941 84.096 83.854 83.726 83.668 83.622 83.647 83.686 83.66 83.573 86.002 85.429 85.746 86.928 87.937 88.971 89.424 89.013 87.798 82.439 82.767 81.595 81.359 81.349 84.139 85.962 86.865 87.721 88.88 89.745 88.724 87.881 87.834 86.851 81.161 80.978 81.705 80.821 81.367 81.197 81.105 81.559 81.638 81.511 81.541 81.525 81.533 81.556 79.671 78.733 78.658 78.596 78.52 78.533 78.464 78.508 79.047 84.289 86.586 87.407 89.421 90 89.015 82.163 81.887 92.499 91.185 89.372 87.009 78.125 81.803 79.654 77.743 80.418 88.166 84.459 90.063 88.205 87.522 88.624 85.918 80.888 79.578 79.502 78.658 83.45 84.291 84.518 83.683 82.916 78.278 77.663 77.678 79.631 77.011 76.423 76.17 76.251 76.246 76.275 76.267 76.423 77.959 77.87 77.301 77.954 77.779 76.733 76.304 78.344 88.079 89.269 86.743 89.718 90.341 87.091 83.557 75.811 75.648 76.227 77.206 76.379 75.892 77.562 77.471 76.119 75.822 75.409 78.896 81.55 89.911 85.463 85.434 79.749 85.64 79.91 76.796 74.225 76.508 90.323 92.959 93.585 93.067 87.617 75.336 76.872 78.468 79.407 79.682 78.936 78.075 77.056 74.358 71.93 71.74 71.675 73.308 71.408 71.957 70.913 70.693 70.468 70.328 71.038 70.221 69.933 70.56 69.892 69.851 69.79 70.016 69.349 69.488 70.052 70.932 72.202 73.694 74.318 74.811 73.047 68.687 67.445 67.301 67.834 67.449 68.486 73.804 69.852 69.364 78.354 75.614 74.715 67.959 64.086 64.323 63.192 62.524 64.336 63.483 67.957 72.356 74.216 74.043 72.704 69.815 70.938 66.335 75.572 79.312 83.018 79.768 86.093 81.819 78.197 78.039 75.188 73.023 72.146 67.126 61.543 63.353 67.429 65.372 64.239 65.604 65.333 66.116 65.817 67.936 67.257 67.186 75.261 71.388 80.971 80.3 79.696 77.366 74.096 71.835 68.458 68.476 68.909 70.696 69.584 67.364 79.577 81.494 82.856 81.841 76.369 77.555 76.255 74.871 65.455 65.355 65.673 72.972 76.553 77.94 77.053 72.898 67.413 65.317 65.246 65.151 65.178 65.2 65.816 65.499 65.148 67.634 64.415 64.072 63.853 63.644 63.474 63.229 62.941 67.007 70.368 71.904 66.53 63.699 63.459 62.968 62.702
97.889 97.268 94.673 94.542 96.752 100.985 101.839 101.286 96.343 98.739 99.575 99.716 99.819 99.873 99.262 97.438 99.911 99.961 99.875 99.982 99.985 96.871 96.418 99.393 100.088 99.481 96.261 94.415 94.052 94.028 94.016 94.436 103.806 109.843 110.931 109.982 106.092 96.392 98.491 99.348 100.471 99.032 94.145 94.877 93.659 93.248 92.997 92.911 94.252 98.463 99.431 100.193 99.458 97.726 94.936 92.908 92.604 92.581 94.05 95.501 97.654 98.565 99.397 99.819 99.051 98.242 96.425 93.634 91.973 91.968 91.934 91.878 91.631 91.915 93.09 93.359 91.99 92.919 93.485 96.06 95.888 90.676 90.349 94.767 94.951 94.459 93.185 95.335 92.818 92.144 89.688 89.595 89.516 89.558 89.514 89.493 89.449 89.344 89.272 89.131 89 88.902 88.935 88.801 88.843 88.791 88.671 88.549 88.359 88.225 88.003 87.627 87.455 87.196 87.005 86.801 86.64 86.564 86.455 86.381 86.304 86.214 86.095 85.919 85.916 85.758 85.785 85.719 85.494 85.447 85.293 85.306 85.17 85.04 84.944 84.941 84.87 84.965 84.9 84.806 84.727 85.271 84.498 84.397 84.237 84.108 83.852 83.784 83.589 83.539 83.573 83.557 83.633 83.513 84.762 84.699 85.156 86.906 87.994 89.125 89.384 88.916 86.514 82.668 82.917 81.823 81.464 81.374 81.439 87.427 88.144 88.371 88.715 89.595 89.025 89.079 88.142 87.615 81.117 80.995 81.675 82.43 81.08 80.52 80.611 80.597 80.968 80.625 81.497 81.567 81.657 80.214 81.955 78.873 78.676 78.574 78.512 78.516 78.486 85.148 85.756 85.359 90.781 91.408 92.262 91.45 90.341 92.673 93.919 93.645 94.351 91.868 92.752 92.695 90.878 85.322 86.033 84.037 90.797 91.861 90.936 91.847 84.174 78.765 78.134 78.997 78.444 77.894 78.407 83.951 84.678 83.985 83.212 78.772 78.818 79.63 77.604 76.945 76.451 76.025 76.113 76.183 76.207 76.151 76.248 76.572 76.647 76.375 76.378 76.386 76.867 76.909 79.469 88.358 91.058 92.243 92.429 92.672 91.44 88.16 78.371 74.83 74.748 74.623 75.331 75.034 77.572 79.5 78.601 77.351 77.445 78.131 77.047 81.722 82.633 90.276 89.275 81.381 83.438 81.766 83.052 74.368 76.091 84.395 91.247 91.542 83.146 80.696 76.599 78.725 79.219 79.9 79.071 78.124 74.431 73.025 72.577 73.87 72.052 73.321 71.478 70.817 71.366 70.671 70.473 70.363 70.299 70.174 70.044 71.01 70.08 70.33 69.68 70.821 70.366 69.356 69.942 69.057 68.518 68.198 72.118 73.342 73.765 68.967 67.428 67.122 67.047 68.024 68.188 72.6 75.164 69.005 76.933 77.516 77.262 78.248 66.952 64.319 64.247 63.945 63.862 62.475 62.874 64.713 73.221 74.547 72.9 70.561 71.353 70.349 69.616 69.739 75.432 82.013 79.2 66.387 73.26 76.901 69.056 71.01 72.58 66.635 64.871 61.316 66.1 67.167 65.912 63.074 63.594 64.211 64.735 65.182 65.502 66.161 73.103 80.062 79.991 78.856 81.69 79.134 78.418 70.576 67.081 67.641 67.982 67.462 69.686 70.533 69.519 68.842 80.025 71.383 73.187 69.585 67.886 67.177 65.147 65.207 65.168 65.454 74.376 77.805 78.17 76.774 73.715 67.797 65.337 65.093 65.046 64.999 65.005 64.981 64.949 64.989 64.859 64.547 64.008 63.662 63.343 63.166 63.048 62.954 68.664 71.64 72.237 73.071 71.02 64.861 62.735 62.375
98.454 97.414 96.574 94.783 94.433 96.106 98.423 96.809 94.777 95.206 94.633 95.968 95.606 97.459 95.852 96.807 96.126 95.249 95.225 94.714 95.432 95.292 97.541 99.393 99.917 99.246 96.929 96.721 96.869 94.872 95.343 95.727 96.681 97.565 97.649 100.488 101.58 95.738 99.603 98.172 97.865 99.383 98.034 96.617 96.618 93.373 93.09 92.957 92.92 94.195 98.613 99.719 99.264 98.605 97.095 92.974 94.091 94.159 95.366 95.406 95.501 97.951 98.783 99.092 98.66 97.99 93.186 92.869 93.278 92.036 91.771 92.511 93.317 92.834 92.029 92.608 93.291 93.784 93.154 94.132 92.274 90.143 91.921 93.518 95.564 95.764 93.423 96.86 95.533 91.835 89.695 89.646 89.863 89.963 89.677 89.485 89.426 89.353 89.26 89.265 89.116 88.952 88.88 88.85 88.87 88.79 88.696 88.582 88.341 88.092 87.912 87.671 87.377 87.185 86.983 86.829 86.699 86.607 86.506 86.395 86.28 86.222 86.03 85.994 85.872 85.952 90.397 90.969 85.684 85.524 85.379 85.299 85.203 85.208 88.953 90.753 86.459 85.037 84.804 84.714 84.619 84.488 84.499 84.481 84.583 83.933 83.781 83.775 83.666 83.54 83.414 83.395 83.466 85.211 85.149 83.504 84.027 85.645 87.595 88.24 88.211 88.212 86.936 82.99 84.25 83.815 81.502 81.38 81.428 87.658 88.64 89.464 89.413 89.148 88.892 88.643 88.248 87.411 82.017 80.941 81.039 81.53 80.676 79.676 79.538 79.609 79.718 79.122 79.763 84.628 85.703 85.177 84.195 78.869 78.655 78.569 78.53 78.447 78.548 84.685 87.464 88.167 91.655 92.733 93.457 92.612 89.965 92.645 93.69 93.759 94.77 92.96 92.384 93.285 92.801 90.723 89.879 91.029 91.966 92.436 89.738 90.767 83.873 77.988 78.781 85.751 85.056 77.832 77.087 77.086 79.212 83.308 79.919 76.88 76.903 77.614 77.344 77.38 76.25 75.981 76.048 76.109 76.116 76.218 76.271 76.234 76.086 75.947 76.367 77.252 76.259 76.507 85.306 90.363 92.086 90.206 93.111 93.156 92.588 90.429 78.226 74.807 74.641 74.562 74.482 74.36 74.345 75.556 74.534 74.931 77.5 79.144 77.231 81.689 87.935 81.82 80.326 84.953 80.783 85.587 83.341 78.455 77.327 77.917 77.361 74.956 78.499 73.289 78.131 79.415 79.757 79.121 78.172 74.472 72.473 72.261 72.122 71.939 73.205 71.136 70.713 70.625 70.526 70.473 70.384 70.263 70.21 70.093 69.948 69.884 69.821 71.038 70.261 70.391 69.462 69.384 71.745 69.566 68.752 68.553 68.296 70.218 69.889 68.226 71.513 68.527 67.228 68.031 66.828 72.781 77.947 74.939 69.872 74.786 73.964 76.013 73.445 68.858 67.39 65.388 64.335 63.29 62.413 65.102 70.631 74.025 75.901 74.467 70.545 72.029 68.782 69.298 66.605 72.123 72.523 64.77 67.026 69.141 71.774 65.278 73.119 74.57 67.481 60.942 64.215 65.609 64.947 62.952 62.949 63.524 63.997 64.416 64.713 65.135 71.466 76.815 77.028 79.451 81.599 79.541 79.171 70.864 68.02 66.796 66.283 66.653 67.925 70.924 67.901 65.862 66.016 66.489 66.094 65.789 65.475 65.22 65.037 65.053 64.944 65.293 73.481 76.189 76.935 75.366 74.746 72.643 66.727 64.959 64.952 64.861 64.885 64.8 64.728 64.799 64.87 64.491 63.922 63.571 63.179 62.958 62.886 65.16 71.321 72.045 72.662 72.982 72.426 65.795 62.627 64.229
95.405 98.649 95.738 94.797 94.473 94.445 95.346 96.684 94.474 95.062 94.953 94.529 94.481 94.526 94.33 94.364 94.526 94.431 94.381 94.382 94.303 95.217 97.457 99.201 100.022 99.307 96.735 99.177 99.263 99.218 99.154 99.143 95.03 93.899 93.802 96.365 96.748 95.864 96.951 95.971 97 99.168 99.408 94.641 96.393 96.347 93.284 92.999 92.918 92.905 94.661 98.969 98.409 95.161 93.481 94.991 95.183 94.02 94.556 95.432 95.426 95.441 98.134 98.058 95.163 93.359 92.746 92.501 93.495 92.442 93.674 93.811 94.025 92.577 93.081 93.443 91.898 91.716 90.315 90.184 90.106 90.566 95.107 95.545 97.189 96.268 96.895 96.513 92.822 91.857 89.853 89.951 93.32 93.476 93.543 93.596 90.583 89.459 91.519 90.886 90.962 88.961 88.918 88.885 88.849 88.761 88.632 88.589 88.454 88.29 88.099 88.216 87.635 87.191 86.888 86.661 86.551 86.469 86.395 86.354 86.236 86.099 86.091 86.083 86.045 86.723 91.544 92.195 89.894 88.258 86.482 85.993 85.277 88.11 93.146 94.622 92.839 87.123 84.852 84.767 84.719 84.512 84.517 84.485 84.387 85.019 83.728 83.709 83.615 83.439 83.392 83.331 83.28 83.626 83.326 83.256 83.17 83.02 82.865 84.062 86.097 86.183 86.02 83.663 84.076 82.855 81.528 81.469 81.35 86.18 88.315 88.307 88.069 87.867 87.619 87.427 87.116 86.806 82.056 80.914 80.937 81.088 80.514 79.673 79.51 79.218 79.179 79.061 78.915 83.6 85.517 85.342 84.575 79.298 78.632 78.533 78.557 79.273 79.279 85.837 87.063 81.711 89.747 91.909 91.588 90.579 90.28 91.403 93.772 93.521 91.366 93.234 93.333 88.391 92.926 91.613 89.892 90.929 91.448 88.483 87.916 77.006 76.684 78.813 78.909 86.268 87.55 84.238 77.106 76.899 76.915 77.891 76.888 76.835 76.782 76.758 76.625 76.525 75.92 75.942 76.002 76.056 77.348 78.455 76.939 76.19 75.995 76.929 76.76 77.15 76.514 76.368 83.596 90.398 91.899 92.806 93.276 93.055 92.953 89.641 78.42 76.682 75.126 74.645 74.569 74.414 74.27 74.121 74.073 74.038 74.581 77.705 74.514 74.735 85.191 86.841 87.412 90.074 85.505 83.598 84.212 86.01 77.037 76.022 76.278 74.01 73.877 77.598 80.153 79.958 79.85 79.093 77.914 74.432 72.445 72.397 72.121 72.194 72.255 71.322 71.035 70.66 70.541 70.394 70.316 70.199 70.104 70 69.883 69.835 69.785 69.81 69.704 70.907 70.283 69.552 69.897 69.397 68.831 68.683 68.506 68.395 68.364 70.712 73.114 71.518 68.632 67.337 66.728 68.884 74.84 70.52 70.402 72.347 76.879 74.11 73.947 71.212 68.815 66.867 66.35 65.456 62.899 64.159 72.71 76.564 77.11 74.972 72.043 69.537 70.171 72.336 71.851 70.066 65.735 63.323 63.002 64.034 64.556 64.486 68.793 73.095 65.07 61.671 63.93 66.905 66.262 64.202 63.301 63.727 63.482 63.774 63.974 64.32 67.771 75.653 79.794 78.732 74.664 79.587 74.887 76.55 70.905 66.737 66.58 68.954 70.686 71.963 71.097 67.944 70.095 70.117 68.961 67.775 65.336 65.151 64.938 64.842 64.84 64.941 68.723 69.189 75.143 75.044 73.928 72.076 66.264 64.833 64.77 64.7 64.63 64.667 64.654 64.66 64.743 64.452 63.9 63.577 63.259 63.021 62.953 68.815 71.876 72.442 73.076 72.661 71.732 62.773 62.501 65.408
96.473 95.062 94.72 94.511 94.402 94.369 94.642 96.184 94.596 94.413 95.265 94.579 95.106 97.179 94.485 94.88 94.412 94.343 94.371 94.567 94.264 94.536 97.631 99.321 100.116 99.484 97.532 99.649 99.762 99.828 100.01 99.952 95.647 95.392 93.837 93.76 95.243 93.582 93.41 93.441 94.179 97.386 97.514 97.286 93.811 96.778 95.671 93.109 92.987 92.877 94.349 97.156 96.454 95.687 94.013 96.375 95.118 93.953 92.613 93.351 92.701 95.097 97.049 94.067 92.5 92.933 96.126 94.786 93.807 93.651 94.049 92.314 93.119 93.927 93.969 91.73 90.466 90.378 90.22 90.135 90.046 90.827 95.347 96.394 95.556 95.309 97.277 96.091 93.011 92.018 90.399 89.932 93.533 95.858 96.027 95.722 91.142 89.389 91.488 90.47 90.715 88.855 88.849 88.846 88.814 88.672 88.668 88.683 89.485 88.836 88.205 89.166 88.045 87.22 86.799 87.324 86.369 86.34 86.314 86.216 86.148 86.135 86.282 86.208 86.182 86.249 90.297 86.59 87.391 86.781 85.79 85.852 85.467 90.283 94.243 94.838 94.996 89.172 84.786 84.516 84.459 84.39 84.273 84.18 84.088 84.005 83.607 83.629 83.607 83.441 83.287 83.25 83.204 83.162 83.135 83.107 83.109 82.922 82.781 82.866 83.664 83.233 83.432 82.372 82.612 84.042 81.973 81.52 81.409 85.53 87.215 87.079 87.495 86.686 87.072 87.435 84.561 81.733 81.086 80.871 83.004 86.209 82.46 79.573 79.307 79.231 79.4 79.066 78.937 83.316 85.327 85.568 84.394 80.173 78.62 79.022 78.736 77.959 77.746 82.231 84.693 83.145 80.8 88.642 90.272 88.189 85.965 89.465 92.017 92.745 92.263 90.982 92.693 93.225 92.036 91.694 89.852 90.21 90.863 82.6 76.848 76.85 77.45 79.753 78.943 81.312 84.551 85.702 82.282 77.474 76.893 76.741 76.55 76.508 76.554 76.614 76.167 75.773 75.829 75.893 75.939 75.988 79.977 81.217 77.01 75.97 75.915 76.481 77.218 78.25 78.276 77.7 82.454 88.083 89.94 91.478 92.299 91.197 91.095 88.274 76.296 75.132 75.149 75.428 76.251 75 74.384 74.338 74.215 74.038 73.885 73.827 73.789 73.634 76.313 78.387 89.826 89.524 87.836 83.811 83.259 82.236 86.384 77.763 73.705 73.579 78.641 79.306 80.355 79.957 79.177 78.31 76.028 75.664 72.529 72.167 72.028 72.133 71.663 72.087 71.484 71.257 71.804 70.892 70.952 71.091 70.012 69.93 69.79 69.777 69.729 69.596 69.484 69.813 69.75 70.241 69.736 69.256 69.333 68.885 69.401 69.535 68.365 73.927 74.013 73.341 72.837 67.424 67.074 67.653 66.441 67.508 70.723 70.51 74.366 74.008 73.96 73.203 70.79 71.027 68.847 67.267 64.382 67.551 67.005 76.147 76.644 75.361 72.408 71.002 68.766 71.508 71.694 74.274 69.247 71.133 67.689 62.531 61.092 64.163 70.307 71.417 63.759 61.145 64.921 68.079 66.535 63.463 63.069 63.004 64.134 64.288 63.63 63.57 64.782 73.992 77.281 79.233 79.856 79.098 78.158 77.825 74.297 71.082 72.764 70.918 71.797 70.793 69.685 68.838 70.516 71.44 69.531 66.323 65.221 64.895 64.758 64.716 64.719 64.804 65.236 73.666 70.204 75.651 75.263 73.237 65.058 64.684 64.666 64.565 64.535 64.589 64.482 64.473 64.586 64.376 63.964 63.535 63.229 62.987 62.835 69.485 72.292 72.876 72.888 72.216 69.796 62.735 62.593 67.753
94.88 94.656 94.502 94.389 94.437 94.332 94.352 94.318 94.227 94.253 94.255 94.231 94.272 94.541 94.145 94.158 94.383 94.456 95.041 94.894 94.153 94.145 93.999 94.934 95.622 96.567 96.252 98.859 99.075 99.013 99.192 99.071 96.745 93.693 93.567 93.541 95.174 93.448 93.247 93.288 93.851 95.376 96.03 97.79 95.833 94.338 96.642 93.715 93.028 92.977 93.01 93.333 95.545 96.441 95.627 93.808 92.891 92.739 92.67 92.612 92.58 92.868 92.53 92.7 92.41 94.53 93.66 94.317 94.58 94.371 94.112 93.482 93.68 92.503 91.584 90.518 90.422 90.341 90.189 90.069 89.955 89.864 93.541 96.012 96.045 95.122 96.214 94.582 95.211 91.459 89.786 89.547 93.498 95.922 96.641 95.623 92.187 89.377 89.348 93.014 89.483 89.02 89.027 88.972 88.988 88.887 88.976 89.086 88.729 88.57 89.158 88.088 87.633 90.622 91.466 91.68 86.421 86.199 86.253 86.196 86.128 86.26 86.318 86.212 86.198 86.075 87.001 86.399 86.475 86.241 86.055 86.492 85.524 89.138 93.856 94.761 95.14 92.361 84.987 84.524 84.625 88.253 88.122 84.274 84.111 83.908 83.502 83.508 83.554 83.447 83.214 83.19 83.084 83.052 82.959 82.934 82.893 82.872 82.813 82.74 82.605 82.499 82.4 82.332 82.236 83.982 82.432 81.702 81.603 81.481 81.549 81.545 81.663 81.954 81.42 81.347 81.333 81.689 81.058 80.891 81.94 87.218 85.601 79.668 79.366 79.196 79.102 79.408 81.155 84.292 85.352 85.74 84.76 80.819 78.603 79.329 77.959 77.802 77.71 79.656 83.649 82.697 79.281 80.219 80.001 78.06 77.152 77.004 86.902 83.411 86.072 77.428 79.102 92.608 88.085 90.694 83.215 77.288 76.776 77.741 77.044 77.684 82.119 82.835 83.034 77.243 76.76 82.159 88.24 89.475 79.275 76.603 76.416 76.267 76.096 75.922 75.707 75.714 75.784 75.836 75.892 76.903 80.901 80.364 79.938 75.983 75.846 76.011 79.137 81.167 81.771 78.374 78.254 79.776 85.975 90.385 91.21 89.882 86.651 76.777 74.987 75.069 74.959 74.913 75.09 74.679 74.608 75.847 75.783 75.69 75.598 73.916 73.697 73.545 73.517 75.768 88.193 86.345 84.64 82.545 82.241 87.089 87.854 88.28 82.951 75.522 83.25 79.954 80.154 79.486 78.677 74.441 73.053 72.473 72.472 72.211 71.967 71.713 73.45 74.068 73.148 71.623 72.402 71.233 71.626 70.716 69.956 69.879 69.767 69.724 69.631 69.531 69.389 69.332 69.472 69.271 70.572 69.64 69.006 68.83 68.902 69.925 72.738 74.225 74.556 74.641 73.667 73.022 72.118 67.489 66.597 67.353 66.212 72.356 72.349 74.442 75.217 74.053 73.948 73.221 73.759 67.32 64.624 64.154 72.019 74.816 74.524 73.696 75.456 76.782 74.395 74.994 74.648 73.322 69.489 66.909 67.583 64.482 62.591 63.779 69.855 63.844 61.952 60.351 63.6 65.421 64.905 63.803 62.168 62.944 63.046 63.279 63.435 64.642 65.995 71.698 75.308 77.096 76.503 75.582 77.291 71.485 68.786 71.222 72.897 71.947 70.426 69.579 70.042 66.624 66.119 65.044 66.326 70.074 66.56 64.799 64.699 64.573 64.54 64.572 65.865 73.912 73.602 75.792 75.944 71.974 65.133 64.573 64.542 64.441 64.403 64.403 64.388 64.282 64.475 64.246 63.891 63.499 63.051 63.035 70.307 72.096 72.699 73.048 72.431 71.911 69.706 62.598 70.146 67.655
94.651 94.49 94.42 94.451 94.444 94.423 94.338 94.241 94.18 94.178 94.086 94.119 94.122 94.075 94.055 93.999 93.992 94.384 93.926 93.863 93.993 93.924 93.941 93.966 94.114 94.302 94.486 95.147 94.712 94.444 95.207 94.713 95.734 97.192 98.536 98.115 96.016 93.244 93.121 93.158 93.156 93.188 97.62 100.165 99.302 98.903 94.86 94.875 94.55 93.029 92.887 92.882 93.393 93.894 97.783 96.45 95.758 93.591 92.67 92.667 92.614 94.051 92.424 93.038 93.316 94.047 94.656 94.456 92.053 94.076 95.273 94.153 91.732 90.6 90.495 90.43 90.391 90.269 90.168 90.016 89.897 89.821 90.75 95.536 96.214 95.545 95.513 96.17 96.775 91.732 89.73 92.11 94.675 96.022 96.179 95.641 91.314 89.245 89.114 89.017 89.08 89.126 89.015 88.992 89.566 88.928 88.996 88.514 87.429 91.208 91.31 91.442 91.593 88.067 90.524 87.789 86.666 86.144 86.135 86.1 86.35 86.427 86.275 86.131 86.22 86.072 86.321 86.591 86.419 86.302 88.782 90.198 88.953 87.066 93.552 94.625 93.439 89.793 85.619 90.228 90.339 90.466 89.796 84.269 84.039 83.761 83.523 83.41 84.278 83.353 83.105 83.078 83.083 83.223 82.928 82.797 82.737 82.735 82.676 82.681 83.425 82.532 82.922 82.431 82.288 83.791 83.453 81.932 81.739 81.638 81.569 81.507 81.401 81.382 81.556 81.365 81.325 81.804 81.118 80.85 81.201 84.098 81.67 79.57 79.331 79.189 79.122 80.357 81.691 83.549 84.997 85.691 84.82 81.387 78.533 78.444 77.863 77.741 77.688 78.954 83.726 85.143 82.695 83.979 77.764 77.053 76.936 76.909 76.854 76.787 78.489 77.891 76.746 81.015 81.35 88.424 79.306 76.794 76.683 76.718 79.932 81.082 82.541 83.248 83.187 82.478 77.429 80.065 84.849 87.165 86.266 80.516 78.014 76.217 75.749 75.561 75.617 75.749 75.77 75.783 76.495 80.043 81.647 76.635 76.282 75.853 75.822 77.124 79.812 82.637 82.909 81.214 77.623 76 76.185 79.214 83.056 80.77 77.471 75.114 75.067 74.988 74.77 74.838 74.824 74.722 74.73 74.674 74.619 74.814 75.245 76.242 75.525 73.74 73.591 74.74 76.537 77.065 81.176 73.35 82.14 87.652 88.458 88.325 86.526 86.401 87.714 86.407 81.706 78.955 75.786 82.044 80.911 76.185 74.42 75.366 73.303 73.808 76.805 74.596 72.347 71.779 72.204 73.07 72.465 70.995 71.049 70.24 70.145 70.583 69.669 69.461 69.34 69.259 69.125 69.354 69.158 69.284 68.771 68.75 69.418 69.662 72.668 73.249 73.874 74.5 74.373 74 72.964 71.875 68.169 66.922 66.254 72.384 74.596 73.793 69.395 73.455 74.488 74.462 74.458 69.135 66.1 64.542 65.238 68.018 69.463 74.038 77.045 76.932 75.623 79.29 78.634 73.639 73.753 72.706 71.99 67.049 69.791 69.571 67.519 63.417 62.306 60.259 60.746 62.09 61.351 61.639 61.928 62.298 62.914 63.088 63.497 64.03 65.153 64.988 71.261 69.746 70.4 66.873 67.693 69.076 66.204 66.243 70.139 70.917 70.81 70.884 71.17 68.579 64.913 65.076 70.818 72.042 66.77 64.591 64.467 64.457 64.386 64.386 67.218 68.613 72.916 75.107 75.24 72.09 69.852 66.197 64.408 64.3 64.251 64.255 64.196 64.185 64.345 64.222 63.806 63.351 62.98 67.282 70.864 72.591 73.1 72.779 72.055 71.089 63.524 62.469 64.909 73.208
94.588 94.499 94.497 94.413 94.456 94.459 94.389 94.403 95.186 94.578 94.301 94.236 94.18 94.118 94.097 94.002 93.969 93.948 93.904 93.822 93.834 93.775 93.766 93.866 96.418 100.165 95.241 93.736 93.758 93.826 93.833 94.035 95.671 98.576 99.275 98.882 96.957 96.182 93.093 93.081 93.059 93.123 98.737 96.111 98.711 96.127 99.672 101.383 95.444 93.416 92.959 92.895 92.852 95.088 96.058 97.188 97.108 93.928 92.627 92.552 92.419 92.327 92.318 96.793 98.415 94.498 91.506 93.083 93.998 94.242 94.37 92.371 90.619 90.521 90.494 90.482 90.38 90.196 90.133 90.007 89.921 89.805 89.752 94.014 95.814 96.119 95.41 96.249 95.546 89.475 89.627 92.122 94.072 95.195 95.031 95.011 92.512 88.954 88.854 88.896 88.945 89.039 89.07 90.647 90.58 88.047 87.77 87.693 87.355 92.087 93.658 93.54 93.028 88.827 86.98 86.465 86.113 86.084 86.019 86.067 86.212 86.307 86.229 87.186 91.822 90.411 90.359 91.679 87.795 90.732 91.442 91.576 91.404 88.186 88.524 87.628 84.356 84.259 85.336 90.065 91.401 90.76 89.782 84.886 84.003 83.846 83.347 83.315 83.315 83.198 82.997 82.998 83.186 85.943 89.236 89.648 84.648 82.644 82.589 82.525 82.465 82.366 82.312 82.257 82.157 82.123 82.107 81.829 81.695 81.659 81.574 81.459 81.398 81.362 81.344 81.252 81.596 81.085 80.874 80.75 80.868 84.18 82.47 79.587 79.287 79.164 79.101 80.319 81.505 81.431 81.509 82.238 84.301 79.263 78.508 78.435 77.786 77.679 79.951 83.923 85.647 86.755 87.14 86.242 79.481 76.852 76.824 76.816 76.784 76.74 76.699 77.044 77.582 79.613 79.338 78.845 77.928 76.874 76.751 76.333 80.3 82.4 83.286 83.191 82.408 81.573 77.014 76.327 80.137 81.681 83.219 86.858 83.312 77.196 75.546 75.527 75.663 75.645 75.702 75.659 76.382 78.71 78.406 76.55 76.103 75.775 75.694 78.753 81.609 82.923 82.523 81.782 80.91 75.895 76.626 75.772 76.125 77.027 75.22 77.692 77.209 77.197 77.169 75.454 74.854 74.908 74.769 74.709 74.596 74.521 74.344 74.207 74.386 74.504 75.565 74.176 73.44 73.108 73.07 73.069 83.334 86.359 87.984 88.32 88.793 87.513 90.317 89.675 87.999 85.963 81.93 85.054 86.405 76.636 74.164 73.434 71.875 77.293 77.704 77.256 73.823 72.549 71.642 71.737 71.362 70.999 70.633 71.837 71.995 70.423 69.613 69.332 69.247 69.14 69.019 68.953 68.881 68.744 68.681 69.457 69.028 67.993 68.694 71.183 73.119 73.567 74.176 74.211 73.648 73.215 71.699 70.52 67.239 70.592 67.761 72.041 67.74 71.683 73.564 74.222 69.24 69.048 66.543 64.395 64.092 65.143 68.236 75.309 78.524 78.284 78.134 77.816 77.991 74.486 74.578 77.664 76.682 76.737 69.204 69.493 69.555 71.103 75.04 70.177 66.363 62.565 62.935 61.439 61.507 61.479 61.758 62.238 62.416 62.358 62.426 62.656 63.084 62.19 63.252 64.585 65.556 66.978 64.735 64.964 70.539 71.246 70.983 70.982 70.627 70.206 64.912 64.843 72.478 68.242 64.513 64.38 64.368 64.307 64.227 64.224 64.354 66.602 74.625 74.756 73.577 65.94 68.048 69.34 65.051 64.144 64.141 64.063 64.115 64.04 64.132 64.061 63.686 63.266 62.984 62.75 70.54 72.918 72.825 72.28 71.424 65.124 62.555 62.534 74.59 77.518
94.589 94.644 94.474 94.43 94.418 94.426 94.411 94.639 94.968 95.369 94.675 95.28 94.234 94.159 94.091 94.081 94.022 93.994 93.923 93.811 93.797 93.76 93.688 93.689 97.141 103.199 95.276 93.682 93.817 94.263 93.713 94.359 95.711 98.515 99.196 98.86 96.299 96.885 95.952 94.688 93.551 93.002 93.171 93.169 96.143 102.958 104.3 106.851 107.197 96.695 92.814 92.785 92.77 92.79 95.011 96.872 95.38 92.64 92.639 92.358 92.309 93.214 93.884 93.606 91.959 92.824 93.919 94.069 93.36 91.579 90.708 90.656 93.142 91.552 90.482 90.409 90.292 90.171 90.096 89.962 89.861 89.802 89.743 90.741 95.158 95.558 95.179 96.086 95.442 91.445 91.686 89.437 89.283 89.57 89.936 89.33 91.14 88.801 88.846 88.797 88.886 90.333 91.391 91.331 91.288 88.077 87.771 87.634 87.378 92.88 94.11 94.278 93.332 88.867 86.943 86.568 86.155 86.036 86.031 85.987 86.137 86.217 86.203 89.867 92.017 92.701 92.467 91.903 90.084 91.263 92.327 92.518 91.89 87.801 87.567 85.764 84.378 84.262 87.996 90.277 91.263 90.864 89.819 86.99 84.069 83.628 83.254 83.168 83.023 82.953 82.901 83.088 90.201 91.391 93.14 90.581 93.53 90.886 89.361 82.502 82.327 82.285 82.217 82.096 81.994 81.899 81.835 81.737 81.637 81.473 81.461 81.445 81.393 81.322 81.216 81.299 81.141 80.882 80.774 80.798 83.075 85.069 86.181 80.234 79.238 79.059 79.103 79.017 79.05 78.924 79.026 78.718 78.636 78.492 78.409 78.273 78.639 80.326 83.197 83.669 85.414 85.881 86.069 87.839 84.497 77.092 76.741 76.756 76.661 76.659 76.751 77.132 77.37 80.308 81.889 78.607 78.538 77.301 76.132 80.814 82.411 83.047 83.155 82.435 81.541 77.308 76.556 76.716 76.394 78.5 80.536 85.761 84.449 76.322 75.434 75.514 75.608 75.586 75.603 75.764 76.937 76.353 76.575 75.794 75.748 75.723 75.758 80.955 83.069 82.832 82.92 81.407 77.202 75.574 75.496 77.279 78.021 75.755 75.528 78.005 78.029 78.037 78.143 79.665 77.926 77.055 74.981 74.735 74.596 74.534 74.407 74.261 74.094 73.882 73.956 76.454 75.838 73.361 73.064 72.781 80.388 83.935 86.965 88.492 89.184 89.518 89.932 89.011 86.599 85.911 91.547 87.013 88.678 85.942 72.672 72.091 73.268 78.42 78.447 77.989 77.549 75.992 74.136 73.267 72.488 72.577 71.32 70.514 70.959 70.387 69.695 69.401 69.216 69.071 68.963 68.865 68.753 68.627 68.581 69.645 70.577 69.847 68.097 68.103 68.806 72.728 73.422 73.493 73.932 73.98 73.34 72.809 71.082 66.278 66.026 66.613 66.967 69.047 71.228 73.238 72.541 73.024 74.142 67.27 63.923 63.589 63.046 69.459 75.17 77.465 77.891 76.061 75.635 76.259 74.869 77.506 79.78 79.99 75.5 72.713 71.627 77.703 78.65 77.711 70.764 67.977 64.002 61.635 62.01 62.036 62.068 62.049 61.732 61.887 61.966 61.631 61.964 63.093 63.609 64.778 65.822 66.324 64.758 64.684 68.891 70.103 69.892 69.623 67.897 67.3 64.755 64.686 64.862 64.708 64.372 64.249 64.225 64.094 64.088 64.027 64.188 71.987 69.3 74.975 73.77 75.568 71.352 69.995 65.858 64.017 63.98 63.901 63.965 63.862 63.947 63.915 63.497 63.192 62.947 62.699 63.194 66.134 72.374 71.865 65.405 62.588 62.394 62.112 71.677 68.507
98.434 96.4 95.806 96.806 94.628 94.545 94.612 97.407 96.588 94.855 94.521 94.409 94.346 94.32 94.402 94.33 94.237 94.17 94.007 93.944 93.848 93.758 93.709 93.624 93.549 94.443 93.564 93.944 98.564 98.479 96.372 95.404 95.707 98.423 99.292 98.636 95.867 96.118 96.19 95.726 95.341 95.072 94.983 94.954 98.908 105.419 107.816 109.956 109.238 106.928 95.711 92.654 92.924 94.856 96.936 96.862 96.621 96.432 94.932 93.748 94.375 94.694 92.858 91.902 93.229 93.783 93.086 93.518 90.802 90.715 90.861 94.588 96.599 94.28 90.479 90.315 90.209 90.103 90.037 89.966 89.867 89.812 89.78 89.843 93.59 93.672 93.189 94.232 95.438 93.794 91.453 89.674 89.028 90.86 94.53 93.363 89.456 88.808 90.848 90.563 89.025 90.316 91.369 91.317 91.236 87.819 87.717 87.689 87.461 92.962 94.035 94.263 92.992 88.357 86.866 86.44 86.075 85.922 85.972 85.949 86.147 86.135 86.282 88.948 92.284 93.098 92.895 91.729 87.309 90.693 92.135 92.357 91.77 87.262 86.907 85.651 84.638 84.586 87.101 90.048 90.206 90.119 89.794 87.45 83.855 83.497 83.189 83.024 82.907 82.824 82.878 85.319 92.777 84.183 96.297 92.351 94.651 95.756 94.121 82.51 82.302 82.226 82.122 82.093 81.976 81.85 81.796 81.691 81.552 81.439 81.325 81.281 81.232 81.168 81.183 81.03 80.886 80.762 80.692 85.083 86.27 87.669 86.882 81.126 79.333 79.206 79.113 79.036 78.971 78.893 78.786 78.756 78.673 78.374 78.175 80.065 80.58 80.372 81.742 83.786 85.489 86.154 85.977 85.648 84.686 82.576 76.805 76.642 76.603 76.616 77.677 78.245 77.896 77.473 80.464 76.88 78.039 76.393 80.131 82.511 83.14 83.809 82.616 81.752 77.285 76.149 76.136 75.726 75.752 75.595 75.508 75.853 77.716 75.363 75.433 75.513 75.526 75.538 75.691 76.249 75.81 75.653 75.784 75.743 75.738 76.421 75.813 81.363 83.311 82.345 81.732 80.881 75.663 75.502 75.831 77.236 76.991 75.084 76.546 78.069 78.079 78.097 79.075 80.373 80.614 80.267 81.333 74.976 74.782 74.51 74.508 74.39 74.107 73.92 76.551 77.842 77.623 76.661 74.399 74.009 80.261 84.786 85.146 83.57 86.891 90.049 89.376 85.43 84.451 87.109 91.663 88.431 89.81 88.117 77.256 71.851 76.079 77.651 78.117 78.486 78.278 77.708 77.218 75.62 75.014 73.267 71.284 71.772 70.306 70.414 69.621 69.444 69.256 69.05 68.89 68.826 68.721 68.577 68.43 68.395 69.397 72.091 69.405 67.899 68.778 70.378 71.797 72.601 73.11 73.599 74.079 73.644 72.541 70.999 67.599 66.267 65.666 65.602 66.371 73.25 75.771 75.958 75.151 73.186 71.437 65.483 63.09 65.53 72.505 73.852 74.679 74.312 76.558 75.9 78.789 79.359 78.594 78.566 79.568 76.984 73.673 77.313 79.107 78.237 73.763 71.53 65.973 63.502 61.968 61.762 62.224 61.796 61.608 61.387 61.413 61.339 61.766 63.299 63.058 64.524 67.273 68.814 67.851 66.325 66.998 67.253 66.964 66.973 66.909 65.031 65.024 64.31 64.371 64.399 64.225 64.134 64.022 64.001 63.964 63.82 63.894 65.636 71.467 74.081 76.178 76.512 76.335 74.831 66.669 63.901 63.832 63.787 63.826 63.759 63.797 63.799 63.432 63.083 62.822 62.561 62.381 63.877 66.703 71.059 62.653 62.433 62.264 62.088 64.232 67.191
101.996 102.289 101.875 96.688 94.863 94.636 94.569 95.883 95.046 96.802 94.892 94.505 94.308 94.312 94.385 95.047 94.559 94.393 94.363 93.948 93.896 93.746 93.725 93.642 93.571 93.495 93.38 93.683 97.638 99.703 94.36 93.824 95.725 98.367 99.356 98.587 95.651 98.054 98.088 98.052 98.045 98.036 96.473 96.027 99.751 104.823 107.651 108.822 110.78 108.602 103.053 95.804 95.298 99.349 96.896 96.175 97.981 98.398 95.002 94.52 94.596 91.979 93.276 93.687 91.764 91.889 90.814 90.727 90.75 91.066 98.403 99.816 99.152 98.521 91.133 90.224 90.152 90.064 90.047 89.948 89.972 90.134 93.003 93.369 90.799 90.311 92.881 95.086 95.218 95.43 93.098 93.768 94.614 92.687 95.324 94.763 90.068 93.146 94.072 94.095 94.152 91.062 90.262 89.429 88.424 87.67 87.66 87.66 87.641 92.772 93.266 93.232 92.997 88.895 86.746 86.35 85.982 85.853 85.874 85.862 86.025 86.133 86.756 89.084 91.983 92.101 91.983 91.735 87.362 90.547 91.194 91.468 91.393 90.921 87.468 85.741 84.614 84.354 84.306 85.785 86.083 87.158 86.192 83.955 83.745 83.399 83.108 82.919 82.847 82.769 82.842 89.193 89.991 90.061 93.07 95.372 94.09 93.953 90.005 82.484 82.384 82.166 82.098 82.001 81.896 81.849 81.71 81.577 81.561 81.435 81.315 81.188 81.109 81.044 80.944 80.863 80.77 80.687 80.774 86.593 84.363 88.617 86.921 84.403 79.507 79.208 79.151 79.031 79.005 78.898 83.771 88.132 85.368 79.044 82.308 80.731 80.084 81.022 82.649 83.258 82.494 85.48 85.511 83.506 83.352 81.7 80.365 77.647 76.51 76.055 75.913 77.788 78.223 76.467 76.202 76.136 76.164 76.14 76.082 81.543 83.268 82.651 81.785 78.833 78.962 75.895 75.626 76.126 75.612 75.639 75.362 75.147 75.26 75.347 75.419 75.422 75.479 75.533 76.681 76.042 75.521 75.711 75.472 75.557 75.59 76.889 76.357 82.575 82.779 81.957 81.287 77.099 75.464 75.414 76.683 76.747 77.412 75.007 76.529 78.109 78.585 78.562 78.446 80.398 80.659 80.936 81.153 81.377 77.022 76.943 76.983 76.544 74.476 75.615 77.745 77.928 77.456 77.59 75.113 74.329 73.382 82.894 85.029 87.111 89.773 90.175 90.558 85.264 92.391 86.793 91.937 90.375 90.785 89.383 77.208 71.884 71.697 73.155 77.184 77.727 78.137 78.415 77.965 77.17 76.544 75.654 71.666 70.614 70.342 69.986 69.766 69.639 69.7 69.385 68.996 68.761 68.616 68.56 68.435 68.586 68.874 68.881 68.454 67.914 67.835 67.882 67.717 68.07 71.438 72.783 73.35 73.81 73.269 72.745 72.162 70.089 66.152 65.657 65.621 72.985 77.664 79.271 78.924 77.233 74.108 66.856 63.837 63.04 62.262 65.111 70.166 73.518 75.834 69.179 74.601 77.772 77.702 78.462 78.619 68.51 77.34 78.834 78.984 78.849 76.161 72.809 71.697 62.007 61.258 61.654 62.077 61.565 61.526 61.298 61.624 61.622 61.23 62.786 64.336 64.17 67.247 70.9 70.377 67.615 66.867 66.712 66.178 66.103 66.042 65.896 64.994 65.105 64.615 64.176 64.269 67.009 64.198 63.847 63.795 63.662 63.769 64.928 66.335 70.36 74.077 74.814 70.37 75.916 67.874 63.762 63.732 63.611 63.656 63.663 63.724 63.758 63.152 62.842 62.61 62.436 62.244 68.175 70.962 69.545 62.663 62.322 62.139 61.943 61.192 62.579
100.913 102.529 101.97 99.204 94.403 94.316 94.335 96.486 95.033 96.065 95.127 94.323 94.142 94.395 95.979 94.614 94.23 94.226 94.197 94.944 96.592 98.466 95.077 93.706 93.581 93.405 93.396 93.281 93.408 94.418 93.533 94.033 95.059 98.742 99.239 98.406 96.263 98.81 98.858 98.84 98.844 98.838 98.165 95.769 95.957 101.79 104.652 107.051 110.03 107.398 109.256 105.696 110.956 100.97 98.32 94.443 96.999 97.387 96.337 98.434 93.914 93.8 100.737 94.356 93.862 93.022 90.816 90.887 92.598 99.603 100.561 100.476 99.64 98.955 96.768 95.382 91.664 90.143 90.312 90.203 93.399 93.85 93.525 93.327 93.255 89.721 92.162 94.23 95.642 96.332 96.434 97.08 97.222 95.684 94.041 91.481 88.63 93.596 95.226 95.034 94.71 91.018 89.971 89.471 87.909 87.273 87.919 87.481 87.06 87.961 88.34 88.264 88.286 87.354 86.644 86.281 85.898 85.763 85.858 85.8 85.937 86.095 87.538 86.338 87.565 87.812 87.805 86.609 85.651 88.115 87.511 86.043 85.529 85.568 87.742 87.012 85.705 85.295 86.941 88.016 88.225 89.182 88.759 83.878 83.726 83.445 83.111 82.898 82.772 82.714 85.725 88.656 92.476 94.11 90.852 94.767 94.86 94.773 91.883 87.669 85.958 82.358 82.441 82.091 82.008 81.934 81.938 81.71 81.603 81.406 81.261 81.171 81.023 80.918 80.869 80.778 80.712 80.641 81.554 82.523 84.613 86.574 86.167 85.573 79.793 79.248 79.1 79.016 78.952 79.039 84.716 89.004 87.188 85.572 84.285 82.248 80.76 82.337 83.455 82.206 83.307 82.591 84.096 77.563 78.603 79.747 81.295 80.297 76.52 76.448 75.968 76.483 79.9 76.114 75.953 76.059 76.031 75.997 76.017 76.01 81.249 81.818 79.459 76.042 76.804 76.509 75.845 75.804 75.841 75.339 75.084 75.15 75.222 75.345 75.363 75.352 75.382 75.383 76.845 76.749 76.785 76.064 75.392 75.264 75.358 75.911 75.93 77.267 77.504 79.749 77.093 75.492 75.43 76.56 77.773 77.723 78.112 75.654 76.58 78.11 78.1 78.138 78.224 80.389 80.703 80.983 81.056 81.347 76.994 76.924 76.941 76.837 73.917 76.737 77.614 77.065 77.367 77.188 74.648 73.507 72.852 74.417 80.926 82.378 86.372 82.501 90.133 90.696 86.47 91.481 89.523 93.074 92.327 92.749 87.675 72.16 71.786 71.659 73.127 74.19 77.298 77.919 78.475 77.692 77.283 76.821 76.354 71.716 72.427 72.474 71.737 70.354 70.085 69.312 69.131 68.936 68.606 68.444 68.357 68.261 68.26 68.814 68.455 67.957 68.15 67.629 67.677 68.395 67.699 70.215 72.435 73.086 73.457 74.506 72.889 72.372 71.24 65.75 66.405 69.507 79.051 77.652 79.658 77.327 76.936 67.768 69.189 69.125 70.719 69.025 71.098 70.139 68.545 64.326 64.579 64.083 65.402 65.601 74.743 74.962 78.514 79.197 79.357 77.749 75.717 75.626 73.591 64.493 61.496 61.62 62.045 61.676 61.491 61.489 61.717 61.955 63.501 63.704 64.4 65.225 67.522 69.516 68.463 67.832 66.148 66.241 66.692 67.985 68.15 68.798 68.703 64.135 66.287 66.182 65.927 66.847 64.129 64.257 63.846 63.548 63.569 63.537 63.981 69.805 74.114 75.318 76.787 74.837 64.15 63.806 63.716 63.599 63.54 63.524 63.581 63.572 62.709 62.539 62.408 62.319 67.33 70.773 71.531 72.066 72.403 64.139 61.998 61.713 60.747 60.622
97.901 101.105 99.985 98.086 98.375 97.96 95.998 95.209 95.037 95.058 94.298 94.159 94.12 94.821 94.138 94.194 94.141 94.145 94.081 94.537 97.455 100.022 95.097 93.776 93.591 93.496 93.398 93.268 93.2 93.192 93.243 93.364 93.217 93.181 93.217 94.552 96.638 98.064 98.435 98.533 98.54 98.551 97.428 95.646 97.866 100.369 99.798 101.676 106.261 110.317 107.507 107.712 113.658 111.045 108.337 94.381 94.77 92.814 97.533 100.644 100.328 103.913 102.047 102.676 101.85 99.893 91.135 92.406 94.06 99.245 99.869 100.482 99.971 100.053 98.644 97.191 96.02 95.734 97.632 97.462 94.02 93.872 93.818 93.407 93.36 93.082 93.506 95.766 96.415 97.934 97.907 98.161 98.798 94.212 89.733 88.962 88.639 93.76 95.407 95.845 94.889 93.26 90.074 90.036 88.071 87.121 87.72 87.18 86.807 90.606 90.71 90.763 90.794 88.309 86.519 86.241 85.864 85.764 85.794 85.738 86.144 86.238 87.063 86.078 86.868 87.347 87.45 85.794 86.161 88.129 85.762 85.654 85.568 85.142 85.444 85.022 84.426 83.959 83.923 89.673 90.297 90.376 89.35 84.021 83.664 83.343 82.902 82.794 82.984 82.676 83.22 89.419 90.321 91.446 91.413 90.506 91.016 90.362 89.719 87.763 87.165 82.382 82.195 82.024 82.024 82.087 81.885 81.843 81.641 81.466 81.388 81.249 80.968 80.855 80.848 80.708 80.623 80.569 80.613 81.773 82.402 83.024 85.298 84.348 79.466 79.301 79.144 78.999 78.9 78.767 80.792 84.945 84.115 88.336 86.63 83.389 83.421 83.399 82.605 78.696 78.177 79.506 76.818 76.682 76.659 76.619 77.361 78.454 77.267 76.329 76.123 76.806 79.315 81.269 75.991 75.77 75.92 75.881 75.868 75.859 75.852 76.758 75.805 75.755 75.784 75.755 75.524 76.096 75.194 75.02 75.077 75.148 75.244 75.257 75.286 76.277 75.707 75.115 75.159 75.373 76.459 76.476 75.801 75.097 75.139 75.268 75.409 75.604 76.25 78.227 77.839 75.849 75.446 76.697 77.559 77.402 76.209 74.749 75.184 75.899 75.725 77.733 78.117 78.125 78.057 78.738 75.996 76.662 75.243 74.902 76.151 74.322 75.093 76.491 76.607 76.898 77.471 75.129 74.384 73.078 73.606 73.867 73.74 74.327 82.228 86.061 88.548 89.819 87.276 91.246 91.523 92.43 92.171 91.919 89.73 72.111 71.935 71.835 72.066 72.789 76.604 77.097 76.735 77.061 77.47 77.583 77.168 76.604 75.991 73.148 72.919 72.46 70.44 69.598 69.371 69.061 68.787 68.513 68.348 68.182 68.009 67.971 68.425 67.845 67.771 67.966 69.752 68.042 67.266 67.946 69.897 72.137 72.796 73.307 73.579 73.335 68.297 65.828 67.129 73.863 79.207 78.874 79.322 78.537 76.747 72.238 72.469 75.779 74.941 73.771 67.599 71.634 68.19 64.075 61.886 61.634 61.079 62.189 68.006 66.507 78.551 79.183 78.831 78.645 76.306 76.193 73.592 66.977 65.758 61.527 61.719 62.2 61.699 63.44 71.157 71.019 68.771 68.376 67.032 64.964 63.641 67.545 70.004 64.739 63.901 65.061 69.517 69.593 70.003 70.082 69.743 64.202 66.093 69.243 69.295 67.027 66.063 63.877 63.81 63.409 63.355 63.416 63.837 71.048 73.67 69.395 66.855 71.436 65.068 63.677 63.617 63.384 63.458 63.359 63.424 63.419 62.712 62.394 62.256 63.618 69.209 71.091 71.976 72.532 72.161 71.284 62.029 61.512 60.804 68.261
100.358 99.759 97.533 99.088 100.137 99.222 96.691 98.468 98.073 99.018 99.562 99.432 99.28 96.422 94.805 94.242 94.09 94.134 94.152 94.36 93.889 94.317 93.868 93.827 93.703 93.596 93.446 93.312 93.248 93.183 93.022 93.023 93.107 93.118 93.124 92.958 93.501 95.644 96.202 94.243 94.151 94.133 94.442 96.186 98.652 100.236 103.493 102.648 103.69 110.939 113.717 114.527 114.506 114.595 112.067 105.669 93.4 92.815 98.213 100.06 103.566 105.419 106.974 107.626 106.763 106.471 103.498 93.884 91.25 97.574 99.526 100.263 100.636 100.701 99.545 98.123 97.599 98.134 98.21 97.786 94.861 93.884 93.966 94.328 93.391 93.364 94.211 95.494 97.026 97.182 98.029 97.294 97.363 92.818 89.93 88.568 89.635 93.557 94.757 94.783 94.75 92.958 90.032 89.949 88.954 87.123 86.978 86.811 86.695 91.144 93.172 93.318 92.588 88.281 86.544 86.263 86.136 86.218 85.745 85.731 85.765 85.784 85.869 86.129 87.85 87.855 88.069 85.707 86.239 88.543 85.977 85.467 86.939 89.421 89.612 84.672 84.257 83.893 86.635 89.785 90.95 90.586 89.599 87.301 83.598 83.175 82.788 82.761 82.708 82.577 82.629 87.325 89.682 90.479 89.96 85.649 89.789 90.058 88.598 87.879 88.456 82.764 81.945 81.905 82.168 81.843 81.75 81.638 81.49 81.324 81.316 81.363 81.183 80.851 80.706 80.648 80.574 80.475 84.438 84.593 87.422 85.581 86.221 84.008 79.575 79.225 79.243 79.249 79.536 80.773 80.793 80.06 85.743 88.233 86.054 83.553 80.266 78.829 78.321 77.312 77.167 78.038 79.542 77.271 77.884 77.602 76.688 76.437 78.005 78.178 77.036 81.056 82.3 82.955 82.73 75.806 75.614 75.724 75.664 75.629 75.628 75.549 75.454 75.547 75.597 75.204 75.07 74.955 74.915 74.996 75.077 75.134 75.141 75.192 75.285 77.014 76.786 75.339 74.991 74.847 74.801 76.661 77.053 75.867 76.649 75.414 74.967 75.741 75.68 76.241 75.308 77.255 77.768 77.298 77.23 77.437 74.805 74.69 74.593 74.577 74.553 74.577 75.231 77.432 77.93 77.934 75.061 74.591 74.346 74.156 74.889 75.064 74.285 76.188 76.271 76.303 76.495 74.14 73.153 73.128 73.413 72.91 72.858 74.19 84.567 79.165 88.277 89.64 91.946 91.388 90.104 90.051 84.548 91.236 78.517 71.966 75.06 75.649 73.925 76.292 77.7 74.267 72.299 76.053 76.637 78.476 77.535 77.518 76.703 75.942 75.288 71.636 69.906 69.998 69.325 69.316 68.837 68.637 68.488 68.191 68.01 67.93 67.853 67.794 68.058 67.609 67.873 68.048 67.784 68.042 67.477 68.399 71.862 72.598 73.079 73.545 69.042 68.327 67.588 72.194 77.118 78.306 77.864 77.001 75.814 77.622 77.182 77.969 78.336 76.694 69.571 64.363 66.081 77.239 68.754 73.887 62.915 65.288 63.368 65.595 77.865 79.095 78.25 78.689 77.747 74.531 73.773 72.975 70.862 64.011 61.263 61.228 61.414 65.482 72.852 66.807 70.898 72.166 70.1 65.516 62.731 64.133 64.025 63.644 65.33 69.358 70.202 70.28 70.021 69.927 69.403 65.799 67.006 67.742 68.532 67.009 64.024 63.791 63.536 63.348 63.273 63.211 63.351 63.651 69.589 71.195 72.092 72.611 64.253 63.459 63.362 63.259 63.359 63.25 63.308 63.379 62.68 62.379 62.294 65.279 70.427 71.72 72.34 72.228 71.434 62.981 61.787 61.159 62.365 68.624
100.173 99.526 97.229 99.625 100.066 99.268 97.14 99.988 100.12 100.094 100.063 100.01 100.009 96.805 99.192 99.289 99.312 99.363 98.839 96.623 94.328 93.776 93.726 94.043 94.474 93.718 93.514 93.324 93.18 93.134 93.016 92.925 92.913 93.001 93.026 92.859 92.846 93.487 93.203 92.739 92.762 94.497 94.064 96.018 98.229 99.748 103.546 107.106 108.221 111.846 113.849 112.121 114.703 114.529 111.855 99.771 92.335 92.033 91.969 100.366 104.057 107.796 107.818 108.166 106.983 107.641 106.656 95.231 90.681 92.75 98.981 99.824 100.437 100.64 100.307 98.194 99.345 98.68 98.862 98.145 97.478 94.28 94.157 94.149 93.648 93.428 93.849 95.514 96.593 96.909 97.638 97.156 93.467 91.121 90.873 88.868 88.532 90.037 92.892 92.907 92.506 89.974 88.806 89.634 87.625 87.207 86.926 86.719 86.761 91.762 93.461 93.855 92.834 88.372 86.484 86.225 86.002 86.027 85.648 85.631 85.647 85.693 85.592 86.792 87.815 87.849 86.662 85.822 86.458 87.563 85.482 85.4 86.974 90.627 91.106 89.158 86.917 83.879 86.613 89.313 90.24 90.069 89.365 86.453 84.488 83.737 82.93 82.56 82.515 82.542 82.559 83.445 85.541 84.464 84.387 83.129 84.123 86.229 83.545 85.752 84.136 82.11 84.044 83.938 82.411 81.98 81.54 81.442 81.278 81.142 81.187 81.152 81.12 81.349 80.714 80.52 80.444 80.451 84.53 88.85 90.697 90.176 86.083 84.858 80.159 79.291 82.331 83.404 82.977 81.105 79.067 80.032 82.512 84.912 84.802 81.123 78.812 80.189 77.927 77.15 77.062 77.001 77.439 79.594 79.338 76.942 76.352 76.142 78.105 78.879 80.621 82.374 83.399 82.772 82.073 81.293 75.529 75.452 75.407 75.408 75.369 75.323 75.265 75.109 75.194 74.887 74.812 74.865 74.904 74.935 75.022 75.058 75.013 75.153 76.829 76.96 76.887 75.68 75.238 74.754 76.314 77.166 77.096 75.686 74.385 76.219 75.889 75.385 75.163 74.957 75.092 75.591 77.781 77.192 76.884 76.381 76.465 75.145 74.558 74.557 74.528 74.488 74.455 74.726 74.85 76.153 74.58 74.36 74.215 74.259 75.423 74.991 73.916 73.398 74.158 74.097 73.455 73.281 74.646 73.595 73.055 72.921 72.868 73.402 82.901 86.293 86.953 87.542 90.387 90.926 89.928 87.22 90.227 88.748 73.131 75.448 76.809 75.256 74.726 81.272 82.375 79.943 73.056 71.971 75.272 76.253 76.797 77.488 77.518 76.73 76.235 75.611 75.062 69.899 71.242 70.957 68.863 68.658 69.253 68.6 68.119 67.917 67.833 67.725 67.627 67.582 68.115 67.438 67.402 67.339 67.018 66.792 66.771 71.219 72.093 69.452 68.876 66.628 67.996 69.895 70.214 75.297 76.851 76.419 76.864 76.632 75.526 77.706 78.868 77.208 74.094 70.073 75.562 78.828 78.53 78.974 76.913 76.503 75.086 74.812 77.742 78.556 78.965 79.016 78.345 74.868 72.181 72.798 71.155 67.893 61.178 60.884 61.067 62.795 63.78 69.803 73.666 75.101 75.104 72.452 63.676 63.626 63.428 63.678 66.728 66.952 69.249 69.144 65.513 68.392 65.39 66.905 67.139 64.35 65.17 65.273 63.71 63.555 63.278 63.209 63.134 62.997 63.124 63.131 66.595 65.927 70.412 70.413 64.247 63.206 63.177 63.158 63.143 63.104 63.246 63.109 62.552 62.348 62.173 66.903 71.482 72.146 72.43 71.819 71.06 62.126 61.631 60.975 61.873 63.886
100.328 99.632 97.239 99.644 100.132 99.249 96.688 99.058 99.493 99.531 99.452 99.367 98.937 97.348 99.884 100.047 100.051 100.061 100.067 98.343 95.924 93.678 93.686 94.107 93.764 93.516 93.555 93.378 93.219 93.135 93.047 92.888 92.799 92.864 94.362 95.252 92.78 92.722 92.735 92.717 92.71 93.706 93.419 97.727 98.888 104.837 104.664 106.965 108.318 113.549 112.433 113.812 114.645 114.339 112.005 99.745 92.659 91.796 91.658 98.062 106.419 108.97 109.047 108.736 107.717 107.29 104.723 94.79 90.428 90.408 97.06 99.287 99.575 99.645 99.541 100.146 100.339 99.445 99.395 98.463 99.389 94.87 94.111 94.086 94.068 91.124 90.567 94.321 95.672 96.157 95.828 93.256 89.917 90.789 89.135 88.538 88.589 88.591 88.556 90.232 90.886 88.939 88.301 87.864 87.161 87.024 86.884 86.701 86.735 91.625 93.268 93.371 92.598 88.485 87.132 86.979 85.956 85.761 85.567 85.607 85.585 85.654 85.57 86.384 87.719 87.911 87.881 86.034 86.127 88.075 87.184 85.802 87.013 90.246 91.138 89.16 89 83.911 83.866 89.298 89.386 89.307 89.215 87.014 83.516 83.121 82.824 82.513 82.459 82.472 82.511 82.68 82.846 83.727 87.875 88.473 87.388 86.718 85.123 84.142 86.582 86.181 87.757 87.133 86.715 85.153 86.579 85.58 85.459 82.129 82.485 81.525 81.058 80.962 80.76 80.56 80.385 80.322 84.876 89.08 92.619 92.156 84.992 80.837 80.657 81.875 83.847 84.417 82.524 80.919 80.599 80.377 78.218 78.481 79.41 78.407 81.625 81.817 78.116 77.069 76.978 76.905 76.914 78.343 78.693 78.293 77.859 76.175 76.534 80.785 82.318 83.064 82.739 82.033 78.428 76.61 75.372 75.321 75.232 75.118 75.297 75.25 75.12 74.808 74.715 74.736 74.797 74.807 74.827 74.908 74.921 74.908 74.886 76.044 76.415 75.992 74.701 74.985 75.608 75.904 77.211 77.655 77.206 75.598 77.081 76.678 75.129 76.115 75.855 75.846 74.897 75.354 76.488 75.148 76.792 75.873 76.582 76.09 74.904 75.791 75.258 74.832 74.48 74.429 74.444 74.393 74.255 74.147 74.07 75.24 78.1 74.246 73.612 73.417 73.262 73.355 73.167 73.365 75.782 75.416 73.702 72.866 72.813 72.851 74.209 81.314 86.056 86.242 86.203 85.356 87.13 90.261 90.785 76.303 71.269 74.276 73.899 79.342 81.565 82.777 83.526 82.831 81.227 72.694 71.477 71.77 75.993 76.659 76.135 76.29 76.794 76.409 75.991 75.536 74.181 72.049 69.588 68.724 69.381 68.394 68.153 67.964 69.145 67.811 67.533 67.425 67.674 67.736 67.087 67.114 67.203 66.958 66.752 68.282 67.734 68.836 66.508 68.066 68.113 67.984 65.972 67.096 67.332 68.541 68.55 74.609 76.045 78.08 77.608 74.837 73.84 72.943 75.608 76.11 79.439 77.925 77.394 79.728 76.855 78.424 78.932 77.875 78.483 77.99 76.781 75.385 72.525 70.493 70.64 64.73 62.502 61.029 62.099 61.101 65.291 71.829 74.699 74.909 75.132 73.716 65.708 64.68 66.914 63.669 64.544 66.947 67.928 67.418 68.316 68.367 68.905 68.988 69.152 63.34 63.499 65.03 64.362 63.393 63.244 63.086 63.045 62.938 62.907 62.982 63.004 64.356 65.415 63.865 63.05 63.018 63.013 62.969 63.603 63.216 63.153 62.831 62.389 62.251 66.826 71.166 71.901 72.452 71.987 71.39 70.531 62.759 61.61 60.821 60.979 66.773
100.198 99.529 97.032 99.73 99.961 99.234 96.667 96.977 95.869 95.462 94.057 94.855 95.118 95.571 99.308 99.471 99.443 99.43 99.493 97.408 98.174 97.844 97.394 94.458 94.817 93.495 93.399 93.263 93.269 93.196 93.025 92.9 92.742 92.686 92.724 93.027 92.681 92.673 92.709 92.686 92.807 102.718 107.8 100.121 100.409 100.436 108.983 103.957 109.035 112.737 114.303 114.744 113.82 112.665 110.541 96.597 91.389 91.447 93.33 99.625 104.924 107.267 107.919 108.238 107.457 105.813 100.197 91.545 90.342 90.265 91.848 98.512 98.469 99.483 99.804 100.153 99.83 99.254 98.915 98.406 97.974 98.111 94.244 94.096 94.073 92.937 89.77 91.501 93.937 94.385 96.501 96.629 90.868 88.742 88.41 88.486 88.516 88.482 88.473 88.473 88.457 88.465 87.354 87.237 87.136 87.976 87.723 87.198 86.857 91.059 92.232 92.14 92.062 87.976 87.681 86.415 85.714 85.487 85.44 85.497 85.612 85.679 85.612 87.979 87.539 86.451 85.901 85.515 87.707 87.703 87.954 87.95 87.427 85.208 90.099 89.594 84.781 83.882 83.77 84.241 83.888 85.016 84.43 83.702 83.314 83.378 82.951 82.408 82.421 82.374 82.462 82.604 82.806 82.94 87.661 89.072 89.184 88.332 85.562 86.687 87.249 88.787 88.155 87.932 87.53 87.105 88.019 87.902 87.029 86.585 84.524 83.107 80.952 81.027 80.73 80.577 80.36 80.281 80.191 87.001 91.068 89.626 84.278 80.914 82.861 83.649 82.973 80.326 79.132 79.184 80.304 79.245 78.272 77.916 77.781 77.704 81.833 82.02 80.496 77.049 76.867 77.07 77.614 78.258 78.263 78.299 78.286 76.489 79.073 82.105 83.251 82.755 82.171 81.282 76.209 75.414 75.374 75.37 75.173 74.999 75.069 75.132 74.748 74.636 74.645 74.716 74.773 74.709 74.755 74.74 74.768 74.698 74.814 76.758 75.544 74.591 74.573 75.898 75.411 76.854 77.948 80.294 79.86 77.393 77.19 76.927 74.429 74.666 75.215 76.592 75.459 75.959 75.534 74.698 74.21 74.153 74.716 76.229 76.626 76.478 75.92 74.776 74.452 74.673 74.339 74.284 74.16 74.068 75.377 75.931 75.087 73.562 73.355 73.319 74.756 73.19 73.229 73.534 75.871 75.095 73.641 73.024 72.687 72.793 72.699 72.807 78.072 84.339 86 83.656 83.437 89.206 86.954 77.573 78.803 80.947 78.219 80.179 82.214 83.12 83.917 83.351 81.841 73.09 70.701 70.474 73.245 73.686 74.996 75.669 76.14 78.196 76.831 76.377 75.758 70.813 69.176 70.112 70.251 68.374 68.334 68.176 67.93 67.752 68.837 67.632 67.275 67.159 67.021 66.93 66.885 66.836 66.773 67.464 66.557 67.455 68.023 68.299 68.227 68.059 65.711 65.627 65.588 73.103 76.38 77.057 78.849 78.712 78.196 75.858 73.627 77.199 77.241 69.788 74.653 71.556 68.656 76.85 79.382 78.194 77.913 77.144 73.349 76.37 76.641 77.449 76.007 70.619 68.961 65.85 62.075 65.456 67.361 64.169 65.506 73.255 75.777 76.646 76.336 74.022 69.195 69.176 68.757 64.682 65.242 64.828 66.138 67.333 69.481 69.286 69.258 69.234 69.095 64.771 62.989 66.2 67.276 66.309 66.818 63.066 62.965 62.88 62.738 62.792 62.862 62.85 62.86 62.895 62.857 62.905 62.862 63.759 63.376 63.071 62.966 62.607 62.294 62.33 70.8 71.658 72.38 72.155 71.496 70.882 64.367 61.721 61.322 60.586 60.615 69.696
100.357 99.679 96.847 99.654 100.093 99.304 96.905 94.715 94.095 94.095 94.112 94.327 95.058 95.366 96.377 96.362 94.005 94.868 94.686 94.517 98.062 99.628 99.043 96.481 94.098 93.243 93.223 93.161 93.223 93.221 93.041 92.825 92.695 92.582 92.591 92.642 92.625 92.631 98.127 100.949 107.283 108.632 111.105 105.823 98.009 108.854 111.766 109.104 109.21 110.038 113.488 114.002 113.206 111.594 97.817 91.418 91.424 91.492 92.299 94.471 101.379 106.62 104.168 108.543 107.346 106.436 101.345 91.178 90.236 90.189 91.527 96.651 97.924 98.932 99.614 99.36 98.863 98.467 98.34 98.012 97.623 97.46 94.578 94.065 94.102 93.476 89.743 90.343 93.05 95.366 98.823 100.478 97.24 90.204 88.353 88.422 88.42 88.39 88.331 88.254 89.399 89.674 87.194 88.477 88.524 88.6 87.008 86.278 86.123 86.023 86.486 86.295 87.16 86.579 86.92 85.753 85.526 85.412 85.491 85.45 85.526 85.658 85.961 86.307 89.381 91.009 91.148 90.023 90.835 85.437 85.735 85.715 86.723 85.473 84.654 85.423 84.448 84.364 87.228 89.155 89.192 89.067 88.952 84.383 83.349 83.074 82.645 82.594 82.365 82.353 82.422 82.541 82.761 82.827 87.244 89.341 89.392 88.282 85.43 84.063 87.839 88.816 88.248 87.767 87.556 85.742 87.834 88.209 87.17 86.605 84.563 83.542 81.253 81.208 80.75 80.817 80.449 80.272 80.149 80.29 83.303 81.589 82.99 82.938 82.429 80.457 78.986 78.845 78.768 78.64 79.678 80.197 78.395 77.916 77.771 77.631 78.182 77.858 77.579 77.848 76.799 76.751 76.277 76.637 78.206 78.289 77.066 76.541 81.038 82.756 82.932 82.096 78.59 78.234 75.506 75.344 75.292 75.193 75.079 74.875 74.679 74.601 74.606 74.6 74.662 74.659 74.687 74.645 74.656 74.628 74.554 74.534 76.2 83.888 76.881 74.422 74.366 75.338 74.904 77.42 82.462 81.347 80.891 80.377 79.779 75.518 74.158 74.747 74.887 74.896 76.467 76.315 75.348 74.112 73.871 73.939 76.257 81.824 79.631 74.52 74.411 75.593 75.739 74.983 76.735 78.331 78.149 73.952 74.732 75.898 75.426 73.375 74.25 73.22 75.382 73.345 73.07 75.159 75.796 75.111 73.373 72.863 72.544 73.071 72.819 72.206 72.354 72.325 81.485 82.218 79.031 80.09 81.614 81.208 78.573 82.46 79.794 78.302 82.194 83.757 83.577 82.845 80.385 71.572 71.031 71.088 70.997 70.922 70.655 71.375 74.284 75.716 76.177 76.765 76.431 69.562 71.816 73.55 72.445 68.864 68.455 68.526 68.194 67.836 68.205 67.893 67.339 67.078 66.97 66.917 66.815 66.745 67.025 67.061 70.958 72.552 69.151 68.43 68.347 65.919 65.826 65.793 65.64 68.119 75.137 77.192 78.91 77.63 77.164 76.662 75.937 78.55 79.349 75.954 74.697 75.296 70.654 77.599 76.327 79.423 76.43 76.231 76.488 71.513 78.307 75.462 77.503 73.691 69.459 66.994 61.911 66.835 71.733 70.182 66.682 73.271 75.338 75.724 74.213 72.614 70.236 71.173 69.979 64.716 63.318 63.372 63.381 63.058 68.758 68.568 68.285 67.984 66.085 63.647 63.011 67.963 71.536 71.561 70.329 64.1 62.821 62.757 62.685 62.637 62.651 62.69 62.688 62.713 62.696 62.709 62.977 62.891 63.024 62.942 62.604 62.326 62.231 62.299 66.23 72.051 72.401 71.662 71.064 68.878 61.928 61.614 61.209 64.232 69.067 70.323
100.23 99.518 95.909 95.142 95.176 96.129 95.805 94.133 94.127 95.797 97.121 94.113 94.239 95.701 94.045 94.165 93.961 94.421 93.805 95.554 98.447 99.487 98.887 96.751 93.923 93.16 93.083 93.254 93.111 93.166 93.062 92.852 92.684 92.643 92.469 92.451 92.521 95.022 99.058 103.008 108.596 111.46 111.155 112.069 98.352 108.973 114.882 113.279 105.238 109.96 110.682 110.442 105.688 99.512 97.792 92.446 92.14 91.79 95.268 97.081 97.57 105.179 107.161 106.615 105.361 104.052 95.715 90.308 90.273 90.215 90.81 93.772 97.386 98.415 99.047 98.72 98.125 97.647 97.399 98.193 97.912 90.751 92.802 93.655 91.444 90.055 89.616 90.709 89.508 91.868 98.35 98.846 96.296 92.777 88.959 88.299 88.304 88.289 88.55 88.951 87.811 86.997 86.906 88.547 89.001 88.998 86.857 86.187 88.942 91.2 91.817 91.956 88.161 85.979 85.888 85.997 85.588 85.385 85.38 85.396 85.487 85.812 85.724 85.533 89.483 91.376 92.225 91.905 90.893 85.946 84.926 84.934 88.787 87.02 84.166 84.057 83.895 83.62 86.165 89.421 90.349 89.921 88.873 83.506 83.247 83.019 82.589 83.512 82.567 82.258 82.301 82.462 82.708 82.785 87.384 89.171 89.262 88.631 85.506 83.967 87.795 88.38 88.059 87.848 87.668 87.06 87.442 87.588 86.988 86.402 81.968 81.13 80.748 82.62 82.026 80.82 80.44 80.239 80.065 80.012 80.018 82.162 82.216 82.109 82.261 80.025 79.134 78.848 78.691 79.572 79.923 78.59 79.633 77.879 77.853 77.523 77.369 77.239 77.276 77.292 76.968 76.294 75.994 76.039 76.967 78.311 77.728 76.387 78.2 81.022 82.233 81.516 79.294 76.903 76.022 75.217 75.188 75.151 75.033 74.631 74.501 74.526 74.516 74.596 74.603 74.587 74.56 74.51 74.512 74.479 74.451 74.321 75.415 81.696 77.084 75.604 74.347 75.913 75.426 75.604 80.135 80.747 82.665 81.331 77.293 74.326 74.373 74.08 74.066 75.868 76.827 76.057 75.597 73.9 73.858 76.014 77.055 80.194 75.181 74.543 73.929 74.325 74.377 76.118 79.205 80.483 79.84 75.495 75.706 76.459 75.686 74.02 73.889 73.078 72.968 73.081 72.953 74.779 75.68 74.862 72.936 72.463 72.448 72.72 72.589 76.184 76.039 72.146 72.161 72.804 72.932 76.777 78.886 76.311 79.774 81.571 82.069 78.439 80.456 81.729 81.336 80.733 75.27 70.954 70.528 70.564 70.477 70.272 70.082 70.161 70.721 71.294 75.16 76.025 70.85 68.925 73.876 74.814 74.33 73.112 70.942 69.215 68.377 67.719 67.649 69.738 69.001 68.136 67.159 66.812 66.734 66.656 66.508 66.544 72.133 72.847 69.911 68.522 66.77 65.949 65.857 65.754 65.711 66.465 75.978 75.965 78.227 76.971 78.082 75.153 70.913 76.677 77.971 77.333 70.824 75.733 78.741 79.085 79.278 80.72 80.709 78.126 72.897 76.998 75.275 73.814 76.749 73.54 69.853 70.143 70.3 69.066 70.939 70.82 66.319 66.716 73.871 74.875 72.405 68.845 70.097 70.734 70.17 66.912 63.025 63.889 63.914 62.935 65.491 66.386 65.674 65.153 64.002 63.241 66.187 69.419 71.25 71.696 70.23 62.932 62.778 62.618 62.611 62.533 62.506 62.48 62.541 62.573 62.562 62.741 64.507 66.729 66.529 62.902 62.363 62.217 62.07 62.044 63.79 71.618 71.899 71.321 66.04 61.832 61.675 61.42 60.822 63.614 64.946 64.205
94.953 94.502 95.39 99.463 94.426 98.64 100.735 94.342 95.424 95.591 95.208 97.37 95.489 97.231 94.352 93.9 93.787 93.817 93.774 95.595 98.33 99.612 99.057 97.652 96.906 97.619 97.143 95.94 93.555 93.06 92.994 92.915 92.666 92.506 92.378 92.327 92.349 97.066 100.093 103.243 108.981 111.059 111.91 102.9 94.613 105.244 110.57 112.741 103.135 95.739 100.515 97.393 95.984 93.826 91.877 92.135 94.456 97.137 98.218 97.682 98.02 102.293 102.823 101.717 101.006 94.328 90.306 90.24 90.201 90.156 90.12 90.068 92.439 97.838 98.37 97.933 97.524 97.795 91.057 91.402 89.904 89.858 90.218 90.117 90.578 89.568 90.815 92.873 91.725 90.022 92.354 95.934 94.67 98.376 97.443 95.939 89.004 88.935 87.98 87.153 87.024 86.932 86.789 88.328 88.977 88.96 86.981 86.183 89.003 92.172 92.903 92.573 91.277 86.104 85.861 85.698 85.472 85.281 85.336 85.391 85.467 85.494 85.489 86.725 88.007 91.187 92.366 92.001 90.904 85.972 85 85.194 87.973 88.918 85.01 83.985 83.866 83.626 84.438 89.276 89.781 89.688 89.08 84.741 83.12 82.848 82.435 82.62 82.203 82.244 82.262 82.403 82.606 82.72 87.154 88.197 88.125 86.92 82.72 82.352 84.451 83.575 83.619 85.391 85.481 83.05 83.066 86.657 86.64 81.427 80.992 81.049 80.687 82.399 80.95 80.474 80.393 80.281 80.119 79.96 79.919 79.927 79.912 80.314 79.674 79.159 79.27 80.204 79.014 78.712 78.748 79.203 81.419 79.964 78.555 77.496 77.297 77.14 77.01 76.756 76.657 77.373 76.614 77.699 77.327 79.991 80.973 77.211 76.175 75.807 80.388 77.769 75.393 75.282 75.227 75.12 75.181 75.036 74.581 74.47 74.466 74.536 74.524 74.498 74.48 74.474 74.425 74.361 74.385 74.328 74.332 74.207 74.254 77.335 79.275 81.076 82.726 83.523 79.63 74.661 75.184 79.647 80.261 80.685 75.487 74.142 73.921 73.97 74.015 76.965 75.943 75.568 74.062 73.777 73.742 77.021 78.129 76.676 74.121 73.856 73.577 74.514 73.323 73.18 78.373 80.549 79.72 75.877 78.449 80.78 79.186 73.031 72.892 73.076 72.947 72.878 73.055 80.677 78.812 75.651 74.172 72.38 72.321 72.352 76.517 78.148 78.359 76.789 75.989 72.54 71.935 71.912 73.47 80.677 82.149 80.694 74.933 74.479 77.696 78.228 79.532 78.349 76.572 69.669 70.991 71.658 70.43 70.248 69.931 70.7 69.701 69.523 70.523 71.871 69.986 72.088 74.887 75.359 75.31 74.658 74.042 73.522 72.385 68.542 69.193 68.84 67.825 68.894 67.576 66.838 66.683 66.623 66.482 66.411 66.287 67.189 66.815 66.928 66.103 66.024 65.979 65.887 65.818 68.568 74.358 75.498 75.52 77.61 77.044 66.476 63.844 64.519 64.65 64.483 65.808 66.109 78.019 78.079 80.024 80.66 80.095 77.978 78.236 74.714 77.539 75.242 75.068 75.609 72.208 66.921 71.71 68.438 61.569 63.079 67.2 68.946 70.808 71.642 73.163 72.675 67.985 65.924 66.348 63 63.002 63.459 64.184 63.522 64.756 64.13 63.2 63.751 63.864 64.167 63.253 62.277 64.064 66.755 66.057 62.947 62.752 62.49 62.539 62.429 62.338 62.337 62.371 62.396 64.389 68.496 73.798 74.374 74.547 69.841 62.452 61.979 61.92 61.864 61.728 61.621 63.241 64.482 61.779 61.681 61.538 61.197 60.532 64.32 62.646 69.934
94.286 94.264 97.391 103.166 96.035 98.284 101.592 98.664 99.651 97.115 97.436 97.58 95.491 97.779 98.483 98.09 93.88 93.675 93.756 95.846 98.621 99.563 98.994 96.846 98.258 99.138 98.626 95.91 93.736 93.016 92.903 92.825 92.66 92.505 92.449 92.32 92.98 96.251 92.576 98.764 104.616 106.245 109.058 99.046 92.197 92.626 98.786 106.074 96.788 91.435 91.473 91.41 91.436 91.908 91.748 92.077 94.314 96.243 97.511 98.253 97.198 93.669 95.669 98.119 93.714 90.327 90.33 90.227 90.152 90.076 90.095 90.087 91.61 98.355 97.527 97.213 95.819 90.038 89.963 90.339 89.868 90.406 89.891 89.665 89.853 89.327 90.833 92.94 94.538 94.696 93.223 89.923 94.643 97.764 100.113 98.483 89.523 87.331 87.229 87.097 86.994 86.889 86.76 86.602 87.194 87.188 86.69 86.022 86.243 91.939 93.023 92.454 91.473 86.773 85.785 85.647 85.405 85.24 85.323 85.275 85.371 86.162 86.991 85.496 86.509 90.865 91.786 91.813 90.927 86.521 88.513 89.403 87.634 89.262 88.122 84.032 83.873 83.487 84.444 87.357 88.76 88.74 88.705 85.04 83.063 82.896 82.406 82.147 82.172 82.18 82.234 82.347 82.548 82.638 83.476 82.749 83.017 82.741 82.965 84.659 84.817 82.804 82.022 82.179 81.981 83.834 81.455 81.348 81.307 81.597 81.162 81.728 82.28 82.508 82.685 81.214 80.347 80.208 79.964 79.868 79.859 79.908 79.891 83.955 84.787 81.792 81.307 81.088 80.144 78.824 78.202 79.599 81.335 80.806 79.168 77.439 77.239 77.059 76.88 76.732 76.655 76.763 77.703 78.735 80.285 81.693 82.77 81.699 76.948 75.686 75.555 75.864 75.952 75.183 75.037 75.372 75.227 74.397 74.4 74.443 74.455 74.398 74.432 74.35 74.409 74.325 74.276 74.261 74.278 74.246 74.21 74.079 73.991 75.324 81.646 84.415 85.074 84.419 82.348 74.889 73.887 73.814 75.925 76.719 75.414 74.309 73.889 73.933 75.805 74.76 73.912 74.191 73.749 73.692 74.278 77.566 77.723 76.594 76.004 74.119 73.769 75.893 74.071 73.185 73.174 75.099 78.071 77.81 81.684 83.853 82.005 77.498 76.133 74.232 73.137 73.008 79.748 80.926 82.288 81.632 76.274 74.002 72.69 72.13 77.609 77.939 78.104 78.15 77.981 77.025 71.774 71.767 71.706 73.291 77.542 73.963 77.984 78.519 79.288 76.571 77.621 77.914 77.349 71 69.518 70.836 70.456 70.774 70.223 70.052 69.585 69.559 69.394 69.226 68.846 72.375 74.311 76.202 75.566 75.308 74.962 74.264 73.589 72.283 69.462 69.077 69.115 68.961 67.468 67.818 66.791 66.517 66.428 66.386 66.309 66.276 66.38 66.337 66.174 66.036 65.996 65.913 65.969 67.987 73.727 72.582 74.97 75.212 75.166 69.817 68.222 65.444 67.988 76.309 69.321 68.983 73.645 77.096 80.2 80.681 80.706 77.862 78.684 76.694 77.338 76.225 76.812 77.386 75.779 66.46 66.476 65.968 63.034 62.965 69.059 73.054 67.062 70.584 73.406 76.117 68.986 63.5 63.042 63.072 63.275 64.277 63.853 62.96 63.143 64.169 62.528 65.903 65.864 66.629 63.227 62.267 62.483 62.662 64.808 63.481 62.669 62.526 62.411 62.352 62.275 62.209 62.343 69.289 73.579 75.921 76.282 77.428 75.219 75.357 68.172 61.928 61.756 61.745 61.558 66.636 68.07 64.602 63.589 61.598 61.325 61.101 60.551 65.496 71.393 71.95
94.429 94.152 94.562 95.31 95.662 98.297 100.588 100.672 98.272 95.33 94.086 96.632 96.049 95.02 98.177 98.406 95.049 93.682 93.617 95.179 98.282 99.577 99.107 97.737 98.228 99.141 98.568 96.173 93.908 92.966 92.924 92.862 92.654 92.491 92.349 92.237 92.145 92.312 93.316 92.33 92.252 93.658 98.199 93.425 93.623 94.043 92.044 91.545 91.455 91.393 91.417 91.383 91.384 92.182 91.919 91.668 92.36 92.668 96.328 98.249 97.989 96.908 95.226 95.056 94.157 91.043 90.271 90.197 90.133 90.019 90.751 90.427 90.035 92.641 97.037 97.352 89.965 90.127 89.994 89.988 90.198 90.857 89.635 90.08 90.437 88.622 89.147 92.133 95.354 93.353 92.069 95.154 97.71 100.185 99.213 92.64 87.225 87.235 87.182 87.064 86.941 86.843 86.719 86.567 86.504 86.486 86.41 85.992 89.823 91.958 92.157 92.289 91.552 86.869 85.736 85.686 85.323 85.164 85.255 85.217 85.315 85.535 85.729 85.86 86.546 89.902 90.753 90.56 86.687 85.463 85.866 88.572 88.031 88.924 85.912 83.925 83.887 83.677 83.936 86.127 86.15 86.132 86.126 84.528 83.349 83.823 82.401 82.103 82.126 82.072 82.108 82.265 82.476 82.919 83.537 82.657 82.676 82.591 84.55 85.811 86.221 82.497 82.087 82.067 81.983 83.751 81.595 81.41 82.665 81.69 80.526 82.247 85.133 85.284 85.228 84.638 80.421 80.243 80.04 79.835 79.776 79.732 79.861 84.235 85.694 80.488 79.487 81.816 81.937 79.575 78.175 78.057 80.882 81.357 78.21 78.854 77.57 77.007 76.868 76.547 76.239 76.479 76.759 80.754 81.677 82.55 83.17 82.478 81.619 75.763 75.489 75.315 75.086 75.009 75.586 75.54 74.478 74.355 74.377 74.27 74.428 75.342 77.027 78.841 77.742 76.145 75.774 74.32 74.153 74.112 74.072 74.031 73.94 74.007 81.371 84.887 84.93 83.104 83.679 78.649 73.78 73.609 74.378 73.916 74.7 74.071 73.852 74.531 76.447 73.415 73.706 78.688 78.997 77.326 75.787 77.005 76.741 74.112 73.927 74.901 74.951 75.09 74.432 73.519 73.001 77.349 78.712 78.845 81.957 84.967 82.776 79.25 77.255 74.399 73.127 73.702 82.493 84.198 84.781 84.864 81.474 75.945 73.283 71.926 72.956 76.773 77.749 77.996 78.121 77.986 77.918 76.526 71.658 72.15 79.917 79.371 80.797 84.337 82.769 71.551 72.536 76.582 76.942 75.428 75.137 69.487 69.493 70.889 71.006 70.641 70.751 73.034 71.821 69.132 68.916 68.765 72.653 73.707 74.47 74.881 74.975 74.683 74.492 73.84 73.43 72.572 69.856 69.014 67.126 67.291 67.837 66.588 66.384 66.347 66.296 66.278 66.285 66.288 66.28 66.154 66.119 66.011 67.78 68.249 68.269 68.041 65.547 70.121 72.89 64.996 68.688 66.712 75.298 72.186 75.915 76.868 72.329 71.689 74.207 78.647 77.672 75.833 76.418 77.464 78.295 78.082 75.959 76.713 74.634 69.764 70.805 70.17 60.471 63.69 65.903 70.102 72.927 72.239 74.628 76.654 76.227 65.08 63.125 64.16 64.866 63.06 62.752 62.49 62.302 66.234 67.113 67.638 67.966 68.305 68.645 62.332 62.357 62.436 62.868 63.25 63.292 62.438 62.215 62.221 62.228 62.105 62.188 67.713 75.607 77.706 76.689 78.393 77.917 77.026 74.303 61.962 61.67 61.591 61.663 69.199 70.772 71.476 71.26 62.39 61.477 61.087 60.335 65.927 65.591 72.743
105.229 96.068 97.195 95.264 95.971 95.143 94.851 94.702 93.705 93.72 93.732 93.706 94.609 95.873 94.229 97.475 98.404 95.713 93.464 94.226 94.931 96.93 96.851 96.301 98.103 99.076 98.531 96.178 93.782 92.885 92.818 92.804 92.793 92.431 92.249 92.183 92.112 95.558 95.139 94.996 93.632 92.249 93.661 94.077 92.808 91.749 91.451 91.506 91.47 91.451 91.474 91.38 91.277 91.365 91.299 92.354 91.471 91.276 95.042 97.507 98.479 97.656 95.977 95.981 96.441 95.666 94.343 91.116 90.288 90.056 92.617 91.393 90.155 90.452 90.005 89.93 89.894 90.04 89.83 89.403 90.273 89.861 89.818 89.102 88.455 88.285 88.816 91.772 94.607 96.312 96.477 92.169 94.013 97.509 93.244 89.116 96.222 90.122 89.224 87.054 87.515 86.786 86.954 87.228 88.01 87.087 85.993 85.742 85.702 90.307 90.922 90.333 91.229 85.497 85.406 85.353 85.215 85.074 85.234 85.121 85.169 85.627 85.739 85.076 85.077 85.27 85.16 87.967 89.014 86.259 84.979 84.779 84.334 85.219 84.839 83.885 84.141 83.961 85.485 83.65 83.379 83.403 83.595 83.284 82.992 82.677 82.322 82.108 81.981 82.038 82.033 82.22 82.389 82.796 84.468 85.262 82.674 82.506 84.659 85.564 84.979 84.401 84.471 84.264 84.355 84.098 81.614 82.374 81.69 81.116 80.554 84.367 86.662 87.002 86.478 82.268 80.391 80.267 80.108 79.779 79.649 79.693 81.721 84.398 85.15 82.184 86.619 81.563 81.802 79.71 78.455 78.067 80.628 80.258 78.143 77.273 77.71 78.319 77.034 76.609 76.063 76.149 79.836 81.517 82.711 83.122 82.541 81.68 78.106 76.203 75.362 75.205 74.958 74.685 74.68 74.562 74.335 74.455 78.592 80.986 80.946 77.775 79.455 80.634 79.203 77.892 77.383 75.385 74.305 74.111 73.951 73.924 73.856 73.982 76.396 83.518 83.337 84.337 84.074 81.731 74.971 73.504 73.521 73.624 73.42 73.924 78.105 77.31 74.329 73.235 78.92 80.186 79.771 79.338 78.966 77.544 75.064 73.27 74.758 75.149 74.836 74.667 73.657 72.935 72.921 75.353 74.81 75.355 78.283 80.225 76.102 76.406 77.514 77.903 73.358 75.652 81.983 85.727 84.96 85.822 83.604 81.307 73.898 71.872 71.95 71.917 72.067 76.431 77.742 78.043 78.563 78.143 77.855 73.216 72.351 75.375 80.057 81.403 82.143 72.337 72.782 71.579 75.286 77.969 77.058 75.354 74.281 74.026 70.934 71.008 70.92 72.746 73.156 69.401 68.99 68.798 68.573 68.639 73.66 74.152 73.673 74.178 74.952 74.823 74.262 73.584 72.715 68.865 67.169 67.051 66.938 67.741 66.496 66.316 66.289 66.288 66.333 66.302 66.325 66.267 66.164 66.162 68.451 68.412 68.303 66.114 64.864 64.783 64.566 64.318 68.899 67.927 67.954 79.213 77.942 78.6 77.366 75.594 70.888 73.973 71.95 66.769 65.526 77.014 78.398 78.13 75.729 75.704 72.377 64.901 73.132 73.151 60.899 60.263 68.59 71.397 70.382 75.459 76.424 76.413 66.088 63.413 62.715 62.74 62.383 62.206 62.151 62.036 62.054 68.318 68.416 68.543 68.364 68.243 66.672 62.253 62.481 62.383 62.475 62.37 62.869 62.572 62.279 62.136 62.067 61.99 65.878 67.119 74.15 77.028 78.072 77.872 77.596 77.465 71.809 62.045 61.546 61.609 66.522 70.45 71.29 71.898 71.562 70.864 62.238 61.009 60.184 59.918 64.522 70.782
106.837 107.038 94.736 93.706 95.626 94.319 93.572 93.651 93.695 93.693 93.653 93.641 93.645 93.501 94.039 99.98 102.447 97.155 93.911 93.423 93.997 93.366 93.292 95.819 97.896 99.227 98.478 95.758 93.856 94.333 93.286 92.709 92.487 92.333 92.136 92.099 92.088 95.421 95.524 93.724 92.244 94.197 94.495 92.923 91.894 91.521 91.524 91.451 91.413 91.515 91.466 91.424 91.285 91.207 91.896 91.941 91.869 91.235 92.112 95.989 98.027 94.756 94.469 95.475 97.458 98.015 97.426 91.956 90.642 93.887 95.032 95.563 91.432 89.891 89.886 89.891 89.964 89.828 89.835 89.639 88.982 88.677 88.677 88.327 88.216 88.086 89.012 91.155 92.676 93.984 95.401 92.058 90.78 93.614 90.543 92.425 96.083 96.44 99.207 87.673 87.143 86.929 87.117 88.536 88.528 86.778 85.847 85.754 89.302 89.5 86.662 85.598 85.507 85.666 85.665 85.428 85.241 85.076 85.16 85.097 85.113 85.41 85.922 85.288 88.156 90.887 91.113 91.207 90.885 86.266 84.961 84.782 84.345 87.051 87.531 85.625 84.265 84.317 84.63 88.475 88.611 88.723 88.775 84.639 82.992 87.372 88.153 86.574 82.018 81.989 82.004 82.335 82.391 84.084 85.409 85.293 84.549 84.517 84.474 84.922 84.817 84.688 84.947 85.449 84.173 83.811 81.69 82.483 81.206 80.995 80.652 84.416 86.912 87.155 86.824 84.932 80.367 80.193 80.021 79.738 79.632 79.86 84.128 90.191 95.395 95.946 94.863 82.451 79.414 78.607 82.297 80.539 78.363 77.822 77.376 77.186 77.151 78.467 78.297 77.499 76.215 79.85 81.392 82.551 83.169 82.704 82.071 78.399 75.67 75.326 75.27 74.945 74.731 74.418 74.321 74.327 74.412 79.649 83.352 84.569 84.732 80.631 75.852 77.702 78.324 78.093 85.132 86.767 83.556 74.611 73.86 73.802 73.787 73.704 73.555 79.31 83.415 83.954 83.079 81.153 79.035 73.465 73.463 73.33 74.167 73.421 79.285 78.649 73.546 76.247 78.906 79.989 80.271 80.085 79.67 79.338 78.97 77.079 74.694 75.051 74.612 74.627 72.396 72.893 73.719 74.681 72.881 72.561 72.803 72.917 73.591 73.308 73.693 75.908 73.545 75.401 82.676 83.878 84.323 84.783 83.568 83.068 72.954 71.789 71.781 71.661 71.76 72.183 72.684 77.24 78.003 78.152 74.508 71.368 71.428 73.3 75.067 77.198 77.074 76.308 76.327 71.451 73.799 77.19 76.871 76.423 84.618 83.672 86.031 85.609 83.773 71.677 70.379 69.891 69.069 68.943 68.611 68.44 69.331 69.252 69.466 73.309 74.43 74.41 74.8 74.219 73.619 73.021 71.167 69.536 67.509 66.9 66.736 68.114 66.409 66.324 66.34 66.301 66.306 66.345 68.053 67.355 66.942 68.372 65.889 67.949 66.02 64.847 64.743 64.661 65.279 71.974 76.411 78.046 79.887 80.056 79.415 79.503 73.634 63.82 65.202 66.392 73.734 75.24 75.112 69.824 76.794 76.564 76.499 68.143 71.349 68.192 63.713 64.103 71.009 71.407 72.801 69.74 73.052 72.923 65.566 62.897 62.659 64.902 62.311 62.147 62.126 62.021 62.115 67.961 67.666 67.272 67.084 63.716 63.616 65.073 65.41 62.818 61.546 61.864 62.354 62.54 62.401 62.021 61.937 61.919 61.985 68.476 73.492 76.705 77.694 77.735 76.816 73.134 72.216 62.885 61.529 62.281 69.39 70.907 71.552 71.764 71.158 65.695 61.177 60.707 60.059 59.93 61.783 70.877
104.002 105.758 97.673 93.685 93.697 93.553 97.359 97.359 93.649 93.64 93.584 93.559 93.512 93.37 94.627 101.104 102.678 100.499 95.388 96.448 94.274 93.287 93.197 94.221 98.189 96.49 96.248 95.696 94.038 93.249 93.763 92.526 92.798 92.316 92.061 92.025 91.875 91.787 91.842 91.834 92.122 93.788 92.858 91.643 91.547 91.526 91.476 91.472 91.347 91.444 91.431 91.411 91.257 91.239 91.51 91.196 91.202 91.176 92.772 96.33 94.187 91.921 91.203 92.587 96.525 98.225 96.919 96.623 95.542 97.135 97.796 98.155 97.181 95.205 89.899 90.045 89.946 89.627 88.894 88.645 88.421 88.374 88.255 88.169 88.039 87.939 88.537 88.34 88.945 89.632 90.03 90.346 91.491 91.075 88.2 90.74 96.069 101.751 97.529 88.694 87.063 86.923 86.798 88.502 88.492 86.783 85.871 85.564 89.761 91.813 91.728 91.356 86.535 85.967 88.992 90.685 86.409 85.01 85.032 85.009 85.024 85.199 85.135 85.366 87.952 90.829 91.968 92.034 90.973 88.878 85.588 84.708 84.42 88.068 88.453 84.971 83.475 83.424 83.082 88.888 89.661 89.808 88.787 84.677 85.046 88.66 90.947 89.249 81.985 81.929 81.885 82.078 82.088 82.08 82.171 84.937 84.947 85.027 85.044 86.611 84.972 82.43 82.295 81.859 83.571 86.249 83.823 82.013 82.531 82.38 80.975 81.767 86.008 86.077 86.259 83.051 80.155 79.984 79.929 79.693 79.69 83.077 93.321 93.845 97.203 97.479 96.995 95.153 82.053 79.884 79.661 80.793 78.175 77.509 77.297 77.61 77.752 78.867 78.868 78.332 77.023 81.159 82.623 83.061 82.623 81.721 77.84 76.025 75.22 75.057 74.925 74.977 74.585 74.367 74.264 74.31 74.373 78.422 83.484 84.706 83.58 81.519 75.566 75.37 77.283 78.121 83.817 86.632 84.397 79.478 77.002 73.87 73.688 73.674 73.582 73.492 73.558 75.264 76.2 75.297 76.212 75.859 77.501 73.387 73.239 74.273 77.858 75.515 73.026 73.157 78.582 79.073 79.561 80.114 80.401 80.064 79.741 79.173 73.043 72.453 72.991 72.837 72.403 72.48 74.109 73.508 72.167 72.433 72.346 72.58 73.225 72.645 72.237 72.234 74.683 75.566 82.985 80.438 80.961 76.449 76.023 74.938 71.831 72.123 71.681 71.72 71.616 71.596 71.713 74.583 73.476 77.623 73.125 71.325 71.334 71.139 73.62 76.49 79.093 76.658 75.494 72.737 71.47 71.896 71.224 77.034 80.956 82.749 83.91 86.418 85.049 72.464 69.062 69.791 69.849 68.84 68.709 68.477 68.596 68.296 68.141 68.056 72.074 73.564 73.837 73.834 74.027 73.924 73.242 72.786 70.284 66.989 67.505 67.904 67.001 66.356 66.341 66.334 66.339 66.365 68.175 67.998 68.654 66.11 65.925 69.746 70.386 65.807 64.901 64.593 64.335 65.857 72.176 78.681 77.038 80.181 79.855 79.562 72.226 68.687 70.003 67.799 74.692 76.793 78.66 78.386 74.595 74.359 76.503 68.811 71.731 69.024 66.209 69.6 74.209 74.803 74.218 66.242 67.427 65.546 62.404 62.806 62.581 62.531 62.175 62.318 62.208 62.333 62.34 64.302 65.025 62.936 65.619 66.691 66.741 67.065 67.136 66.653 61.514 61.554 61.73 62.718 62.716 62.004 61.828 61.828 61.748 66.929 72.279 74.35 74.182 74.71 76.047 76.562 75.122 65.326 61.55 63.52 70.603 71.316 71.906 71.462 70.535 61.494 61.014 60.473 59.986 60.316 66.08 66.622
96.255 96.562 94.608 93.697 93.49 97.993 100.02 99.543 97.421 93.425 93.5 93.474 93.428 93.285 95.106 101.547 99.342 95.354 95.862 103.592 106.088 95.53 95.003 93.679 93.752 93.608 94.548 95.196 95.601 93.075 94.757 95.82 96.671 93.88 92.171 91.944 91.846 91.813 91.723 91.639 91.594 91.556 91.567 91.547 91.537 92.459 91.498 91.381 91.349 91.23 91.222 94.532 96.476 95.619 92.252 91.277 91.234 94.823 96.451 97.53 96.951 91.731 91.184 90.974 94.734 95.684 95.83 96.312 96.576 96.828 98.731 99.373 98.905 97.931 90.042 89.732 89.226 88.767 88.48 88.372 88.285 88.209 88.112 87.973 88.064 88.13 87.692 87.6 93.025 90.681 90.173 91.871 92.245 90.241 87.787 87.741 88.403 90.12 88.7 88.579 86.909 86.472 86.72 88.438 88.496 87.996 86.641 85.684 89.955 92.306 92.534 91.415 88.019 85.536 90.286 90.091 85.805 84.999 84.985 85.007 84.995 85.168 85.108 85.019 86.563 90.934 91.89 91.905 90.88 88.822 85.73 85.246 85.012 86.012 86.548 85.81 83.578 83.743 83.159 88.845 89.423 89.341 88.969 86.056 82.857 89.231 89.461 85.056 81.825 81.842 81.865 81.99 82.02 82.047 82.574 82.885 86.345 87.92 88.022 87.992 87.375 82.981 81.868 83.628 86.464 87.395 82.666 83.211 81.944 81.027 79.914 82.777 83.757 84.759 85.361 83.459 81.052 80.148 80.411 79.622 82.288 94.657 96.552 97.291 97.527 97.654 96.807 90.631 83.141 78.907 77.938 78.91 78.631 78.696 77.478 77.111 76.829 77.149 78.63 77.823 76.63 76.716 82.724 82.687 82.124 78.475 75.521 75.313 75.105 74.897 74.804 74.99 74.501 74.236 74.27 74.441 81.457 80.239 81.391 81.814 81.562 76.886 77.293 74.505 74.013 74.129 76.348 84.325 82.329 80.435 79.363 74.906 73.673 73.572 73.531 73.493 73.41 73.362 73.443 73.109 73.047 74.486 78.345 76.105 77.003 77.196 75.759 73.198 72.978 73.225 73.274 74.982 78.673 79.2 79.562 79.928 80.171 74.896 72.707 72.219 75.575 73.358 74.658 74.595 73.264 72.186 72.041 72.375 73.656 73.409 73.612 72.772 72.013 75.345 74.807 82.235 81.532 74.598 71.719 73.109 74.233 71.926 71.546 71.458 71.549 71.817 71.501 71.544 78.099 73.639 72.186 71.169 71.904 72.323 71.365 71.007 75.012 76.548 76.417 76.85 76.691 72.151 70.273 70.06 78.696 82.036 80.303 81.703 86.872 86.372 81.803 73.076 68.409 68.242 70.084 72.334 74.764 72.247 76.498 72.976 71.682 76.218 68.137 69.151 71.983 73.017 73.899 74.074 74.062 73.55 70.643 69.248 67.788 66.929 68.064 66.358 66.324 66.342 66.381 68.513 68.421 67.86 67.503 66.002 69.925 71.761 71.073 70.599 70.155 65.859 64.44 65.46 67.208 75.514 79.16 78.039 77.453 77.37 73.97 71.433 64.399 68.954 70.886 69.658 74.619 63.118 71.119 68.637 69.405 75.462 78.722 74.916 66.139 70.585 68.769 74.303 74.578 68.893 65.447 66.073 68.006 67.225 63.322 62.983 67.22 66.758 63.448 63.627 63.37 63.137 62.499 61.34 66.199 67.437 67.467 67.579 67.355 66.016 62.247 61.995 61.529 61.916 61.826 61.949 61.78 61.692 61.651 61.73 68.969 69.987 70.481 72.478 76.641 76.861 75.885 71.229 62.243 70.484 71.154 71.836 71.498 70.812 69.948 62.201 60.948 60.212 59.88 62.098 66.516 71.032
94.307 93.88 93.727 93.452 95.857 101.526 101.888 100.964 99.683 94.473 93.413 93.338 93.439 99.759 103.155 104.277 95.48 94.985 102.548 106.256 106.986 107.47 104.084 93.956 93.336 92.832 93.214 93.479 98.342 97.445 97.877 99.606 101.295 101.943 95.052 91.842 91.861 91.764 91.708 91.637 91.575 91.537 91.554 91.636 91.646 92.379 91.588 91.359 91.251 92.04 93.93 97.012 98.233 96.994 93.312 91.778 96.249 97.11 97.919 98.266 97.597 93.693 92.551 92.039 90.958 92.858 93.821 96.48 97.626 97.85 99.084 99.967 100.169 98.136 96.719 89.996 88.775 88.442 88.377 88.283 88.183 88.038 87.917 87.817 87.945 87.874 87.556 91.12 93.455 96.169 93.637 98.488 93.186 90.258 87.304 87.859 89.132 87.226 87.535 86.925 86.882 86.823 86.83 86.166 86.132 86.094 86.423 85.503 89.773 92.098 92.156 91.468 87.715 85.455 86.055 85.601 85.041 84.867 84.934 84.902 85.005 85.108 85.087 85.042 85.313 90.676 90.703 90.702 90.569 87.792 85.282 85.551 85.319 85.731 86.586 86.339 83.486 83.879 83.966 88.381 88.403 88.326 88.288 85.878 82.669 82.347 83.089 81.802 81.835 81.77 81.748 81.922 82.015 82.028 82.059 82.088 86.326 88.602 89.142 88.562 87.505 82.817 81.87 81.923 86.152 84.468 81.345 81.074 80.924 80.759 80.248 84.577 85.3 85.25 85.239 81.53 79.807 79.728 79.608 79.528 81 88.649 95.716 96.759 96.278 97.125 93.066 89.249 81.821 80.135 77.704 77.536 77.481 78.387 78.395 77.025 76.781 76.591 76.736 76.833 76.532 76.293 76.075 81.141 81.278 76.33 75.304 75.187 75.071 75.569 75.489 76.218 74.267 74.183 80.736 83.409 83.549 82.204 77.925 81.331 78.824 76.439 73.974 73.892 73.829 73.747 74.244 73.937 76.595 79.456 78.672 76.641 75.208 74.082 73.447 73.357 73.325 73.278 73.192 73.125 73.023 72.878 73.435 76.821 77.592 83.142 76.14 72.774 73.036 73.042 73.075 73.621 74.295 77.2 78.704 79.142 79.647 72.764 72.229 75.64 78.471 78.092 77.731 75.89 75.157 73.17 72.01 73.357 74.144 73.424 73.507 72.107 71.919 72.921 78.856 81.324 80.324 71.848 72.14 73.779 73.551 71.659 71.277 71.279 73.358 71.586 72.192 75.784 79.489 79.877 73.626 73.045 71.277 71.151 71.559 71.576 74.072 74.61 76.151 79.203 77.562 71.077 69.937 69.924 72.656 84.232 84.471 83.065 85.324 85.45 76.283 74.792 73.972 74.427 69.649 73.06 78.383 79.538 79.17 71.895 71.019 76.876 68.998 67.494 68.215 71.414 72.883 73.277 73.814 72.514 70.558 68.168 66.854 66.717 67.007 66.393 66.336 66.347 66.773 69.157 68.168 67.781 65.847 68.04 70.877 71.912 71.811 71.643 70.922 70.456 65.568 64.287 65.935 70.994 75.364 76.961 76.786 69.963 70.811 74.015 76.63 63.816 65.626 71.985 76.651 66.398 67.839 72.182 69.46 71.657 75.292 65.375 61.02 65.472 69.968 72.007 73.444 69.085 63.131 64.661 67.987 65.044 64.159 64.045 64.18 68.368 64.582 61.701 62.178 61.818 61.396 61.398 64.769 66.775 66.677 66.347 66.137 64.205 61.309 61.323 61.457 61.569 61.647 61.759 61.697 61.553 61.521 61.508 62.915 63.655 69.224 73.576 75.838 76.768 73.784 66.889 69.248 71.065 71.659 71.864 71.031 70.308 69.451 61.3 60.815 60.165 59.821 60.496 67.351 70.436
95.075 94.6 93.768 93.339 98.209 100.265 101.479 101.899 100.869 99.78 95.006 93.373 99.59 102.865 104.536 104.897 103.187 102.985 96.521 106.631 107.408 108.212 106.203 98.394 95.391 92.674 92.741 96.471 99.05 100.498 103.35 103.958 105.264 105.942 104.694 92.058 91.822 91.738 91.701 91.685 91.66 91.659 94.081 94.153 92.653 91.588 92.613 91.514 91.222 91.217 92.049 96.68 97.808 97.691 96.785 94.681 97.685 98.248 97.648 97.142 93.669 92.448 92.649 92.398 92.148 92.588 93.605 96.103 97.989 98.541 99.128 98.292 99.166 99.04 91.985 88.911 88.39 90.167 89.004 93.925 88.119 87.839 87.78 87.658 87.632 87.555 87.56 90.636 96.42 93.86 95.985 100.785 99.723 91.045 89.035 88.014 87.483 87.504 87.125 86.872 86.94 86.724 86.762 86.184 86.075 86.052 85.935 85.545 89.558 91.186 91.261 91.391 86.944 85.277 84.982 85.002 84.986 84.827 84.893 84.814 84.926 84.961 84.883 84.853 84.842 86.469 84.973 84.861 84.866 84.744 85.002 84.602 85.365 84.989 85.987 86.492 83.621 83.388 83.009 85.712 85.717 85.75 85.751 85.585 82.621 82.237 81.926 81.732 81.712 81.726 81.754 81.85 81.889 81.94 81.976 82.826 86.621 88.378 88.451 88.365 87.641 83.968 82.687 83.331 83.705 84.047 81.973 81.092 80.921 80.753 80.281 83.746 85.832 85.811 85.871 85.268 79.852 79.811 79.675 79.433 79.296 82.356 83.891 87.812 93.447 94.814 92.892 84.915 82.667 80.87 77.683 77.51 77.428 77.813 77.778 78.118 76.764 76.361 76.05 76.04 78.988 76.198 76.117 75.716 75.859 75.348 75.229 75.116 74.989 76.707 77.799 75.229 74.159 74.142 81.09 85.491 85.359 83.325 78.357 74.595 75.08 73.957 73.887 73.79 73.656 74.266 77.855 74.277 73.768 74.665 75.198 75.339 75.028 73.693 73.49 73.329 73.215 73.158 73.113 73.077 72.995 72.888 72.789 72.69 74.89 81.012 73.484 72.653 72.829 72.924 74.18 73.803 73.686 74.134 74.464 78.324 73.268 72.378 72.288 79.044 79.278 80.127 78.515 77.872 76.946 72.473 73.05 73.968 73.499 71.89 71.646 71.393 71.651 71.72 71.792 73.893 74.796 72.782 73.238 74.001 72.867 71.833 71.074 74.639 76.8 75.349 70.974 70.879 76.709 75.909 75.459 74.387 72.218 70.94 71.9 71.439 73.45 73.397 73.975 77.404 74.848 69.923 69.828 69.798 70.019 75.347 84.323 84.617 79.93 80.369 74.154 73.811 75.623 76.682 72.008 74.386 78.172 81.529 81.82 82.226 73.489 71.364 74.189 69.661 68.241 67.292 68.13 71.625 72.907 69.818 68.349 66.938 66.901 66.716 67.879 66.856 66.393 66.335 66.32 67.018 66.827 67.475 66.65 67.004 70.468 70.967 71.556 71.942 71.779 71.026 68.774 65.439 64.802 64.22 70.888 70.617 64.122 63.836 65.401 72.348 76.823 71.171 74.109 72.099 77.278 74.186 69.433 69.51 69.29 73.709 70.698 68.039 64.561 62.392 71.474 73.792 67.965 62.527 62.28 65.913 68.594 64.791 65.078 65.834 63.498 68.135 62.56 62.909 61.848 61.334 61.258 61.152 61.461 64.098 64.088 63.6 62.095 62.687 61.67 61.164 61.537 61.325 61.357 61.509 61.621 61.554 61.374 61.391 61.287 61.182 67.752 68.311 73.774 75.09 72.143 64.501 63.587 71.401 71.871 71.413 70.59 65.487 61.241 61.081 60.737 60.101 61.224 63.575 67.614 70.558
93.708 93.653 93.635 93.517 93.305 98.104 100.171 101.385 101.948 101.014 99.855 99.262 102.549 104.145 104.743 103.918 102.389 97.384 102.955 104.348 105.756 107.753 106.588 104.827 98.885 94.926 97.155 98.581 99.938 104.526 104.828 106.165 106.255 105.261 104.202 95.141 91.693 91.695 91.739 91.622 94.452 96.765 97.219 95.69 92.939 92.2 91.6 91.499 91.774 92.167 91.142 93.476 97.079 98.138 97.323 95.468 95.186 97.292 94.83 95.4 93.982 92.097 94.564 93.732 92.332 92.261 93.385 94.726 98.156 98.658 98.601 98.521 98.018 97.642 93.856 92.234 96.25 101.544 97.931 99.484 96.814 88.099 87.603 87.539 87.493 87.42 87.37 87.4 91.492 97.263 97.446 92.404 98.416 93.77 93.214 89.456 88.879 87.388 86.828 86.67 86.529 86.468 86.389 87.924 87.976 87.885 86.647 85.296 84.877 86.305 86.498 86.983 86.419 85.467 84.917 84.88 84.902 84.827 84.81 84.801 84.815 84.983 85.868 84.956 87.606 90.32 90.463 90.575 90.537 85.965 84.421 84.307 84.077 84.663 86.33 85.469 85.317 83.047 82.859 83.29 82.783 83.975 84.376 82.684 82.333 81.925 81.723 81.595 81.596 81.606 81.607 81.751 81.726 81.774 81.843 82.079 86.182 87.699 87.517 84.269 83.196 83.761 82.998 85.606 85.223 85.155 81.688 81.046 80.916 80.715 80.427 83.909 86.135 86.842 86.171 85.313 79.843 79.742 79.618 79.378 79.199 79.134 79.164 82.301 84.023 89.96 85.624 81.941 82.548 81.877 78.17 77.464 77.352 77.293 77.2 77.665 78.127 76.624 76.203 76.146 79.971 78.152 76.074 75.791 75.533 75.299 75.159 75.079 74.945 77.76 79.466 75.833 74.091 74.119 74.455 83.604 86.062 86.529 82.304 74.674 73.98 73.81 73.756 73.75 77.463 79.469 79.66 78.244 74.069 73.602 73.568 73.91 73.904 73.454 73.667 73.347 73.442 73.173 73.099 72.978 72.94 72.869 72.834 72.679 72.619 72.848 72.43 72.456 72.844 72.743 73.756 80.794 74.417 73.505 73.085 73.224 72.524 72.301 77.144 78.32 78.725 79.237 79.144 78.684 78.306 77.977 73.154 73.628 72.094 73.371 76.725 75.098 71.455 72.165 71.666 71.565 72.693 72.937 73.297 72.886 71.807 71.288 73.267 75.385 76.336 74.835 70.831 70.832 72.743 74.665 73.114 71.16 71.22 71.797 73.175 73.256 71.016 70.123 70.087 71.774 70.331 69.784 69.732 69.671 69.65 72.049 74.895 80.06 83.105 77.618 75.868 72.891 70.96 73.604 74.167 73.878 77.973 82.169 82.299 82.527 82.164 72.804 75.614 73.451 71.567 67.369 67.223 67.106 67.069 66.941 67.061 66.96 66.848 66.707 67.953 66.442 66.409 66.361 66.304 66.271 66.88 66.195 66.036 66.69 66.4 70.13 70.734 71.066 71.7 70.932 70.514 70.084 68.399 64.853 65.134 63.936 63.234 64.812 70.698 71.553 73.874 74.513 73.006 66.386 72.667 64.643 69.826 63.59 66.998 63.393 71.96 71.208 71.252 67.976 61.075 66.215 64.928 62.309 63.248 67.327 68.124 65.152 63.422 64.022 66.828 63.155 62.417 63.003 61.935 62.583 61.892 62.15 61.715 61.821 61.128 62.367 62.314 62.367 62.48 61.515 61.504 61.205 61.605 61.496 61.483 61.862 61.512 61.258 61.215 61.105 61.02 61.143 67.172 71.766 71.595 70.096 70.635 68.021 71.476 71.028 65.644 62.139 61.164 61.04 60.595 59.882 59.871 67.361 70.597 72.463
93.686 93.638 93.579 93.512 93.462 93.353 98.09 100.336 101.478 102.025 101.679 102.888 104.131 104.726 103.438 102.692 99.849 93.998 94.4 98.055 103.168 103.868 102.949 101.084 106.559 104.169 102.595 102.452 102.232 104.609 105.543 106.001 104.026 103.761 103.662 93.446 91.726 91.605 91.703 92.592 95.861 98.391 98.362 97.287 94.005 91.58 92.69 91.659 92.28 91.454 93.127 92.896 96.194 97.64 97.736 93.1 92.319 92.612 92.268 93.8 93.548 91.984 94.55 93.863 91.249 91.607 90.296 93.362 97.929 99.253 98.459 98.105 96.192 94.181 94.607 95.469 101.131 101.633 101.888 102.489 103.122 92.11 87.487 87.478 87.397 87.331 87.265 91.74 95.964 99.134 97.924 97.436 96.051 96.635 93.674 94.375 96.368 87.428 87.501 86.413 86.343 86.343 87.036 87.913 87.844 87.936 85.414 85.198 84.874 89.515 88.915 89.88 90.493 86.917 86.025 84.953 84.946 84.733 84.752 84.69 84.763 84.882 84.982 85.008 87.664 90.341 91.452 91.637 90.661 86.478 84.232 84.174 84.148 85.419 85.684 86.032 85.603 84.846 86.988 88.042 88.103 88.179 87.218 82.647 82.102 81.692 81.545 81.496 81.548 81.551 81.569 81.5 81.529 81.644 81.646 81.629 82.558 85.853 85.433 85.497 85.421 82.615 81.776 81.531 83.364 84.035 81.904 81.064 80.925 80.855 80.627 81.613 85.871 86.136 85.959 85.344 79.827 79.684 79.541 79.282 79.08 79.033 79.121 81.902 82.331 82.707 78.267 79.742 79.96 81.405 77.449 77.355 77.281 77.218 77.105 77.683 77.462 76.83 76.518 79.986 81.755 82.887 82.941 76.056 75.497 75.152 75.036 74.989 74.828 75.759 75.612 74.619 74.082 74.094 74.229 74.847 74.608 79.832 82.244 81.247 76.23 73.701 73.746 77.495 78.922 79.733 80.036 79.944 77.55 74.058 73.462 73.336 73.271 73.28 73.08 73.063 73.039 73.607 73.456 72.997 72.875 72.813 72.739 72.696 72.641 72.529 72.413 73.492 72.445 72.824 77.591 84.51 82.618 73.642 73.464 72.365 72.219 72.127 74.769 77.006 77.832 78.556 78.944 79.347 79.119 78.803 73.554 71.754 71.349 77.341 77.593 77.264 76.929 75.721 72.668 71.274 72.851 73.239 71.946 70.908 70.98 70.648 70.783 74.024 72.655 71.197 70.71 71.782 72.892 72.668 72.396 70.31 71.076 71.985 72.034 71.361 70.405 70.071 71.658 70.424 69.962 69.733 69.57 69.537 69.575 71.29 69.575 69.169 70.611 77.083 72.755 76.185 77.483 72.355 71.145 69.798 76.906 74.609 76.751 76.417 82.683 82.447 80.8 77.84 70.668 67.348 67.239 67.279 67.201 67.898 67.731 66.973 66.832 68.013 67.357 66.422 66.389 66.364 66.4 66.293 66.838 66.052 65.561 65.32 65.195 65.072 65.983 69.932 70.874 71.304 71.298 71.873 70.305 68.981 65.047 63.467 63.266 65.764 70.445 74.728 75.491 74.652 76.325 67.948 72.585 71.162 65.052 67.966 63.1 69.637 71.989 69.952 74.143 72.335 71.324 72.111 69.332 62.998 66.244 67.07 65.052 66.837 66.192 62.844 63.503 63.007 63.021 63.466 63.53 62.945 63.021 62.071 61.495 60.736 60.593 62.358 64.532 65.163 63.862 60.858 60.954 61.041 61.109 61.19 61.161 61.413 62.073 61.251 61.037 61.026 60.942 60.933 62.884 71.799 72.602 72.568 70.185 64.443 67.138 70.074 62.286 61.272 61.114 60.789 60.229 59.766 61.739 66.168 71.142 73.474
93.748 93.632 93.506 93.471 93.44 93.365 93.245 97.484 100.22 101.56 102.678 104.093 105.031 104.111 102.377 97.051 92.958 94.768 97.679 94.317 94.508 99.865 102.665 109.398 109.731 109.902 107.34 99.12 104.26 104.662 106.21 106.873 102.636 98.762 99.232 92.49 91.674 91.566 92.273 91.965 92.51 97.491 98.686 97.961 96.041 92.139 92.645 91.314 92.283 95.399 97.417 95.543 95.19 93.761 91.299 91.035 91.883 91.614 91.598 90.897 90.977 91.172 93.536 93.895 92.845 90.797 90.795 90.171 94.872 98.266 99.151 98.219 94.356 98.663 99.854 102.542 103.513 103.627 103.577 103.69 102.87 102.426 87.53 87.342 87.245 87.229 88.029 92.769 94.423 95.024 98.525 98.006 97.521 96.324 94.018 94.764 95.222 92.826 87.482 87.229 87.106 86.527 86.298 87.698 87.919 87.549 85.274 86.505 85.036 90.614 91.324 91.433 90.683 85.038 85.034 84.942 84.915 84.718 84.654 84.667 84.739 84.854 84.861 85.499 87.083 89.926 91.546 91.889 90.819 86.451 84.259 84.165 84.107 85.069 85.682 83.585 83.461 82.749 86.656 88.905 89.133 88.773 87.853 82.55 81.981 81.681 81.451 81.445 81.483 81.515 81.52 81.482 81.45 81.575 81.593 81.591 81.628 86.902 87.058 86.955 86.942 83.026 81.745 81.713 81.714 83.626 83.534 83.363 83.05 81.231 80.195 80.448 80.966 81.082 84.14 85.168 79.506 79.301 79.24 79.111 79.022 78.913 79.076 85.634 83.614 82.548 81.001 79.066 78.78 77.711 77.384 77.306 77.22 77.165 77.192 76.583 76.229 76.188 79.697 81.872 82.87 83.167 82.594 81.661 76.878 75.311 74.845 74.739 74.677 74.632 74.017 73.996 74.1 74.106 75.728 75.346 74.248 73.889 79.861 81.262 78.696 74.335 76.487 78.798 79.636 79.892 80.056 79.451 75.052 73.783 73.789 73.395 73.101 72.95 72.814 72.799 72.814 73.007 73.485 73.06 73.41 72.897 72.685 72.625 72.581 72.527 72.442 74.036 74.394 74.293 79.318 80.993 82.56 75.037 72.273 72.092 72.775 72.54 72.93 72.52 72.593 77.625 78.131 78.483 78.897 79.114 71.713 71.327 73.156 78.074 78.404 78.227 77.784 77.343 75.432 75.039 73.177 73.171 71.592 75.256 76.076 70.686 72.114 72.746 71.263 71.59 70.605 70.675 71.307 72.41 72.356 70.317 70.211 70.458 71.933 70.158 70.163 70.126 71.981 71.593 69.633 69.609 69.433 70.835 70.884 70.224 69.065 69.02 69.095 75.173 77.65 76.982 78.873 74.298 72.51 71.939 70.372 74.729 74.54 79.37 83.308 83.492 79.724 79.49 71.15 68.015 67.445 67.259 67.238 67.254 67.165 66.951 67.325 67.187 66.623 66.441 66.42 66.359 66.356 66.269 66.068 65.8 65.612 65.393 65.26 65.104 65.48 67.565 69.923 70.406 71.039 71.377 71.272 70.122 67.989 64.713 63.514 63.114 64.202 71.059 75.364 77.671 77.411 66.209 76.839 71.099 61.623 67.855 70.651 76.181 76.828 69.458 70.18 72.929 70.42 70.537 65.639 62.278 64.738 64.719 72.595 73.647 73.484 71.485 64.055 64.01 63.396 62.216 62.631 61.193 60.883 60.951 61.124 63.54 65.596 66.342 66.382 66.716 66.941 60.958 60.906 60.879 60.883 60.898 60.816 60.993 62.088 61.511 61.127 60.971 60.889 60.839 67.146 70.181 72.742 72.191 70.318 64.563 61.079 61.143 61.139 61.135 60.99 60.677 60.037 59.718 60.499 67.684 70.473 72.816
