ncols 434
nrows 31
xllcorner    433066
yllcorner    431376
cellsize     2
NODATA_value -9999
29.244 29.241 29.202 29.17 29.146 29.07 29.112 29.044 29.137 29.088 29.084 29.019 28.868 28.859 28.834 28.83 28.739 28.762 28.762 28.792 28.848 28.804 28.888 28.918 28.913 28.934 28.998 29.026 29.127 29.047 29.074 29.099 29.026 29.057 29.036 29.132 29.113 29.115 29.101 29.051 29.13 29.177 29.18 29.167 29.213 29.157 29.168 29.193 29.21 29.269 29.292 29.292 29.316 29.204 29.209 29.201 29.201 29.185 29.217 29.229 29.22 29.181 29.034 28.983 29.083 29.061 29.031 29.079 29.106 29.068 29.064 29.039 29.031 29.047 29.048 29.055 28.997 28.956 28.941 28.974 28.984 28.966 29.025 29.155 29.26 29.265 29.285 29.34 29.391 29.424 29.401 29.514 29.548 29.53 31.728 33.685 33.644 33.722 32.82 31.507 30.729 31.137 31.332 31.251 31.202 31.229 31.324 31.197 31.319 31.212 31.377 31.262 31.32 31.505 31.676 31.539 31.549 31.513 31.627 31.495 31.565 31.684 31.763 31.924 31.931 31.867 31.928 31.854 31.685 31.358 31.379 31.44 31.516 31.17 31.01 31.175 31.569 31.244 30.719 30.654 30.909 32.528 35.042 35.984 31.545 31.375 31.305 32.761 31.37 30.44 30.382 29.866 29.805 29.79 29.779 29.787 29.827 29.84 29.866 29.955 31.793 29.971 29.881 29.923 30.677 29.903 29.876 29.884 29.862 29.876 29.806 29.829 30.635 32.008 29.963 31.079 31.029 32.159 32.299 30.482 29.845 31.934 29.947 29.711 29.91 29.839 30.49 29.799 29.808 29.869 29.822 29.846 29.859 29.842 29.902 29.93 29.973 29.974 29.978 30.052 30.106 29.999 30.063 30.15 30.168 30.164 30.155 30.345 30.437 30.407 30.423 30.47 30.59 31.287 31.851 32.205 32.396 32.02 31.91 31.905 31.965 31.94 31.822 31.751 31.741 31.849 31.837 31.858 31.803 31.843 31.798 31.869 31.799 31.804 31.863 31.907 31.955 32.048 32.056 32.094 32.096 32.062 32.081 32.138 32.138 32.147 32.103 32.014 31.978 31.994 32.01 31.987 32.024 31.977 31.953 31.922 31.982 31.957 31.923 31.914 31.903 31.932 31.819 31.815 31.814 31.749 31.719 31.629 31.508 31.382 31.309 31.233 31.147 30.974 30.863 30.772 30.658 30.58 30.478 30.427 30.306 30.118 30.098 29.829 29.784 29.658 29.523 29.465 29.341 29.203 29.03 29.042 29.148 29.508 29.509 29.679 29.666 29.561 29.45 29.479 29.47 29.5 29.52 29.545 29.552 29.636 29.284 28.117 27.358 27.068 28.155 28.019 28.031 27.999 28.006 28.033 29.038 29.124 28.148 28.131 28.14 28.158 28.167 28.11 28.059 28.032 28.041 28.055 28.058 28.092 29.305 28.46 28.05 28.053 28.091 28.1 28.121 28.041 28.125 28.147 28.117 28.063 28.066 28.058 29.031 28.249 28.044 28.014 28.026 28.073 28.069 28.093 26.639 26.868 26.88 26.854 26.836 26.81 26.862 27.11 28.032 26.881 26.859 26.853 26.85 26.835 26.842 26.796 26.79 26.811 26.807 26.771 27.037 27.955 26.94 26.873 26.888 26.858 26.849 26.804 26.85 26.841 26.817 26.858 26.889 26.887 27.8 26.849 26.76 26.738 26.766 26.707 26.766 24.873 25.387 25.718 25.674 25.629 25.802 25.5 26.121 25.404 25.408 25.976 25.683 25.514 25.514 25.487 25.617 25.658 25.658 25.641 25.673 25.531 25.702 25.559 25.527 25.487 25.478 25.484 25.483 25.466 25.473 25.465 25.445 25.485 25.479 25.87 25.66 25.42 25.42 25.415 25.407 25.392
29.15 29.274 29.2 29.138 29.151 29.086 29.045 28.966 28.953 28.953 28.873 28.828 28.797 28.739 28.75 28.716 28.717 28.719 28.755 28.741 28.796 28.726 28.803 28.85 28.915 28.915 28.998 28.973 29.048 29.083 29.071 29.003 29.078 29.075 29.1 29.027 28.921 28.981 28.999 29.034 29.069 29.112 29.085 29.135 29.088 29.088 29.151 29.216 29.23 29.315 29.272 29.302 29.276 29.156 29.158 29.197 29.212 29.19 29.238 29.214 29.207 29.21 29.01 28.994 29.109 29.097 29.054 29.073 29.103 29.099 29.07 29.014 28.964 29 29.028 29.007 29.025 28.969 28.997 29.018 29.05 29.145 29.273 29.233 29.246 29.28 29.347 29.358 29.395 29.397 29.527 29.444 29.559 33.028 34.185 34.051 32.779 31.221 30.685 30.445 30.884 31.235 31.514 31.562 31.221 31.306 31.265 31.255 31.608 31.246 31.328 31.417 31.508 31.505 31.487 31.518 31.48 31.491 31.623 31.545 31.58 31.895 32.125 31.947 32.096 32.183 32.256 31.904 32.098 32.848 32.488 31.758 31.865 31.463 31.361 30.98 33.048 31.301 30.699 30.756 33.294 34.358 35.278 33.369 31.86 31.347 31.38 31.575 30.918 31.535 30.242 29.84 29.775 29.802 29.789 29.796 29.814 29.814 31.324 30.43 30.671 31.249 30.283 29.847 29.871 29.921 29.838 31.085 29.886 29.826 32.058 29.889 31.479 30.554 29.814 30.596 30.244 29.854 30.88 30.633 29.844 29.848 30.297 29.772 30.771 29.812 29.844 29.845 29.863 29.814 29.875 29.843 29.874 29.849 29.89 29.917 29.944 29.968 29.958 29.985 30.056 30.445 30.099 30.175 30.167 30.175 30.284 30.455 30.488 30.416 30.453 30.87 30.891 31.663 32.081 32.334 32.427 31.992 31.892 32.018 32.011 31.989 31.813 31.781 31.872 31.908 31.896 31.955 31.874 31.898 31.844 31.832 31.851 31.813 31.849 31.901 31.971 32.056 32.083 32.103 32.105 32.077 32.072 32.037 32.104 32.064 32.008 32.016 32.013 31.947 31.953 32.011 31.996 31.937 31.958 31.984 31.973 31.961 31.91 31.963 31.902 31.834 31.871 31.886 31.876 31.835 31.811 31.72 31.575 31.589 31.536 31.344 31.227 31.118 31.002 30.944 30.863 30.699 30.619 30.553 30.405 30.292 30.147 30.001 29.914 29.763 29.751 29.578 29.456 29.324 29.226 29.079 29.038 29.082 29.441 29.517 29.554 29.674 29.593 29.557 29.529 29.467 29.488 29.489 29.539 29.6 29.64 29.238 28.528 27.351 26.817 27.99 28.019 28.037 28.039 27.973 28.036 29.158 28.458 28.125 28.144 28.084 28.142 28.172 28.134 28.094 28.094 28.058 28.044 28.052 28.063 29.048 28.407 28.045 28.048 28.09 28.129 28.082 28.103 28.125 28.128 28.111 28.088 28.054 28.107 29.119 28.254 28.038 28.056 28.089 28.089 28.039 27.607 27.234 26.721 26.975 26.84 26.888 26.819 26.874 27.202 27.98 26.93 26.867 26.87 26.83 26.829 26.821 26.821 26.795 26.795 26.775 26.809 27.065 27.714 26.904 26.889 26.829 26.854 26.843 26.846 26.871 26.831 26.881 26.846 26.876 27.057 27.866 27.086 26.746 26.732 26.721 26.72 26.829 25.014 25.482 25.697 25.811 25.415 25.363 25.407 25.392 25.48 26.424 25.854 25.542 25.517 25.468 25.511 25.702 25.644 25.645 25.497 25.555 25.473 25.676 25.559 25.529 25.509 25.494 25.49 25.508 25.46 25.474 25.447 25.463 25.477 25.527 26.357 25.605 25.428 25.409 25.409 25.405
29.088 29.22 29.029 28.937 28.873 28.82 28.873 28.825 28.734 28.754 28.732 28.692 28.69 28.681 28.677 28.734 28.735 28.725 28.77 28.71 28.727 28.728 28.79 28.785 28.85 28.944 28.897 28.813 28.9 28.835 28.896 28.855 28.867 28.875 28.891 28.904 28.899 28.899 28.921 28.952 28.988 29.026 28.971 29.014 29.164 29.147 29.192 29.164 29.245 29.335 29.28 29.301 29.324 29.231 29.169 29.182 29.173 29.163 29.196 29.148 29.115 29.147 29.129 29.083 29.084 29.071 29.061 29.044 29.085 29.05 29.018 29.022 29.001 29.004 28.987 28.982 28.986 29.012 29.029 29.155 29.252 29.24 29.173 29.261 29.272 29.296 29.303 29.357 29.486 29.402 29.645 31.143 33.031 34.054 33.896 32.782 30.673 30.575 30.401 30.74 31.216 31.406 31.404 31.332 31.526 31.519 31.342 31.274 31.357 31.458 31.42 31.587 31.527 31.519 31.483 31.493 31.348 31.518 31.767 31.823 31.702 31.792 32.066 31.932 31.988 32.052 32.227 32.299 32.188 33.05 34.626 32.274 31.69 31.527 31.566 31.241 30.999 30.939 30.844 32.745 35.115 34.187 34.071 31.603 31.629 31.589 31.39 31.079 30.456 30.334 30.24 29.807 29.818 29.805 29.802 29.758 29.758 29.807 30.718 32.834 29.951 29.894 30.082 30.564 29.82 29.978 32.709 29.941 29.88 29.852 29.869 31.986 32.105 30.313 29.824 30.586 29.889 29.836 29.848 29.955 30.613 30.66 30.922 29.838 30.017 29.823 29.87 29.879 29.868 29.863 29.889 29.874 29.874 29.851 29.891 29.915 29.951 29.955 29.991 30.029 31.91 30.337 30.176 30.184 30.189 30.304 30.416 30.514 30.521 30.473 30.398 30.77 31.549 32.846 33.942 32.642 32.316 32.012 31.953 32.087 32.07 31.927 31.842 31.794 31.922 31.889 31.912 31.881 31.876 31.832 31.871 31.878 31.875 31.909 31.91 31.936 31.956 32.03 32.019 32.03 32.04 32.064 32.04 32.035 32.009 31.972 31.977 31.915 31.934 31.945 31.901 31.952 31.926 31.992 31.99 31.959 31.923 31.961 31.981 31.99 31.953 31.945 31.952 31.936 31.874 31.903 31.835 31.781 31.716 31.638 31.58 31.448 31.337 31.239 31.099 31.033 30.964 30.829 30.738 30.635 30.498 30.39 30.376 30.133 30.021 29.937 29.844 29.748 29.629 29.46 29.305 29.246 29.1 29.192 29.071 29.317 29.51 29.562 29.589 29.608 29.54 29.498 29.471 29.501 29.509 29.565 29.558 29.618 29.29 28.051 27.252 27.084 28.01 28.015 28.014 28.072 27.99 27.996 28.314 28.989 28.139 28.157 28.156 28.157 28.125 28.097 28.086 28.036 28.028 28.061 28.041 28.116 29.188 28.201 28.089 28.075 28.142 28.093 28.046 28.08 28.127 28.108 28.131 28.046 28.064 28.075 29.431 28.142 28.035 28.033 28.059 28.069 28.024 27.631 26.168 26.55 26.856 26.855 26.824 26.863 26.912 27.837 27.691 26.916 26.867 26.842 26.81 26.824 26.831 26.806 26.791 26.779 26.799 26.784 27.85 27.263 26.969 26.869 26.824 26.835 26.842 26.858 26.832 26.84 26.845 26.862 26.839 27.162 27.906 26.827 26.723 26.768 26.694 26.707 26.713 24.878 25.75 25.434 25.387 25.41 25.443 25.479 26.46 26.209 25.774 25.534 25.494 25.5 25.512 25.545 25.632 25.621 25.586 25.476 25.486 25.61 25.66 25.602 25.51 25.499 25.484 25.463 25.496 25.508 25.481 25.499 25.504 25.481 25.484 26.165 25.506 25.407 25.436 25.4
28.903 28.971 28.927 28.845 28.794 28.807 29.086 28.735 28.825 28.891 28.668 28.64 28.656 28.617 28.667 28.728 28.723 28.707 28.727 28.718 28.723 28.739 28.811 28.688 28.741 28.771 28.737 28.772 28.807 28.797 28.756 28.81 28.784 28.881 28.889 28.899 28.914 28.852 28.85 28.966 28.987 28.99 29.036 29.109 29.102 29.119 29.145 29.125 29.181 29.196 29.181 29.248 29.239 29.154 29.08 29.063 29.085 29.042 29.081 29.079 29.039 29.021 29.064 29.017 29.01 29.003 28.987 28.978 28.996 28.991 29.001 28.982 28.969 28.998 28.954 29.015 29.074 29.056 29.161 29.234 29.147 29.16 29.191 29.258 29.237 29.281 29.441 29.423 29.456 31.662 33.644 33.554 33.728 32.824 31.635 30.91 30.961 30.761 30.724 30.837 30.962 31.383 31.152 31.41 31.25 31.346 31.39 31.563 31.564 31.696 31.686 31.507 31.525 31.454 31.436 31.475 31.613 31.677 31.787 31.954 31.814 31.743 31.874 31.853 31.89 31.859 32.22 32.085 31.644 32.321 35.258 32.744 31.538 31.457 31.235 31.084 31.046 30.906 30.867 32.69 34.482 32.581 31.698 31.52 33.063 32.554 31.201 30.563 29.999 29.931 29.933 30.937 29.849 29.763 29.805 29.784 29.813 29.804 29.832 29.886 30.248 29.864 29.855 29.92 31.087 30.607 30.592 30.719 30.583 29.856 29.875 30.023 30.364 30.637 29.866 31.912 30.602 29.814 29.89 29.893 29.871 29.814 30.48 29.95 30.292 29.873 29.931 30.24 29.86 29.857 29.845 29.888 29.883 29.908 29.884 29.918 29.981 29.98 29.99 30.386 30.35 30.161 30.172 30.159 30.245 30.434 30.473 30.474 30.507 30.523 30.844 31.724 32.147 32.237 32.91 32.222 32.247 32.034 32.063 32.21 32.317 31.91 31.865 31.861 31.951 31.902 31.891 31.893 31.842 31.89 31.924 31.911 31.926 31.982 31.999 31.974 31.975 31.926 31.971 31.954 32.022 32.105 32.034 32.023 31.979 31.936 31.947 31.914 31.878 31.907 31.935 31.897 31.934 31.969 31.963 31.953 31.963 32.002 31.981 32.028 31.993 31.986 32.022 32 31.928 31.999 31.905 31.825 31.758 31.729 31.649 31.598 31.445 31.289 31.232 31.142 31.096 30.956 30.939 30.778 30.679 30.529 30.421 30.298 30.181 29.972 29.943 29.827 29.733 29.578 29.458 29.322 29.205 29.051 28.971 28.923 29.344 29.541 29.618 29.584 29.684 29.603 29.503 29.468 29.494 29.506 29.519 29.609 29.547 29.207 28.088 27.284 28.04 28.013 28.011 28.004 28.069 28.012 28.302 29.114 28.368 28.114 28.142 28.138 28.164 28.134 28.1 28.07 28.002 28.016 28.024 28.059 28.055 29.39 28.358 28.247 28.105 28.087 28.095 28.071 28.083 28.115 28.095 28.12 28.078 28.063 28.121 29.285 28.071 28.06 28.074 28.112 28.119 28.126 27.656 27.185 27.014 26.82 26.882 26.85 26.85 26.822 27.233 27.365 26.857 26.848 26.856 26.79 26.838 26.868 26.794 26.82 26.802 26.805 26.807 27.609 27.317 26.92 26.809 26.804 26.839 26.832 26.845 26.806 26.834 26.855 26.854 26.852 27.188 27.796 26.803 26.764 26.709 26.751 26.789 26.177 25.441 25.39 25.419 25.382 25.478 25.512 25.573 25.539 25.914 25.639 25.571 25.622 25.538 25.557 25.605 25.626 25.593 25.506 25.511 25.514 25.516 25.69 25.558 25.484 25.513 25.49 25.461 25.483 25.489 25.502 25.465 25.466 25.477 25.524 26.367 25.447 25.409 25.386
28.904 28.845 28.815 28.768 28.744 28.675 28.749 28.663 28.63 28.588 28.551 28.589 28.574 28.566 28.62 28.664 28.615 28.524 28.575 28.674 28.689 28.613 28.588 28.644 28.561 28.619 28.631 28.738 28.774 28.839 28.774 28.776 28.811 28.879 28.883 28.89 28.75 28.761 28.856 28.886 28.897 28.937 28.976 28.961 28.997 29.043 29.059 29.088 29.071 29.034 29.149 29.121 29.189 29.025 29 28.942 28.951 28.994 28.98 28.893 28.906 28.891 28.851 28.87 28.852 28.864 28.828 28.877 28.907 28.991 28.959 28.946 28.996 29.03 28.996 29.061 29.195 29.177 29.093 29.152 29.209 29.199 29.244 29.217 29.233 29.334 29.387 31.544 33.558 34.422 33.854 32.333 31.842 31.541 31.254 30.889 30.779 30.927 31.083 30.914 31.019 30.991 31.072 31.151 31.206 31.284 31.346 31.493 31.486 31.469 31.617 31.482 31.411 31.35 31.35 31.388 31.483 31.74 31.739 31.658 31.617 31.732 31.81 31.895 31.866 32.044 32.244 32.108 31.55 31.542 32.848 31.43 31.611 31.395 31.201 31.2 31.155 31.115 30.98 31.166 31.22 31.304 31.436 31.528 32.38 31.757 30.427 30.138 29.891 30.055 29.981 29.892 30.934 29.848 29.827 29.817 29.845 29.804 29.826 29.835 29.858 29.849 29.824 29.859 29.918 30.577 29.862 29.865 29.962 30.121 29.831 29.893 29.941 33.011 31.616 32.681 30.606 29.81 29.834 29.788 29.951 29.861 31.049 30.929 29.834 29.914 30.288 29.869 29.853 29.842 29.855 29.84 29.846 29.897 29.839 29.927 29.981 30.005 30.074 30.104 30.18 30.184 30.14 30.206 30.37 30.454 30.56 30.494 30.583 30.552 31.518 31.91 32.106 31.955 31.905 32.118 32.247 32.155 32.13 32.056 31.988 31.995 31.97 31.962 31.961 31.891 31.852 31.902 31.891 32.031 32.001 31.938 31.952 32.011 32.026 32.014 31.989 31.941 31.922 31.963 31.977 32.027 32.127 32.029 32.012 32.023 31.999 31.947 31.989 31.894 31.913 31.992 31.905 31.909 31.975 31.95 31.939 31.968 32.033 32.024 32.046 32.046 32.009 32.025 32.058 32.005 32.006 31.952 31.888 31.829 31.773 31.656 31.54 31.439 31.383 31.241 31.169 31.068 30.995 30.881 30.753 30.633 30.55 30.406 30.307 30.231 30.067 29.909 29.771 29.621 29.591 29.437 29.257 29.089 28.964 28.932 29.003 29.447 29.516 29.633 29.61 29.627 29.594 29.579 29.472 29.538 29.485 29.546 29.589 29.544 28.905 27.919 27.158 28.019 28.063 28.006 28.041 28.04 28.029 28.018 29.158 28.202 28.181 28.149 28.153 28.126 28.139 28.201 28.081 28.061 28.069 28.063 28.001 29.481 29.224 28.162 28.082 28.094 28.121 28.079 28.103 28.1 28.143 28.127 28.078 28.061 28.058 28.288 29.168 28.148 28.059 28.118 28.1 28.101 28.103 27.729 26.1 26.901 26.836 26.848 26.853 26.862 26.873 27.948 27.002 26.906 26.873 26.828 26.918 26.834 26.798 26.795 26.802 26.798 26.789 26.807 27.594 27.378 26.91 26.822 26.812 26.803 26.828 26.777 26.77 26.834 26.825 26.837 26.835 27.49 27.7 26.905 26.823 26.803 26.49 25.592 25.442 25.423 25.449 25.512 25.524 25.542 25.578 25.568 25.646 25.962 25.733 25.563 25.551 25.586 25.606 25.591 25.612 25.551 25.469 25.476 25.465 25.497 25.63 25.499 25.511 25.502 25.498 25.487 25.465 25.475 25.498 25.468 25.518 26.384 25.85 26.049 25.505 25.45
28.79 28.713 28.648 28.648 28.562 28.467 28.542 28.476 28.402 28.421 28.408 28.465 28.414 28.395 28.49 28.426 28.406 28.405 28.517 28.386 28.486 28.483 28.547 28.465 28.542 28.559 28.67 28.706 28.65 28.695 28.609 28.684 28.611 28.606 28.66 28.641 28.721 28.753 28.908 28.894 28.861 28.798 28.792 28.832 28.871 28.872 28.967 28.992 29.024 29.08 29.1 29.027 29.078 28.97 28.911 28.836 28.815 28.799 28.813 28.778 28.694 28.744 28.738 28.702 28.705 28.712 28.697 28.771 28.798 28.876 28.883 28.99 29.005 29.047 29.085 29.133 29.154 29.044 29.079 29.131 29.163 29.184 29.281 29.303 29.239 29.407 32.473 34.167 34.279 33.707 31.508 31.556 31.254 31.442 30.845 30.75 30.79 30.959 31.087 31.027 30.946 30.939 31.127 31.232 31.201 31.338 31.432 31.416 31.696 31.616 31.558 31.462 31.594 31.463 31.319 31.255 31.278 31.382 31.501 31.57 31.784 31.725 31.767 31.776 31.781 32.01 31.859 31.726 31.511 31.417 31.478 31.472 31.397 31.247 31.306 31.264 31.275 31.152 31.067 31.295 31.388 31.407 31.474 32.99 32.145 31.018 31.1 30.092 30.02 29.995 29.968 29.885 29.849 29.872 29.875 29.856 29.859 29.852 29.811 29.863 29.823 29.83 29.877 30.891 31.072 29.803 31.988 29.902 31.584 30.988 29.828 29.812 30.329 29.838 30.272 30.23 30.277 29.823 30.222 29.827 31.113 29.808 29.833 29.846 31.278 31.687 31.182 31.446 30.362 29.834 29.819 29.794 29.84 29.831 29.878 29.925 29.987 30.051 30.116 30.132 30.245 30.143 30.211 30.308 30.41 30.507 30.522 30.551 30.743 31.456 31.948 32.272 31.946 31.937 31.843 32.031 32.117 32.192 32.128 32.064 32.12 32.061 31.984 31.894 32.028 31.993 31.946 31.934 31.983 31.908 31.937 31.939 31.982 32.021 32.034 32.03 32.04 31.982 31.968 31.962 31.989 31.996 32.045 31.991 31.97 31.928 31.884 31.94 31.915 31.948 31.844 31.856 31.853 31.89 31.909 32.022 31.911 31.928 32.029 32.062 32.08 32.042 32.067 32.025 32.071 32.101 32.045 31.985 31.942 31.876 31.837 31.73 31.629 31.571 31.503 31.345 31.306 31.184 31.093 31.025 30.909 30.793 30.697 30.584 30.454 30.352 30.195 29.964 29.836 29.778 29.673 29.482 29.339 29.171 29.075 28.92 28.961 29.091 29.343 29.619 29.646 29.57 29.55 29.575 29.427 29.471 29.495 29.512 29.523 29.554 29.52 28.943 27.888 27.139 27.933 28.022 28.032 28.077 28.05 28.02 28.069 29.206 28.403 28.132 28.122 28.14 28.121 28.099 28.087 28.053 28.055 28.052 28.028 28.134 28.273 29.063 28.185 28.062 28.065 28.088 28.086 28.089 28.066 28.088 28.119 28.148 28.043 28.071 28.313 29.157 28.079 28.087 28.087 28.063 28.053 28.044 27.654 26.115 26.885 26.858 26.845 26.809 26.834 26.88 27.886 27.408 26.897 27.047 26.876 26.828 26.811 26.8 26.786 26.79 26.792 26.771 26.776 27.93 27.258 26.89 26.772 26.8 26.788 26.803 26.777 26.856 26.824 26.812 26.825 26.838 27.253 27.633 27.067 25.263 25.643 25.668 25.499 25.473 25.553 25.75 25.716 25.487 25.51 25.48 25.858 25.666 26.047 25.619 25.628 25.527 25.534 25.53 25.594 25.626 25.499 25.49 25.483 25.448 25.432 25.65 25.53 25.482 25.523 25.5 25.49 25.472 25.473 25.495 25.903 25.507 25.485 25.767 25.895 25.391
28.613 28.538 28.508 28.437 28.367 28.348 28.322 28.347 28.327 28.264 28.22 28.248 28.212 28.247 28.26 28.292 28.252 28.254 28.269 28.286 28.374 28.297 28.376 28.395 28.45 28.387 28.379 28.399 28.425 28.418 28.478 28.497 28.435 28.494 28.493 28.486 28.523 28.564 28.536 28.736 28.793 28.724 28.864 28.672 28.844 28.809 28.923 28.918 28.886 28.929 28.969 28.968 28.949 29.019 28.849 28.731 28.641 28.636 28.637 28.609 28.587 28.583 28.6 28.613 28.579 28.611 28.67 28.708 28.781 28.84 28.865 28.927 29.03 29.049 29.018 28.994 29.048 29.084 29.14 29.089 29.243 29.285 29.354 29.433 32.944 34.421 34.048 33.598 32.219 30.824 30.521 30.781 30.978 30.9 30.744 30.786 31.04 31.095 31.036 30.935 30.892 30.859 31.184 31.168 31.173 31.278 31.405 31.431 31.578 31.594 31.694 31.682 31.542 31.193 31.138 31.108 31.201 31.261 31.347 31.488 31.515 31.558 31.618 31.686 31.624 31.689 31.674 31.602 31.462 31.432 31.438 31.68 31.554 31.342 31.521 31.411 31.439 31.36 31.452 31.333 31.464 31.412 32.336 32.244 31.09 30.004 30.381 29.92 30.091 29.953 29.988 29.878 29.868 29.86 29.896 30.21 29.851 29.843 29.85 29.906 29.853 29.855 29.85 29.782 29.861 29.826 29.832 32.122 32.047 30.113 29.856 29.84 29.842 29.852 29.833 29.828 29.842 29.848 30.239 29.825 29.895 29.867 29.82 29.849 29.835 32.773 29.916 31.529 31.639 29.883 29.842 29.812 29.823 29.861 29.869 29.964 30.023 30.659 30.129 30.171 30.189 30.193 30.323 30.398 30.435 30.549 30.563 30.736 31.16 31.852 32.016 33.015 31.808 31.759 31.856 32.054 32.125 32.149 32.149 32.073 31.967 31.975 31.959 31.914 31.945 32.004 31.989 31.938 31.934 31.963 31.912 31.915 32.002 32.007 32.026 31.987 31.996 31.913 31.962 31.982 31.953 31.987 32.036 32.058 31.964 31.917 31.885 31.875 31.884 31.867 31.845 31.822 31.849 31.829 31.892 31.933 31.909 31.914 32.006 32.062 32.076 32.078 32.04 32.03 32.079 32.088 32.082 32.023 32.081 31.971 31.864 31.806 31.743 31.671 31.625 31.587 31.435 31.346 31.251 31.111 31.037 30.984 30.856 30.691 30.567 30.411 30.317 30.13 30.002 29.857 29.793 29.59 29.415 29.196 29.14 28.975 28.899 28.919 29.153 29.433 29.574 29.536 29.427 29.56 29.587 29.475 29.482 29.513 29.495 29.544 29.618 29.464 28.732 27.951 27.017 28.14 28.051 28.036 28.086 28.055 28.033 28.024 29.005 28.372 28.141 28.148 28.114 28.133 28.097 28.149 28.092 28.064 28.015 28.041 28.028 28.28 29.375 28.129 28.009 28.018 28.049 28.078 28.043 28.092 28.118 28.086 28.119 28.057 28.052 28.278 29.117 28.131 28.089 28.08 28.09 28.039 28.093 26.184 25.778 26.829 26.843 26.842 26.859 26.85 26.865 27.907 27.962 26.895 26.867 26.818 26.792 26.806 26.795 26.821 26.803 26.786 26.815 26.822 27.847 27.162 26.83 26.805 26.798 26.795 26.811 26.786 26.804 26.842 26.839 26.805 26.801 28.802 25.553 24.47 25.913 25.711 25.57 26.706 27.173 24.972 25.265 25.49 25.475 25.441 25.622 25.506 25.638 26.168 25.582 25.522 25.53 25.541 25.59 25.597 25.555 25.5 25.433 25.417 25.431 25.561 25.663 25.447 25.464 25.505 25.464 25.503 25.451 25.489 25.483 25.421 25.472 25.49 25.705 26.211
28.566 28.458 28.327 28.249 28.229 28.272 28.309 28.25 28.219 28.231 28.086 28.08 28.109 28.082 28.091 28.161 28.135 28.198 28.239 28.191 28.179 28.206 28.426 28.299 28.415 28.311 28.318 28.261 28.26 28.29 28.263 28.424 28.354 28.396 28.36 28.405 28.441 28.433 28.468 28.549 28.55 28.547 28.61 28.651 28.683 28.697 28.766 28.887 28.844 28.903 28.964 28.883 28.872 28.868 28.659 28.561 28.49 28.481 28.488 28.465 28.443 28.498 28.528 28.549 28.591 28.656 28.664 28.737 28.792 28.851 28.933 28.991 28.93 28.944 29.01 29.044 29.074 29.076 29.152 29.189 29.341 29.591 32.003 33.852 33.797 33.189 33.305 30.487 30.451 30.528 30.587 30.546 30.513 30.628 30.823 30.98 31.039 30.981 30.949 30.846 30.818 30.817 30.867 30.97 31.331 31.147 31.57 31.661 31.591 31.515 32.081 31.426 31.247 31.043 31.072 31.045 31.076 31.122 31.177 31.345 31.412 31.435 31.488 31.546 31.521 31.597 31.573 31.483 31.437 31.492 31.449 31.618 31.59 31.57 34.307 32.081 31.656 31.474 31.597 31.538 31.468 32.947 32.833 31.991 31.178 29.926 30.375 29.929 29.933 30.655 29.921 29.958 29.88 29.883 29.892 30.929 29.883 29.885 29.847 29.851 29.882 29.834 29.83 29.888 30.613 29.824 29.822 29.854 30.104 29.959 32.111 29.921 30.42 29.868 29.914 29.851 30.584 29.87 29.976 30.666 32.947 29.99 29.875 29.86 29.887 29.849 31.278 30.937 29.88 29.868 29.848 29.991 33.445 29.939 29.936 29.955 30.484 30.112 30.143 30.171 30.175 30.309 30.424 30.462 30.5 30.576 30.629 30.955 31.68 31.952 32.805 32.995 31.854 31.862 31.987 32.134 32.173 32.14 32.144 32.114 31.911 32.043 31.919 31.906 32.002 31.976 32.005 32.027 32.001 31.954 31.946 31.94 31.968 31.989 31.973 31.962 31.905 31.819 31.872 31.908 31.909 31.942 31.984 31.944 31.93 31.886 31.848 31.897 31.862 31.858 31.823 31.859 31.849 31.84 31.848 31.879 31.889 31.944 32.059 32.043 32.06 32.085 32.059 32.112 32.144 32.143 32.066 32.034 32.06 32.039 31.977 31.881 31.881 31.752 31.696 31.62 31.538 31.429 31.37 31.307 31.202 31.139 30.972 30.785 30.659 30.413 30.268 30.24 30.151 30.015 29.838 29.649 29.501 29.351 29.227 29.126 28.957 28.904 29.827 29.199 29.35 29.629 29.661 29.663 29.575 29.57 29.449 29.504 29.548 29.505 29.507 29.741 29.458 28.827 27.891 27.135 27.881 27.99 28.026 28.084 28.04 28.033 28.315 29.191 28.636 28.143 28.135 28.145 28.145 28.154 28.137 28.058 28.048 28.002 28.051 28.001 28.437 28.902 28.068 28.059 28.042 28.083 28.062 28.039 28.088 28.143 28.141 28.107 28.061 28.078 29.083 28.748 28.058 28.078 28.068 28.079 28.04 28.005 27.342 26.211 26.838 26.864 26.892 26.816 26.84 27.313 28.587 27.237 26.877 26.813 26.845 26.822 26.837 26.802 26.8 26.842 26.799 26.872 26.806 27.918 27.215 26.808 26.843 26.811 26.799 26.831 26.846 26.851 26.86 26.841 26.996 28.958 26.579 26.11 25.909 25.814 25.733 25.736 26.798 26.804 24.684 25.589 25.467 25.462 25.442 25.454 25.448 25.649 26.042 25.626 25.508 25.505 25.514 25.494 25.497 25.483 25.454 25.427 25.417 25.441 25.502 25.66 25.537 25.492 25.436 25.471 25.462 25.472 25.464 25.455 25.479 25.479 25.489 25.963
28.33 28.375 28.381 28.186 28.126 28.171 28.128 28.047 28.083 27.98 27.967 28.075 27.939 27.985 28.002 27.986 28.038 28.022 28.093 28.128 28.193 28.082 28.018 28.24 28.117 28.072 28.189 28.156 28.121 28.135 28.154 28.178 28.214 28.284 28.29 28.31 28.375 28.333 28.406 28.36 28.443 28.457 28.475 28.505 28.586 28.654 28.679 28.67 28.739 28.802 28.754 28.684 28.736 28.769 28.538 28.468 28.353 28.376 28.374 28.367 28.371 28.411 28.497 28.51 28.605 28.625 28.682 28.711 28.824 28.941 28.932 28.935 28.95 28.97 28.99 28.991 28.975 29.136 29.285 29.408 31.901 32.296 33.652 33.997 31.252 30.006 30.352 30.342 30.485 30.553 30.577 30.582 30.614 30.827 31.03 30.985 31.009 31.081 30.862 30.796 30.847 30.916 30.918 31.041 31.133 31.326 31.581 33.123 32.952 32.103 31.471 31.287 31.122 31.055 31.082 31.111 31.005 31.074 31.107 31.18 31.296 31.225 31.3 31.367 31.5 31.445 31.375 31.496 31.408 31.438 31.444 31.615 31.629 34.818 35.687 32.529 31.949 31.728 31.563 31.48 32.776 32.809 31.864 30.531 30.689 29.978 29.924 29.897 29.932 29.91 29.899 29.858 29.835 29.828 29.827 29.846 29.951 30.104 29.851 29.829 29.814 29.853 29.854 29.823 29.823 29.836 29.848 29.886 29.889 30.338 29.901 31.966 30.883 32.041 29.907 29.857 29.889 29.889 32.291 30.742 30.277 30.277 29.837 30.049 29.857 29.821 29.838 30.011 29.843 29.811 29.754 29.784 30.232 29.861 29.982 30.454 30.129 30.161 30.151 30.206 30.315 30.409 30.511 30.524 30.573 30.76 30.781 31.661 32.076 31.751 31.785 31.745 31.822 31.88 32.087 32.258 32.251 32.16 32.084 32.077 31.963 31.951 31.895 31.875 31.844 31.876 31.922 31.993 32.008 32.026 32.01 31.978 31.953 31.934 31.891 31.867 31.845 31.79 31.792 31.772 31.796 31.86 31.859 31.929 31.836 31.856 31.839 31.855 31.868 31.818 31.854 31.874 31.843 31.86 31.843 31.896 31.91 31.958 31.966 32.014 32.124 32.111 32.17 32.162 32.129 32.113 32.059 32.039 32.089 32.027 32.07 32.029 31.976 31.891 31.84 31.76 31.666 31.546 31.487 31.484 31.408 31.265 31.066 30.823 30.67 30.576 30.482 30.357 30.322 30.069 29.951 29.771 29.639 29.572 29.374 29.161 29.065 28.984 28.898 28.901 29.2 29.248 29.576 29.671 29.596 29.587 29.538 29.491 29.479 29.485 29.526 29.554 29.712 29.436 28.635 27.682 27.005 28.201 28.046 28.063 28.062 28.008 28.034 28.138 29.418 28.367 28.157 28.128 28.145 28.147 28.135 28.076 28.051 28.017 28.03 28.002 28.061 28.284 28.518 28.111 28.042 28.053 28.087 28.053 28.047 28.097 28.108 28.122 28.109 28.04 28.039 28.367 28.554 28.104 28.079 28.092 28.085 28.059 28.062 27.589 25.859 26.789 26.86 26.857 26.989 26.832 27.118 27.888 26.958 26.894 26.848 26.821 26.803 26.804 26.824 26.852 26.835 26.822 26.855 26.829 28.161 26.984 26.873 26.87 26.8 26.839 26.855 26.828 26.869 26.932 26.526 26.975 26.126 26.068 26.078 26.307 26.118 26.733 26.695 26.608 26.705 24.553 25.626 25.479 25.473 25.457 25.469 25.434 25.769 25.829 25.612 25.504 25.466 25.487 25.492 25.454 25.493 25.456 25.446 25.462 25.475 25.633 25.683 25.554 25.465 25.427 25.452 25.51 25.489 25.457 25.467 25.474 25.481 25.493
28.16 28.119 28.087 28.075 28.033 27.957 28.004 27.914 27.93 27.747 27.793 27.817 27.821 27.795 27.859 27.865 27.935 27.946 28.014 27.938 27.955 27.966 27.927 27.916 27.99 27.949 27.969 27.934 27.983 28.016 28.107 28.154 28.084 28.152 28.179 28.188 28.231 28.259 28.323 28.36 28.351 28.489 28.477 28.447 28.622 28.605 28.571 28.548 28.556 28.578 28.663 28.61 28.593 28.561 28.384 28.308 28.265 28.275 28.257 28.328 28.362 28.409 28.432 28.52 28.564 28.653 28.707 28.806 28.895 28.862 28.802 28.873 28.911 28.947 28.931 29.058 29.167 29.219 30.774 32.104 33.072 32.285 31.283 31.071 30.058 30.122 30.388 30.747 30.616 30.667 30.691 30.749 30.845 30.996 31.025 31 30.972 30.881 30.904 30.839 30.983 31.266 31.304 31.568 31.727 31.405 31.894 34.87 35.101 33.277 31.722 31.284 31.264 31.015 31.121 31.166 31.013 31.086 31.301 31.146 31.192 31.222 31.387 31.305 31.301 31.345 31.597 31.477 31.503 31.423 31.594 32.037 31.786 34.069 34.849 32.361 31.793 31.723 31.569 31.555 33.129 31.695 30.8 29.971 29.915 29.905 29.927 30.068 35.279 30.972 29.936 31.049 30.713 29.884 29.812 29.843 29.871 30.961 33.276 29.921 29.826 29.856 29.858 29.864 29.734 29.836 29.823 29.849 29.884 29.873 30.376 31.852 30.001 30.625 29.959 30.502 29.918 29.853 29.883 29.844 30.62 31.406 32.706 29.919 29.861 29.874 29.957 31.305 31.257 31.294 29.844 29.838 29.847 29.907 30.022 30.309 30.171 30.146 30.193 30.333 30.455 30.444 30.556 30.624 30.738 30.958 31.427 32.194 32.238 31.913 31.738 31.754 31.851 31.978 32.107 32.157 32.175 32.266 32.122 32.088 32.105 32.102 31.933 31.886 31.884 31.917 31.955 32.014 32.007 32.026 32.019 31.972 31.854 31.909 31.851 31.778 31.847 31.849 31.814 31.744 31.715 31.673 31.758 31.735 31.786 31.847 31.921 31.889 31.887 31.873 31.804 31.803 31.791 31.786 31.858 31.867 31.912 31.906 31.966 32.085 32.108 32.187 32.162 32.169 32.115 32.172 32.116 32.071 32.053 32.062 32.09 32.089 32.063 32.017 31.905 31.846 31.777 31.75 31.693 31.551 31.399 31.283 31.141 30.973 30.852 30.64 30.546 30.473 30.345 30.268 30.089 29.936 29.799 29.632 29.544 29.396 29.195 29.145 29.092 28.934 29.228 29.187 29.319 29.72 29.677 29.621 29.611 29.492 29.498 29.528 29.548 29.459 29.539 29.633 29.406 28.681 27.576 26.832 28.177 27.996 27.975 28.02 28.075 28.076 28.367 29.173 28.157 28.155 28.134 28.171 28.122 28.05 28.045 28.046 28.024 28.003 28.005 27.964 28.733 29.126 28.058 28.025 28.058 28.074 28.048 28.205 28.103 28.112 28.133 28.089 28.062 28.034 28.323 28.679 28.102 28.102 28.059 28.054 28.047 27.679 26.463 26.896 26.865 26.834 26.859 26.878 26.839 27.109 27.681 27.228 26.853 26.795 26.817 26.77 26.807 26.793 26.799 26.831 26.764 26.78 26.827 28.173 26.975 26.876 26.836 26.866 26.81 26.834 27.032 26.643 26.395 26.314 26.232 26.243 27.59 27.655 26.77 26.72 26.741 26.765 27.223 26.614 24.463 25.551 25.465 25.465 25.476 25.419 25.431 25.694 26.139 25.622 25.517 25.495 25.488 25.486 25.482 25.483 25.467 25.483 25.491 25.477 25.604 25.652 25.502 25.434 25.433 25.504 25.521 25.466 25.452 25.457 25.46 25.474
27.866 27.813 27.818 27.832 27.76 27.732 27.7 27.612 27.596 27.626 27.58 27.626 27.776 27.723 27.754 27.805 27.799 27.881 27.956 27.86 27.832 27.858 27.825 27.849 27.841 27.827 27.847 27.791 27.911 27.921 28.007 28.14 28.151 28.181 28.198 28.18 28.204 28.259 28.203 28.27 28.279 28.324 28.382 28.443 28.464 28.393 28.419 28.495 28.399 29.662 30.28 29.435 28.901 28.447 28.281 28.163 28.153 28.176 28.251 28.357 28.408 28.428 28.481 28.536 28.584 28.692 28.806 28.757 28.779 28.8 28.825 28.836 28.885 28.977 28.999 29.092 29.359 32.624 34.116 34.011 32.701 30.705 30.424 30.363 30.497 30.738 30.765 30.718 30.728 30.777 30.805 30.828 30.939 31.078 31.133 30.971 30.857 30.869 30.781 31.068 31.436 31.369 31.291 31.579 31.633 31.437 31.223 31.914 33.551 31.667 31.348 31.206 31.129 31.117 31.065 31.038 31.211 31.259 31.148 31.191 31.312 31.277 31.222 31.115 31.212 31.43 31.597 31.561 31.494 34.418 35.026 36.002 34.628 31.708 32.335 32.069 31.684 31.554 33.028 33.904 32.613 30.941 30.349 29.901 29.942 29.907 30.071 31.238 31.161 31.72 29.914 30.186 29.865 29.851 29.905 29.855 29.839 29.987 30.014 29.842 29.857 29.823 29.814 29.918 29.883 29.792 29.986 33.527 29.923 29.864 29.838 30.356 30.637 30.603 29.875 30.047 29.853 29.839 29.877 29.883 29.924 32.549 30.267 31.289 30.251 29.871 29.842 30.527 29.811 29.884 29.852 29.918 29.921 30.423 30.101 30.144 30.852 30.158 30.274 30.412 30.538 30.609 30.645 30.66 33.281 34.969 31.996 31.731 31.702 31.672 31.765 31.865 31.939 32.033 32.16 32.106 32.267 32.189 32.103 32.17 32.18 32.231 32.026 31.952 31.893 31.936 31.921 31.945 31.945 31.91 31.917 31.921 31.86 31.87 31.859 31.805 31.662 31.68 31.714 31.636 31.629 31.608 31.578 31.654 31.664 31.767 31.782 31.809 31.885 31.797 31.849 31.884 31.869 31.849 31.869 31.822 31.868 31.896 32.003 32.04 32.118 32.105 32.165 32.136 32.124 32.109 32.102 32.112 32.054 32.062 32.043 32.045 32.11 32.005 31.906 31.921 31.851 31.865 31.78 31.646 31.55 31.368 31.277 31.203 31.011 30.868 30.728 30.544 30.443 30.338 30.216 30.065 29.958 29.776 29.657 29.559 29.309 29.297 29.173 29.062 28.831 28.964 29.102 29.363 29.694 29.645 29.567 29.498 29.439 29.446 29.513 29.489 29.533 29.553 29.639 29.407 28.488 27.6 27.405 28.041 27.972 28.092 27.97 27.98 27.997 28.293 28.768 28.17 28.145 28.136 28.154 28.155 28.123 28.037 27.992 28.007 27.98 27.982 28.024 28.605 29.2 28.002 28.033 28.09 28.101 28.098 28.07 28.084 28.1 28.099 28.092 28.018 28.043 28.538 29.034 28.078 28.119 28.082 28.094 28.051 28.016 25.761 26.673 26.937 26.856 26.851 26.835 26.874 26.889 28.038 26.93 26.876 26.83 26.819 26.782 26.765 26.796 26.824 26.788 26.799 26.782 26.819 27.892 26.98 26.886 26.882 26.93 26.714 26.522 26.444 26.412 26.406 26.405 27.364 27.401 27.308 26.889 26.691 26.762 27.445 26.728 26.711 25.577 24.506 25.448 25.517 25.484 25.453 25.439 25.473 25.582 25.77 25.555 25.508 25.466 25.451 25.468 25.463 25.531 25.46 25.513 25.46 25.458 25.534 25.649 25.526 25.475 25.441 25.473 25.452 25.474 25.49 25.484 25.489
27.73 27.652 27.55 27.593 27.545 27.453 27.549 27.433 27.433 27.414 27.408 27.477 27.472 27.543 27.632 27.734 27.816 27.758 27.902 27.796 27.721 27.724 27.707 27.682 27.814 27.785 27.731 27.921 27.799 27.839 28.017 28.022 28.062 28.091 28.193 28.099 28.115 28.157 28.162 28.122 28.147 28.234 28.203 28.356 28.344 28.457 28.337 28.255 30.073 30.252 30.887 31.193 28.493 28.165 28.095 28.088 28.154 28.251 28.318 28.38 28.43 28.453 28.456 28.569 28.687 28.726 28.705 28.705 28.778 28.797 28.803 28.974 30.393 29.193 29.026 31.176 33.599 33.873 32.472 32.698 30.319 30.3 30.354 30.455 30.553 30.815 30.861 31.078 31.031 31.091 31.158 31.08 31.002 30.939 30.949 30.856 30.869 31.202 31.63 31.347 31.391 31.892 31.555 31.254 31.264 31.519 31.245 31.184 31.225 31.168 31.245 31.137 31.083 31.07 31.108 31.222 31.068 31.331 31.074 31.172 31.322 31.216 31.316 31.216 31.21 31.272 31.981 33.709 35.124 37.3 36.898 36.659 35.434 32.852 31.684 31.645 31.683 31.634 32.687 31.423 31.052 30.196 29.905 29.909 29.905 29.947 31.979 35.385 30.293 30.16 29.876 29.838 29.862 29.846 29.867 29.881 29.907 30.469 32.193 29.908 30.231 29.786 29.83 29.831 29.874 29.866 29.829 29.825 29.892 29.876 29.906 29.863 29.852 29.876 30.679 30.654 30.672 29.952 29.897 30.175 29.861 29.941 31.033 33.031 30.305 32.16 29.939 29.827 29.86 29.9 29.898 29.93 30.031 30.362 30.137 30.193 30.313 30.359 30.406 30.546 30.603 30.697 30.671 30.821 31.347 32.308 31.961 31.809 31.695 31.844 31.876 31.933 32.061 32.083 32.101 32.122 32.175 32.161 32.082 32.146 32.133 32.168 32.069 31.964 31.924 31.953 31.942 31.862 31.832 31.81 31.77 31.842 31.808 31.673 31.65 31.614 31.563 31.578 31.579 31.597 31.564 31.567 31.553 31.559 31.593 31.68 31.734 31.72 31.74 31.753 31.789 31.854 31.825 31.849 31.818 31.839 31.884 31.855 31.95 32.014 32.045 32.106 32.097 32.053 32.072 32.101 32.02 32.045 32.033 32.054 32.07 32.065 32.071 32.032 31.986 31.923 31.879 31.872 31.841 31.756 31.685 31.6 31.458 31.338 31.163 30.985 30.87 30.653 30.555 30.525 30.421 30.265 30.095 29.97 29.812 29.596 29.584 29.428 29.185 29.168 28.887 28.834 28.91 29.221 29.485 29.566 29.611 29.433 29.457 29.433 29.52 29.52 29.524 29.503 29.554 29.739 29.335 28.304 27.41 26.975 28.066 27.952 27.974 28.007 28.038 27.975 28.243 29.15 28.147 28.154 28.151 28.173 28.148 28.118 28.134 28.051 28.052 27.966 28.016 28.029 28.401 28.29 28.023 28.028 28.128 28.073 28.065 28.152 28.09 28.1 28.118 28.081 28.058 28.066 28.844 29.077 28.161 28.073 28.101 28.053 27.985 28.304 27.808 27.901 26.877 26.882 26.835 26.839 26.834 26.903 27.505 27.119 26.828 26.825 26.806 26.811 26.783 26.822 26.793 26.804 26.804 26.821 27.089 27.891 26.918 26.935 26.781 26.54 26.5 26.511 27.66 26.489 26.428 26.799 26.766 26.791 27.049 26.784 27.326 26.748 26.735 26.718 26.759 24.565 24.891 25.616 25.488 25.474 25.454 25.469 25.437 26.009 25.633 25.562 25.492 25.533 25.479 25.458 25.516 25.466 25.496 25.595 25.646 25.467 25.669 25.721 25.467 25.452 25.449 25.483 25.459 25.482 25.475 25.493
27.586 27.444 27.393 27.341 27.442 27.319 27.336 27.286 27.318 27.389 27.299 27.392 27.498 27.462 27.608 27.58 27.594 27.625 27.655 27.77 27.699 27.685 27.697 27.683 27.625 27.7 27.886 27.678 27.991 27.984 27.924 27.989 28.007 28.056 28.165 28.063 28.085 28.087 28.064 28.008 27.986 28.034 28.086 28.144 28.25 28.352 28.208 28.41 30.489 30.776 28.855 28.946 28.32 28.016 28.061 28.157 28.183 28.28 28.362 28.425 28.45 28.443 28.519 28.647 28.585 28.562 28.664 28.686 28.742 28.77 28.816 35.221 29.167 31.623 33.647 34.291 32.972 32.603 29.866 30.082 30.165 30.458 30.487 30.61 30.636 30.854 31.176 31.171 31.188 31.316 31.208 31.136 31.104 30.95 31.005 30.911 31.572 31.535 31.63 31.526 33.764 31.348 31.191 31.214 31.314 31.356 31.245 31.197 31.222 31.197 31.215 31.467 31.694 31.312 31.172 31.509 31.147 31.069 31.235 31.074 31.103 31.037 30.943 31.125 31.278 31.481 31.665 34.139 33.637 37.661 37.555 36.523 35.787 32.013 31.5 31.583 31.505 31.414 31.196 30.659 31.196 30.142 30.096 29.923 30.113 34.722 31.451 29.931 30.368 30.043 29.935 29.839 29.861 29.916 29.943 29.923 29.906 29.935 29.911 29.911 29.921 30.959 29.857 29.818 29.852 29.818 29.81 29.934 31.057 29.808 29.845 29.839 29.869 29.974 33.243 30.3 30.661 30.315 29.857 30.019 29.821 29.926 30.496 30.209 31.052 30.862 30.006 29.869 29.882 29.857 29.938 29.919 30.05 30.124 30.157 30.173 30.24 30.403 30.545 30.615 30.65 30.681 30.717 31.076 31.793 32.146 31.988 31.868 31.862 31.871 31.954 32.096 32.172 32.14 32.162 32.186 32.125 32.173 32.121 32.137 32.123 32.042 31.976 31.932 31.838 31.877 31.832 31.689 31.671 31.637 31.605 31.558 31.555 31.538 31.568 31.495 31.52 31.52 31.507 31.555 31.531 31.557 31.508 31.532 31.513 31.507 31.578 31.589 31.643 31.686 31.782 31.821 31.802 31.829 31.804 31.807 31.834 31.845 31.919 31.94 31.957 32.076 32.087 32.027 32.05 32.017 32.037 32.041 32.084 32.076 32.074 32.111 32.079 32.038 32.031 31.985 31.926 31.905 31.852 31.782 31.756 31.664 31.506 31.369 31.236 31.106 30.945 30.831 30.774 30.652 30.532 30.383 30.272 30.063 29.911 29.757 29.639 29.54 29.375 29.219 29.035 28.905 28.798 28.942 29.237 29.382 29.619 29.535 29.477 29.43 29.404 29.552 29.538 29.487 29.507 29.566 29.618 29.314 28.248 27.499 27.257 27.945 27.982 27.966 28.031 28.012 28.035 28.313 29.066 28.182 28.13 28.103 28.146 28.129 28.119 28.058 28.036 28.023 28.001 27.995 28.01 28.506 29.354 28.028 28.048 28.052 28.109 28.086 28.223 28.099 28.097 28.111 28.082 28.029 28.053 30.038 28.523 28.055 28.053 28.068 28.021 28.028 28.18 27.701 27.214 26.856 26.84 26.849 26.886 26.916 27.252 28.033 27.096 26.855 26.839 26.783 26.797 26.782 26.808 26.805 26.753 26.8 26.843 26.946 27.847 26.882 26.577 26.491 26.597 27.708 28.181 26.585 26.671 26.796 26.705 26.716 26.993 27.32 26.757 26.733 26.742 26.723 26.733 26.749 24.681 24.522 25.447 25.482 25.454 25.488 25.504 25.482 26.003 25.668 25.606 25.53 25.541 25.468 25.465 25.474 25.518 25.658 25.47 25.467 25.476 25.615 25.518 25.453 25.467 25.48 25.451 25.477 25.482 25.468
27.413 27.351 27.323 27.282 27.198 27.207 27.163 27.173 27.241 27.312 27.224 27.342 27.357 27.388 27.468 27.577 27.527 27.469 27.512 27.525 27.547 27.581 27.477 27.489 27.469 27.49 27.515 27.783 27.821 27.775 27.838 27.845 27.911 27.943 27.951 28.116 28.049 27.937 27.909 27.918 27.902 28.038 28.022 28.034 28.006 27.996 28.016 28.135 29.655 30.065 28.179 28.036 27.953 27.994 28.107 28.193 28.295 28.333 28.438 28.47 28.542 28.617 28.554 28.513 28.571 28.597 28.649 28.678 28.775 28.813 28.703 29.806 36.303 37.902 33.911 31.55 29.93 30.085 30.073 30.207 30.577 30.602 30.632 30.729 30.897 30.951 31.195 31.304 31.213 31.097 31.239 31.235 31.141 31.027 31.158 31.353 31.349 32.592 32.539 35.3 36.056 32.331 31.234 31.399 31.297 31.253 31.259 31.432 31.317 31.322 31.361 31.622 31.61 31.339 31.208 31.276 31.205 31.241 31.172 31.086 30.94 30.966 31.067 31.239 31.326 31.516 31.494 31.5 35.334 36.472 36.787 35.267 31.765 31.537 31.499 31.509 31.927 31.293 30.998 31.218 30.108 29.862 29.873 30.85 29.944 34.358 31.327 30.02 30.073 29.895 30.611 31.442 29.851 29.863 29.895 29.865 29.876 29.904 30.224 29.907 29.903 29.884 30.785 32.404 29.929 29.804 29.828 29.805 29.833 29.842 32.396 29.991 30.71 30.567 29.836 29.934 31.457 30.688 29.867 29.802 30.091 29.891 29.804 30.355 29.862 30.164 29.864 29.867 29.86 29.872 29.962 30.05 30.109 30.155 30.138 30.289 30.365 30.534 30.616 30.666 30.661 30.708 32.161 31.967 32.074 32.113 31.913 31.898 31.943 31.998 32.094 32.154 32.25 32.268 32.184 32.111 32.129 32.158 32.121 32.112 32.031 31.95 31.858 31.814 31.818 31.657 31.601 31.529 31.54 31.549 31.489 31.518 31.497 31.445 31.473 31.464 31.454 31.469 31.482 31.492 31.486 31.536 31.509 31.531 31.511 31.502 31.486 31.46 31.516 31.634 31.748 31.724 31.759 31.778 31.827 31.83 31.859 31.901 31.869 31.931 31.907 32.025 32.023 31.986 32.018 32.05 32.027 32.054 32.062 32.136 32.13 32.12 32.097 32.103 32.04 31.989 31.937 31.906 31.906 31.819 31.73 31.66 31.545 31.456 31.392 31.276 31.147 30.992 30.886 30.765 30.614 30.495 30.345 30.171 29.966 29.934 29.807 29.742 29.601 29.343 29.112 28.897 28.897 28.814 28.916 29.238 29.461 29.535 29.485 29.548 29.428 29.459 29.509 29.475 29.449 29.502 29.551 29.644 29.086 28.227 27.53 26.929 27.947 27.956 28.01 28.081 27.977 28.018 29.063 28.388 28.124 28.153 28.119 28.228 28.131 28.118 28.083 28.038 27.998 27.992 28.019 28.109 29.117 28.271 28.027 28.027 28.088 28.114 28.043 28.072 28.084 28.088 28.097 28.046 28.159 28.248 28.957 28.615 28.022 28.067 28.077 28.056 28.049 27.398 26.125 26.919 26.88 26.86 26.91 26.912 26.89 27.343 27.79 27.139 26.852 26.821 26.794 26.795 26.788 26.747 26.689 26.762 26.895 26.878 28.852 27.512 26.553 26.734 27.657 27.813 27.408 27.154 26.726 26.706 26.655 27.087 26.727 27.108 27.126 26.744 26.746 26.718 26.704 26.687 26.737 25.886 24.367 25.489 25.444 25.453 25.502 25.425 25.473 26.176 25.632 25.565 25.51 25.479 25.485 25.496 25.56 25.484 25.495 25.466 25.488 25.442 25.67 25.541 25.472 25.51 25.445 25.459 25.494 25.472
27.252 27.212 27.171 27.135 27.173 27.132 27.176 27.089 27.116 27.049 27.176 27.446 27.192 27.462 27.371 27.36 27.424 27.362 27.428 27.429 27.366 27.406 27.423 27.445 27.38 27.528 27.471 27.487 27.523 27.646 27.715 27.75 27.863 27.959 27.827 27.817 27.857 27.818 27.828 27.885 27.775 27.897 28 27.9 28.034 27.976 27.968 28.041 28.152 28.039 27.931 27.916 27.952 28.084 28.218 28.273 28.33 28.425 28.465 28.542 28.488 28.453 28.438 28.51 28.55 28.742 28.671 28.803 28.768 28.683 35.539 37.357 37.401 34.106 31.732 30.217 30.454 30.799 30.812 30.616 31.161 31.029 30.839 30.841 30.903 31.08 31.052 31.119 31.179 31.229 31.196 31.566 31.323 31.44 31.729 31.463 32.441 33.799 32.195 34.823 35.199 31.937 31.5 31.338 31.368 31.276 31.264 31.268 31.36 31.437 31.522 31.587 31.645 31.36 31.24 31.314 31.36 31.058 31.059 30.944 30.969 30.977 31.068 31.229 31.484 31.529 31.503 31.513 32.21 34.387 33.507 32.407 31.578 31.691 31.549 31.981 31.432 30.866 30.149 30.365 30.292 29.829 29.874 29.861 29.896 29.932 29.883 29.996 33.005 30.056 30.487 32.281 29.901 29.872 29.898 29.895 29.845 30.687 29.826 29.869 29.886 29.869 29.818 29.803 29.83 29.833 29.813 29.832 29.852 29.809 29.849 29.847 29.814 29.884 29.873 29.868 32.441 32.074 31.436 29.917 34.597 31.437 29.827 29.843 29.846 29.871 29.893 29.85 29.898 29.979 30.773 30.112 30.142 30.1 30.216 30.386 30.511 30.632 30.655 30.697 31.274 30.933 32.507 32.256 32.115 31.916 31.966 31.951 32.023 32.108 32.161 32.174 32.172 32.142 32.113 32.095 32.105 32.138 32.092 32.048 31.866 31.773 31.773 31.572 31.551 31.504 31.524 31.453 31.448 31.444 31.468 31.467 31.427 31.477 31.443 31.577 31.411 31.44 31.463 31.455 31.467 31.479 31.481 31.479 31.488 31.477 31.45 31.467 31.449 31.439 31.608 31.646 31.677 31.766 31.846 31.872 31.88 31.876 31.892 31.905 31.907 31.975 31.955 31.967 32.032 32.018 31.986 32.009 32.045 32.066 32.139 32.141 32.144 32.114 32.084 32.034 31.993 31.937 31.898 31.792 31.705 31.715 31.624 31.574 31.479 31.401 31.217 31.1 30.944 30.873 30.744 30.577 30.444 30.301 30.201 29.975 29.886 29.751 29.657 29.482 29.187 29.104 28.936 28.964 28.834 29.047 29.314 29.515 29.576 29.483 29.42 29.42 29.509 29.494 29.473 29.447 29.519 29.564 29.633 29.262 28.105 27.353 27.107 27.996 27.981 27.986 28.03 28.083 28.112 29.066 28.391 28.171 28.304 28.178 28.128 28.131 28.116 28.088 28.078 28.065 28.039 28.029 28.014 29.094 28.224 28.054 28.11 28.069 28.076 28.087 28.085 28.077 28.099 28.131 28.058 28.023 28.288 29.664 28.12 28.016 28.035 28.081 28.029 28.026 28.22 25.713 26.749 26.869 26.887 26.889 26.89 26.874 27.151 27.732 26.915 26.851 26.821 26.822 26.834 26.792 26.774 26.784 26.887 27.016 28.003 26.824 29.884 32.129 28.637 27.938 27.141 26.741 26.671 26.741 27.375 26.729 26.716 26.719 26.847 27.139 26.73 26.707 26.719 26.703 26.699 26.657 26.137 25.783 25.484 25.5 25.476 25.495 25.487 25.503 25.991 25.726 25.505 25.474 25.46 25.447 25.481 25.486 25.465 25.476 25.476 25.447 25.489 25.637 25.632 25.477 25.489 25.445 25.496 25.508
27.159 27.23 27.135 27.255 27.097 27.108 27.074 27.198 27.014 27.104 27.134 27.179 27.197 27.359 27.823 27.315 27.434 27.335 27.323 27.293 27.289 27.357 27.271 27.315 27.337 27.372 27.358 27.423 27.53 27.558 27.607 27.658 27.705 27.756 27.799 27.742 27.782 27.676 27.684 27.645 27.729 27.738 27.762 27.891 27.936 27.923 27.839 27.849 27.854 27.884 27.913 27.975 28.051 28.171 28.23 28.379 28.404 28.468 28.469 28.374 28.414 28.452 28.513 28.538 28.736 31.482 35.603 28.881 29.792 32.641 34.173 33.267 31.194 31.169 30.576 30.755 30.908 30.817 30.609 30.811 31.089 30.947 30.894 30.933 31.111 31.208 31.074 31.115 31.218 31.456 31.654 32.041 31.683 31.686 31.37 33.636 33.105 34.794 32.408 32.686 32.081 31.392 31.376 31.394 31.409 31.31 31.339 31.384 31.571 31.519 31.541 31.452 31.398 31.307 31.272 31.135 31.093 31.041 31.042 31.042 30.997 30.916 31.028 31.357 31.389 31.454 31.431 31.807 31.778 31.524 31.46 31.776 31.762 31.663 31.702 31.405 30.933 31.457 30.31 30.115 29.946 30.194 29.793 29.911 29.902 29.908 30.557 29.924 29.87 30.343 32.847 31.555 30.068 31.443 30.666 29.856 29.876 29.979 29.888 29.864 29.879 29.87 29.846 29.827 30.217 29.816 29.828 29.825 29.785 29.802 29.783 29.826 29.84 29.834 29.847 29.859 29.829 30.593 32.213 33.008 29.895 29.866 29.814 29.839 29.852 29.875 29.839 29.918 29.92 30.047 30.142 30.175 30.139 30.234 30.373 30.499 30.571 30.694 30.725 30.732 31.186 31.809 32.054 32.11 31.983 31.839 31.898 31.963 31.987 32.141 32.158 32.091 32.111 32.079 32.038 32.001 32.05 32.134 32.051 31.927 31.749 31.545 31.523 31.478 31.479 31.444 31.415 31.408 31.56 31.627 31.701 31.674 31.717 31.774 31.749 31.751 31.805 31.73 31.743 31.661 31.623 31.477 31.497 31.451 31.432 31.487 31.455 31.47 31.464 31.448 31.445 31.509 31.528 31.655 31.732 31.867 31.889 31.854 31.875 31.92 31.925 31.921 31.965 31.958 32.001 32.029 31.984 32.017 32.054 32.103 32.091 32.141 32.109 32.101 32.036 32.026 32.005 31.997 31.937 31.877 31.805 31.727 31.754 31.673 31.616 31.55 31.385 31.269 31.077 31.012 30.838 30.718 30.573 30.44 30.201 30.088 30.054 29.869 29.762 29.628 29.404 29.229 29.074 28.982 28.86 28.972 29.04 29.14 29.4 29.453 29.481 29.437 29.493 29.483 29.422 29.416 29.485 29.501 29.575 29.595 29.205 28.135 27.302 28.069 28.017 28.011 28.018 28.078 28.03 28.024 29.513 28.586 28.236 28.142 28.129 28.172 28.131 28.053 28.058 28.105 28.039 28.073 28.028 28.031 29.183 28.562 28.105 28.031 28.045 28.068 28.044 28.015 28.21 28.13 28.086 28.039 28.038 28.021 28.909 28.073 28.021 28.084 28.05 28.07 28.062 28.124 25.993 27.049 26.898 26.885 26.917 26.893 26.906 27.26 27.788 26.866 26.832 26.815 26.919 26.812 26.806 26.86 26.702 26.641 26.618 27.09 32.022 31.888 30.942 27.134 26.774 26.702 26.758 27.107 26.724 26.685 26.664 26.67 26.752 27.274 27.031 26.75 26.723 26.72 26.717 26.699 26.223 25.912 25.432 25.527 25.47 25.474 25.464 25.455 25.519 25.889 25.549 25.537 25.478 25.482 25.49 25.49 25.516 25.472 25.486 25.463 25.469 25.443 25.647 25.554 25.511 25.5 25.469 25.507
27.323 27.059 27.007 27.099 26.954 26.909 27.048 26.974 26.93 26.925 26.997 27.119 27.095 27.141 27.203 27.177 27.274 27.302 27.182 27.2 27.185 27.175 27.26 27.287 27.291 27.364 27.404 27.352 27.368 27.456 27.543 27.629 27.569 27.669 27.671 27.688 27.64 27.775 27.623 27.595 27.591 27.763 27.751 27.793 27.805 27.769 27.722 27.735 27.782 27.886 27.898 27.985 28.111 28.281 28.33 28.378 28.468 28.358 28.34 28.391 28.425 28.42 28.468 28.582 35.592 36.521 31.549 32.21 33.571 33.56 30.992 30.891 30.034 30.755 30.964 30.986 32.747 33.66 30.966 30.766 30.765 31.097 31.083 31.029 31.293 31.127 31.181 31.205 31.457 31.564 31.618 31.545 31.419 31.39 31.188 33.632 35.325 35.523 31.63 31.453 31.416 31.422 31.537 31.585 31.366 31.416 31.595 31.683 31.589 31.76 31.43 31.431 31.631 31.499 31.379 31.201 31.038 31.124 31.067 31.063 30.997 30.909 31.018 31.182 31.459 31.571 31.712 31.747 31.982 31.864 32.269 32.056 31.88 32.995 32.261 31.23 30.455 30.478 29.91 29.945 29.953 30.176 29.889 29.868 29.923 29.948 29.948 29.928 29.901 29.92 29.883 29.985 29.903 32.058 29.82 31.374 32.215 30.459 30.735 29.901 29.877 29.84 29.835 30.296 29.832 30.191 29.798 29.823 29.817 29.813 29.797 29.844 29.84 29.839 29.875 29.843 29.84 29.819 29.911 30.777 31.366 29.883 29.867 29.854 29.877 29.866 29.905 29.948 30.007 30.138 30.213 30.168 30.22 30.381 30.528 30.575 30.694 30.76 31.141 31.21 31.911 32.302 32.323 32.05 31.897 31.833 31.859 31.929 32.063 32.059 32.065 32.05 32.07 32.079 31.933 31.991 32.068 32.142 32.06 31.562 31.526 31.463 31.463 31.411 31.419 31.533 31.582 31.693 31.793 31.838 31.872 31.835 31.92 31.918 31.932 31.966 31.974 31.911 31.889 31.877 31.809 31.849 31.761 31.617 31.428 31.432 31.42 31.482 31.455 31.434 31.483 31.475 31.447 31.465 31.554 31.64 31.808 31.839 31.879 31.9 31.942 31.877 31.888 31.901 31.923 31.961 31.98 31.999 32.029 32.065 32.074 32.06 32.062 32.033 32.051 32.03 32.048 32.012 31.96 31.953 31.907 31.842 31.851 31.747 31.675 31.594 31.466 31.323 31.255 31.183 30.964 30.809 30.712 30.558 30.407 30.286 30.038 29.842 29.777 29.646 29.481 29.383 29.13 29.039 28.92 28.818 28.837 29.027 29.141 29.427 29.518 29.408 29.409 29.445 29.453 29.447 29.454 29.498 29.5 29.606 29.611 29.051 27.962 27.32 28.019 28.011 28.03 28.037 28.042 28.158 28.177 29.24 28.859 28.215 28.161 28.108 28.126 28.115 28.027 28.079 28.011 28.071 28.002 28.019 28.43 29.424 28.122 27.981 27.998 28.075 28.078 28.053 28.029 28.047 28.094 28.055 28.059 28.014 28.753 29.414 28.112 28.081 28.043 28.049 28.023 28.032 27.753 25.793 26.692 26.857 26.896 26.916 26.89 26.915 27.726 27.363 26.878 26.818 26.829 26.859 26.915 26.756 26.545 26.582 26.665 28.557 31.888 31.814 27.386 26.729 26.676 26.731 27.067 26.721 26.682 26.728 26.725 26.717 26.709 26.745 26.952 27.018 26.721 26.721 26.738 26.72 26.695 26.59 24.697 24.442 25.492 25.522 25.522 25.496 25.481 25.891 26.19 25.57 25.591 25.525 25.479 25.493 25.519 25.528 25.51 25.47 25.47 25.479 25.491 25.684 25.539 25.49 25.497 25.469
27.236 27.003 26.995 26.901 27.528 26.922 26.874 26.902 26.952 27.067 27.072 26.991 27.045 27.073 27.145 27.164 27.136 27.106 27.111 27.091 27.126 27.155 27.122 27.167 27.202 27.255 27.275 27.212 27.263 27.355 27.362 27.398 27.39 27.509 27.574 27.582 27.698 27.619 27.62 27.609 27.676 27.671 27.578 27.628 27.661 27.698 27.747 27.773 27.821 27.901 27.99 28.107 28.225 28.308 28.383 28.298 28.247 28.294 28.34 28.373 28.408 28.501 28.552 28.565 29.272 33.917 31.761 33.564 33.398 30.776 29.733 30.077 30.766 30.913 30.959 31.317 33.953 34.971 34.587 30.996 31.221 31.212 31.035 30.955 31.201 31.184 31.22 31.227 31.286 31.399 31.549 31.331 31.178 31.214 31.27 32.239 35.135 35.016 32.098 31.43 31.364 31.365 31.397 31.43 31.32 31.41 31.977 31.761 31.482 31.455 31.692 31.52 31.394 31.345 31.428 31.11 31.084 31.099 31.066 30.879 30.935 30.899 31.049 31.377 33.544 35.949 36.274 35.57 32.215 32.279 32.132 32.084 32.287 32.54 31.951 30.5 30.298 29.976 29.96 29.928 33.345 31.272 29.933 30.263 29.9 29.886 29.953 29.907 29.912 29.854 30.014 30.66 33.095 29.943 29.867 29.863 31.8 33.517 29.935 29.932 29.898 29.865 29.962 29.948 30.031 29.869 29.828 29.781 29.836 29.831 29.779 29.755 29.849 29.856 29.878 29.835 29.84 30.2 32.342 30.801 30.13 29.863 29.825 29.905 29.862 29.881 29.871 29.994 30.153 30.145 30.149 30.277 30.392 30.53 30.631 30.702 30.723 30.71 30.808 31.62 32.6 32.414 32.39 32.202 31.909 31.933 31.974 32.056 31.952 31.914 31.866 31.849 31.878 31.879 31.844 31.942 31.932 31.746 31.457 31.387 31.417 31.446 31.377 31.443 31.542 31.723 31.803 31.834 31.84 31.841 31.892 31.979 32.046 32.056 32.12 32.099 32.058 32.012 32.021 31.985 31.975 31.899 31.847 31.836 31.776 31.621 31.496 31.425 31.439 31.446 31.454 31.455 31.455 31.43 31.447 31.523 31.593 31.713 31.722 31.806 31.853 31.904 31.885 31.859 31.882 31.913 31.914 31.956 31.999 31.962 31.978 32.027 32.017 32.042 32.068 32.032 32.012 31.973 31.989 31.978 31.926 31.85 31.854 31.815 31.737 31.646 31.523 31.465 31.405 31.277 31.076 31.002 30.905 30.67 30.552 30.367 30.091 29.901 29.801 29.701 29.542 29.454 29.322 29.021 28.988 28.876 28.818 28.727 28.981 29.134 29.391 29.51 29.535 29.38 29.552 29.354 29.372 29.405 29.495 29.486 29.647 29.551 28.705 27.838 27.2 27.929 28.027 27.975 27.943 28.201 28.099 28.11 29.101 28.213 28.19 28.167 28.13 28.18 28.117 28.071 28.024 28.012 28.035 28.149 28.041 28.082 29.13 28.102 28.046 28.048 28.087 28.076 28.072 28.062 28.067 28.103 28.12 28.028 28.022 28.273 28.561 28.219 28.038 28.012 28.056 28.055 27.935 27.498 26.122 26.895 26.867 26.89 26.907 26.88 26.884 27.853 27.129 26.858 26.906 26.964 26.678 26.561 26.628 26.699 28.124 27.566 30.467 28.784 26.696 26.848 27.707 27.362 26.78 26.709 26.684 26.685 26.715 26.681 26.679 26.743 26.76 27.316 26.906 26.741 26.72 26.949 26.702 26.693 26.731 24.971 25.892 25.495 25.493 25.516 25.514 25.475 25.612 25.918 25.604 25.565 25.479 25.49 25.505 25.527 25.488 25.458 25.476 25.476 25.491 25.535 25.682 25.456 25.495 25.487
26.951 26.921 26.876 26.904 26.867 26.923 26.901 26.904 26.842 26.893 26.97 27.032 27.076 27.035 27.125 27.08 27.115 27.06 27.094 27.059 27.034 27.085 27.048 27.096 27.105 27.085 27.19 27.157 27.116 27.296 27.244 27.396 27.361 27.367 27.523 27.406 27.537 28 27.589 27.536 27.736 27.537 27.611 27.629 27.642 27.724 27.801 27.816 27.889 27.957 28.15 28.185 28.265 28.213 28.149 28.211 28.275 28.284 28.677 28.334 28.509 28.5 28.458 30.642 32.796 34.269 32.836 31.105 30.173 29.446 30.108 30.378 30.806 31.195 31.139 34.364 35.39 35.083 34.77 32.456 30.992 31.015 31.012 31.058 31.218 31.22 31.261 31.231 31.267 31.341 31.178 31.165 31.205 31.115 31.174 31.431 31.551 31.444 31.266 31.294 31.361 31.258 31.317 31.381 31.357 31.714 32.33 31.726 31.515 31.593 31.462 31.468 31.375 31.31 31.247 31.972 31.215 31.191 31.248 31.099 31.136 30.989 31.222 31.79 34.116 36.895 37.64 35.192 32.299 33.091 32.079 32.455 32.03 32.042 30.516 29.995 29.974 29.921 29.935 29.995 32.68 35.728 30.084 30.205 30.301 29.903 29.897 29.868 29.877 29.828 29.816 29.841 29.898 29.905 29.878 29.905 29.792 30.318 29.862 29.882 29.864 29.924 30.09 34.041 30.117 29.929 30.07 29.827 29.849 29.871 29.814 29.78 29.81 29.861 29.853 29.856 29.87 30.906 30.074 30.636 29.857 29.847 29.878 29.914 29.888 29.904 29.946 30.345 30.206 30.152 30.272 30.416 30.528 30.654 30.673 30.74 30.697 32.835 33.256 32.393 32.527 32.304 32.251 31.982 31.978 31.999 31.931 31.921 31.883 31.839 31.818 31.889 31.881 31.78 31.751 31.669 31.649 31.345 31.27 31.301 31.344 31.355 31.494 31.598 31.732 31.794 31.852 31.877 31.933 31.943 32.025 32.107 32.114 32.152 32.227 32.209 32.135 32.153 32.125 32.023 32.032 32.036 32.011 31.953 31.842 31.828 31.74 31.548 31.464 31.449 31.477 31.462 31.486 31.481 31.466 31.43 31.46 31.465 31.537 31.669 31.758 31.795 31.846 31.805 31.817 31.915 31.892 31.999 31.901 31.883 31.925 31.967 31.998 32.02 31.99 32.036 32.003 31.996 31.954 31.988 31.991 31.912 31.861 31.834 31.853 31.731 31.593 31.522 31.458 31.341 31.264 31.168 31.044 30.893 30.745 30.423 30.236 30.028 29.898 29.725 29.613 29.456 29.349 29.171 29.006 28.901 28.808 28.724 29.853 29.082 29.147 29.424 29.466 29.403 29.451 29.466 29.44 29.396 29.407 29.453 29.486 29.616 29.376 28.794 27.739 27.066 27.993 27.945 27.957 27.938 28.03 28.061 28.278 29.185 28.416 28.201 28.138 28.168 28.098 28.14 28.098 28.047 28.07 28.048 28.068 28 28.362 29.127 28.067 28.038 28.017 28.076 28.09 28.057 28.089 28.13 28.119 28.06 28.016 27.996 29.396 28.668 28.044 28.033 28.051 28.099 28.089 28.122 26.676 25.446 27.027 26.922 26.926 26.88 26.953 26.954 28.019 27.217 26.91 26.706 26.629 26.597 26.641 26.7 27.611 27.878 27.237 26.646 26.64 26.823 26.794 26.714 26.725 26.702 26.724 26.695 26.697 26.72 26.673 26.72 26.71 26.762 27.303 27.052 27.059 26.705 26.758 26.705 26.69 26.43 24.62 25.523 25.432 25.68 25.763 25.505 25.51 25.616 25.978 25.574 25.556 25.55 25.488 25.485 25.489 25.529 25.476 25.484 25.475 25.488 25.541 25.705 25.501 25.501
26.851 26.931 26.917 26.928 26.828 26.881 26.854 26.77 26.749 26.795 26.883 26.867 26.931 26.908 26.938 26.998 27.003 27.021 26.989 27.001 27.022 26.958 27.004 26.956 26.974 26.961 26.962 27.051 27.08 27.244 27.327 27.283 27.356 27.467 27.367 27.398 28.239 28.499 27.73 27.432 27.411 27.525 27.584 27.644 27.682 27.746 27.88 27.959 27.976 28.038 28.14 28.171 28.153 28.147 28.194 28.237 28.243 34.992 32.316 30.816 30.508 30.128 31.966 32.769 33.359 32.585 31.535 29.14 29.352 29.588 30.017 33.393 35.629 33.525 33.546 34.92 35.495 34.2 32.194 30.916 31.034 30.988 31.141 31.225 31.232 31.185 31.258 31.3 31.269 31.258 31.223 31.187 31.15 31.242 31.33 31.332 31.25 31.272 31.322 31.211 31.279 31.327 31.426 31.437 31.441 31.62 32.062 31.648 31.623 31.523 31.527 31.595 31.477 31.481 31.316 31.323 31.378 31.154 31.148 31.3 31.293 31.106 30.997 31.058 33.571 36.721 37.485 36.464 32.034 32.352 31.903 32.238 31.291 30.58 31.163 29.967 29.963 29.968 30.045 34.475 30.28 30.558 30.408 29.977 29.953 29.911 29.844 29.852 29.846 29.824 29.86 29.839 29.901 29.92 29.878 29.839 29.864 29.855 29.943 29.889 30.405 30.004 31.067 37.521 31.588 30.067 29.979 30.216 29.84 31.181 29.888 29.852 29.865 29.85 29.819 29.819 29.86 29.84 29.829 29.87 29.853 29.871 29.874 29.905 29.891 29.963 30.446 30.146 30.144 30.21 30.437 30.54 30.625 30.679 30.727 30.796 30.976 33.199 32.926 32.304 32.188 32.126 31.942 31.998 31.998 31.973 31.896 31.864 31.81 31.81 31.844 31.691 31.739 31.57 31.562 31.38 31.179 31.175 31.224 31.221 31.324 31.457 31.669 31.768 31.781 31.832 31.923 31.981 31.994 32.023 32.109 32.148 32.152 32.21 32.251 32.261 32.199 32.117 32.142 32.138 32.093 32.098 32.09 32.014 31.919 31.863 31.83 31.717 31.639 31.474 31.484 31.476 31.493 31.457 31.45 31.441 31.459 31.422 31.455 31.565 31.617 31.707 31.723 31.783 31.838 31.813 31.853 31.803 31.862 31.853 31.969 31.966 31.947 31.985 31.984 32.023 31.989 31.991 31.999 31.961 31.99 31.949 31.862 31.849 31.832 31.76 31.634 31.609 31.564 31.461 31.358 31.247 31.157 30.982 30.809 30.578 30.323 30.15 30.059 29.889 29.741 29.55 29.451 29.304 29.133 28.906 28.961 28.827 28.698 29.808 28.948 29.178 29.485 29.483 29.472 29.454 29.398 29.367 29.443 29.442 29.455 29.494 29.584 29.415 28.871 27.846 26.719 27.825 27.974 27.95 27.975 28.026 28.12 28.058 28.38 28.219 28.203 28.125 28.123 28.13 28.071 28.047 28.046 28.076 28.032 28.053 28.027 28.244 29.036 28.078 28.024 28.048 28.07 28.088 28.084 28.086 28.121 28.105 28.073 28.008 28.008 28.371 29.241 28.068 28.067 28.005 28.058 28.059 28.127 27.121 26.05 26.989 26.921 26.917 26.889 26.929 26.889 27.876 27.035 26.666 26.632 26.677 26.707 26.744 28.187 26.962 26.641 26.634 26.561 26.658 26.78 26.849 26.735 26.701 26.731 26.717 26.72 26.707 26.717 26.714 26.72 26.708 27.615 27.357 27.074 27.033 26.686 26.68 26.69 26.688 26.75 24.821 25.687 25.822 25.474 25.463 25.495 25.488 25.738 26.209 25.561 25.564 25.524 25.48 25.503 25.499 25.494 25.482 25.462 25.459 25.487 25.652 25.653 25.517
26.831 26.726 26.73 26.747 26.763 26.709 26.793 26.959 26.783 26.764 26.739 26.847 26.832 26.852 26.87 26.864 26.92 26.889 26.953 27.092 26.894 26.891 26.884 26.899 26.808 26.83 26.872 26.978 26.943 27.097 27.163 27.308 27.218 27.261 28.065 28.173 27.993 27.936 27.357 27.346 27.377 27.477 27.62 27.646 27.695 27.828 27.963 28.081 28.134 28.215 28.111 28.041 28.122 28.17 28.174 28.172 28.268 30.336 37.977 36.993 33.061 36.241 33.108 32.09 30.692 29.471 29.235 29.2 29.37 30.189 33.551 35.496 36.011 33.814 31.541 32.06 31.474 31.907 31.034 30.955 31.041 31.072 31.271 31.45 31.329 31.263 31.293 31.289 31.372 31.283 31.232 31.215 31.131 31.327 31.34 31.25 31.255 31.419 31.323 31.31 31.319 31.448 31.281 31.324 31.4 31.672 31.601 31.47 31.445 31.554 31.474 31.511 31.537 31.414 31.477 31.437 31.467 31.366 31.328 31.314 31.277 31.312 31.012 31.052 31.471 34.922 34.954 32.488 31.631 33.054 31.903 31.149 30.763 31.235 30.219 30.172 29.924 29.967 29.899 31.425 31.193 30.242 30.178 29.889 29.934 29.889 29.935 29.855 29.887 29.896 29.89 29.836 29.879 29.901 29.887 29.803 29.866 30.69 29.889 30.086 31.028 29.943 29.934 31.523 36.888 32.775 29.95 30.199 29.828 29.82 31.181 29.947 29.801 29.867 29.854 29.82 29.82 29.799 29.84 29.78 29.867 29.912 29.903 29.911 30.014 30.76 30.115 30.337 30.114 30.63 30.741 31.39 30.727 30.752 30.767 30.792 31.988 32.475 32.325 32.256 32.183 32.143 32.144 32.039 32.012 31.932 31.816 31.786 31.767 31.735 31.698 31.644 31.61 31.49 31.194 31.055 31.024 31.079 31.154 31.21 31.42 31.612 31.696 31.756 31.84 31.924 32.029 32.07 32.052 32.098 32.18 32.246 32.239 32.252 32.32 32.301 32.241 32.221 32.252 32.211 32.158 32.169 32.142 32.076 31.96 31.922 31.888 31.799 31.615 31.43 31.463 31.455 31.441 31.464 31.496 31.468 31.468 31.47 31.421 31.439 31.476 31.521 31.595 31.694 31.736 31.72 31.761 31.818 31.826 32.027 31.969 31.982 31.949 31.994 31.997 32.027 32.017 31.98 31.982 31.987 31.974 31.934 31.927 31.893 31.82 31.836 31.751 31.664 31.616 31.449 31.398 31.313 31.255 31.098 30.927 30.671 30.429 30.238 30.131 29.958 29.859 29.574 29.583 29.504 29.283 29.023 28.865 28.875 28.712 28.655 28.722 28.968 29.234 29.548 29.563 29.494 29.534 29.424 29.394 29.421 29.464 29.467 29.505 29.598 29.31 28.786 27.679 27.795 28.127 27.915 27.943 27.95 28.044 28.125 28.381 29.057 28.234 28.137 28.105 28.153 28.089 28.1 28.079 28.027 28.024 28.056 28.054 28.064 28.295 28.63 28.046 28.002 28.057 27.989 28.049 28.105 28.051 28.044 28.08 28.051 28.04 28.058 29.02 28.537 28.016 28.085 28.037 28.115 28.081 28.058 27.603 26.124 26.91 26.916 26.909 26.955 27.143 28.889 27.213 26.636 26.683 26.711 26.734 26.822 26.718 26.612 26.602 26.607 26.594 26.595 26.657 26.826 26.829 26.745 26.688 26.706 26.737 26.757 26.702 26.72 26.726 26.69 26.678 26.782 27.242 27.013 26.716 26.686 26.686 26.658 26.634 26.241 25.407 25.59 25.454 25.472 25.463 25.455 25.464 25.751 25.789 25.571 25.548 25.551 25.508 25.498 25.454 25.481 25.452 25.445 25.454 25.457 25.655 25.542
26.752 26.739 26.682 26.644 26.727 26.714 26.802 26.721 26.715 26.702 26.717 26.725 26.76 26.774 26.819 26.817 26.835 26.824 26.817 26.865 26.84 26.812 26.718 26.748 26.72 26.778 26.999 26.939 26.799 26.909 27.049 27.036 27.183 28.083 28.324 27.311 27.192 27.251 27.333 27.364 27.36 27.592 27.629 27.707 27.755 27.857 28.004 28.099 28.055 27.962 28.052 28.104 28.302 32.545 34.1 28.423 28.179 28.326 29.029 39.817 40.168 33.805 32.224 30.28 29.34 29.276 29.251 29.407 29.483 30.026 32.267 35.21 35.159 31.747 31.282 31.156 31.08 31.105 31.022 31.026 31.126 31.318 31.436 31.589 31.447 31.347 31.297 31.333 31.296 31.268 31.224 31.285 31.271 31.131 31.174 31.224 32.626 34.752 34.469 33.479 31.314 31.338 31.374 31.54 31.488 31.529 31.458 31.669 31.769 31.479 31.449 32.531 31.693 32.193 31.628 31.455 31.496 31.466 31.685 31.403 31.503 31.292 31.063 31.122 31.269 31.408 31.608 31.577 31.564 31.958 31.272 30.735 31.114 30.091 30.906 30.148 29.929 33.437 31.76 30.003 29.926 29.949 30.866 29.857 29.896 29.921 29.869 29.849 29.884 29.894 29.887 29.902 29.891 29.869 29.859 29.889 29.948 29.87 30.091 29.993 33.838 30.153 30.117 29.952 31.16 30.549 30.027 29.909 29.809 29.865 29.862 30.129 29.946 29.865 29.873 29.818 29.836 29.831 29.874 29.872 29.896 29.942 29.933 29.955 30.055 30.084 30.079 31.538 33.128 32.005 31.081 31.002 30.8 30.711 30.769 31.651 33.142 32.241 32.201 32.06 32.163 32.178 32.109 31.991 31.924 31.792 31.723 31.733 31.765 31.742 31.726 31.669 31.414 31.035 30.932 30.932 30.969 31.002 31.112 31.26 31.523 31.642 31.786 31.846 31.942 31.979 32.032 32.129 32.103 32.122 32.177 32.237 32.221 32.327 32.361 32.324 32.357 32.291 32.323 32.255 32.236 32.229 32.163 32.081 32.012 31.988 31.964 31.846 31.646 31.481 31.461 31.481 31.528 31.631 31.486 31.465 31.462 31.474 31.47 31.456 31.469 31.439 31.44 31.541 31.547 31.695 31.731 31.782 31.834 31.871 31.941 31.998 31.914 31.937 31.974 31.98 31.978 31.997 31.967 31.999 31.963 31.994 31.994 31.965 31.846 31.962 31.807 31.766 31.678 31.578 31.496 31.45 31.31 31.135 31.018 30.896 30.662 30.5 30.296 30.104 29.992 29.832 29.705 29.494 29.311 29.12 28.999 28.882 28.851 28.743 28.556 28.651 29.011 29.341 29.558 29.53 29.451 29.422 29.435 29.424 29.393 29.401 29.417 29.502 29.578 29.342 28.429 27.664 26.902 27.849 27.931 27.97 27.961 28.032 28.067 28.191 29.188 28.195 28.173 28.115 28.105 28.096 28.061 28.041 28.037 28.048 28.029 28.016 28.105 28.325 29.069 28.077 28.024 28.085 28.075 28.086 28.086 28.063 28.064 28.141 28.056 27.991 28.036 28.967 28.574 28.022 28.029 28.06 28.086 28.08 27.614 27.696 25.938 27.075 26.905 26.839 26.81 26.815 26.696 26.711 26.696 27.63 26.857 26.702 26.625 26.608 26.61 26.609 26.549 26.569 26.582 26.602 26.845 26.792 26.761 26.724 26.705 26.672 26.706 26.698 26.666 26.71 26.67 26.667 26.831 27.281 26.897 26.698 26.67 26.671 26.674 26.674 26.113 24.871 25.491 25.501 25.492 25.451 25.471 25.48 25.59 26.116 25.558 25.531 25.524 25.461 25.441 25.447 25.457 25.462 25.462 25.484 25.472 25.628
26.688 26.711 26.705 26.841 26.67 26.673 26.914 27.378 26.654 26.69 26.683 26.715 26.71 26.726 26.733 26.752 26.772 26.758 26.747 26.789 26.859 26.739 26.713 26.669 27.523 28.436 28.692 26.947 26.763 26.762 26.888 27.862 27.538 27.119 27.01 27.113 27.225 27.309 27.344 27.377 27.481 27.608 27.695 27.767 27.812 27.886 27.984 27.944 27.956 27.979 28.034 28.024 37.681 32.808 32.354 30.706 30.309 31.936 34.108 37.116 32.729 30.131 29.668 29.364 29.345 29.326 29.426 29.423 29.515 29.991 30.785 31.978 31.525 31.301 31.114 31.096 31.054 31.03 31.094 31.12 31.167 31.392 31.818 32.213 32.538 31.533 31.386 31.364 31.336 31.294 31.248 31.253 31.325 31.401 31.095 31.115 33.039 34.541 34.692 31.576 31.249 31.262 31.375 31.478 31.515 31.435 31.565 31.567 31.556 31.489 32.761 31.607 31.866 31.495 31.635 31.899 31.479 31.524 31.705 31.647 31.42 31.4 31.332 31.204 31.296 31.39 31.693 31.644 32.017 31.17 30.715 30.227 30.233 29.826 29.841 29.914 29.9 29.917 30.16 30.871 29.937 30.61 32.224 30.702 30.522 29.843 29.871 29.857 32.284 30.429 29.983 29.894 29.897 29.864 29.867 29.895 29.863 30.258 30.134 31.751 35.549 34.206 33.7 30.026 29.932 29.913 29.91 29.931 31.804 29.871 29.817 29.856 31.205 29.819 29.879 29.865 29.836 29.864 29.902 29.897 29.94 29.943 29.972 30.378 30.09 30.081 30.084 30.425 33.611 32.042 33.133 35.118 32.268 30.913 32.751 32.418 32.446 32.091 32.072 32.062 32.126 32.067 32.011 31.948 31.887 31.814 31.764 31.67 31.677 31.642 31.632 31.213 30.984 30.773 30.752 30.788 30.862 30.964 31.115 31.321 31.527 31.734 31.857 31.937 32.048 32.067 32.065 32.088 32.08 32.133 32.16 32.219 32.256 32.322 32.333 32.351 32.289 32.334 32.354 32.305 32.268 32.282 32.189 32.103 32.054 31.993 32.009 31.926 31.645 31.649 31.552 31.566 31.515 31.819 31.82 31.611 31.582 31.474 31.486 31.519 31.482 31.462 31.385 31.418 31.506 31.593 31.724 31.768 31.814 31.885 31.893 31.923 32.07 31.893 32.024 31.93 32.042 31.962 32 31.982 32.03 32.022 32.017 31.957 31.93 31.853 31.824 31.788 31.699 31.642 31.547 31.45 31.396 31.31 31.067 30.925 30.735 30.601 30.492 30.285 30.155 30.006 29.779 29.577 29.465 29.26 29.111 28.899 28.917 28.88 28.681 28.663 28.793 28.938 29.335 29.577 29.514 29.442 29.432 29.393 29.342 29.398 29.415 29.484 29.502 29.623 29.294 28.538 27.675 27.204 27.639 28.009 27.961 27.994 28.028 28.07 28.345 28.602 28.231 28.183 28.151 28.083 28.124 28.109 28.035 28.023 28.054 28.029 28.061 28.029 28.983 28.993 28.076 28.025 28.107 28.111 28.086 28.053 28.049 28.072 28.116 28.084 27.975 28.01 28.997 28.449 28.058 28.051 28.049 28.038 28.061 27.901 27.502 26.761 26.899 26.765 26.679 26.704 26.727 26.709 27.487 27.252 26.664 26.61 26.602 26.587 26.61 26.601 26.586 26.573 26.56 26.599 26.7 26.898 26.812 26.735 26.678 26.706 26.697 26.718 26.712 26.699 26.698 26.683 26.699 26.857 27.369 26.826 26.671 26.644 26.633 26.637 26.683 26.716 24.517 25.49 25.535 25.471 25.49 25.497 25.477 25.939 25.797 25.538 25.541 25.483 25.451 25.472 25.499 25.471 25.482 25.433 25.469 25.695
26.77 27.197 26.811 26.714 26.626 26.575 26.615 26.588 26.609 26.626 26.667 26.707 26.699 26.663 26.706 26.649 26.713 26.706 26.716 26.651 26.682 26.81 26.667 26.681 26.801 27.421 32.5 27.448 26.721 27.669 28.251 27.394 27.032 26.947 27.089 27.17 27.253 27.393 27.446 27.442 27.61 27.631 27.665 27.812 27.858 27.817 27.864 27.866 27.948 27.96 27.996 35.842 42.854 41.347 37.462 36.777 33.645 33.196 32.374 30.378 29.245 29.338 29.39 29.435 29.368 29.459 29.526 29.57 29.683 30.263 30.793 31.042 31.313 31.115 30.934 30.992 31.017 31.091 31.08 31.142 31.345 31.472 31.424 31.469 31.497 31.508 31.492 31.392 31.377 31.292 31.288 31.311 31.328 31.297 31.545 31.288 31.224 31.093 31.443 31.23 31.319 31.287 31.559 31.472 31.596 31.503 31.376 31.502 31.521 31.604 32.234 31.579 31.544 31.562 31.42 31.714 31.493 31.48 31.535 31.545 31.624 31.263 31.201 31.605 31.39 31.923 31.727 33.046 31.469 30.701 31.208 30.122 30.112 29.895 29.893 29.891 29.942 30.237 29.974 29.915 32.309 29.95 30.435 31.783 30.706 29.852 29.853 32.38 32.616 32.307 30.425 30.351 29.854 29.853 29.868 29.871 29.888 30.534 29.991 33.601 34.647 32.847 30.535 29.916 30.021 29.916 29.956 29.877 30.027 32.731 29.927 29.836 29.867 29.889 29.907 29.878 29.894 29.893 29.864 29.882 29.936 29.972 30.039 30.07 30.129 30.111 30.208 30.555 30.65 30.59 33.493 31.395 31.581 31.116 33.154 32.428 32.063 32.097 32.126 32.175 32.097 32.064 32.01 31.852 31.835 31.798 31.676 31.727 31.696 31.668 31.54 30.704 30.651 30.563 30.638 30.624 30.737 30.906 31.165 31.386 31.655 31.861 31.952 32.033 32.097 32.086 32.14 32.13 32.131 32.176 32.219 32.217 32.249 32.36 32.372 32.35 32.357 32.326 32.368 32.328 32.312 32.293 32.252 32.208 32.197 32.1 32.085 31.91 31.724 31.644 31.671 31.581 31.824 32.108 32.001 31.935 31.932 31.544 31.546 31.486 31.46 31.435 31.442 31.482 31.449 31.441 31.567 31.632 31.796 31.827 31.879 31.89 31.906 31.919 31.927 32.008 32.045 32.05 32.042 31.999 32.057 31.983 31.983 32.011 31.974 31.948 31.837 31.785 31.734 31.714 31.612 31.532 31.441 31.347 31.184 30.937 30.81 30.721 30.581 30.383 30.232 30.031 29.825 29.654 29.484 29.42 29.259 29.12 28.926 28.816 28.739 28.671 28.718 28.679 29.02 29.432 29.572 29.53 29.466 29.426 29.387 29.377 29.423 29.394 29.446 29.511 29.641 29.192 28.468 27.505 26.881 27.965 27.967 27.967 27.986 28.018 28.071 28.534 29.158 28.162 28.155 28.152 28.076 28.089 28.088 28.087 28.059 28.076 28.039 28.026 28.007 28.82 28.906 28.041 28.094 28.096 28.046 28.088 28.041 28.092 28.136 28.142 28.038 28.02 28 28.99 28.349 28.023 28.067 28.082 28.027 28.066 27.653 26.884 26.772 26.689 26.667 26.705 26.765 26.953 27.164 27.475 26.695 26.619 26.615 26.641 26.586 26.591 26.592 26.571 26.584 26.577 26.565 26.635 26.901 26.719 26.721 26.718 26.707 26.714 26.711 26.691 26.672 26.731 26.714 26.669 26.702 27.024 26.761 26.671 26.666 26.658 26.712 26.624 24.533 24.263 25.459 25.515 25.52 25.47 25.473 25.525 25.644 26.005 25.587 25.521 25.488 25.469 25.479 25.49 25.489 25.482 25.562 25.967
26.64 26.692 26.93 26.654 26.598 26.603 26.547 26.59 26.592 26.635 26.632 26.636 26.716 26.674 26.669 26.602 26.645 26.69 26.722 26.622 26.618 26.592 26.583 26.709 26.742 26.676 26.568 27.821 28.842 27.832 26.756 26.782 26.943 27.1 27.166 27.242 27.312 27.408 27.479 27.547 27.63 27.72 27.791 27.819 27.775 27.774 27.834 27.898 27.922 28.006 28.154 35.787 40.77 41.849 41.174 40.126 33.238 29.673 29.857 29.16 29.25 29.332 29.513 29.469 29.429 29.563 29.657 29.642 29.841 30.043 30.541 30.773 30.765 30.906 30.926 31.038 31.044 31.06 31.047 31.297 31.408 31.631 31.471 31.454 31.512 31.52 31.514 31.486 31.398 31.358 31.332 31.304 31.311 31.374 31.532 31.476 31.309 31.104 31.141 31.166 31.236 31.306 31.376 31.582 31.432 31.529 31.399 31.43 31.578 32.916 31.732 32.417 31.695 31.547 32.778 31.518 31.484 31.876 31.528 31.727 31.478 31.331 31.246 31.269 31.532 31.818 33.001 31.725 30.698 30.14 30.283 29.949 29.924 29.941 30.053 29.932 29.885 30.113 30.086 29.893 29.914 29.872 30.36 30.825 30.139 30.741 30.253 33.179 32.329 30.419 33.084 29.945 29.877 29.867 29.902 32.174 31.217 30.302 30.024 32.989 33.543 32.279 29.934 30.299 30.012 29.872 29.916 29.938 29.878 30.161 29.83 29.877 29.848 29.887 29.861 29.912 29.905 29.906 29.925 29.941 29.957 30.849 30.046 30.066 30.063 30.227 30.42 30.523 30.607 30.69 32.942 31.397 31.15 32.698 33.33 32.083 32.028 32.055 32.107 32.17 32.092 32.069 31.95 31.897 31.836 31.805 31.847 31.763 31.725 31.701 30.726 30.483 30.459 30.529 30.53 30.61 30.727 31.057 31.425 31.63 31.849 31.926 31.983 32.092 32.08 32.189 32.135 32.197 32.164 32.17 32.2 32.23 32.343 32.283 32.321 32.393 32.391 32.355 32.357 32.355 32.281 32.321 32.308 32.248 32.213 32.181 32.143 32.088 32.001 31.895 31.745 31.858 32.14 32.31 32.357 32.306 32.318 32.018 31.707 31.468 31.459 31.512 31.487 31.456 31.466 31.428 31.463 31.582 31.74 31.842 31.867 31.907 31.896 31.991 31.996 32.077 31.971 32.089 32.009 32.005 32.005 32.03 32.105 32.014 32.041 31.962 31.86 31.8 31.752 31.749 31.655 31.577 31.555 31.488 31.341 31.118 30.938 30.763 30.575 30.436 30.229 30.13 29.953 29.732 29.578 29.544 29.373 29.174 29.121 28.913 28.757 28.817 28.732 28.65 28.618 29.189 29.589 29.684 29.488 29.416 29.399 29.36 29.398 29.396 29.465 29.473 29.512 29.555 29.188 28.459 27.538 27.233 27.992 28.004 27.999 28.014 28.033 28.046 28.55 28.418 28.125 28.135 28.138 28.138 28.114 28.09 28.048 28.041 28.049 28.015 28.05 28.073 28.795 28.274 28.014 28.081 28.1 28.116 28.099 28.039 28.114 28.113 28.151 28.027 27.987 28.037 29.15 28.31 28.028 28.033 28.081 28.087 27.579 26.786 26.701 26.737 26.747 26.728 26.799 26.816 26.713 26.81 26.899 26.623 26.593 26.603 26.616 26.59 26.622 26.627 26.595 26.587 26.584 26.596 26.825 26.892 27.71 26.914 26.733 26.731 26.721 26.701 26.715 26.684 26.665 26.695 26.678 26.855 27.328 26.762 26.67 26.691 26.685 26.688 26.646 24.833 25.259 25.481 25.472 25.484 25.47 25.51 25.539 26.017 25.817 25.593 25.534 25.532 25.505 25.49 25.502 26.435 25.656 25.634
26.64 26.582 26.595 26.542 26.549 26.582 26.558 26.545 26.521 26.551 26.764 26.677 26.581 26.609 26.608 26.607 26.555 26.565 26.561 26.65 26.678 26.555 26.678 26.74 26.722 27.903 26.962 26.816 26.465 26.595 26.795 26.994 27.052 27.13 27.277 27.337 27.346 27.392 27.533 27.593 27.731 27.768 27.77 27.712 27.785 27.828 27.796 27.934 28.068 28.09 28.136 32.917 33.742 35.034 39.402 31.21 29.822 29.083 29.117 29.245 29.284 29.4 29.52 29.441 29.401 29.405 29.475 29.656 29.987 30.324 30.561 30.798 30.837 30.866 30.996 31.022 31.005 31.002 31.185 31.374 31.975 31.411 31.434 31.429 31.459 31.465 31.467 31.824 31.484 31.409 31.351 31.281 31.305 31.28 31.371 31.668 31.647 31.368 31.108 31.205 31.258 31.366 31.564 31.406 31.405 31.52 31.517 31.594 32.413 31.69 35.288 37.492 33.485 32.943 33.927 34.057 31.923 31.6 31.561 31.664 31.64 31.453 31.391 31.335 31.511 32.043 31.52 30.883 30.36 29.915 30.156 29.908 29.939 29.989 29.922 30.045 29.901 29.885 29.947 29.911 29.915 29.877 29.859 29.928 31.611 30.71 33.139 32.342 31.222 29.925 30.344 29.86 29.851 29.92 29.891 29.826 32.925 30.193 29.997 30.725 31.308 29.936 29.931 30.055 29.933 29.926 29.883 30.166 29.945 29.981 29.889 29.859 29.871 29.887 29.891 29.927 29.892 29.94 29.949 29.982 31.695 30.305 30.059 30.097 30.144 30.349 30.445 30.588 30.591 30.617 30.705 31.151 32.877 33.782 32.732 32.011 32.063 32.085 32.129 32.145 32.018 31.968 31.953 31.864 31.809 31.739 31.707 31.678 31.504 30.707 30.306 30.306 30.394 30.465 30.549 30.649 31.03 31.331 31.613 31.813 31.953 32.004 32.052 32.13 32.163 32.222 32.235 32.203 32.185 32.202 32.198 32.335 32.328 32.29 32.32 32.373 32.407 32.363 32.37 32.35 32.297 32.35 32.339 32.297 32.288 32.25 32.223 32.178 32.11 32.079 32.071 32.223 32.489 32.486 32.624 32.694 32.7 32.53 32.294 32.063 31.857 31.514 31.454 31.474 31.492 31.505 31.435 31.469 31.681 31.748 31.773 31.879 31.904 31.957 31.937 32.045 31.945 31.958 31.977 31.976 32.026 32.007 32.034 32.043 32.071 31.998 31.899 31.815 31.784 31.746 31.712 31.676 31.604 31.539 31.428 31.266 31.022 30.856 30.718 30.598 30.366 30.173 29.989 29.815 29.63 29.429 29.424 29.297 29.153 29.048 28.868 28.712 28.691 28.587 28.678 28.794 29.155 29.45 29.601 29.474 29.484 29.429 29.407 29.382 29.42 29.466 29.542 29.507 29.545 29.145 28.115 27.266 28.063 28.003 27.947 27.956 27.987 28.031 28.062 28.869 28.487 28.17 28.153 28.131 28.127 28.172 28.086 28.088 28.056 28.046 28.041 28.105 28.09 28.909 28.29 28.014 28.077 28.085 28.118 28.108 28.099 28.102 28.112 28.092 28.015 27.98 28.153 29.162 28.345 28.022 28.107 28.239 27.175 26.753 26.763 26.761 26.791 27.324 26.781 26.707 26.66 26.642 26.716 26.915 26.617 26.593 26.603 26.594 26.578 26.552 26.599 26.58 26.538 26.557 26.502 26.735 26.861 26.74 26.736 26.706 26.717 26.682 26.722 26.697 26.668 26.721 26.678 26.707 26.841 27.352 26.736 26.697 26.645 26.655 26.698 26.601 24.896 24.332 25.437 25.499 25.48 25.488 25.511 25.625 25.726 25.634 25.626 25.53 25.549 25.556 26.486 25.827 25.598 25.574
26.664 26.594 26.576 26.557 26.762 26.624 26.556 26.565 26.499 26.516 26.535 26.571 26.494 26.498 26.477 26.587 26.633 26.708 26.846 26.593 26.589 26.739 26.794 27.74 27.883 27.033 26.416 26.533 26.654 26.896 27.019 27.092 27.151 27.245 27.297 27.347 27.37 27.508 27.578 27.73 27.669 27.637 27.736 27.748 27.712 27.801 27.947 27.976 27.991 29.78 30.349 31.933 32.57 31.738 30.055 28.916 29.112 29.069 29.436 29.26 29.388 29.498 29.431 29.437 29.493 29.434 29.494 29.885 30.262 30.684 31.203 30.875 30.845 30.997 31.022 30.998 31.081 31.161 31.315 31.737 31.391 31.42 31.425 31.387 31.411 31.477 31.454 31.464 32.589 31.515 31.407 31.334 31.312 31.298 31.334 31.441 32.005 31.702 31.164 31.219 31.566 31.496 31.334 31.446 31.477 31.545 31.583 31.659 31.975 35.454 38.397 37.935 37.592 36.184 34.261 34.101 33.566 32.013 31.469 32.709 31.548 31.439 31.512 31.417 33.199 31.744 30.902 30.331 29.899 29.877 29.933 29.94 30.441 32.748 30.014 29.951 29.93 29.888 30.27 29.88 29.909 29.873 29.84 29.868 30.7 29.904 30.291 29.843 30.712 29.89 29.86 29.86 31.186 30.304 29.806 29.905 29.94 31.396 31.962 29.951 29.977 30.389 29.965 29.974 29.971 29.968 29.916 29.932 29.927 30.234 29.893 29.888 29.866 29.936 29.917 29.887 29.912 30.043 29.98 29.973 30.545 30.038 30.102 30.155 30.328 30.473 30.541 30.602 30.594 30.695 31.073 31.549 33.485 32.382 31.918 32.085 32.137 32.166 32.171 32.032 31.899 31.904 31.907 31.827 31.791 31.791 31.65 31.228 30.802 30.254 30.203 30.236 30.351 30.518 32.074 30.825 31.316 31.646 31.83 31.97 32.079 32.099 32.122 32.194 32.209 32.343 32.232 32.215 32.185 32.205 32.245 32.35 32.319 32.334 32.397 32.426 32.414 32.442 32.41 32.383 32.346 32.366 32.359 32.346 32.366 32.377 32.346 32.297 32.323 32.373 32.411 32.512 32.669 32.739 32.844 32.964 32.962 32.877 32.664 32.512 32.262 32.047 31.973 31.488 31.474 31.464 31.5 31.582 31.627 31.566 31.666 31.821 31.918 31.98 31.95 31.946 31.918 31.909 31.975 31.968 31.968 31.974 32.011 31.984 31.974 31.956 31.85 31.833 31.839 31.827 31.702 31.687 31.604 31.58 31.463 31.301 31.12 30.966 30.838 30.65 30.433 30.264 30.115 29.884 29.744 29.54 29.487 29.338 29.338 29.228 28.987 28.854 28.717 28.677 28.664 28.581 28.845 29.104 29.565 29.519 29.442 29.39 29.437 29.387 29.416 29.418 29.425 29.434 29.512 29.488 29.134 28.052 27.396 28.014 28.119 27.898 28.015 28.057 28.057 28.107 29.174 28.512 28.107 28.144 28.177 28.128 28.092 28.099 28.1 28.093 28.039 28.061 28.053 28.102 28.548 28.369 28.053 28.058 28.114 28.092 28.088 28.125 28.104 28.146 28.098 28.017 28.023 28.017 29.078 28.159 26.842 26.803 27.167 26.873 26.87 26.839 26.873 26.971 26.688 26.584 26.612 26.611 26.596 26.722 27.261 26.626 26.614 26.59 26.563 26.612 26.571 26.537 26.549 26.545 26.548 26.551 26.809 26.94 26.717 26.697 26.71 26.703 26.698 26.727 26.688 26.645 26.631 26.67 26.722 26.852 27.077 26.712 26.7 26.666 26.707 26.681 26.6 24.474 25.203 25.456 25.484 25.487 25.496 25.527 25.605 26.201 25.817 25.591 25.597 26.509 25.688 25.473 25.549 25.506
26.682 26.734 26.566 26.544 26.534 26.516 26.492 26.442 26.468 26.528 26.643 26.456 26.491 26.475 26.549 26.672 26.867 26.623 26.606 26.44 26.634 27.45 27.784 27.19 26.598 26.501 26.655 26.834 26.933 27.067 27.125 27.177 27.219 27.283 27.323 27.361 27.431 27.582 27.575 27.58 27.679 27.74 27.679 27.756 27.816 27.945 27.864 30.043 32.427 31.935 31.125 30.827 29.604 29.459 28.894 29.14 29.075 29.104 29.131 29.323 29.418 29.31 29.434 29.503 29.64 29.7 31.47 30.043 30.613 30.924 31.144 30.965 30.913 30.969 31.025 31.038 31.157 31.302 31.66 31.384 31.375 31.383 31.435 31.409 31.394 31.408 31.436 31.471 31.468 31.871 31.868 31.382 31.329 31.353 31.392 31.862 31.813 31.724 31.398 31.376 31.32 31.515 31.441 31.404 31.441 31.554 31.647 31.646 31.877 38.694 38.833 38.429 38.054 37.051 35.215 34.229 34.116 34.077 32.207 31.423 31.474 31.597 31.56 31.498 31.846 31.018 30.532 30.113 30.237 29.91 29.914 31.091 30.206 32.817 30.17 30.772 29.922 29.88 29.855 29.849 29.886 29.922 29.885 29.898 29.917 29.861 29.837 29.786 29.862 29.758 29.902 29.925 30.114 29.917 30.313 30.283 30.724 29.875 30.22 31.902 30.003 30.266 29.987 29.946 29.936 29.953 29.954 30.032 29.961 29.943 29.902 29.919 29.891 29.891 29.902 29.942 29.895 30.322 30.83 29.986 30.027 30.047 30.172 30.307 30.446 30.501 30.559 30.669 30.669 30.776 31.764 32.131 32.227 32.125 32.007 32.127 32.144 32.155 32.052 31.949 31.934 31.942 31.819 31.871 31.847 31.79 32.261 30.483 30.101 30.046 30.075 30.18 31.993 33.464 31.143 31.464 31.797 31.954 32.004 32.136 32.145 32.199 32.203 32.28 32.224 32.262 32.262 32.259 32.218 32.283 32.364 32.395 32.415 32.446 32.395 32.454 32.439 32.475 32.401 32.331 32.376 32.396 32.379 32.422 32.446 32.484 32.47 32.506 32.567 32.577 32.712 32.85 32.919 33.009 33.195 33.381 33.295 33.252 33.175 32.948 32.817 32.569 32.35 32.019 31.706 31.451 31.46 31.48 31.426 31.466 31.518 31.611 31.684 31.876 31.907 31.885 31.908 31.88 31.884 31.888 31.923 31.927 31.918 31.958 31.881 31.894 31.862 31.85 31.801 31.828 31.776 31.714 31.657 31.624 31.464 31.355 31.201 31.034 30.917 30.749 30.63 30.356 30.28 30.015 29.784 29.706 29.609 29.512 29.433 29.327 29.184 29.019 28.801 28.758 28.744 28.678 28.942 28.863 29.137 29.545 29.537 29.429 29.413 29.454 29.344 29.374 29.438 29.47 29.477 29.561 29.466 29.023 28.25 27.239 28.211 28.066 27.951 27.947 28.032 28.02 28.116 29.205 28.363 28.161 28.115 28.104 28.195 28.133 28.098 28.107 28 28.02 28.025 28.083 28.082 29.06 28.332 28.052 28.073 28.096 28.135 28.166 28.101 28.154 28.112 28.076 28.006 28.058 28.585 28.095 25.748 27.245 27.05 27.029 26.964 26.995 26.736 25.656 26.659 26.595 26.598 26.612 26.615 26.659 26.878 26.743 26.585 26.6 26.571 26.589 26.607 26.602 26.589 26.562 26.51 26.536 26.579 26.844 26.838 26.736 26.715 26.676 26.672 26.695 26.68 26.709 26.674 26.7 26.668 26.723 27.057 27.183 26.71 26.64 26.654 26.643 26.634 26.369 24.772 25.268 25.464 25.46 25.468 25.503 25.569 25.849 25.896 25.629 25.626 25.613 25.518 25.559 25.829 25.541
26.509 26.547 26.5 26.548 26.437 26.425 26.459 26.442 26.424 26.392 26.391 26.485 26.521 26.493 26.526 26.564 26.488 26.582 26.478 27.731 27.834 27.058 26.467 26.491 26.565 26.746 26.951 26.984 27.032 27.144 27.208 27.258 27.283 27.304 27.402 27.516 27.501 27.472 27.513 27.617 27.693 27.686 27.776 27.903 27.871 27.883 30.594 32.197 32.434 31.894 29.36 28.439 28.472 28.791 28.954 29.081 29.019 29.185 29.284 29.249 29.315 29.336 29.539 29.859 30.362 30.785 34.195 33.76 31.138 31.065 31.063 30.96 30.94 30.975 30.976 31.1 31.263 32.014 31.351 31.384 31.386 32.608 31.46 31.45 31.449 31.388 31.406 31.435 31.512 31.467 31.559 31.821 31.41 31.375 31.336 31.418 31.423 31.439 31.518 31.399 31.296 31.355 31.406 31.556 31.58 31.656 31.656 31.874 37.413 38.474 38.758 38.783 38.446 38.175 37.749 35.267 35.738 34.605 34.056 31.483 31.436 31.502 31.494 31.672 31.125 30.325 31.385 30.969 30.073 29.916 29.917 34.342 31.994 29.979 30.281 30.713 29.88 29.917 29.868 29.863 29.94 29.888 29.889 29.917 29.919 29.87 29.861 32.966 29.928 29.924 29.908 29.925 30.123 30.104 30.094 29.915 30.163 29.879 29.846 31.376 30.907 32.046 30.501 30.036 29.94 29.952 29.934 29.952 29.951 29.932 29.949 29.88 29.847 29.863 29.929 29.899 29.921 29.921 29.898 30.507 30.493 30.06 30.149 30.355 30.47 30.557 30.586 30.998 31.05 31.747 32.153 32.146 32.03 31.994 32.089 32.132 32.059 31.946 31.9 31.884 31.932 31.891 31.833 31.793 31.755 31.862 31.426 30.027 29.919 29.969 30.051 30.197 32.8 31.45 31.517 31.875 32.001 32.065 32.129 32.215 32.231 32.267 32.308 32.248 32.258 32.263 32.261 32.233 32.249 32.271 32.277 32.398 32.439 32.474 32.433 32.447 32.457 32.435 32.396 32.398 32.434 32.429 32.472 32.49 32.542 32.591 32.658 32.686 32.756 32.838 32.992 33.102 33.166 33.242 33.478 33.618 33.663 33.663 33.586 33.38 33.283 33.092 32.871 32.562 32.261 31.933 31.745 31.504 31.461 31.468 31.478 31.488 31.503 31.63 31.882 31.867 31.814 31.883 31.866 31.881 31.92 31.908 31.939 31.894 31.861 31.907 31.848 31.858 31.875 31.815 31.812 31.737 31.7 31.663 31.568 31.497 31.322 31.118 31.002 30.853 30.696 30.555 30.342 30.187 29.988 29.808 29.77 29.69 29.553 29.417 29.198 29.169 29.208 28.983 28.794 28.772 28.598 28.679 28.885 29.257 29.56 29.568 29.429 29.459 29.455 29.361 29.378 29.404 29.438 29.459 29.614 29.571 28.954 28.133 27.169 28.029 27.91 27.979 27.955 28.036 28.003 28.055 29.138 28.365 28.181 28.133 28.176 28.119 28.139 28.118 28.112 28.061 28.027 28.007 28.058 28.304 29.234 28.22 28.099 28.067 28.091 28.09 28.109 28.116 28.131 28.142 28.117 28.207 30.109 30.032 27.508 27.318 27.31 27.183 27.125 27.973 27.967 27.703 26.453 26.506 26.614 26.56 26.584 26.582 26.647 27.336 27.226 26.621 26.575 26.583 26.589 26.565 26.562 26.526 26.559 26.567 26.568 26.535 26.834 26.81 26.72 26.725 26.708 26.725 26.698 26.676 26.676 26.708 26.722 26.722 26.688 26.905 26.952 26.676 26.654 26.628 26.615 26.61 26.065 24.618 25.858 25.456 25.492 25.489 25.514 25.506 25.633 26.062 25.612 25.621 25.582 25.722 25.557 25.506
26.505 26.453 26.479 26.435 26.423 26.423 26.443 26.502 26.373 26.402 26.377 26.392 26.611 26.46 26.434 26.402 27.237 27.345 26.831 26.621 26.479 26.494 26.497 26.689 26.711 26.889 26.921 27.039 27.153 27.221 27.251 27.297 27.374 27.445 27.487 27.473 27.484 27.562 27.595 27.623 27.62 27.8 27.83 28.147 29.535 30.971 31.15 30.568 30.81 29.116 28.565 28.57 28.55 28.78 28.985 28.936 28.974 29.097 29.187 29.284 29.339 29.516 32.17 30.808 30.498 30.892 33.873 34.363 31.781 31.167 31.134 30.985 30.949 30.906 31.077 31.203 31.688 31.311 31.347 31.358 33.242 33.204 31.445 31.45 31.458 31.505 31.407 31.419 31.428 31.477 31.469 33.164 31.52 31.465 31.392 31.338 31.401 31.357 31.348 31.565 31.579 31.401 31.69 31.569 32.741 31.914 31.804 36.739 37.615 38 38.445 38.754 38.863 38.559 38.06 37.784 37.333 35.367 32.314 31.547 31.483 31.486 32.08 31.167 30.599 30.964 30.165 29.912 29.913 29.987 30.109 29.992 30.887 30.674 30.012 30.887 29.892 29.93 29.952 29.936 29.861 29.882 29.908 29.904 29.912 29.88 29.855 29.899 29.861 29.897 29.928 29.877 30.954 35.9 33.734 30.05 29.974 31.649 29.905 29.93 29.996 32.117 30.208 29.962 29.953 29.927 30.129 31.539 29.87 29.923 29.908 29.898 29.872 29.933 29.858 29.902 29.955 30.259 29.907 29.976 31.344 30.156 30.119 30.373 30.523 30.578 30.684 31.101 31.504 32.201 32.219 32.097 31.986 32.122 32.137 32.07 31.955 31.95 31.912 31.85 31.836 31.866 31.888 31.994 31.605 30.61 30.054 29.831 29.786 29.855 30.036 30.408 31.216 31.271 31.98 32.101 32.105 32.174 32.219 32.251 32.272 32.269 32.345 32.391 32.283 32.246 32.284 32.276 32.253 32.285 32.347 32.432 32.476 32.402 32.459 32.512 32.435 32.471 32.444 32.428 32.442 32.552 32.544 32.603 32.695 32.735 32.866 32.934 33.019 33.118 33.231 33.271 33.336 33.567 33.699 33.826 33.874 33.866 33.819 33.732 33.699 33.473 33.24 33.074 32.773 32.614 32.368 32.149 31.65 31.481 31.446 31.508 31.465 31.493 31.662 31.673 31.695 31.796 31.805 31.868 31.94 31.944 31.904 31.89 31.883 31.898 31.89 31.906 31.857 31.814 31.819 31.789 31.75 31.676 31.62 31.487 31.352 31.167 31.079 31.008 30.831 30.652 30.483 30.278 30.105 30.004 29.94 29.701 29.602 29.441 29.309 29.283 29.326 29.121 28.848 28.805 28.722 28.593 28.71 28.857 29.392 29.661 29.644 29.536 29.471 29.475 29.497 29.539 29.543 29.464 29.509 29.599 29.541 28.952 27.836 27.228 27.768 27.961 27.988 27.985 28.025 28.025 28.453 29.19 28.418 28.153 28.15 28.198 28.22 28.127 28.093 28.064 28.059 28.032 28.103 28.031 28.08 28.721 28.084 28.032 28.058 28.14 28.136 28.098 28.143 28.118 28.084 27.72 27.716 27.78 27.518 27.464 29.295 27.539 27.842 27.905 27.874 27.841 26.818 26.446 26.713 26.549 26.578 26.615 26.629 26.597 27.223 27.076 26.602 26.583 26.618 26.57 26.604 26.568 26.558 26.53 26.555 26.565 26.588 26.843 26.847 26.674 26.663 26.679 26.718 26.671 26.687 26.697 26.696 26.727 26.683 26.742 27.013 26.858 26.671 26.637 26.661 26.638 26.628 26.189 24.778 25.718 25.444 25.495 25.498 25.527 25.529 25.883 26.018 25.561 25.634 25.603 25.562 25.488
26.448 26.473 26.512 26.435 26.336 26.35 26.482 26.348 26.357 26.348 26.39 26.446 26.451 26.643 27.294 27.476 26.865 26.527 26.433 26.492 27.291 26.646 26.726 26.815 26.88 26.91 26.974 27.035 27.189 27.185 27.289 27.395 27.639 27.355 27.394 27.464 27.502 27.559 27.599 27.741 27.781 27.766 29.621 32.511 32.48 31.223 29.729 28.136 28.112 28.106 28.372 28.317 28.509 28.793 29 28.913 29.027 29.171 29.232 29.491 29.639 31.514 32.556 31.665 30.686 30.707 30.607 31.194 31.141 31.159 31.184 31.014 31.008 31.035 31.161 32.314 31.486 31.491 31.344 31.408 31.439 33.155 31.517 31.446 31.549 31.471 31.4 31.394 31.409 31.477 31.532 31.47 31.537 31.508 31.458 31.364 31.342 31.303 31.318 31.305 31.47 31.343 31.487 31.667 32.089 34.066 36.079 36.898 37.235 37.717 37.955 38.345 38.783 38.888 38.518 38.242 37.87 37.474 31.866 31.978 31.843 31.766 31.358 30.717 30.535 29.943 29.875 29.998 29.898 29.852 35.124 31.141 29.98 29.896 29.951 32.342 30.046 29.954 29.899 29.848 29.856 29.831 29.88 29.871 29.843 29.848 29.838 29.845 29.876 29.872 29.898 29.779 32.436 34.592 34.518 35.487 30.443 29.902 29.924 29.954 29.934 29.959 29.988 29.984 29.93 30.172 33.514 30.651 29.881 29.845 29.796 29.874 29.887 29.86 29.881 29.914 31.407 29.958 29.934 30.003 30.047 30.237 30.596 30.433 30.543 30.621 30.914 31.567 32.119 32.141 32.08 32.068 32.082 32.13 32.071 32.037 32.076 31.958 31.904 31.906 31.839 31.882 31.929 31.873 30.748 29.862 29.67 29.728 29.768 29.889 30.008 30.26 31.289 31.92 32.102 32.157 32.202 32.259 32.286 32.324 32.322 32.363 32.371 32.397 32.32 32.34 32.278 32.304 32.281 32.311 32.39 32.462 32.467 32.51 32.48 32.467 32.521 32.536 32.509 32.475 32.514 32.548 32.579 32.649 32.791 32.93 33.03 33.138 33.214 33.355 33.403 33.446 33.605 33.745 33.889 33.949 33.988 34.002 34.005 33.995 33.981 33.866 33.809 33.529 33.188 33.06 32.806 32.644 32.511 32.18 31.822 31.462 31.465 31.475 31.429 31.463 31.547 31.608 31.703 31.76 31.828 31.888 31.925 31.906 31.938 31.931 31.912 31.918 31.853 31.796 31.84 31.841 31.804 31.726 31.674 31.512 31.405 31.298 31.159 31.036 30.911 30.818 30.579 30.426 30.232 30.158 29.95 29.794 29.701 29.659 29.441 29.328 29.223 29.179 29.026 28.805 28.68 28.675 28.663 28.955 28.943 29.301 29.653 29.653 29.519 29.49 29.45 29.48 29.477 29.446 29.433 29.521 29.603 29.429 28.765 27.917 27.253 28.225 28.035 28.003 27.981 28.096 28.066 28.166 29.203 28.448 28.21 28.169 28.137 28.141 28.111 28.083 28.099 27.987 28.032 27.995 28.05 29.479 29.593 28.088 28.102 28.084 28.087 28.12 28.113 28.213 27.805 27.589 27.576 27.575 27.561 28.91 29.964 28.348 27.845 27.822 27.807 27.833 27.838 27.295 26.612 26.645 26.576 26.558 26.574 26.648 26.662 27.21 26.836 26.609 26.606 26.602 26.599 26.536 26.57 26.552 26.599 26.572 26.599 26.559 26.798 26.743 26.719 26.655 26.677 26.691 26.652 26.709 26.719 26.715 26.638 26.683 26.785 27.438 26.758 26.624 26.681 26.684 26.622 26.66 26.315 24.171 25.669 25.469 25.506 25.447 25.491 25.542 25.672 25.753 25.494 25.609 25.585 25.555
