ncols 434
nrows 31
xllcorner    433048
yllcorner    434322
cellsize     2
NODATA_value -9999
71.545 72.288 72.54 70.776 70.362 70.38 70.385 70.693 70.487 70.532 70.998 74.674 72.065 71.679 70.557 71.49 75.128 76.613 75.959 73.551 70.817 70.032 69.977 69.858 76.913 87.281 86.536 74.293 69.027 69.139 69.313 69.302 69.277 69.388 69.382 69.388 69.431 69.408 69.4 69.316 69.323 69.277 69.362 69.275 69.248 69.27 69.353 69.379 69.414 69.409 69.452 69.491 69.514 69.599 69.677 69.722 69.809 69.874 69.946 69.961 70.013 70.062 70.077 70.08 70.159 70.21 70.263 70.242 70.283 70.239 70.267 70.239 70.141 70.091 70.29 70.378 70.367 70.345 70.156 70.208 70.251 70.225 70.127 70.184 70.114 70.106 69.974 69.781 69.793 69.528 69.233 68.982 68.825 68.728 68.576 68.434 68.383 68.208 68.123 68.21 68.083 68.083 68.102 68.037 68.037 67.998 68.019 67.902 67.896 67.914 67.861 67.887 67.848 67.793 67.686 67.642 67.443 67.42 67.381 67.874 67.252 67.111 66.957 66.94 66.839 66.695 66.615 66.433 66.249 66.118 66.033 66.036 65.951 65.893 65.871 65.695 65.53 65.355 65.141 64.926 64.723 64.519 64.257 63.977 63.566 63.37 63.256 63.035 62.748 62.498 62.276 62.073 61.705 61.482 61.17 61.058 61.103 64.931 65.061 65.181 62.505 70.775 63.754 62.751 64.21 69.063 73.522 72.741 67.54 67.816 68.208 64.052 67.1 66.791 67.957 67.255 66.48 64.151 62.935 62.644 62.351 62.279 62.197 62.138 62.127 63.52 63.329 63.554 61.692 61.675 61.909 63.383 64.609 66.344 66.412 62.387 60.259 63.818 65.867 63.946 61.421 60.701 59.489 59.344 59.061 58.699 58.45 58.244 58.127 58.003 57.881 57.684 57.506 57.407 57.299 57.256 57.243 57.219 59.958 62.78 64.141 65.004 65.245 64.13 63.429 57.814 57.341 59.906 58.864 58.78 56.439 55.4 55.335 54.031 53.753 55.47 55.585 60.245 61.502 60.973 56.1 54.881 55.566 54.384 54.281 54.363 54.454 54.482 54.906 55.705 54.795 55.225 60.333 61.088 60.546 59.842 54.561 54.407 54.376 56.501 56.095 57.364 56.807 57.926 56.312 52.821 52.201 51.906 51.707 51.392 51.193 51.908 52.285 52.892 50.853 50.507 55.432 56.984 58.52 56.941 52.14 50.305 50.392 50.398 50.208 49.15 48.93 48.836 48.775 48.827 48.828 48.803 48.856 48.98 49.129 49.227 50.125 49.984 49.419 53.102 54.413 49.207 48.971 50.913 51.737 51.667 51.455 48.828 50.101 51.416 50.991 50.673 50.631 50.544 50.181 50.567 50.542 50.764 50.402 46.993 46.609 46.484 46.397 47.364 46.802 46.566 46.09 46.028 45.984 45.931 45.898 46.352 45.773 48.472 47.571 46.124 45.687 44.998 47.255 47.782 45.326 45.235 45.485 45.301 44.77 46.765 45.515 44.363 44.24 44.167 44.041 44.303 44.787 45.077 45.112 44.915 44.431 43.734 43.344 43.318 43.235 43.1 42.992 42.9 42.965 43.012 42.965 42.846 42.703 42.827 42.347 41.92 44.439 46.122 48.387 46.625 41.727 43.766 44.507 41.421 41.016 40.868 40.734 40.77 40.531 40.487 41.08 42.746 43.652 42.233 40.597 40.64 42.907 47.81 48.526 47.891 44.466 42.293 41.504 41.952 41.278 41.262 41.148 41.068 41.053 40.931 41.465 46.814 53.174 52.295 44.95 41.358 41.434 41.453 41.495 45.377 49.933 48.605 48.654 44.71 44.479 41.663 47.294 41.703 41.664 41.751 41.72 41.788 41.853 41.913 41.955 41.972 41.922 41.879
71.395 71.996 70.506 70.387 70.355 70.357 70.372 70.413 70.967 70.523 70.582 70.96 70.515 70.536 70.727 76.531 77.488 77.521 76.78 74.7 70.784 70.102 70.074 70.017 71.495 70.464 72.382 69.177 69.407 69.034 69.174 69.281 69.302 69.365 69.283 69.343 69.34 69.391 69.314 69.259 69.288 69.279 69.205 69.207 69.191 69.246 69.325 69.407 69.394 69.41 69.431 69.487 69.55 69.618 69.683 69.793 69.851 69.922 69.977 69.947 70.03 69.987 70.017 70.063 70.132 70.172 70.143 70.123 70.178 70.195 70.265 70.165 70.125 70.125 70.172 70.195 70.192 70.23 70.089 70.126 70.178 70.117 70.071 70.151 70.073 70.001 69.921 69.743 69.633 69.466 69.159 68.913 68.744 68.645 68.498 68.448 68.314 68.096 68.034 68.156 68.098 67.977 67.992 67.976 67.893 67.972 67.921 67.883 67.866 67.847 67.792 67.824 67.741 67.663 67.583 67.566 67.467 67.379 67.251 67.183 67.126 66.991 66.87 66.834 66.756 66.644 66.421 66.285 66.18 66.153 66.129 66.088 65.962 65.849 65.731 65.592 65.408 65.164 64.994 64.789 64.41 64.207 63.955 63.724 63.398 63.124 62.945 62.855 62.607 62.369 62.057 61.728 61.449 61.357 61.41 61.738 61.512 64.497 65.654 62.484 64.234 65.415 62.995 64.409 71.71 70.899 68.068 68.521 67.371 70.265 70.164 63.796 67.836 67.961 66.877 64.587 64.497 63.913 63.13 62.726 62.546 62.327 62.408 62.493 64.105 64.907 64.049 64.104 62.548 61.684 63.947 63.897 66.533 67.938 68.297 66.209 61.056 60.081 63.197 60.672 60.043 59.958 59.651 59.447 59.041 58.832 58.528 58.388 58.28 58.162 58.048 57.886 57.758 57.624 57.528 57.53 57.49 57.473 58.162 62.957 64.435 65.221 65.333 63.667 59.642 57.315 56.731 58.382 57.999 57.56 55.948 55.72 55.467 55.78 55.415 55.268 59.878 61.929 62.721 61.911 59.733 55.207 54.952 54.837 54.528 54.52 54.586 54.663 54.715 54.924 55.58 55.254 59.641 59.854 56.014 54.998 54.599 55.052 57.676 57.897 55.195 54.811 54.866 58.486 57.599 53.524 52.539 52.241 51.985 52.719 53.23 53.296 53.403 51.468 50.577 50.497 54.339 57.156 58.158 57.968 56.47 51.539 50.361 50.384 50.509 49.953 49.13 48.945 48.87 48.911 48.929 48.889 48.888 48.963 49.09 49.362 49.629 52.924 54.968 55.751 55.155 50.078 51.313 52.191 52.14 49.575 48.574 47.955 47.333 50.932 50.699 47.357 47.037 46.649 47.289 47.627 46.911 47.276 49.643 48.085 46.742 46.579 46.508 46.63 46.399 46.245 46.23 46.129 46.076 46.089 46.402 46.106 45.841 45.872 48.588 47.453 45.671 46.68 47.429 46.566 45.648 45.234 45.994 44.878 45.763 45.074 44.593 44.441 44.34 44.196 44.608 45.056 45.325 45.31 45.028 44.478 43.843 43.58 43.488 43.409 43.304 43.182 43.084 43.065 43.151 43.097 42.987 44.762 43.317 42.171 41.839 44.408 46.908 48.482 49.149 48.826 46.694 45.771 45.309 41.541 40.857 40.713 40.737 40.669 41.092 40.639 41.567 42.196 43.951 40.99 40.458 40.508 41.584 47.057 49.104 47.962 46.74 41.031 40.791 41.462 41.53 41.144 41.111 40.997 41.057 41.026 40.974 41.303 41.377 41.183 42.622 41.364 41.439 41.464 41.508 41.514 41.58 45.107 46.376 44.479 41.749 41.604 41.722 41.751 41.796 41.876 41.822 41.84 41.896 41.98 42.045 42.065 42.089 41.973
71.291 70.804 70.417 70.398 70.415 70.363 70.353 70.346 70.384 70.656 70.564 70.455 71.295 70.932 71.649 75.776 76.681 77.511 77.59 76.792 74.841 71.236 70.155 70.12 70.018 69.713 72.404 87.834 75.086 81.48 69.547 69.203 69.302 69.291 69.295 69.483 69.316 69.371 69.344 69.372 69.311 69.292 69.268 69.218 69.278 69.324 69.332 69.386 69.398 69.413 69.431 69.384 69.473 69.534 69.646 69.736 69.796 69.854 69.903 69.845 70.035 70.022 70.04 70.039 70.109 70.041 70.23 70.349 70.173 70.252 70.218 70.08 70.08 70.147 70.067 70.239 70.24 70.069 70.067 70.097 70.118 72.227 70.625 70.241 70.033 69.953 69.756 69.648 69.572 69.36 69.116 68.908 68.67 68.548 68.457 68.282 68.258 68.134 67.912 68.059 68.078 67.991 67.938 67.902 67.889 67.919 67.919 67.876 67.902 67.826 67.799 67.722 67.662 67.542 67.503 67.474 67.358 67.263 67.125 67.024 67.044 66.95 66.879 66.684 66.527 66.44 66.323 66.253 66.259 66.26 66.09 66.049 65.89 65.685 65.521 65.348 65.119 64.833 64.732 64.473 64.232 63.995 63.769 63.559 63.265 62.973 62.778 62.664 62.403 62.139 61.91 63.684 64.174 64.564 63.696 66.187 64.171 63.907 63.835 61.048 63.493 65.233 67.837 67.171 67.855 72.454 70.26 65.398 65.593 70.326 70.76 68.258 68.8 67.707 63.926 63.194 62.822 62.691 62.645 62.618 62.583 62.554 62.563 62.659 62.672 64.345 64.778 64.375 62.116 61.676 63.721 67.216 68.849 68.953 68.792 67.948 62.943 61.364 61.11 60.389 60.12 61.31 60.614 59.462 59.122 58.821 58.644 58.538 58.417 58.297 58.134 58.033 57.906 57.949 57.904 57.734 57.711 57.746 57.714 58.145 63.466 64.11 63.46 62.451 58.738 57.172 58.99 56.904 57.921 57.615 56.463 56.021 55.834 55.575 55.447 55.578 59.615 61.56 62.985 62.803 60.731 56.359 55.156 55.036 54.979 54.762 54.799 54.826 54.86 54.925 54.863 54.723 55.522 54.587 55.2 55.752 56.165 55.946 55.321 55.125 54.635 54.34 54.158 56.841 58.606 53.311 52.708 54.352 54.06 54.268 54.254 52.535 51.393 51.084 50.722 50.609 50.588 57.13 58.505 58.406 56.875 52.105 50.43 50.492 50.538 50.508 49.537 49.048 48.938 48.892 48.973 48.944 48.954 49.043 49.15 49.488 49.24 52.567 55.664 57.069 56.66 54.438 52.43 51.047 50.507 49.793 47.473 47.509 47.409 49.713 50.898 47.322 46.767 46.802 46.719 46.704 46.699 49.664 52.568 52.514 48.091 47.266 47.925 46.604 46.461 46.36 46.311 46.224 46.223 46.199 46.248 46.149 46.023 45.864 46.333 48.649 47.577 47.983 46.935 45.543 46.135 45.233 45.289 44.915 45.186 44.736 44.659 44.538 44.419 44.955 45.412 45.594 45.497 45.286 44.573 44.085 43.652 43.615 43.551 43.466 43.344 43.264 43.277 43.38 43.25 43.107 45.972 47.882 46.38 41.988 42.288 46.438 48.847 48.895 48.212 47.452 42.024 44.699 44.581 41.728 40.855 40.699 40.643 40.608 40.64 41.79 42.288 42.05 41.022 42.099 40.572 40.557 40.564 45.23 48.43 48.227 46.969 42.262 40.895 41.105 41.108 41.113 41.07 41.036 41.061 41.05 40.963 41.164 41.403 41.251 41.317 41.317 41.375 41.494 41.542 41.576 41.603 41.611 41.686 43.655 45.754 42.313 41.717 41.754 41.779 41.787 41.854 41.919 41.993 42.067 42.14 42.165 42.176 42.157
73.153 74.586 72.643 70.858 71.26 70.84 70.376 70.35 70.313 70.344 70.354 70.379 70.558 70.432 70.418 72.991 75.91 77.104 77.571 77.498 76.566 74.77 70.345 70.231 70.265 70.675 73.727 83.916 80.2 85.654 74.357 69.181 69.223 69.295 69.289 69.332 69.315 69.352 69.302 69.401 69.3 69.254 69.156 69.214 69.292 69.302 69.395 69.422 69.4 69.423 69.434 69.409 69.572 69.609 69.568 69.647 69.752 69.855 69.94 70.056 69.906 69.941 70.046 69.923 70.016 70.096 70.12 70.214 70.124 70.25 70.081 69.989 70.012 70.037 70 70.067 70.177 69.958 70.015 70.085 72.078 71.188 75.268 75.43 71.663 69.99 69.791 69.658 69.497 69.297 69.101 68.836 68.604 68.478 68.266 68.193 68.178 68.016 67.884 67.944 67.944 67.875 67.914 67.881 67.781 67.886 67.797 67.729 67.784 67.679 67.632 67.595 67.498 67.404 67.375 67.376 67.266 67.135 67.061 66.924 66.864 66.76 66.563 66.43 66.378 66.375 66.397 66.315 66.241 66.156 66.028 65.904 65.665 65.474 65.308 65.088 64.959 64.725 64.547 64.271 63.964 63.821 63.538 63.296 63.124 62.846 62.699 62.538 62.426 62.975 65.437 66.973 66.247 67.631 61.931 66.004 63.946 61.941 61.06 62.462 66.093 67.347 68.442 68.942 68.853 68.771 65.675 62.452 65.38 65.066 68.365 68.349 65.065 63.441 62.959 63.006 62.874 62.765 62.714 62.691 62.623 62.716 62.772 62.852 62.931 62.949 64.931 64.262 63.322 61.719 66.778 68.161 69.005 69.352 67.951 67.403 63.477 61.644 60.966 60.248 60.666 60.716 59.569 59.443 59.142 58.919 58.823 58.677 58.519 58.435 58.327 58.227 58.36 58.21 58.128 58.008 57.969 57.943 57.764 57.768 60.892 62.877 58.505 58.834 62.303 63.926 63.688 57.496 56.803 57.952 62.757 57.38 56.008 55.786 55.66 55.502 55.831 59.771 62.235 63 62.439 59.789 55.921 55.2 55.29 54.987 54.976 54.99 55.082 55.427 55.074 55.871 55.568 55.713 56.015 61.12 61.043 55.76 55.422 55.243 54.699 54.368 54.41 58.841 60.747 60.339 57.028 56.292 54.231 53.094 52.216 51.78 51.704 51.756 51.445 51.329 51.255 56.137 57.644 58.347 57.16 56.074 50.537 50.516 50.593 50.315 49.687 49.141 49.066 49.002 49.028 49.102 49.065 49.038 49.279 49.661 49.273 49.523 54.494 56.436 58.292 54.924 53.368 49.545 49.286 49.584 47.903 49.602 50.568 50.015 51.146 50.302 46.97 46.889 46.837 46.822 50.256 52.868 53.934 53.682 52.447 49.105 47.213 46.642 46.6 46.512 46.427 46.337 46.274 46.359 46.396 46.276 46.269 46.088 45.98 46.429 47.917 46.464 49.533 49.917 46.569 45.497 45.574 45.031 44.905 44.792 44.621 44.742 45.221 45.689 45.787 45.701 45.537 44.957 44.285 43.899 43.805 43.715 43.627 43.567 43.375 43.377 43.493 43.436 43.277 43.271 47.724 48.883 47.805 43.475 47.256 48.558 49.242 48.03 46.819 42.097 41.836 41.045 40.904 41.1 41.091 40.755 40.662 40.616 40.569 40.799 42.094 42.14 42.332 42.32 41.334 41.056 40.539 41.625 47.495 47.675 46.754 41.657 40.936 41.021 42.524 41.165 41.173 41.127 40.995 41.063 41.027 41.04 41.308 41.365 41.235 41.316 41.377 41.494 41.549 41.574 41.598 41.623 41.942 45.339 46.16 44.213 41.734 41.727 41.757 41.786 41.848 41.966 42.087 42.084 42.147 42.206 42.222 42.216
75.805 75.519 76.554 73.512 71.401 70.525 71.23 71.79 70.345 70.27 70.26 70.287 70.354 70.335 70.35 71.089 73.516 75.937 76.709 77.584 77.484 74.802 70.707 70.283 70.378 71.484 71.271 81.063 84.379 87.706 73.76 69.251 69.199 69.247 69.301 69.313 69.325 69.315 69.287 69.31 69.513 69.309 69.216 69.316 69.3 69.286 69.416 69.427 69.431 69.439 69.463 69.351 69.457 69.521 69.555 69.653 69.733 69.819 69.813 69.857 69.818 69.992 69.866 69.849 69.86 69.986 70.046 70.084 70.079 70.155 70.037 69.965 70.016 69.962 69.987 70.1 69.956 69.94 70.003 70.004 70.068 70.679 71.654 71.323 73.005 69.932 69.834 69.625 69.466 69.284 69.028 68.764 68.615 68.399 68.212 68.172 68.032 68.026 67.814 67.829 67.943 67.892 67.832 67.735 67.726 67.741 67.681 67.644 67.644 67.582 67.496 67.505 67.395 67.288 67.248 67.184 67.31 67.03 66.961 66.841 66.653 66.608 66.544 66.494 66.472 66.424 66.387 66.231 66.146 65.958 65.913 65.735 65.521 65.241 65.112 64.869 64.641 64.474 64.244 63.945 63.834 63.642 63.367 63.13 62.955 62.703 62.59 62.555 65.555 69.556 72.488 72.99 72.003 72.51 65.367 63.894 62.861 63.558 61.849 60.833 67.099 69.673 70.889 70.999 69.757 67.527 62.398 62.528 62.638 65.173 68.738 65.26 63.078 63.103 63.09 63.025 63.026 62.92 62.937 62.891 62.736 62.806 63.046 63.35 63.017 63.023 62.969 64.146 63.005 62.147 65.895 67.76 68.434 67.771 65.654 62.498 61.244 61.134 61.535 60.301 60.026 59.85 59.683 59.402 59.18 59.134 58.889 58.812 58.757 58.632 59.019 58.404 58.465 58.377 58.311 58.691 58.156 58.034 58.85 59.582 58.56 57.888 56.882 65.385 66.25 67.395 65.19 58.322 57.335 57.907 59.134 57.626 56.299 56.006 55.821 55.892 55.51 55.525 60.79 62.039 61.416 60.681 55.844 55.211 55.191 55.277 55.081 55.291 55.261 55.403 55.682 55.608 56.196 61.502 62.272 62.667 60.838 57.339 55.48 55.468 55.03 54.643 54.539 58.03 62.87 62.246 59.092 56.153 53.889 52.581 52.103 51.995 52.701 52.094 51.758 51.393 51.056 51.578 56.636 57.131 57.732 55.999 50.628 50.529 50.931 50.696 51.088 50.018 49.261 49.108 49.061 49.118 49.084 49.063 49.344 49.482 50.084 51.069 54.462 56.023 57.164 55.928 53.563 50.445 51.375 51.395 51.135 50.499 48.657 47.513 49.402 50.983 47.816 46.976 46.876 46.804 48.136 52.992 54.457 55.504 53.67 51.35 46.921 46.676 46.67 46.634 46.526 46.468 46.396 46.452 46.51 46.57 46.733 46.269 46.048 45.937 45.858 45.784 49.068 47.755 46.99 45.862 45.24 45.119 45.03 44.905 44.909 45.389 45.795 45.989 45.87 45.717 45.275 44.471 44.051 43.973 43.948 43.766 43.676 43.568 43.608 43.471 43.526 43.425 43.312 43.33 47.437 48.294 48.479 46.383 46.581 48.777 47.949 44.077 42.32 41.701 41.315 40.964 40.856 40.806 40.88 40.954 40.663 40.647 40.647 40.886 41.72 41.266 40.393 40.304 40.356 40.391 40.437 41.459 45.185 42.293 40.762 42.323 42.54 42.816 42.293 41.491 41.146 41.155 41.007 41.054 41.059 40.951 41.261 41.336 41.254 41.284 41.332 41.463 41.549 41.565 41.569 41.591 41.641 42.227 42.897 42.174 41.712 41.725 41.784 41.814 41.868 42.016 42.103 42.155 42.188 42.258 42.262 42.224
73.898 74.867 74.471 73.552 70.993 70.549 71.409 71.586 70.664 70.304 70.283 70.579 70.361 70.287 72.169 71.632 70.488 73.467 76.186 76.688 76.718 70.863 70.447 70.221 70.143 70.718 70.258 75.503 83.625 75.268 69.916 80.315 69.579 69.218 69.281 69.321 69.353 69.333 69.285 69.384 69.334 69.374 69.565 69.319 69.298 69.347 69.469 69.497 69.476 69.464 69.507 69.698 69.849 69.549 69.598 69.647 69.684 69.755 69.977 69.876 69.872 69.848 69.86 69.758 69.788 69.876 69.952 70.015 70.045 70.071 69.919 69.902 69.943 69.879 69.934 70.056 69.863 69.872 69.946 69.947 69.832 73.436 77.447 74.451 71.268 69.842 69.714 69.479 69.349 69.157 68.981 68.64 68.558 68.323 68.108 68.011 67.953 67.943 67.79 67.7 67.799 67.824 67.811 67.719 67.681 67.568 67.588 67.546 67.529 67.462 67.367 67.374 67.322 67.173 67.15 67.111 67.01 66.822 66.689 66.656 66.607 66.64 66.639 66.582 66.536 66.437 66.297 66.088 65.953 65.85 65.602 65.497 65.305 65.121 64.921 64.749 64.445 64.278 64.013 63.867 63.668 63.338 63.151 62.91 62.716 62.687 67.644 71.504 70.154 73.001 73.811 73.832 75.691 73.927 73.99 65.362 63.213 63.681 62.474 62.613 64.923 71.306 71.698 69.333 68.262 62.926 62.475 62.99 62.824 63.423 63.428 63.127 63.136 63.124 63.154 63.123 63.12 63.167 63.09 63.014 63.006 63.115 63.388 63.418 63.559 63.007 64.649 66.973 64.454 62.915 61.959 66.128 67.712 65.574 62.223 62.984 61.38 61.152 60.564 60.309 60.041 59.79 59.665 59.532 59.406 59.244 59.213 59.096 58.955 59.271 59.425 58.745 59.457 58.67 58.697 59.065 58.581 58.256 58.164 58.409 58.218 57.222 57.001 59.255 67.448 66.925 65.069 61.658 59.953 58.113 59.646 61.256 60.004 56.389 56.425 56.185 55.945 55.315 59.015 60.889 57.963 58.334 57.439 58.26 59.202 58.944 55.444 55.456 55.553 55.619 55.829 55.729 56.424 58.238 62.622 63.281 61.809 57.406 55.659 55.522 55.305 54.894 54.571 54.388 61.941 59.891 61.491 55.088 52.918 52.49 52.406 52.073 51.925 52.301 51.675 51.641 51.115 50.636 52.92 56.631 55.582 52.042 50.993 51.359 51.901 50.765 50.951 50.507 49.461 49.272 49.197 49.133 49.258 49.227 49.503 49.498 50.543 50.247 51.919 55.06 55.918 55.124 54.367 52.757 52.475 51.209 49.122 48.213 47.864 47.561 47.481 50.757 48.119 46.984 46.904 46.863 46.829 51.442 52.941 55.211 54.755 53.224 51.558 47.334 46.719 46.705 46.704 46.562 46.507 46.439 46.571 46.733 46.479 46.286 46.204 46.026 45.917 45.807 46.814 47.127 45.749 45.445 45.352 45.155 45.017 45.221 45.764 46.07 46.159 46.065 45.762 45.319 44.526 44.282 44.187 44.143 43.977 43.87 43.703 43.715 43.688 43.67 43.516 43.429 43.372 43.206 43.156 44.269 47.688 44.626 46.405 47.351 44.154 41.63 41.629 41.619 41.453 40.983 40.85 40.819 40.758 41.569 40.804 40.664 40.694 40.653 41.226 42.408 40.934 40.259 40.311 40.444 40.44 40.521 41.496 41.966 42.589 41.563 41.742 41.093 41.637 41.608 41.115 41.144 40.965 40.989 41.038 40.963 41.165 41.341 41.245 41.263 41.292 41.391 41.523 41.548 41.538 41.592 41.617 41.676 41.74 41.738 41.696 41.736 41.764 41.814 41.907 42.011 42.09 42.126 42.225 42.266 42.32 42.275
71.204 72.674 73.873 73.058 70.676 71.129 71.046 71.948 71.628 70.309 70.275 70.266 70.602 70.528 71.165 70.5 70.334 70.404 74.087 74.394 70.839 70.339 70.425 70.85 73.684 70.166 70.339 70.394 70.732 81.888 88.756 88.14 73.615 69.281 69.302 69.298 69.367 69.311 69.345 69.459 69.641 69.302 69.331 69.322 69.414 69.381 69.456 69.52 69.529 69.604 69.555 69.551 69.555 69.557 69.589 69.666 69.616 69.608 69.753 69.763 69.715 69.728 69.782 69.779 69.776 69.862 69.909 69.922 69.987 69.854 69.889 69.873 69.818 69.712 69.78 69.87 69.819 69.906 69.943 69.886 69.796 69.922 72.338 71.281 69.883 69.791 69.748 69.505 69.331 69.058 68.76 68.499 68.308 68.163 67.927 67.945 67.836 67.858 67.861 67.72 67.613 67.977 67.727 67.671 67.675 67.501 67.512 67.477 67.423 67.346 67.243 67.207 67.1 66.929 66.947 66.778 66.805 66.781 66.753 66.751 66.728 66.749 66.65 66.525 66.466 66.364 66.18 65.948 65.838 65.712 65.523 65.35 65.168 64.938 64.786 64.5 64.35 64.092 63.742 63.642 63.435 63.192 63.063 62.827 62.741 65.755 71.286 74.026 73.717 75.231 75.255 75.663 75.588 75.108 74.037 65.193 62.5 62.703 61.999 62.562 71.647 70.677 67.382 65.139 64.502 64.381 62.863 62.979 62.906 64.177 63.371 63.502 63.201 63.179 63.208 63.209 63.063 64.767 63.694 63.349 63.289 63.537 63.558 63.616 63.452 63.148 67.384 69.682 69.478 64.122 62.635 61.753 63.719 62.026 62.936 62.821 62.859 63.04 61.298 60.305 60.07 59.905 59.783 59.657 59.548 59.512 59.445 59.81 60 60.005 59.575 59.577 59.126 58.549 58.646 58.753 58.432 58.333 58.205 58.083 58.306 58.691 61.508 61.12 59.999 61.854 61.534 62.123 60.239 58.135 65.522 66.656 61.814 56.724 56.538 56.976 57.727 58.431 59.888 59.982 59.415 59.682 59.725 59.717 60.504 58.722 56.236 55.648 55.726 55.758 55.793 56.706 57.206 57.537 62.428 64.472 62.042 57.429 55.683 55.58 55.44 55.13 54.644 54.544 61.057 62.413 62.114 62.721 53.339 53.013 52.537 52.268 52.014 51.85 51.905 51.63 51.211 51.101 50.885 51.87 50.684 51.461 51.61 51.384 50.929 50.95 50.887 53.428 49.977 49.381 49.244 49.285 49.35 49.365 49.434 49.627 49.674 49.645 49.667 54.13 54.563 52.607 51.785 51.618 51.081 49.33 48.594 48.067 47.964 47.72 47.86 50.309 49.599 47.66 47.054 46.927 46.888 48.187 51.81 53.289 53.745 52.604 50.688 47.061 46.715 46.8 46.993 46.775 46.626 46.593 46.587 46.714 46.708 49.77 46.317 46.217 46.164 45.888 45.696 45.631 45.549 45.535 45.372 45.223 45.41 45.844 46.223 46.376 46.248 45.863 45.334 44.565 44.404 44.383 44.311 44.175 44.046 43.894 43.928 43.904 43.82 43.677 43.57 43.479 43.386 43.167 42.996 42.805 43.229 48.419 44.333 42.815 41.933 41.852 41.819 41.984 41.852 41.138 41.017 40.851 40.803 41.991 45.653 46.819 42.565 43.78 42.2 42.303 41.301 40.387 40.471 40.425 41.754 40.583 40.291 40.993 40.853 41.199 41.504 40.643 41.577 41.208 41.098 41.089 41.078 41.009 41.017 40.972 41.004 41.286 41.321 41.244 41.296 41.401 41.481 41.491 41.499 41.526 41.603 41.681 41.757 41.759 41.777 41.762 41.785 41.832 41.92 41.975 42.062 42.133 42.214 42.291 42.314 42.272
70.925 71.234 71.037 70.921 75.739 75.229 71.132 71.722 71.924 70.478 70.306 70.203 70.181 70.587 70.221 70.287 70.313 70.326 70.409 70.305 70.297 71.333 74.213 75.397 75.743 71.198 70.479 71.843 70.439 82.212 85.65 86.79 73.623 69.371 69.349 69.313 69.327 69.338 69.401 69.301 69.237 69.26 69.307 69.365 69.4 69.42 69.451 69.502 69.54 69.586 69.63 69.608 69.589 69.614 69.653 69.672 69.643 69.57 69.653 69.665 69.739 69.631 69.704 69.702 69.768 69.851 69.85 69.916 69.866 69.88 69.809 69.795 69.714 69.693 69.781 69.715 69.784 69.884 69.846 69.809 69.847 69.896 70.688 69.833 69.773 69.687 69.508 69.393 69.12 68.913 68.664 68.359 68.13 68.007 67.829 67.864 67.792 67.703 67.712 67.72 67.594 67.521 67.508 67.599 67.546 67.544 67.529 67.454 67.257 67.114 67.032 67.014 66.984 66.931 66.942 66.87 66.939 67.028 66.904 66.809 66.793 66.713 66.621 66.523 66.375 66.28 66.079 65.893 65.753 65.576 65.383 65.19 65.021 64.746 64.549 64.395 64.107 63.896 63.695 63.491 63.396 63.21 62.972 65.336 68.632 70.125 69.95 72.484 74.863 75.808 75.997 74.982 76.559 76.193 74.835 63.307 62.694 62.128 62.161 63.9 69.359 67.879 66.357 63.188 63.214 63.222 64.167 63.464 63.84 64.191 63.267 63.628 63.958 63.424 63.366 63.402 63.379 63.217 65.993 65.854 64.146 64.6 63.647 63.531 63.893 66.685 69.065 70.55 70.286 68.457 64.167 62.495 62.541 62.531 62.073 61.741 61.761 61.106 60.716 60.44 60.228 60.08 59.962 59.787 59.787 59.726 61.335 62.461 60.306 60.275 62.008 60.253 60.369 58.987 58.611 58.584 58.424 58.413 58.309 58.451 58.408 60.222 62.343 62.601 61.677 59.271 59.003 62.268 64.513 65.601 68.056 66.216 57.834 60.06 59.44 60.073 60.127 60.016 60.497 60.245 61.701 59.349 58.263 57.296 57.359 56.467 55.855 55.92 55.925 55.946 56.224 56.276 55.806 56.723 62.037 63.777 62.294 60.143 55.74 55.659 55.491 55.183 54.774 54.753 62.779 63.944 64.231 64.425 55.255 54.247 53.69 52.881 52.366 52.069 53.415 53.828 54.98 56.293 50.834 51.432 51.645 55.246 57.32 53.184 51.132 50.949 50.858 50.828 50.126 49.482 49.35 49.342 49.403 49.485 49.494 49.51 49.656 49.8 49.837 51.263 52.213 51.442 50.674 49.835 49.837 49.454 48.881 48.265 49.332 50.621 50.425 49.574 48.827 49.627 47.114 47.018 47.012 47.061 47.467 51.716 52.641 50.847 47.09 46.765 46.805 46.836 46.909 47.021 46.873 46.717 46.668 46.566 46.543 46.518 46.508 46.382 46.146 45.957 45.827 45.718 45.629 45.533 45.502 45.527 46.121 46.506 46.59 46.478 46.22 45.584 44.782 44.601 44.571 44.418 44.315 44.235 44.099 44.017 44.079 43.993 43.841 43.806 48.079 49.079 44.559 43.022 42.955 42.815 42.724 42.878 43.019 42.742 43.26 42.088 41.887 41.776 42.302 43.622 42.822 40.978 40.778 42.016 48.635 49.386 49.452 47.403 48.936 41.907 40.688 41.479 41.876 40.408 42.935 46.886 45.717 41.442 41.255 40.645 40.676 40.544 40.914 42.192 41.65 41.09 41.085 40.97 40.977 40.97 40.926 41.203 41.298 41.182 41.246 41.305 41.381 41.452 41.508 41.511 41.587 41.675 41.759 41.757 41.797 41.767 41.786 41.85 41.9 41.963 42.055 42.128 42.233 42.281 42.307 42.262
71.929 71.095 71.598 76.693 77.503 76.603 74.927 72.522 70.629 70.531 70.508 70.23 70.203 70.158 71.716 70.392 70.279 70.241 70.255 71.159 70.88 73.489 76.676 77.192 76.452 75.671 73.105 72.833 70.111 72.12 76.263 72.752 70.66 69.406 69.435 69.36 69.32 69.314 69.419 69.313 69.276 69.432 69.291 69.337 69.349 69.432 69.479 69.523 69.573 69.576 69.662 69.595 69.647 69.708 69.639 69.594 69.61 69.625 69.613 69.536 69.632 69.673 69.679 69.666 69.812 69.748 69.77 69.847 69.696 69.706 69.736 69.765 69.69 69.711 69.694 69.721 69.813 69.843 69.817 69.711 69.811 69.85 69.766 69.751 69.713 69.603 69.471 69.257 69.041 68.719 68.447 68.1 68.068 67.845 67.725 67.789 67.716 67.694 67.619 67.667 67.633 67.526 67.466 67.39 67.34 67.376 67.286 67.208 67.143 67.057 67.027 67.065 67.076 67.103 67.069 67.012 66.947 66.941 66.856 66.758 66.729 66.68 66.559 66.473 66.293 66.204 66.073 65.864 65.695 65.553 65.362 65.097 64.921 64.655 64.382 64.275 63.984 63.804 63.593 63.405 63.244 63.112 62.918 65.724 71.902 73.124 71.834 72.465 75.034 76.524 76.376 73.795 71.092 74.671 72.104 67.366 62.901 62.829 63.314 63.502 64.441 65.004 69.19 65.175 65.174 63.426 65.308 66.463 64.056 63.592 63.566 63.552 63.537 63.772 64.034 63.659 63.762 64.073 65.086 65.862 64.373 65.502 65.671 64.428 68.321 69.757 70.769 70.445 69.775 69.235 64.751 62.606 62.292 62.596 61.8 61.484 61.138 60.975 60.706 60.532 60.403 60.273 60.128 60.075 59.958 61.19 61.636 62.689 61.363 63.356 66.273 65.298 60.461 60.119 59.098 58.966 58.55 58.394 58.803 59.514 59.153 60.148 62.51 63.264 62.246 60.665 58.168 61.119 62.862 68.255 70.184 70.052 69.684 67.971 60.564 60.239 58.585 58.731 57.712 59.993 63.418 63.076 61.806 58.272 56.852 56.353 56.136 56.147 56.1 56.129 56.15 56.136 56.154 55.864 61.883 62.101 61.69 61.118 55.794 56.577 55.556 55.481 56.072 54.95 62.626 64.684 65.044 63.672 59.567 56.321 53.726 52.899 52.747 54.189 56.411 57.198 57.297 56.959 55.414 51.599 56.582 58.107 58.349 57.38 52.573 51.117 50.954 51.01 50.776 50.793 50.408 49.47 49.469 49.529 49.6 49.612 49.669 49.86 51.817 51.64 49.943 49.806 54.525 56.372 51.963 49.689 49.361 51.573 51.829 50.836 49.7 48.607 48.367 49.491 47.35 47.227 47.518 47.257 47.307 47.585 49.422 47.003 46.758 46.73 46.862 46.872 46.976 47.269 47.158 46.893 46.731 46.619 46.546 46.491 46.417 46.252 46.119 46.066 45.931 45.831 45.658 45.597 45.793 46.329 46.704 46.748 46.632 46.259 45.546 44.862 44.797 44.713 44.583 44.561 44.411 44.256 44.146 44.106 44.116 44.078 43.928 44.996 49.344 50.248 46.332 42.94 42.896 42.764 43.029 43.127 42.413 46.88 47.552 42.383 42.048 41.838 42.279 43.612 43.817 41.462 40.99 45.616 44.21 48.266 50.605 51.641 51.204 46.961 42.315 40.268 40.206 41.863 46.087 48.188 46.581 45.079 41.145 41.042 40.171 40.372 40.586 40.845 42.099 41.074 41.081 40.974 40.947 41.012 40.949 40.968 41.252 41.191 41.238 41.24 41.319 41.44 41.503 41.549 41.617 41.667 41.751 41.791 41.834 41.811 41.814 41.835 41.888 41.949 42.026 42.132 42.205 42.278 42.348 42.305
71.255 71.999 75.928 77.047 77.817 77.317 76.321 74.185 71.548 70.493 70.418 70.279 70.2 70.157 70.303 72.104 70.214 70.185 70.186 70.287 71.744 75.067 76.366 77.406 77.355 76.264 75.431 73.347 70 70.033 70.072 70.96 69.863 70.808 72.175 69.559 69.395 69.268 69.288 69.285 69.264 69.335 69.282 69.25 69.286 69.469 69.5 69.6 69.614 69.623 69.656 69.632 69.66 69.662 69.615 69.682 69.61 69.598 69.636 69.622 69.617 69.64 69.689 69.724 69.716 69.734 69.781 69.69 69.585 69.583 69.722 69.682 69.71 69.737 69.662 69.717 69.736 69.822 69.725 69.689 70.128 69.781 69.762 69.695 69.54 69.378 69.237 69.054 68.861 68.523 68.278 67.989 67.809 67.736 67.619 67.754 67.623 67.57 67.516 67.54 67.532 67.606 67.525 67.45 67.315 67.275 67.228 67.187 67.224 67.17 67.182 67.095 67.085 67.002 66.989 66.976 66.951 66.883 66.852 66.763 66.696 66.68 66.529 66.383 66.219 66.202 65.895 65.82 65.631 65.451 65.205 65.027 64.746 64.526 64.3 64.016 63.855 63.641 63.444 63.292 63.123 65.798 64.12 67.901 71.816 71.536 64.04 69.846 73.252 74.532 74.984 68.085 66.499 65.644 62.56 63.081 62.258 62.359 62.591 63.153 63.122 63.33 65.504 65.195 63.97 63.488 66.228 67.666 64.006 64.015 63.907 63.566 63.86 63.871 63.927 63.978 63.99 64.08 64.018 66.533 64.12 64.019 64.193 64.01 69.334 70.331 70.443 70.144 69.049 64.466 63.217 63.045 62.277 61.939 61.648 61.381 61.171 60.921 60.808 60.677 60.49 60.51 60.612 60.249 61.091 60.861 60.833 62.813 65.253 66.918 67.787 67.246 65.192 60.499 60.899 58.84 58.673 58.522 60.02 60.463 59.87 60.42 61.2 63.198 63.496 62.452 59.067 60.355 61.845 64.446 69.4 68.826 68.174 66.598 59.35 60.474 59.171 59.738 60.362 60.736 63.675 64.751 63.92 62.461 57.076 56.686 56.399 56.335 56.351 56.289 56.573 56.447 56.286 56.409 57.219 57.176 55.691 56.216 55.686 55.712 55.746 58.246 62.991 62.846 62.747 64.641 64.67 63.625 62.666 58.561 55.899 53.294 53.365 57.166 57.938 57.75 56.992 56.359 54.809 51.689 52.99 57.479 58.746 58.499 56.66 52.157 52.51 51.278 50.669 54.623 49.771 49.642 49.559 49.636 49.718 49.729 49.701 49.876 49.998 49.933 49.904 55.619 57.105 57.712 55.199 49.951 51.263 51.829 49.958 49.386 48.783 47.896 48.046 49.816 49.517 49.33 47.77 48.182 48.359 48.522 48.515 49.158 49.04 49.025 48.972 48.926 48.915 48.938 48.776 47.021 46.783 46.688 46.589 46.464 46.351 46.276 46.16 46.147 46.003 45.861 45.792 45.876 46.544 46.927 46.954 46.771 46.347 45.558 45.152 44.994 44.864 44.833 44.741 44.565 44.457 44.409 44.26 44.23 44.21 44.04 43.905 44.98 47.774 47.482 43.298 42.74 42.767 42.901 42.738 44.023 47.008 48.863 49.761 46.364 42.608 42.557 41.927 42.37 43.662 42.65 42.553 46.55 44.668 49.001 52 52.525 51.81 50.466 41.873 40.439 41.099 41.627 46.522 47.618 47.84 46.478 43.364 40.244 40.151 40.142 41.235 41.062 42.014 41.319 41.053 40.973 40.922 40.953 40.942 40.885 41.184 41.195 41.185 41.197 41.282 41.419 41.486 41.544 41.587 41.631 41.735 41.777 41.785 41.813 41.819 41.826 41.888 41.92 42.031 42.088 42.228 42.281 42.286 42.261
71.231 71.293 74.435 76.487 76.988 77.761 77.096 76.305 72.456 70.747 70.423 70.368 70.228 70.16 70.09 70.043 70.082 70.062 70.938 71.055 70.183 71.748 75.69 76.565 77.4 77.001 76.212 74.666 72.088 70.391 70.199 72.111 71.739 71.871 70.507 70.255 69.522 69.378 69.311 69.318 69.354 69.396 69.344 69.302 69.372 69.475 69.542 69.599 69.626 69.667 69.685 69.713 69.706 69.661 69.666 69.615 69.652 69.605 69.608 69.686 69.665 69.601 69.688 69.735 69.666 69.752 69.712 69.589 69.638 69.594 69.634 69.681 69.763 69.67 69.627 69.69 69.721 69.707 69.67 69.767 69.75 69.705 69.745 69.643 69.436 69.255 69.067 68.911 68.585 68.478 67.979 67.769 67.775 67.587 67.498 67.598 67.441 67.35 67.377 67.391 67.347 67.366 67.431 67.385 67.357 67.313 67.333 67.267 67.18 67.203 67.173 67.086 66.999 66.946 66.936 66.88 66.858 66.798 66.746 66.68 66.611 66.557 66.415 66.325 66.114 65.984 65.842 65.702 65.548 65.31 65.124 64.836 64.603 64.35 64.188 63.845 63.65 63.502 63.39 63.219 67.725 71.142 72.378 74.073 74.35 74.335 72.525 71.714 73.044 76.667 75.916 64.02 63.845 62.515 62.337 62.767 62.543 62.751 62.859 63.052 63.417 64.046 67.32 65.789 64.829 63.607 63.694 64.717 64.108 65.488 65.413 64.333 65.065 64.024 64.09 64.453 64.349 64.04 65.251 67.71 69.618 65.37 64.226 63.685 64.975 69.543 69.675 69.063 65.66 63.487 63.189 63.161 62.903 61.874 61.617 61.311 61.171 61.077 60.983 60.825 60.778 61.801 60.803 60.61 61.478 61.577 61.276 66.231 67.126 68.157 68.034 67.21 66.466 61.626 62.123 60.834 60.391 59.888 60.867 60.849 60.811 60.178 59.488 62.051 63.388 62.97 62.776 61.919 63.378 64.353 68.72 68.523 66.449 60.627 57.775 57.965 58.296 59.214 59.92 62.298 65.166 64.928 63.677 60.834 57.586 56.917 56.593 56.527 56.542 56.551 56.618 56.842 56.674 56.702 56.852 56.769 56.639 57.068 56.997 56.718 56.422 61.197 63.595 63.959 64.122 61.989 61.096 63.329 62.083 57.221 56.959 57.763 58.582 58.628 57.942 57.416 55.303 53.216 52.226 51.84 52.587 57.644 59.401 59.277 57.843 53.067 51.733 51.451 51.09 51.112 50.037 49.773 49.72 49.733 49.826 49.856 49.849 49.928 50.072 49.998 49.891 53.142 56.517 58.431 56.393 52.6 49.632 49.334 49.326 49.383 49.455 49.533 49.457 47.929 49.603 49.36 48.447 48.106 51.737 51.675 48.054 47.943 47.769 47.734 47.669 47.595 47.516 47.488 47.77 47.521 46.957 46.787 46.647 46.546 46.442 46.369 46.279 46.219 46.047 46.078 46.19 46.748 47.07 47.081 46.852 46.316 45.798 45.216 45.163 45.085 44.98 44.99 44.815 44.822 44.762 44.548 44.389 44.318 44.117 43.933 43.823 43.608 43.619 42.93 42.754 42.628 42.612 42.591 42.512 42.35 46.426 48.848 49.953 48.598 46.163 42.417 46.327 44.942 41.511 41.822 41.703 46.057 47.209 49.839 52.238 52.185 51.518 48.127 40.335 40.34 41.408 41.169 45.912 47.727 48.514 47.145 43.184 40.5 40.512 40.079 40.435 40.83 41.484 41.409 41.033 40.913 40.913 40.944 40.965 40.905 41.083 41.226 41.135 41.184 41.248 41.369 41.428 41.494 41.567 41.652 41.74 41.801 41.778 41.782 41.803 41.843 41.862 41.896 41.985 42.087 42.168 42.255 42.273 42.245
71.425 70.996 70.987 75.566 76.455 77.327 77.499 72.142 71.374 70.891 70.451 70.533 70.481 70.177 70.122 70.071 69.981 70.03 70.196 70.422 70.147 70.106 73.635 75.72 76.884 77.482 76.818 76.009 71.613 71.512 70.588 71.323 71.184 70.095 70.088 71.458 70.34 69.472 69.372 69.351 69.363 69.409 69.335 69.299 69.417 69.491 69.574 69.593 69.596 69.644 69.687 69.717 69.676 69.634 69.579 69.606 69.714 69.724 69.648 69.711 69.598 69.631 69.696 69.669 69.716 69.68 69.619 69.648 69.54 69.632 69.524 69.614 69.745 69.593 69.642 69.682 69.717 69.692 69.621 69.77 69.705 69.697 69.52 69.29 69.162 68.968 69.1 68.549 68.216 67.892 67.736 67.541 67.531 67.476 67.395 67.414 67.355 67.187 67.193 67.217 67.193 67.195 67.247 67.161 67.096 67.198 67.166 67.143 67.083 67.012 66.969 66.92 66.821 66.824 66.815 66.761 66.719 66.689 66.643 66.6 66.505 66.405 66.238 66.149 66.04 65.913 65.812 65.63 65.424 65.179 64.966 64.687 64.426 64.269 64.042 63.763 63.465 63.371 65.385 71.57 74.656 69.697 67.452 74.601 76.32 76.823 76.572 74.773 73.353 78.849 76.471 71.878 70.843 62.84 63.269 62.817 63.079 65.153 63.194 63.325 63.471 64.626 70.435 69.357 65.816 64.245 63.922 64.036 64.754 64.735 64.529 65.242 65.875 65.939 64.682 64.648 64.693 66.515 67.573 69.083 70.766 70.421 65.897 64.087 63.759 67.648 67.326 64.396 63.848 64.551 63.209 63.105 62.295 61.837 61.602 61.458 61.345 61.237 61.187 61.626 61.066 61.074 61.942 62.172 61.295 61.581 62.221 67.069 67.936 68.156 67.393 66.423 61.753 60.646 62.36 63.215 63.681 62.798 61.119 61.337 61.25 60.692 59.765 59.633 61.565 63.356 66.165 66.615 63.893 63.105 60.736 59.589 60.025 57.996 57.646 57.546 57.441 57.409 57.453 62.339 64.714 64.962 63.203 59.56 58.95 58.742 56.905 56.774 56.758 56.738 56.797 56.743 56.862 58.832 62.622 61.542 60.97 60.897 56.773 56.619 56.199 58.302 58.058 62.111 63.095 58.158 58.141 62.269 64.474 64.577 61.435 59.956 58.83 58.594 57.288 53.501 52.757 52.493 52.178 51.814 51.899 57.376 58.786 59.273 58.194 56.951 51.478 51.402 51.18 51.155 50.327 49.954 49.883 49.841 49.868 49.954 49.965 49.978 50.158 50.151 50 52.278 56.051 57.696 57.514 55.896 50.894 49.678 49.848 48.89 50.066 49.106 50.289 49.726 48.356 49.519 48.3 51.804 54.22 53.838 52.004 47.887 47.9 47.86 47.721 47.693 47.656 48.235 48.705 47.263 47.168 46.902 46.688 46.591 46.588 46.433 46.392 46.28 46.153 46.484 47.047 47.285 47.302 47.165 46.683 46.029 45.387 45.33 45.256 45.182 47.202 48.281 45.097 45.035 44.882 46.631 47.636 44.328 44.082 43.818 43.67 43.503 43.213 42.976 42.793 42.633 42.511 42.478 42.552 42.372 42.866 46.732 48.553 49.219 48.356 45.395 43.155 42.018 41.513 41.378 41.343 41.286 45.088 48.94 51.329 51.105 50.87 44.553 41.038 41.073 41.093 40.501 44.768 46.978 47.896 46.798 45.589 40.628 41.046 40.11 40.124 40.351 40.67 41.124 40.967 40.905 40.885 40.907 40.958 40.912 41.003 41.187 41.143 41.154 41.185 41.276 41.369 41.432 41.554 41.621 41.697 41.731 41.748 41.734 41.747 41.772 41.833 41.817 41.891 42 42.131 42.161 42.15 42.152
71.2 70.901 70.637 71.101 75.621 76.183 72.403 70.578 70.527 71.551 74.034 70.881 70.547 70.27 70.143 70.081 69.984 69.928 70.604 70.05 70.309 70.36 70.106 71.71 75.961 76.821 77.413 71.606 72.056 72.124 71.402 72.177 70.943 70.096 70.078 70.276 70.669 70.071 69.515 69.407 69.347 69.386 69.349 69.454 69.376 69.464 69.569 69.563 69.623 69.631 69.697 69.634 69.649 69.703 69.667 69.777 69.609 69.581 69.699 69.685 69.651 69.722 69.697 69.672 69.735 69.631 69.548 69.541 69.548 69.563 69.533 69.597 69.537 69.566 69.638 69.659 69.674 69.835 71.127 69.806 69.505 69.503 69.386 69.166 68.904 68.644 68.48 68.276 67.98 67.946 67.593 67.426 67.379 67.304 67.188 67.226 67.185 67.034 66.972 67.042 66.985 66.908 66.929 66.904 66.909 66.94 66.827 66.863 66.826 66.726 66.726 66.737 66.808 66.684 66.656 66.654 66.62 66.559 66.475 66.418 66.387 66.273 66.194 66.084 65.908 65.808 65.648 65.478 65.263 65.115 64.808 64.529 64.362 64.115 63.888 63.664 63.477 63.305 64.869 75.728 76.698 74.483 76.143 76.539 77.587 76.46 77.658 78.086 78.674 76.661 77.921 76.973 73.407 73.415 67.129 63.697 63.37 65.054 63.752 63.579 63.811 65.224 66.703 64.788 64.404 64.638 65.986 64.587 64.225 64.329 64.341 64.686 65.355 66.927 66.61 64.865 64.78 64.835 66.422 70.809 71.66 71.162 70.435 66.241 63.98 63.867 64.313 63.563 63.561 63.79 64.379 62.557 62.203 61.889 61.75 61.623 61.449 61.421 63.639 61.5 61.837 62.403 62.817 63.196 62.251 62.181 61.491 62.678 67.254 67.128 66.285 63.911 62.698 60.652 61.837 63.019 63.953 64.215 62.943 62.491 61.222 61.117 60.416 60.203 62.478 63.496 64.545 61.531 62.295 61.798 60.017 58.904 58.955 59.144 59.721 58.738 57.663 57.497 57.541 62.476 64.107 64.122 63.201 57.995 57.501 57.374 57.099 57.021 56.965 56.89 57.344 57.97 57.55 59.347 63.545 63.873 63.424 59.492 56.692 56.398 56.196 56.009 55.759 55.696 55.565 55.423 55.894 63.361 60.734 64.679 63.782 59.562 58.105 56.613 53.638 53.131 52.937 52.805 52.717 52.443 52.127 55.982 58.074 58.387 58.461 56.829 52.379 51.358 51.321 51.206 50.562 50.105 50.049 49.982 50.011 50.058 50.11 50.117 50.177 50.31 51.154 51.447 55.052 56.919 57.355 56.405 55.163 50.405 49.87 49.116 49.035 48.338 50.313 50.337 48.05 48.549 51.883 53.711 55.613 54.922 53.718 48.95 47.863 47.916 47.815 47.725 48.422 50.512 52.113 48.663 47.221 46.882 46.813 46.751 46.682 46.591 46.472 46.366 46.779 47.362 47.509 47.486 47.254 46.787 46.005 45.555 45.559 45.458 45.474 48.23 48.553 46.616 45.214 45.092 44.885 47.622 50.471 47.733 44.027 43.761 43.557 43.347 43.113 42.893 42.741 42.606 42.46 42.453 42.449 42.602 42.448 42.44 47.864 49.288 50.341 48.422 43.735 46.613 45.446 41.458 41.297 41.242 44.07 46.465 49.383 47.718 45.543 46.295 40.943 40.468 40.302 40.285 40.643 46.179 46.949 46.891 45.276 41.239 40.552 40.13 40.087 40.354 40.613 40.849 41.047 41.012 40.897 40.866 40.904 40.949 40.845 41.09 41.154 41.108 41.172 41.267 41.37 41.424 41.517 41.567 41.635 41.686 41.665 41.696 41.696 41.709 41.777 41.767 41.829 41.913 42.043 42.099 42.06 42.056
71.528 71.212 70.758 70.596 71.026 71.892 72.006 71.202 76.03 76.625 75.874 72.564 71.08 71.574 70.239 70.237 70.055 69.944 69.882 70.675 70.245 70.089 70.537 70.056 74.294 75.78 72.483 70.765 71.35 71.88 72.275 71.117 70.397 70.206 70.26 70.827 71.365 71.202 69.71 69.438 69.378 69.349 69.359 69.388 69.363 69.421 69.504 69.558 69.591 69.596 69.679 69.681 69.583 69.568 69.744 69.714 69.661 69.676 69.669 69.827 69.704 69.712 69.724 69.763 69.706 69.535 69.503 69.55 69.614 69.478 69.533 69.584 69.488 69.567 69.658 69.815 75.463 77.353 77.369 74.56 69.461 69.204 68.986 68.803 68.661 68.407 68.339 67.98 67.716 67.492 67.289 67.232 67.139 67.096 66.999 66.965 66.976 66.761 66.82 66.775 66.787 66.697 66.768 66.703 66.651 66.64 66.613 66.619 66.579 66.572 66.485 66.496 66.489 66.472 66.535 66.519 66.467 66.442 66.369 66.329 66.223 66.131 65.976 65.925 65.862 65.634 65.523 65.285 65.148 64.938 64.728 64.388 64.134 64.02 63.839 63.921 63.456 63.565 70.235 75.359 76.249 76.038 77.065 77.151 78.281 78.491 78.399 73.773 78.549 78.132 78.119 74.908 76.59 70.253 67.348 65.171 63.71 64.007 63.845 64.387 64.091 64.176 64.252 64.363 64.375 64.454 64.937 65.86 64.857 64.501 64.565 64.819 65.799 66.682 67.04 65.457 65.722 68.397 70.787 71.797 71.807 70.964 70.262 65.608 64.295 63.774 63.528 63.436 64.317 63.674 62.885 62.433 62.248 62.085 61.853 61.749 61.655 62.099 62.073 61.949 62.711 63.214 62.898 63.398 68.773 63.57 62.18 62.422 65.649 63.589 61.092 61.753 63.362 60.73 60.897 61.039 62.923 64.095 64.386 62.835 60.716 60.794 60.47 63.3 65.702 65.703 65.592 62.655 61.754 61.405 60.589 59.117 59.045 59.105 59.28 59.532 59.167 59.549 58.08 60.928 62.807 63.012 62.832 57.557 57.425 58.059 57.301 57.22 57.205 57.148 57.968 57.948 57.873 61.134 63.895 64.648 63.239 58.472 56.764 56.48 56.036 55.993 55.887 55.834 55.737 55.524 56.659 62.961 65.21 63.136 58.866 55.85 53.954 53.594 53.694 53.52 53.168 52.98 52.864 52.764 52.014 51.651 55.658 57.755 58.428 53.103 52.867 52.504 51.635 51.384 51.079 50.65 50.251 50.111 50.108 50.179 50.244 50.243 50.244 50.417 50.456 50.012 51.366 55.899 55.738 52.192 50.487 49.38 49.9 49.549 50.112 48.988 48.948 51.008 47.952 51.761 54.526 55.705 57.577 54.993 53.912 51.441 47.955 47.942 47.965 48.557 48.394 51.854 52.885 52.138 48.225 47.034 46.955 46.839 46.814 46.626 46.619 47.1 47.653 47.777 47.683 47.431 46.993 46.339 45.794 45.739 45.676 45.648 48.212 48.479 45.756 45.202 45.113 46.141 48.211 49.519 46.653 44.064 43.882 43.645 43.483 43.246 43.055 42.907 42.738 42.619 42.483 42.628 42.54 42.535 42.885 42.814 44.145 47.926 49.257 48.342 46.56 49.573 49.116 41.669 41.553 41.252 41.181 44.03 46.116 42.849 43.595 44.145 42.876 40.822 41.123 40.746 40.406 43.9 46.197 46.634 42.306 41.36 40.285 40.16 40.054 40.291 40.479 41.762 41.554 41.052 41.004 40.87 40.866 40.899 40.833 41.017 41.198 41.08 41.156 41.197 41.338 41.368 41.486 41.545 41.59 41.606 41.595 41.622 41.627 41.656 41.742 41.735 41.756 41.813 41.944 42.001 41.962 41.917
72.258 71.314 71.174 70.806 71.039 71.286 72.146 75.31 77.574 77.495 76.539 74.851 72.391 70.584 71.032 71.109 70.374 69.963 69.901 69.839 70.402 69.969 70.156 70.048 71.043 71.42 70.241 70.733 70.266 71.321 71.023 73.663 75.507 72.736 72.123 71.33 70.017 70.215 71.405 69.447 69.371 69.395 69.387 69.412 69.432 69.395 69.427 69.534 69.6 69.648 69.63 69.599 69.586 69.651 69.718 69.636 69.672 69.647 69.643 69.587 69.654 69.7 69.676 69.764 69.63 69.606 69.488 69.543 69.63 69.525 69.541 69.498 69.49 69.561 69.591 70.481 76.223 78.204 79.05 71.743 69.392 69.058 68.893 68.646 68.279 68.125 68.023 67.704 67.445 67.26 67.174 67.044 66.941 66.877 66.772 66.761 66.717 66.59 66.572 66.594 66.561 66.576 66.554 66.48 66.468 66.441 66.474 66.416 66.358 66.335 66.291 66.352 66.323 66.354 66.36 66.338 66.37 66.325 66.199 66.132 66.069 66.015 65.822 65.807 65.699 65.557 65.448 65.242 65.009 64.876 64.549 64.296 64.06 63.823 63.716 63.515 63.996 68.615 72.042 75.227 75.697 76.835 76.801 74.829 78.959 79.273 78.468 77.836 77.052 77.914 78.241 77.422 76.852 72.065 74.515 70.511 66.481 64.264 64.385 64.37 64.715 65.777 66.339 66.975 64.61 64.659 64.759 65.162 66.573 65.135 64.836 65.223 65.395 66.098 67.211 65.321 66.981 70.831 71.604 71.939 72.55 70.244 65.342 64.46 64.4 64.098 63.648 63.486 63.617 63.19 63.599 62.918 62.371 62.259 62.052 61.867 61.886 61.784 62.287 62.718 63.085 64.435 68.627 69.416 69.546 67.581 62.624 62.054 61.306 63.262 61.206 62.016 62.214 63.234 61.791 61.178 61.154 63.114 64.655 64.076 62.714 61.574 61.121 65.489 66.229 67.46 66.184 61.745 60.38 60.509 60.109 60.24 59.614 59.473 59.497 59.702 59.572 59.545 59.842 59.113 58.924 57.488 58.865 57.65 57.791 57.875 57.447 57.438 57.396 57.341 57.296 57.322 56.952 61.069 64.077 64.546 62.755 58.32 57.113 56.433 56.178 56.046 56.161 56.056 55.89 55.682 55.514 59.974 60.841 59.884 58.305 57.407 54.228 54.051 54.017 54.797 58.271 53.975 53.017 53.115 52.414 51.807 52.345 53.023 52.053 52.123 52.237 52.167 51.729 51.567 51.39 50.965 50.421 50.296 50.199 50.301 50.363 50.325 50.349 51.216 50.617 50.537 49.985 51.231 50.055 49.841 50.162 52.397 51.741 49.869 49.973 48.795 48.756 50.551 51.848 53.595 54.989 55.788 54.911 53.493 51.212 48.334 48.527 48.127 48.333 48.443 47.815 51.294 52.376 50.07 47.505 47.148 46.997 46.946 46.826 46.966 47.343 47.861 47.98 47.896 47.585 47.114 46.227 45.984 45.921 45.84 46.262 48.674 48.73 45.94 45.497 45.957 45.16 48.066 50.929 51.734 46.228 46.246 44.049 43.514 43.279 43.111 42.983 42.872 42.726 42.661 42.817 42.83 42.65 42.425 42.426 42.566 43.021 45.431 47.744 45.948 43.046 43.688 42.605 41.57 41.646 41.489 41.584 41.57 42.013 41.742 42.283 43.264 44.733 41.496 40.905 42.204 41.685 41.959 41.628 40.289 40.902 41.092 40.587 40.128 40.146 40.203 40.384 40.726 42.685 41.054 40.983 40.875 40.836 40.866 40.828 40.939 41.129 41.061 41.134 41.178 41.277 41.353 41.382 41.443 41.494 41.517 41.511 41.53 41.589 41.619 41.693 41.683 41.683 41.691 41.797 41.89 41.868 41.871
71.594 71.505 74.134 73.383 71.421 70.637 71.436 75.95 76.975 77.713 78.394 76.632 74.939 72.086 70.398 70.94 70.138 70.004 69.941 69.859 69.927 70.6 70.19 70.029 69.979 70.965 70.19 70.131 71.186 71.44 75.296 77.463 76.324 75.472 72.028 70.119 69.937 69.786 71.227 71.1 69.494 69.45 69.407 69.396 69.455 69.445 69.458 69.525 69.613 69.651 69.578 69.676 69.63 69.627 69.751 69.647 69.688 69.637 69.698 69.655 69.68 69.628 69.741 69.632 69.56 69.503 69.565 69.516 69.448 69.581 69.591 69.425 69.488 69.522 69.542 70.666 75.521 77.667 80.572 70.583 68.995 68.76 68.564 68.31 68.085 67.867 67.603 67.333 67.175 67.136 67.001 66.904 66.863 66.716 66.584 66.557 66.487 66.415 66.364 66.367 66.235 66.375 66.317 66.23 66.258 66.244 66.208 66.194 66.212 66.174 66.149 66.169 66.107 66.206 66.23 66.18 66.175 66.181 66.025 65.95 65.928 65.829 65.631 65.626 65.572 65.506 65.303 65.068 64.777 64.695 64.44 64.18 63.953 63.759 63.636 63.441 65.45 68.128 71.509 74.524 76.156 77.054 77.132 78.334 80.039 80.373 78.924 77.808 77.389 77.794 78.608 78.712 75.885 66.027 71.637 73.332 70.894 64.55 64.587 64.543 64.622 66.659 65.949 66.814 65.885 64.889 64.932 65.065 65.573 65.72 65.751 65.359 65.41 66.347 65.657 65.103 64.984 66.555 70.728 71.124 70.356 66.205 65.01 65.058 66.086 64.422 64.01 63.334 63.125 63.023 63.422 62.62 62.562 62.394 62.334 62.129 62.091 62.108 62.338 62.964 63.372 68.83 70.219 70.41 70.343 69.566 64.498 62.567 63.269 64.949 63.458 62.233 62.236 63.687 64.053 61.869 61.268 61.296 63.852 64.648 63.685 64.565 62.173 67.202 64.756 67.024 63.956 63.186 61.233 60.352 60.091 59.778 59.798 60.835 59.679 59.714 59.701 63.82 60.902 60.588 59.632 59.157 57.918 57.68 57.832 57.92 57.688 57.672 57.612 57.613 57.312 57.099 57.057 62.72 64.213 64.131 62.592 57.019 58.631 59.731 60.049 60.612 60.66 60.378 57.238 58.931 60.216 57.645 59.593 59.977 59.662 57.131 57.189 54.644 54.593 57.234 61.47 58.07 53.441 53.244 52.898 52.278 51.959 52.193 52.322 57.238 57.954 53.673 52.013 51.921 51.719 51.438 50.948 50.63 50.407 50.437 50.452 50.501 50.498 51.466 50.911 51.146 50.461 50.137 49.96 49.985 49.597 52.662 55.302 55.178 53.688 52.928 52.768 50.628 48.531 51.596 54.214 54.705 53.48 51.102 48.086 47.974 48.101 49.071 48.056 47.918 47.926 48.365 49.877 48.552 47.32 47.214 47.07 47.009 47.154 47.509 48.036 48.146 48.058 47.644 47.101 46.353 46.136 46.086 45.974 45.941 45.778 46.269 46.069 45.675 45.533 45.333 45.112 44.971 50.088 50.472 49.068 44.577 44.185 43.455 43.258 43.126 43.014 42.892 42.833 42.918 42.873 42.821 42.717 42.513 42.384 42.628 45.244 45.647 43.091 43.247 43.297 43.184 43.043 42.594 43.783 43.854 43.876 43.673 42.943 42.416 44.744 45.532 47.433 43.291 41.707 40.786 40.904 41.566 40.999 44.835 45.259 45.162 40.931 41.221 40.506 40.032 40.339 40.595 41.954 41.299 40.962 40.901 40.81 40.863 40.875 40.769 41.056 48.945 47.322 49.481 42.014 44.431 41.288 41.386 41.437 41.439 41.455 41.483 41.512 41.59 41.627 41.638 41.637 41.676 41.72 41.828 41.811 41.762
74.189 72.663 75.125 74.913 71.016 70.692 70.458 74.881 76.338 77.195 77.821 77.208 76.344 73.235 70.506 70.983 70.276 70.052 69.979 69.906 69.836 70.376 69.787 69.807 69.918 70.1 69.988 70.699 70.345 75.068 76.52 77.317 77.275 76.309 74.63 71.278 70.668 70.043 69.783 70.224 70.443 69.549 69.443 69.417 69.427 69.444 69.529 69.579 69.613 69.777 69.665 69.627 69.612 69.591 69.589 69.842 69.737 69.787 69.731 69.663 69.63 69.71 69.694 69.554 69.528 69.539 69.557 69.478 69.479 69.573 69.47 69.421 69.518 69.562 76.408 80.367 82.409 77.749 77.897 69.894 68.737 68.546 68.391 68.073 67.763 67.451 67.265 67.064 66.946 66.878 66.794 66.691 66.493 66.433 66.384 66.316 66.314 66.263 66.212 66.16 66.103 66.112 66.109 66.034 66.019 66.08 66.047 65.983 65.897 66.033 66.009 66.013 65.99 65.997 66.03 66.068 65.983 65.976 65.899 65.81 65.79 65.677 65.497 65.492 65.415 65.374 65.203 64.95 64.692 64.53 64.261 64.004 63.878 63.686 63.625 67.652 67.469 68.725 71.32 72.307 74.507 75.307 76.88 79.296 80.073 79.953 79.502 78.522 75.449 76.256 73.668 78.662 76.977 70.393 65.607 72.162 73.903 65.72 64.591 64.722 64.733 64.789 65.186 65.934 66.622 67.824 66.854 65.587 65.563 65.337 65.585 66.586 65.641 67.494 71.335 66.69 65.343 64.949 66.063 70.22 66.961 65.044 64.907 65.023 64.956 65.504 63.906 63.313 63.083 63.001 62.919 62.717 62.733 62.754 62.906 62.686 62.952 62.479 62.626 62.888 67.719 69.573 70.306 70.396 69.743 68.88 63.699 63.821 64.717 64.073 63.123 62.259 62.038 62.345 63.061 63.302 61.428 61.325 61.329 62.932 63.74 63.558 67.12 65.356 67.399 65.021 63.161 61.882 60.682 60.76 60.882 60.025 59.975 59.928 60.674 60.056 63.505 65.533 66.253 64.511 60.728 59.544 59.586 59.458 60.186 58.48 57.924 57.841 57.836 57.999 57.251 57.017 57.215 62.482 63.036 63.227 62.412 56.991 59.217 60.989 61.504 62.113 62.38 60.323 57.658 59.562 61.232 61.582 62.027 60.942 61.45 61.41 59.802 54.831 58.758 61.7 57.562 54.461 53.999 53.522 54.275 53.447 52.269 52.284 57.363 59.344 58.926 58.333 53.302 52.113 51.9 51.802 51.563 51.01 50.644 50.455 50.497 50.608 50.616 50.61 51.474 50.893 50.696 50.257 50.095 50.015 50.016 54.129 56.461 57.264 57.117 56.193 54.486 49.457 49.422 48.314 52.518 53.199 49.303 48.132 49.447 48.124 49.496 48.583 48.12 48.192 47.957 48.984 48.843 47.525 47.402 47.314 47.284 47.358 47.783 48.242 48.352 48.265 47.983 47.336 46.489 46.332 46.299 46.159 46.08 45.975 45.823 45.957 45.889 45.641 45.521 45.424 45.209 44.852 47.687 47.453 46.048 44.489 43.551 43.351 43.238 43.139 43.051 42.992 43.074 43.042 42.944 42.868 42.762 42.638 42.46 43.326 45.162 44.58 43.212 44.407 43.54 44.923 43.207 43.797 44.663 44.347 44.858 45.4 45.175 45.092 46.682 46.626 43.563 41.86 41.398 40.613 41.229 41.27 42.995 46.238 47.843 46.237 45.006 40.954 41.016 40.036 40.318 40.512 40.787 41.466 40.985 40.878 40.791 40.811 40.867 40.755 41.45 50.752 53.695 49.593 51.831 58.551 41.58 41.27 41.374 41.415 41.4 41.431 41.479 41.52 41.593 41.596 41.628 41.604 41.649 41.708 41.749 41.67
72.268 72.555 72.643 71.441 70.839 70.627 70.458 73.805 75.026 76.507 77.215 77.71 77.1 75.65 71.009 70.436 70.203 70.127 70.053 70.319 70.036 69.823 69.712 69.658 69.762 69.796 70.952 70.187 70.029 72.772 75.742 77.564 77.635 77.079 76.164 73.452 70.29 70.111 69.986 69.791 70.085 71.295 69.944 69.459 69.483 69.463 69.482 69.524 69.585 69.661 69.668 69.664 69.725 69.591 69.702 69.699 69.777 69.797 69.648 69.625 69.713 69.713 69.57 69.599 69.508 69.569 69.496 69.478 69.597 69.58 69.399 69.489 69.485 69.506 77.206 76.144 83.623 82.444 79.738 68.743 68.417 68.185 68.011 67.78 67.545 67.171 66.953 66.745 66.677 66.611 66.544 66.454 66.331 66.26 66.092 66.089 66.015 65.992 66.014 66.032 65.93 65.897 65.824 65.814 65.741 65.855 65.823 65.807 65.723 65.754 65.751 65.755 65.76 65.681 65.765 65.838 65.83 65.791 65.717 65.727 65.6 65.548 65.431 65.37 65.256 65.169 65.011 64.808 64.639 64.367 64.132 63.905 63.654 63.663 64.218 67.988 68.287 69.675 69.611 65.298 70.539 74.374 78.432 78.873 79.842 79.159 77.938 77.492 72.522 75.512 75.707 76.509 76.417 69.346 69.893 74.871 74.313 68.151 65.352 64.819 65.415 65.043 67.133 66.059 67.484 67.493 66.131 67.526 65.574 65.515 65.49 65.837 66.756 69.577 72.275 71.759 66.281 65.543 65.039 65.382 64.914 65.021 64.95 64.906 64.575 64.141 63.771 63.429 63.223 63.164 63.071 62.855 62.976 62.893 65.111 64.254 64.886 63.166 62.863 63.209 67.158 69.477 70.002 69.376 68.659 63.74 62.966 63.161 64.79 64.706 63.896 63.637 62.638 62.099 61.999 62.357 62.929 61.861 61.438 61.584 64.423 65.8 67.66 64.449 65.495 62.471 61.9 60.732 60.805 60.785 61.296 61.568 60.014 60.008 59.864 62.84 65.224 67.117 67.001 65.874 62.239 59.588 59.455 59.233 58.785 58.179 58.103 58.034 58.042 58.339 58.131 58.053 58.106 57.778 58.66 58.448 58.414 58.538 59.496 59.811 61.399 61.744 59.769 56.885 57.82 59.968 60.71 57.847 59.075 59.616 60.056 59.651 58.13 56.516 59.147 61.036 58.556 57.194 56.509 54.22 53.313 52.67 52.276 52.33 56.313 58.758 59.842 59.225 56.922 55.005 52.17 52.062 51.974 51.529 50.764 50.585 50.616 50.675 50.74 50.768 52.195 51.393 50.955 50.691 50.455 50.47 52.569 53.935 55.553 55.591 56.666 55.979 54.355 48.846 49.913 48.951 49.378 48.535 47.838 47.991 48.43 49.904 48.606 48.369 48.514 48.224 49.049 47.888 47.718 47.555 47.437 47.396 47.725 48.033 48.483 48.529 48.376 48.015 47.331 46.659 46.521 46.457 46.38 46.289 46.097 46.031 46.079 46.031 45.852 48.324 49.031 45.501 45.108 44.856 44.546 44.3 44.544 43.841 44.089 43.438 43.292 43.182 43.151 43.135 43.009 43.049 42.985 42.898 42.766 42.65 42.814 43.028 43.552 44.909 44.267 43.8 43.261 43.129 42.482 43.215 43.444 42.442 44.19 44.646 45.251 46.638 46.734 44.769 41.151 40.632 40.632 41.331 41.518 40.634 43.505 46.383 47.419 47.328 46.223 42.8 40.413 40.78 40.318 40.424 40.746 42.069 40.996 40.983 40.836 40.798 40.805 40.786 40.812 50.342 43.094 44.405 55.083 51.361 54.92 43.87 41.341 41.391 41.397 41.425 41.453 41.508 41.575 41.565 41.568 41.587 41.635 41.641 41.659 41.633
71.602 72.908 72.152 72.55 71.093 70.866 72.982 74.721 72.547 75.375 76.354 77.288 76.198 72.453 70.55 70.298 70.19 71.067 71.717 72.002 72.366 70.033 69.768 69.7 69.857 69.693 70.056 69.892 69.981 70.115 72.666 76.163 76.486 77.294 76.852 75.877 75.104 74.799 71.16 69.84 70.067 71.301 70.073 69.478 69.518 69.519 69.51 69.525 69.59 69.637 69.649 69.617 69.627 69.68 69.722 69.749 69.812 69.754 69.67 69.743 69.755 69.632 69.582 69.547 69.587 69.506 69.457 69.588 69.624 69.465 69.469 69.507 69.488 69.413 74.526 69.874 77.624 82.381 81.877 73.103 70.533 67.781 67.586 67.375 67.107 66.792 66.633 66.46 66.358 66.303 66.223 66.177 66.174 66.007 66.153 65.851 65.863 65.716 65.7 65.723 65.607 65.581 65.404 65.468 65.409 65.458 65.564 65.506 65.425 65.427 65.434 65.428 65.426 65.532 65.543 65.659 65.637 65.636 65.557 65.528 65.458 65.43 65.279 65.21 65.144 64.978 64.857 64.677 64.386 64.269 63.973 63.768 63.698 68.421 64.238 68.403 69.159 69.999 70.181 69.398 71.478 71.8 75.491 77.855 78.625 78.336 76.971 71.927 69.024 70.138 70.272 70.298 72.136 74.905 76.13 76.334 74.433 65.406 66.403 65.645 66.467 65.722 65.983 65.855 67.552 68.373 67.854 68.123 67.705 65.8 65.669 65.652 69.081 72.143 73.016 72.816 71.961 67.199 65.415 65.015 64.903 64.951 65.62 65.039 64.233 64.028 63.782 63.565 63.451 63.322 63.163 63.074 63.084 63.902 64.373 65.867 66.709 68.317 64.622 63.595 63.219 67.701 69.257 65.737 63.378 64.281 63.183 62.955 64.083 63.357 63.985 64.314 62.771 62.2 62.176 62.129 63.738 63.35 61.58 61.617 63.619 63.768 67.945 63.247 61.731 61.361 61.514 60.959 61.395 61.046 60.994 61.099 60.907 60.194 59.891 63.806 66.52 67.846 66.399 65.353 60.136 59.525 59.474 59.137 58.654 58.421 58.233 58.21 58.281 58.592 58.444 58.323 58.45 58.235 58.278 58.079 58.386 58.288 58.452 60.31 61.464 61.23 57.221 58.141 59.881 60.472 57.894 55.807 55.692 56.455 59.837 60.216 58.804 56.779 57.155 58.337 57.518 56.644 54.502 53.852 53.488 52.733 53.148 53.237 56.587 58.739 60.601 59.868 58.366 54.014 52.243 52.18 52.02 51.615 50.97 50.826 50.74 50.81 50.881 50.91 50.899 51.879 51.091 50.848 50.598 50.812 49.45 50.271 54.553 54.657 55.603 54.646 51.33 48.784 50.058 49.228 48.752 48.666 48.485 48.583 49.178 48.676 48.476 48.364 48.189 48.158 48.814 47.965 47.84 47.712 47.643 47.966 48.384 48.719 48.718 48.51 48.119 47.356 46.814 46.701 46.679 46.559 46.451 46.327 46.203 46.204 46.113 46.021 47.341 49.646 50.285 46.902 47.395 44.765 44.516 44.27 44.074 44.414 44.087 43.517 43.322 43.364 43.384 43.286 43.159 43.036 43.008 42.879 42.762 42.759 43.408 43.218 45.013 47.409 48.218 43.918 43.284 43.064 42.662 42.22 41.854 41.553 41.262 43.179 49.517 52.177 46.666 41.37 40.738 40.654 40.51 40.646 41.375 40.998 41.465 46.355 48.069 48.224 46.749 45.078 40.262 40.109 40.246 40.45 40.72 41.928 41.008 40.996 40.888 40.797 40.834 40.787 51.949 45.056 43.223 44.313 45.343 46.209 46.691 43.233 41.319 41.372 41.417 41.415 41.454 41.478 41.505 41.537 41.555 41.531 41.53 41.563 41.565 41.515
71.621 71.886 71.515 71.5 71.537 72.696 73.478 73.975 71.219 70.748 75.64 73.279 71.252 70.516 70.396 70.277 70.373 70.419 71.156 71.843 72.217 70.58 69.798 69.73 69.636 69.594 69.655 70.018 69.963 70.074 70.22 75.021 75.929 76.759 77.35 73.7 74.18 75.279 72.206 70.457 70.169 69.889 70.418 69.83 69.507 69.555 69.6 69.589 69.548 69.564 69.597 69.606 69.682 69.786 69.75 69.868 69.779 69.642 69.728 69.826 69.73 69.611 69.589 69.607 69.615 69.464 69.529 69.628 69.443 69.44 69.46 69.493 73.8 72.919 78.779 70.738 76.314 75.483 81.595 76.561 71.29 67.372 67.18 66.956 66.745 66.538 66.29 66.184 66.096 66.012 65.945 65.862 65.841 65.76 65.645 65.596 65.596 65.524 65.444 65.414 65.404 65.328 65.227 65.176 65.262 65.235 65.301 65.253 65.16 65.153 65.178 65.175 65.209 65.272 65.314 65.403 65.416 65.433 65.395 65.394 65.347 65.215 65.354 65.07 64.938 64.84 64.774 64.535 64.2 64.053 64.044 67.215 70.157 70.905 69.705 68.502 70.637 70.575 71.159 69.271 71.418 72.572 72.739 74.445 76.047 73.128 72.246 70.892 69.241 69.042 70.181 69.059 67.833 72.84 75.373 75.349 66.412 65.572 65.68 65.838 68.898 65.963 66.09 65.969 66.026 68.35 68.438 68.445 68.209 66.596 67.071 69.233 72.018 73.157 73.233 72.185 70.104 66.483 65.467 65.146 64.947 64.867 64.743 64.386 64.221 64.045 63.919 63.809 63.59 63.49 63.455 63.345 63.259 64.269 64.364 67.242 69.765 70.785 70.275 63.784 63.468 63.298 64.839 63.301 64.487 65.126 65.201 63.062 63.161 62.973 63.447 65.188 63.079 62.277 62.245 62.215 62.53 64.482 62.196 64.584 66.501 66.633 67.329 65.42 61.455 61.428 61.397 61.273 61.079 61.151 61.171 61.217 61.67 60.186 62.92 66.091 67.09 66.707 65.553 62.266 59.664 59.383 59.343 59.868 58.701 58.508 58.489 58.421 58.709 58.685 58.519 58.393 58.398 58.374 58.361 58.313 58.308 62.342 62.073 61.001 61.35 60.153 57.524 59.303 60.655 59.921 56.317 55.986 55.799 55.73 58.943 60.368 59.564 58.063 58.028 56.012 55.988 54.405 54.048 53.842 53.791 53.464 52.672 53.912 54.621 58.013 59.557 59.724 58.213 56.703 52.366 52.227 51.864 51.36 51.342 50.992 51.676 52.038 51.009 51.059 51.05 51.349 51.198 51.599 50.965 51.25 50.186 49.541 49.662 51.433 49.38 48.857 48.847 48.901 48.87 50.632 48.716 49.283 50.113 50.111 48.932 48.771 48.552 48.449 48.286 48.198 48.109 48.014 47.886 48.003 48.438 48.684 48.923 48.91 48.683 48.223 47.625 47.001 46.888 46.816 46.758 46.619 46.496 47.096 46.412 46.343 46.163 47.52 46.796 49.318 50.14 50.599 49.449 44.634 44.5 44.378 44.12 43.798 44.166 44.668 43.699 43.561 43.455 43.364 43.189 43.131 43.001 42.935 43.273 43.131 43.386 44.706 48.008 49.909 49.559 48.541 44.301 43.078 42.792 42.454 42.048 41.569 41.94 46.302 51.099 50.754 41.848 40.787 40.768 40.62 40.534 40.486 40.919 41.32 41.119 45.415 47.092 48.348 47.396 44.903 40.265 40.113 40.256 40.47 40.667 41.715 41.321 40.952 40.889 40.788 47.39 50.431 52.628 43.738 54.816 44.589 46.175 44.68 47.123 45.803 41.212 41.308 41.44 41.449 41.466 41.431 41.454 41.472 41.475 41.507 41.497 41.514 41.504 41.455
71.659 71.651 72.542 73.292 76.567 75.22 71.299 70.774 70.614 70.536 71.469 70.776 71.123 70.477 71.231 70.353 70.42 70.463 70.396 71.41 71.563 69.945 69.846 69.769 69.686 69.616 69.575 69.746 70.333 70.248 70.013 70.237 75.091 75.944 72.164 70.585 73.048 73.862 71.685 70.893 69.748 69.689 69.924 72.872 70.708 69.58 69.609 69.596 69.546 69.556 69.578 69.629 69.632 69.727 70.039 69.759 69.691 69.778 69.835 69.675 69.553 69.619 69.675 69.626 69.579 69.524 69.66 69.596 69.387 69.473 69.496 69.62 76.894 79.189 78.943 81.203 76.869 76.426 78.041 72.497 68.842 67.086 66.766 66.504 66.322 66.178 66.005 65.954 65.893 65.833 65.752 65.657 65.558 65.572 65.488 65.47 65.507 65.468 65.372 65.295 65.189 65.21 65.126 65.216 65.048 65.079 65.152 65.05 64.951 64.98 64.945 65.051 65.051 65.118 65.165 65.246 65.247 65.261 65.265 65.198 65.134 65.16 65.021 64.922 64.797 64.776 64.662 64.345 64.145 64.032 69.003 71.813 71.979 71.843 70.629 69.992 70.564 69.928 71.594 68.034 70.795 71.217 73.451 72.787 69.615 66.515 67.182 66.253 68.372 70.735 69.559 66.467 65.391 66.612 67.924 67.247 65.68 65.726 68.036 70.179 69.932 66.538 66.351 66.126 66.073 66.582 68.062 68.575 67.355 66.324 69.258 71.605 72.77 73.138 72.984 70.137 66.813 65.639 65.563 65.254 65.02 64.91 64.588 64.435 64.272 64.163 64.079 63.901 64.028 66.184 67.221 67.856 64.048 64.11 67.433 69.764 71.734 71.685 71.104 70.184 64.955 63.872 64.764 63.871 63.521 63.59 65.576 65.674 63.152 63.055 63.346 63.882 66.527 63.284 62.321 62.273 62.323 64.099 63.609 64.579 67.93 64.923 62.185 62.436 62.788 61.47 61.46 61.531 61.433 61.55 61.759 61.427 61.785 61.473 61.256 64.952 65.729 65.833 62.302 60.398 60.109 60.629 59.261 59.028 58.805 58.705 58.591 58.575 58.577 58.603 58.799 58.586 58.491 58.329 58.23 58.273 62.583 65.313 64.535 63.765 61.314 58.138 59.01 60.323 58.859 57.425 56.414 56.24 56.069 56.919 57.57 59.884 60.916 59.446 55.559 54.846 54.67 54.457 54.428 54.25 54.051 53.819 54.729 55.404 53.652 56.693 58.549 58.971 58.807 56.329 52.296 52.2 53.131 53.254 51.448 51.166 51.132 52.574 51.112 51.183 51.205 51.428 52.325 51.314 51.103 51.226 51.403 51.455 50.994 51.189 49.742 49.676 49.343 49.274 49.134 50.386 49.389 50.071 50.472 49.167 49.15 48.8 48.65 48.551 48.473 48.365 48.235 48.145 48.119 48.6 49.077 49.141 49.062 48.839 48.291 47.671 47.183 47.102 47.021 46.933 46.804 46.682 47.047 47.147 46.518 48.036 49.084 48.442 46.168 45.327 45.953 49.682 46.773 44.552 44.522 44.455 44.073 43.88 43.73 43.789 43.752 43.708 43.565 43.39 43.282 43.145 43.182 44.761 43.251 43.197 44.852 48.291 50.118 50.511 49.759 45.862 43.686 43.025 42.761 42.303 41.91 41.869 48.317 48.94 44.631 44.284 41.145 40.832 40.703 40.592 40.504 40.501 40.487 41.214 40.369 44.58 46.912 47.332 46.696 45.31 40.332 40.122 40.217 40.421 40.635 40.778 41.965 40.977 40.861 40.816 47.924 52.604 55.904 42.795 44.207 42.678 49.171 41.998 44.439 41.218 41.191 41.334 41.436 41.475 41.442 41.438 41.446 41.451 41.452 41.458 41.468 41.445 41.426 41.4
71.635 71.636 71.624 72.953 76.292 78.849 75.964 73.42 70.772 72.183 70.633 71.533 70.498 71.685 74.756 73.952 70.439 70.494 70.407 70.423 71.289 69.915 69.848 69.77 69.7 69.654 69.619 69.479 69.934 69.988 70.033 70.201 71.276 71.716 70.786 70.129 71.168 70.397 69.904 69.913 69.734 69.636 71.052 72.839 72.107 70.192 69.627 69.589 69.607 69.643 69.611 69.64 69.641 69.615 69.829 69.749 69.743 69.89 69.821 69.649 69.697 69.644 69.669 69.605 69.524 69.646 69.653 69.44 69.458 69.51 69.496 69.478 73.339 78.5 80.594 81.168 73.635 71.345 71.016 71.067 67.593 67.09 66.689 66.386 66.141 65.913 65.754 65.768 65.724 65.65 65.555 65.459 65.676 67.08 65.33 65.307 65.285 65.247 65.274 65.219 65.17 65.081 65.027 65.015 64.994 64.989 64.968 64.949 64.912 64.918 64.97 65.01 65.045 65.071 65.057 65.087 65.125 65.137 65.061 65.048 65.011 65.032 64.904 64.895 64.773 64.72 64.477 64.313 64.025 65.858 67.61 71.7 72.906 72.98 71.821 69.345 69.921 71.105 70.294 72.771 74.019 70.194 69.165 67.553 69.398 68.965 65.371 67.538 70.827 70.726 67.849 65.487 65.662 65.801 66.222 68.919 66.625 65.966 67.552 70.785 66.193 66.203 66.577 67.523 66.271 66.268 66.39 68.724 67.009 66.539 66.523 67.232 71.848 72.282 71.391 67.694 66.7 65.913 65.588 65.613 65.169 64.855 64.65 64.437 64.45 64.339 64.209 64.207 66.043 68.174 69.488 67.812 64.547 64.377 64.821 70.497 71.591 71.846 71.243 70.475 65.709 64.724 64.977 65.534 64.139 63.865 64.312 65.466 65.188 63.094 62.986 63.174 65.393 66.032 63.16 62.373 62.399 63.923 66.008 66.498 67.458 65.225 62.859 63.865 62.118 61.755 61.531 61.5 61.565 61.939 61.782 61.81 65.553 65.723 62.107 60.397 64.02 64.795 60.2 60.353 59.86 60.619 59.562 59.083 59.038 58.904 58.815 58.75 58.608 58.622 58.632 58.794 58.624 58.435 58.357 61.807 64.66 65.77 65.538 64.762 62.946 59.291 60.357 61.528 58.999 57.033 56.698 57.718 57.807 56.728 56.17 57.442 60.372 55.885 55.209 55.135 55.043 54.878 54.666 54.479 55.367 56.484 56.345 53.993 53.239 52.951 56.216 58.212 59.156 55.037 52.749 52.901 55.773 55.454 52.37 51.869 51.302 51.774 51.363 51.289 51.829 51.316 51.421 51.485 51.396 51.105 50.829 50.616 50.765 50.318 50.048 49.974 49.776 49.695 49.436 50.583 49.943 50.02 49.332 49.407 49.151 48.889 48.796 48.729 48.561 48.413 48.32 48.399 48.89 49.325 49.36 49.293 49.108 48.388 47.66 47.361 47.279 47.17 47.071 46.988 46.845 46.83 46.916 46.753 46.637 48.892 49.852 47.024 45.352 48.085 46.226 46.117 45.042 44.988 44.667 45.217 44.141 43.921 43.805 43.796 43.743 43.67 43.615 43.458 43.293 43.224 43.437 43.272 43.476 47.397 48.646 50.272 50.247 49.166 45.397 43.31 42.965 42.729 42.329 41.99 41.893 47.449 49.103 44.175 41.185 40.986 40.872 40.814 40.704 40.601 40.532 40.467 40.484 40.366 40.342 40.325 45.579 46.938 47.221 45.394 40.719 40.132 40.117 40.325 40.542 40.717 41.833 41.155 40.878 40.792 40.744 44.072 49.98 56.849 56.353 47.73 45.139 43.151 40.999 41.829 41.171 41.315 41.385 41.477 41.438 41.465 41.428 41.42 41.439 41.449 41.449 41.42 41.38 41.34
71.702 72.108 73.181 72.042 71.695 75.635 76.256 75.201 72.927 72.87 72.279 71.348 71.667 76.393 76.952 75.918 71.375 70.44 70.455 70.804 70.33 69.882 69.833 69.797 69.724 70.443 69.858 69.541 69.652 69.883 69.985 70.051 70.17 70.833 71.569 71.079 70.351 70.005 70.056 69.822 69.722 71.234 71.639 70.82 71.498 72.067 69.645 69.57 69.632 69.702 69.669 69.694 69.75 69.779 69.774 69.757 69.835 69.887 69.75 69.676 69.767 69.732 69.614 69.608 69.631 69.705 69.5 69.452 69.498 69.532 69.457 69.417 69.357 70.866 76.792 77.727 70.133 69.859 68.345 67.886 67.52 67.119 66.774 66.316 66.079 65.87 65.659 65.672 65.571 65.649 73.075 73.714 75.253 76.636 72.559 66.358 65.229 65.156 65.177 65.129 65.05 65.059 64.991 64.959 64.918 64.864 67.446 65.91 64.833 64.901 64.958 64.98 65.022 65.064 65.06 65.107 65.151 65.136 65.191 64.973 64.93 64.867 64.82 64.762 64.695 64.611 64.451 64.181 63.908 64.724 69.922 72.339 73.095 71.732 68.771 65.64 65.828 67.055 70.995 72.839 73.251 68.886 69.492 70.237 67.577 68.574 70.116 69.88 70.295 71.474 67.869 66.655 65.86 65.947 66.398 68.31 66.981 66.498 66.221 66.222 66.296 66.321 66.418 66.593 67.568 67.157 67.959 68.977 70.233 70.568 66.681 66.333 66.518 71.341 67.635 66.302 66.064 67.292 65.814 65.438 65.263 64.916 64.781 64.612 64.51 64.431 64.434 64.342 66.602 68.115 68.893 67.402 64.802 64.766 64.643 68.969 70.91 71.208 70.383 67.221 64.601 64.435 64.588 65.876 65.85 64.063 63.575 63.599 65.647 63.665 63.076 63.135 63.231 66.186 65.538 62.676 67.026 67.709 66.608 65.596 63.736 63.733 63.427 63.838 62.663 62.141 61.768 62.499 63.482 61.761 62.423 65.512 67.73 67.64 63.03 61.424 60.132 60.098 60.012 59.997 59.801 59.648 59.319 59.197 59.163 59.026 59.011 58.9 58.747 58.62 58.572 58.675 58.678 58.542 58.449 58.266 62.66 64.737 65.703 65.975 65.18 64.336 62.796 59.07 57.967 57.746 58.505 57.629 56.827 56.465 56.323 56.459 58.522 56.706 55.543 55.35 55.313 55.098 56.242 57.226 57.213 55.528 54.778 53.824 53.258 52.734 55.117 52.928 55.396 55.326 55.897 57.044 59.181 58.888 54.195 52.127 51.643 51.429 52.176 51.365 52.579 51.728 51.412 51.439 51.596 54.71 54.569 51.186 50.832 50.564 50.343 50.018 49.937 49.827 50.021 50.135 49.767 49.556 49.436 49.732 49.1 49.017 48.963 48.882 48.633 48.523 48.532 49.022 49.495 49.604 49.488 49.27 48.699 47.768 47.528 47.432 47.409 47.303 47.195 47.182 47.003 46.983 46.912 46.8 46.644 46.794 46.38 45.391 48.993 50.755 51.182 48.812 45.78 44.313 44.289 44.157 44.541 43.89 43.874 43.774 43.728 43.757 43.642 43.491 43.37 43.331 43.278 43.419 48.684 49.621 50.269 51.558 49.567 46.953 42.955 42.839 42.759 42.477 42.096 41.996 47.789 48.845 45.078 41.963 41.112 41.02 40.939 40.883 40.746 40.672 40.597 40.537 40.51 40.454 40.389 40.296 41.873 41.591 40.254 40.216 40.201 40.167 40.136 40.292 40.461 40.635 41.034 41.571 40.897 40.819 40.735 40.82 41.075 43.671 46.824 44.31 52.504 46.155 40.982 41.01 41.111 41.22 41.346 41.429 41.459 41.443 41.414 41.434 41.45 41.444 41.445 41.406 41.38 41.33
72.334 73.003 71.86 71.557 71.486 71.849 75.573 75.149 72.844 71.359 71.924 70.981 75.727 77.32 77.531 76.781 75.089 71.571 72.228 71.673 70.141 69.921 69.849 69.858 70.55 69.799 70.233 70.125 70.275 70 71.009 70.218 71.438 72.265 72.866 74.441 72.65 70.095 69.887 69.737 69.658 70.233 70.32 69.845 69.906 69.845 69.672 69.577 69.651 69.632 69.694 69.719 69.746 69.792 69.751 69.771 69.96 69.943 69.845 69.768 69.734 69.746 69.589 69.635 69.715 69.623 69.418 69.488 69.535 69.523 69.405 69.409 69.395 69.261 69.094 68.893 70.299 69.641 68.041 67.591 67.8 67.358 66.812 68.311 68.297 74.013 67.218 66.465 65.621 74.837 76.413 80.702 80.167 79.137 79.469 77.419 67.105 65.089 65.388 65.286 65.23 65.245 65.02 65.032 65.506 70.968 73.086 71.494 70.768 67.777 64.825 64.854 64.899 64.904 64.912 64.946 65.013 65.024 64.962 64.874 64.864 64.796 64.676 64.635 64.466 64.454 64.29 64.086 64.066 68.445 71.039 72.569 73.384 73.067 68.503 64.657 67.365 69.6 68.963 69.29 67.538 66.84 68.736 69.964 66.85 67.939 71.731 71.051 65.969 68.472 66.741 66.371 66.852 66.15 66.165 66.323 66.392 67.365 67.728 66.435 66.42 67.832 66.708 66.78 66.795 68.033 68.613 70.898 72.676 72.945 67.859 66.604 66.405 66.247 66.207 66.072 66.567 66.552 65.668 65.446 65.213 65.066 64.989 64.786 64.617 64.689 64.64 65.172 65.663 68.074 69.11 70.25 70.467 65.957 64.935 65.515 69.261 70.089 67.407 66.318 64.651 64.329 66.23 65.93 65.797 64.727 63.686 63.647 64.089 65.852 63.89 63.205 63.269 65.357 66.925 65.637 68.206 68.939 65.681 64.175 63.025 62.845 63.569 62.912 62.338 62.353 62.097 63.742 63.831 61.714 66.029 67.83 68.695 68.406 67.323 62.861 61.677 61.24 60.284 60.577 59.971 59.585 59.463 59.364 59.257 59.286 61.679 61.848 58.905 58.79 58.612 58.518 58.539 58.643 58.478 58.564 58.427 62.992 64.221 65.343 66.12 66.522 64.504 62.626 58.337 59.028 58.501 57.394 56.891 56.66 56.551 56.414 56.793 58.575 55.963 56.604 57.336 57.847 57.697 55.975 54.815 54.566 54.469 53.997 53.095 52.676 53.737 53.616 55.048 53.617 58.508 59.935 60.69 59.417 57.11 54.35 52.633 51.613 51.477 51.496 51.549 51.564 51.548 51.621 53.587 56.094 56.474 52.94 51.381 51.176 50.818 50.599 51.256 49.994 49.95 49.807 49.732 49.63 49.472 49.312 49.221 49.129 49.036 48.887 48.79 48.873 49.328 49.691 49.742 49.687 49.484 48.931 48.021 47.745 47.647 47.584 47.497 47.338 47.291 48.074 47.172 47.101 47.062 46.624 46.029 45.554 45.605 49.181 51.57 52.657 52.377 50.838 46.066 44.749 46.294 49.466 49.445 44.601 43.876 43.861 43.724 43.717 43.635 43.536 44.351 43.365 43.279 46.272 49.092 50.558 50.148 49.153 45.245 44.449 43.845 42.724 42.464 42.13 42.522 48.338 49.282 45.627 53.682 46.219 41.161 41.03 40.992 40.873 40.795 40.671 40.639 40.582 40.542 40.498 40.401 40.271 40.243 40.234 40.378 44.111 43.809 40.266 40.323 40.255 40.373 40.537 40.731 42.074 40.835 40.772 40.69 40.742 40.853 43.507 41.503 42.665 40.865 40.848 40.94 40.989 41.054 41.178 41.293 41.384 41.438 41.435 41.434 41.421 41.438 41.429 41.439 41.382 41.347 41.283
75.005 72.001 71.58 71.612 71.537 71.481 71.845 74.081 71.807 71.992 71.541 71.055 75.766 76.595 77.434 77.48 77.121 72.491 72.617 71.733 69.966 69.932 69.883 69.813 70.698 70.017 69.732 70.189 70.634 72.707 72.689 70.373 72.16 71.851 74.494 75.315 72.626 74.536 69.774 70.503 73.139 70.704 69.855 69.951 69.987 70.012 69.98 69.99 69.618 69.668 69.684 69.77 70.138 69.837 69.797 69.785 69.846 69.948 69.959 69.856 69.747 69.766 69.681 69.753 69.689 69.491 69.503 69.541 69.559 69.524 69.477 70.23 70.104 69.131 69.149 68.986 70.306 74.955 71.94 70.711 74.95 77.132 79.572 79.016 75.561 75.657 77.933 76.994 78.053 79.465 81.455 82.406 82.215 83.132 82.582 79.85 75.892 70.194 78.661 78.228 78.172 67.328 65.648 67.843 69.73 67.855 74.927 76.459 74.204 69.393 64.861 65.589 64.72 64.731 64.773 64.818 64.82 64.791 64.764 64.742 64.681 64.653 64.592 64.576 64.429 64.282 64.235 64.3 65.028 66.671 70.637 70.105 73.094 74.089 70.344 69.701 68.231 67.427 68.424 69.449 67.879 68.215 66.758 66.323 65.335 66.336 72.662 72.853 65.939 66.163 66.182 66.356 67.162 66.684 66.502 66.504 66.526 66.966 66.942 67.455 66.746 69.623 69.009 67.352 66.826 68.549 70.522 72.496 73.513 73.591 72.87 71.332 66.581 66.412 66.335 66.428 66.154 66.001 65.739 65.431 65.358 65.183 65.05 64.93 64.942 64.874 65.201 65.299 65.685 68.76 70.967 71.974 72.085 69.479 65.078 65.351 65.635 67.24 67.149 66.678 66.01 64.394 66.546 66.642 66.514 66.293 64.044 63.712 63.638 64.117 65.445 66.305 64.316 63.705 65.413 66.745 66.406 65.701 63.966 64.385 62.919 62.172 62.136 63.563 62.802 62.016 62.188 62.99 64.237 66.335 67.956 69.036 69.104 67.997 66.86 61.333 61.227 61.175 60.378 59.967 59.828 59.686 59.554 59.485 59.419 59.514 62.907 61.894 59.008 58.85 58.734 58.58 58.479 58.548 58.598 58.593 59.506 58.51 59.213 63.017 65.115 66.317 65.808 64.855 63.107 59.641 58.049 57.876 57.352 56.931 56.701 56.554 56.759 58.527 58.39 56.26 56.431 68.97 55.842 66.162 55.241 55 54.627 56.532 56.419 54.394 53.895 53.672 53.175 52.98 53.999 59.084 61.117 60.131 58.414 53.226 52.447 51.874 51.674 51.607 51.674 51.722 51.696 51.783 55.074 55.422 54.171 52.786 51.439 51.202 51.176 51.583 56.73 50.436 50.074 49.968 49.839 49.69 49.559 49.456 49.384 49.259 49.117 48.961 49.187 49.569 49.954 49.945 49.858 49.654 48.997 48.175 47.895 47.84 47.754 47.652 47.507 47.51 47.558 47.359 47.303 47.223 47.125 46.766 46.296 45.464 49.203 51.631 52.678 52.239 51.149 48.091 45.688 44.998 49.58 50.803 50.732 49.463 44.751 43.816 43.729 43.689 43.657 43.582 43.557 43.367 46.782 49.146 50.381 50.314 49.021 45.115 42.986 42.859 42.675 43.391 42.403 42.17 44.993 50.494 45.9 45.253 52.854 44.151 41.178 41.095 41.055 40.959 40.805 40.728 40.679 40.603 40.541 40.536 40.468 41.002 40.506 43.098 46.754 47.27 45.906 41.42 40.246 40.298 43.543 44.139 41.096 40.841 40.764 40.768 40.735 41.449 41.63 40.68 40.61 40.837 40.947 40.839 40.94 40.967 41.032 41.117 41.223 41.303 41.412 41.429 41.423 41.403 41.41 41.419 41.431 41.371 41.357 41.309
77.236 72.387 71.76 72.581 71.66 71.911 72.391 72.873 72.269 74.513 71.421 70.593 73.219 75.915 76.747 76.4 72.772 71.007 70.838 70.152 69.988 69.933 69.877 69.86 69.918 70.299 69.976 70.279 73.902 75.33 76.553 72.861 71.578 71.863 74.712 75.84 75.972 73.769 72.109 71.478 70.194 69.902 69.994 70.092 71.433 72.424 70.671 69.976 69.827 69.677 69.714 69.774 69.91 69.915 69.884 69.788 69.763 69.878 69.957 69.868 69.835 69.805 69.813 69.766 69.541 69.518 69.546 69.609 69.554 69.443 69.519 74.74 69.577 73.178 74.687 76.815 78.444 80.587 80.286 79.586 80.712 81.717 82.831 82.491 83.175 83.192 82.521 82.371 78.91 82.373 78.817 83.969 84.351 84.132 84.03 82.377 79.286 81.213 80.634 79.836 80.706 79.038 68.503 67.446 70.301 77.262 77.779 78.128 74.022 75.062 73.589 73.767 68.736 73.25 73.005 74.496 71.508 64.81 64.672 64.65 64.677 64.685 64.687 64.604 64.563 65.325 66.847 64.746 64.378 64.031 67.702 70.119 72.704 74.751 74.26 70.369 66.441 67.183 67.057 66.769 67.989 68.558 70.141 69.212 66.258 65.716 67.187 69.177 69.001 69.115 66.45 67.21 66.699 67.193 67.563 66.801 66.696 66.88 66.83 66.894 68.461 69.022 69.508 69.455 69.436 70.235 72.644 73.726 74.01 73.433 72.647 68.409 67.002 66.637 66.321 66.175 66.155 66.019 65.698 65.553 65.453 65.356 65.336 65.172 65.07 65.503 68.608 69.788 68.562 70.778 72.316 73.206 72.938 72.025 69.51 66.145 65.796 65.269 64.702 65.011 66.189 66.198 64.401 66.578 66.566 66.492 65.964 64.504 63.752 63.668 64.718 67.342 66.539 64.356 65.704 65.68 63.998 63.37 63.173 63.384 62.466 62.185 62.121 62.034 63.563 64.322 62.625 61.809 66.168 69.105 69.21 68.898 68.011 66.768 61.939 61.204 60.946 61.379 60.277 59.983 59.897 59.818 59.631 59.592 59.565 59.501 60.203 60.091 59.173 59.028 58.868 58.751 58.645 58.518 58.456 58.545 58.886 58.538 58.395 60.198 62.748 64.701 65.55 65.784 64.849 63.978 61.987 58.203 57.701 57.32 56.859 56.679 56.573 57.104 60.05 57.796 55.589 69.26 61.631 68.329 55.649 58.179 58.231 58.254 57.384 54.902 53.96 53.829 53.231 52.977 53.948 58.412 60.454 61.198 59.56 54.751 52.715 52.246 51.844 51.82 51.806 51.802 51.853 52.711 53.592 51.847 52.475 51.874 51.641 51.382 51.121 50.832 51.232 50.328 50.268 50.039 49.912 49.781 49.762 49.623 49.491 49.36 49.179 49.325 49.75 50.101 50.204 50.009 49.737 49.021 48.296 48.149 48.076 47.978 47.902 47.748 48.344 48.276 47.672 47.433 47.49 47.255 47.239 46.263 48.02 49.513 51.736 52.554 52.04 50.814 46.585 45.038 45.641 44.841 45.443 51.145 51.234 50.222 49.327 44.523 43.767 44.349 43.693 43.562 43.516 47.111 49.425 50.452 50.934 48.658 44.605 43.405 43.049 42.743 42.553 42.345 42.872 42.965 42.664 44.22 41.839 41.577 41.464 41.324 41.221 41.178 41.087 40.978 40.851 40.758 40.735 40.607 40.576 40.546 40.471 40.612 40.24 44.623 46.577 48.465 47.308 45.654 42.078 40.52 44.763 46.349 42.216 40.871 41.351 40.774 40.778 40.71 40.731 40.738 40.596 40.768 40.953 40.965 40.909 40.921 40.993 41.061 41.153 41.24 41.359 41.452 41.422 41.38 41.367 41.423 41.405 41.364 41.328 41.293
78.216 76.495 72.995 71.607 71.663 72.92 73.726 72.359 72.692 71.515 75.178 70.706 70.541 73.419 73.313 70.461 70.893 71.35 70.144 70.112 69.992 69.966 69.948 69.97 69.919 70.029 71.932 74.727 76.193 76.644 77.33 76.454 72.872 72.181 72.99 75.279 74.779 73.391 72.265 70.436 69.931 69.948 71.415 72.231 73.149 73.711 72.54 70.153 70.253 71.836 69.754 69.754 69.787 69.95 69.919 69.848 69.759 69.751 69.917 69.944 69.874 69.871 69.83 69.703 69.524 69.574 69.618 69.578 69.497 69.446 69.634 79.229 81.133 76.155 78.11 78.757 78.864 80.522 81.174 80.392 82.219 83.429 84.259 84.212 82.165 84.553 84.487 84.711 83.316 84.516 83.884 84.478 84.897 82.893 83.477 82.381 81.105 78.886 81.31 81.306 81.222 71.984 65.042 65.856 72.644 71.938 71.112 79.207 79.338 77.835 78.829 75.819 75.191 77.275 79.491 78.981 77.389 73.502 72.567 64.973 67.827 64.84 64.74 65.231 66.078 67.738 69.304 68.079 66.773 64.708 65.555 67.152 70.92 74.152 74.046 68.632 72.277 74.23 73.131 71.772 69.063 69.196 69.896 70.484 67.395 66.055 66.114 66.279 69.96 68.344 68.975 70.314 69.66 67.253 67.054 67.658 67.25 66.908 66.938 67.068 69.278 69.665 69.405 68.076 68.666 71.942 73.282 74.026 73.701 72.745 69.375 66.85 67.1 67.382 66.435 66.218 65.953 65.953 65.83 65.708 66.055 65.976 65.475 65.627 65.677 65.468 68.568 70.362 70.416 67.512 72.16 72.989 73.199 71.322 69.207 68.851 68.445 65.937 65.618 65.983 66.486 67.559 69.023 66.087 64.564 64.855 66.344 64.496 64.633 64.04 64.154 67.519 66.86 65.242 65.163 63.817 63.462 63.308 63.077 63.028 63.636 62.229 62.075 61.931 61.82 63.886 62.135 66.444 68.509 70.146 68.792 67.83 66.753 61.616 61.246 61.201 60.798 60.429 60.159 60.054 59.956 59.879 59.818 59.767 59.679 59.573 59.492 59.414 59.31 59.128 58.991 58.912 58.766 58.63 58.537 58.365 58.517 58.501 58.53 59.764 58.72 60.767 64.473 65.483 65.915 64.909 63.516 58.24 57.998 57.585 57.189 56.833 59.015 61.512 61.048 60.424 56.712 64.197 56.493 57.832 60.114 59.918 58.993 56.594 55.222 54.428 54.058 53.864 54.771 53.446 53.28 56.499 59.31 59.683 59.093 58.165 52.9 52.437 52.019 51.994 51.999 51.91 51.964 51.927 51.982 51.951 51.847 51.744 51.604 51.433 51.138 50.883 50.585 50.545 50.454 50.143 50.017 49.965 49.862 49.703 49.605 49.416 49.657 50.067 50.322 50.363 50.217 49.885 49.092 48.467 48.346 48.281 48.175 48.025 47.899 47.893 49.288 48.518 47.658 47.526 48.921 47.699 47.225 47.323 46.1 50.495 52.211 52.052 50.66 46.975 45.139 45.013 44.973 44.198 43.975 46.937 50.167 51.198 50.105 48.418 44.201 43.863 43.614 43.351 46.857 49.506 50.399 50.142 48.899 45.021 43.005 42.925 42.965 42.583 42.427 42.779 48.387 45.857 43.946 44.324 41.843 41.642 41.481 41.418 42.963 41.331 41.12 41.029 40.903 40.825 40.781 40.724 40.676 40.608 40.525 41.09 40.224 44.408 46.777 47.959 48.195 46.527 44.18 40.144 43.587 44.536 41.56 40.56 41.789 40.832 40.713 40.703 40.641 40.688 40.649 40.587 40.868 40.936 40.915 40.91 40.956 40.994 41.106 41.174 41.299 41.39 41.388 41.354 41.359 41.375 41.365 41.377 41.342 41.345
78.723 77.415 73.58 71.696 75.127 72.965 71.974 71.73 72.913 72.313 71.29 71 70.476 70.381 70.489 71.123 71.503 70.56 70.122 70.237 70.548 70.301 70.481 70.57 70.171 70.468 75.263 76.179 76.979 77.427 76.852 76.254 74.4 70.441 70.208 73.043 72.562 71.972 72.432 70.112 69.93 70.096 72.941 73.449 74.038 74.446 73.723 72.277 70.125 72.388 70.618 69.774 69.865 69.853 69.881 69.901 69.858 69.778 69.798 69.886 69.827 69.839 69.637 69.508 69.585 69.635 69.657 69.553 69.48 71.671 73.848 72.585 80.166 73.285 75.163 78.559 77.574 79.666 79.889 79.856 81.878 82.904 82.623 80.4 83.938 83.088 83.663 83.468 80.645 80.714 83.466 84.102 84.116 83.559 82.989 81.567 79.737 80.469 81.459 79.48 69.881 65.48 67.177 65.488 69.099 76.5 73.511 79.992 80.15 79.49 80.295 78.759 77.5 77.157 79.967 78.805 78.72 77.425 76.628 74.968 69.012 67.657 65.86 65.13 65.77 68.134 68.146 72.755 73.214 66.139 65.337 65.015 69.264 72.308 72.338 69.867 74.031 76.037 74.478 71.643 69.396 67.741 68.438 69.102 69.024 66.368 66.448 66.442 67.589 68.669 69.999 71.297 71.258 68.498 67.067 67.637 67.485 67.445 67.122 67.498 69.297 69.671 68.594 67.89 67.283 70.814 71.653 73.343 72.794 70.878 67.35 67.063 67.505 67.015 67.429 66.469 66.121 66.106 65.953 65.884 67.899 65.929 66.011 65.924 65.937 66.624 66.835 69.608 68.188 66.592 70.537 72.044 71.251 68.73 68.017 69.175 69.181 67.442 65.805 65.828 65.298 67.592 68.586 68.099 65.322 64.334 66.35 66.416 64.471 64.272 63.794 66.528 67.474 65.667 63.974 63.775 63.285 63.159 63.047 63.031 63.291 62.89 62.015 61.808 61.66 64.27 67.191 68.435 69.32 68.864 67.628 66.757 62.283 61.248 62.237 61.347 60.687 60.356 60.25 60.203 60.09 60.127 61.411 60.539 59.82 59.691 59.578 59.488 59.427 59.246 59.189 59.002 58.917 58.787 58.653 58.5 58.394 58.433 58.676 58.525 58.37 58.387 62.742 64.255 65.034 63.851 58.783 58.143 58.056 57.964 59.12 58.897 57.895 57.903 63.175 60.989 68.088 66.806 67.983 58.995 59.426 59.225 56.677 55.148 55.142 55.377 55.588 54.73 54.584 53.721 53.444 53.191 58.318 58.222 53.747 53.397 52.585 52.35 52.328 52.234 52.16 52.104 52.01 52.064 52.043 52.031 51.937 51.78 51.591 51.359 51.168 51.007 50.741 50.58 50.579 50.261 50.204 50.079 50.002 49.848 49.727 49.953 50.345 50.586 50.559 50.397 50.03 49.28 48.713 48.593 48.503 48.389 48.256 48.105 48.152 48.582 48.478 47.812 47.632 47.582 48.025 47.315 47.245 47.2 47.615 45.838 50.126 49.829 45.558 45.204 45.036 45.039 44.945 44.131 43.979 44.064 45.123 50.202 51.217 50.034 47.366 43.881 43.648 45.327 48.951 51.366 50.164 48.545 44.461 43.017 42.968 42.895 42.742 42.492 42.658 48.495 48.375 52.05 46.157 42.29 41.893 41.635 41.558 41.44 43.833 45.521 42.903 41.306 40.99 40.902 40.853 40.813 40.738 40.662 40.569 40.669 40.53 41.097 46.262 47.934 48.532 46.949 44.78 40.273 40.159 40.573 40.349 40.522 41.696 41.231 40.784 40.735 40.654 40.651 40.672 40.574 40.774 40.932 42.042 51.785 52.786 41.156 41.07 41.145 41.217 41.34 41.372 41.321 41.365 41.364 41.368 41.353 41.371 41.345
77.472 74.266 71.949 72.357 76.263 73.088 71.669 71.641 71.974 73.077 71.191 70.845 70.59 70.663 70.796 70.693 71.03 70.808 70.322 70.688 70.479 70.306 70.412 70.606 70.266 71.398 73.919 77.054 77.181 76.535 76.156 75.683 72.714 70.208 70.526 72.126 72.495 71.538 70.073 69.951 70.027 70.615 72.806 73.674 74.499 75.143 74.614 73.671 72.165 70.898 71.784 70.317 69.841 69.89 69.867 69.883 69.928 69.894 69.756 69.726 69.818 69.73 69.577 69.628 69.639 69.656 69.636 69.558 71.712 75.883 77.095 69.035 75.329 72.491 74.011 75.426 74.292 72.053 75.765 70.094 76.461 80.058 80.069 80.325 79.512 79.313 81.767 81.027 82.161 82.228 82.958 83.051 82.191 82.491 81.727 79.569 73.134 78.593 79.818 80.791 67.011 66.35 68.616 68.045 65.769 75.586 75.75 77.5 78.824 79.221 79.628 75.159 78.959 80.239 78.387 80.685 81.113 79.793 76.329 76.996 71.882 68.942 67.266 65.537 65.972 67.768 70.786 73.719 73.163 68.161 70.623 69.249 69.158 70.274 70.869 67.056 73.289 75.157 73.501 70.612 66.994 68.348 67.4 66.47 67.28 67.536 66.653 66.998 67.97 69.86 69.438 70.385 68.606 67.461 68.838 67.348 67.485 68.207 67.769 68.059 67.902 67.952 68.717 68.639 68.404 67.312 67.925 71.735 70.912 67.263 67.057 67.12 67.287 68.092 68.756 66.412 66.228 66.1 66.007 66.676 66.477 66.245 66.219 66.067 66.152 70.476 71.18 67.987 66.015 66.407 66.496 69.075 68.493 68.358 68.918 69.421 69.246 68.351 66.484 65.983 65.097 64.832 65.429 66.883 65.617 64.356 64.354 65.87 66.234 64.063 64.632 67.34 67.8 65.473 63.828 63.565 63.375 63.214 63.065 63.047 63.091 63.045 63.218 61.782 64.524 67.133 68.668 69.161 68.548 67.473 64.015 62.81 61.99 61.214 61.298 60.728 60.534 60.456 60.352 60.255 60.223 62.086 63.906 62.416 60.058 59.838 59.672 59.622 59.49 59.34 59.296 59.174 59.081 58.924 58.807 58.635 58.524 58.394 58.326 58.452 58.435 59.37 58.725 61.84 63.723 60.739 58.185 59.017 59.782 59.951 58.855 57.696 56.997 56.752 59.537 61.843 60.961 60.796 60.141 59.169 56.801 55.67 56.876 57.277 57.236 55.622 54.98 54.583 55.27 54.489 53.49 53.255 53.932 53.044 53.167 53.022 53.738 54.729 54.679 53.621 52.337 52.264 52.162 52.168 52.128 52.022 51.917 51.857 51.629 51.457 51.288 51.057 50.93 50.715 51.343 50.484 50.319 50.146 50.03 49.939 50.202 50.563 50.789 50.738 50.501 50.253 49.382 48.907 48.782 48.701 48.554 48.443 48.268 48.216 48.39 48.463 48.056 47.874 48.439 47.782 47.384 47.126 47.065 47.315 47.2 47.061 45.811 45.723 45.217 45.524 45.312 45.035 44.878 44.226 44.868 44.157 44.877 48.865 50.411 49.276 44.513 44.598 43.83 43.398 47.99 49.249 48.713 43.721 43.491 43.095 42.908 43.023 42.735 43.923 49.344 48.452 47.246 60.007 52.391 42.544 41.816 41.679 41.581 43.559 46.692 47.753 45.567 42.062 41.054 40.966 40.897 40.83 40.759 40.718 40.607 40.512 41.138 40.855 44.74 47.204 47.894 46.817 45.549 40.277 40.146 40.204 40.374 40.528 40.892 42.083 40.809 40.768 40.613 40.6 40.636 40.596 40.622 49.219 44.235 50.17 48.059 41.042 40.961 41.098 41.126 41.322 41.359 41.363 41.361 41.36 41.362 41.387 41.322 41.321
73.364 71.632 71.62 72.182 72.271 71.797 71.607 72.757 73.149 73.128 72.366 71.192 70.78 70.755 70.714 70.504 70.653 70.387 71.249 71.219 70.496 74.282 75.698 75.269 70.37 70.368 70.519 77.056 76.721 75.9 75.116 73.687 72.584 70.556 70.225 71.774 73.145 71.768 69.974 69.996 70.085 70.285 71.609 72.849 73.975 74.788 75.122 74.315 73.174 70.629 71.14 74.252 71.397 69.81 69.848 69.868 69.916 69.955 69.801 69.662 69.65 69.603 69.648 69.736 69.678 69.649 69.598 69.55 69.429 69.121 77.136 72.933 71.717 72.495 73.192 71.513 69.984 66.223 66.343 70.449 70.845 74.346 69.415 71.54 74.671 70.556 74.197 76.22 75.718 71.488 77.012 79.506 80.045 77.962 78.909 77.173 75.296 77.608 78.244 67.613 65.973 66.701 65.79 65.744 67.565 75.452 76.528 78.881 76.331 75.78 78.545 78.084 79.112 80 80.761 80.95 80.448 79.802 77.48 76.165 74.525 68.128 68.229 68.552 66.15 69.228 73.497 77.973 78.024 77.892 74.189 72.64 66.274 67.968 67.375 65.957 66.415 70.487 70.732 69.517 68.182 67.39 66.508 66.623 66.687 66.792 67.248 66.925 68.728 68.247 67.626 67.294 68.031 68.11 69.041 68.045 67.658 67.649 68.063 67.921 67.623 67.628 67.891 73.208 73.318 68.795 67.715 67.096 67.222 67.074 67.124 67.46 66.886 68.67 66.845 66.495 66.311 66.133 66.163 66.157 66.467 66.223 66.254 66.87 71.308 72.597 73.097 72.415 67.158 66.063 66.165 67.694 66.9 66.898 67.804 68.575 68.345 67.817 67.452 66.117 65.507 64.863 64.865 64.839 64.667 64.403 64.525 64.589 64.566 65.247 67.014 67.675 66.963 64.231 63.628 63.83 63.34 63.366 63.169 63.084 63.121 63.096 63.123 62.637 66.563 69.088 68.746 68.504 67.395 64.027 61.811 61.858 62.353 61.294 60.842 60.707 60.629 60.6 60.43 61.477 61.45 62.831 64.761 63.969 60.232 59.929 59.877 59.791 59.559 59.504 59.391 59.291 59.156 59.073 58.954 58.773 58.802 58.559 58.373 58.242 58.393 58.751 58.549 58.34 59.228 59.097 59.888 60.016 60.238 59.019 58.143 57.867 57.331 56.915 57.492 61.148 62.19 59.284 61.604 56.75 57.6 60.778 60.236 58.485 55.905 55.2 54.629 54.595 54.668 55.002 54.623 54.757 55.406 55.104 55.175 55.02 55.157 54.641 54.924 53.864 52.825 52.44 52.348 52.265 52.262 52.158 52.04 51.868 51.746 51.581 51.436 51.174 50.957 50.823 50.693 50.601 50.451 50.28 50.229 50.514 50.861 50.956 50.918 50.595 50.225 49.495 49.088 49.005 48.912 48.825 48.685 48.533 48.35 48.351 48.264 48.239 48.096 48.461 48.184 47.732 47.927 47.183 49.954 51.184 51.08 50.799 47.121 46.864 46.941 45.458 44.959 45.097 44.838 45.535 44.401 45.364 44.283 44.949 47.482 44.245 43.904 44.034 44 43.369 43.322 46.751 43.963 43.269 43.279 43.232 43.062 42.874 42.774 43.475 47.712 49.756 54.493 55.071 53.057 60.998 45.009 41.766 41.653 44.425 47.381 46.435 46.513 42.103 41.117 41.008 40.942 40.863 40.821 40.748 40.684 40.596 40.67 40.901 44.198 45.949 47.107 46.884 44.974 40.222 40.139 40.164 40.33 40.447 40.583 41.859 40.824 40.784 40.669 40.566 40.63 40.603 40.863 43.85 52.054 46.401 50.266 55.555 56.34 41.291 41.113 41.184 41.331 41.382 41.376 41.331 41.348 41.343 41.378 41.319
71.697 71.619 71.604 72.437 71.893 71.837 72.816 72.394 71.515 72.757 72.804 71.418 70.891 71.21 70.801 70.805 71.539 71.002 75.379 76.375 76.438 76.796 77.03 76.681 70.704 73.397 73.404 71.388 74.661 74.634 70.239 71.808 71.194 70.363 70.632 72.462 73.198 72.126 70.722 70.082 70.213 70.535 70.318 70.746 73.002 73.857 74.677 75.202 74.076 73.153 71.527 74.503 73.86 69.907 69.815 69.865 69.971 70.01 69.979 69.845 69.585 69.652 69.727 69.692 69.662 69.597 69.55 69.526 69.248 68.997 68.329 68.156 67.229 71.228 73.387 72.292 69.184 67.068 69.201 69.569 68.434 70.34 66.216 66.302 66.313 66.37 66.403 66.405 66.341 67.579 68.086 70.441 77.905 80.143 79.632 71.123 68.634 68.277 68.667 69.658 67.495 66.273 66.064 66.107 70.19 73.016 74.607 74.257 73.202 71.53 75.187 78.16 79.502 79.106 80.905 81.027 80.956 80.756 77.966 75.962 72.243 69.815 70.892 70.46 70.358 70.325 73.164 75.47 75.965 72.165 75.194 75.196 70.511 67.156 70.283 73.597 71.873 72.122 71.324 66.827 67.978 68.959 67.158 66.899 66.92 67.204 68.053 68.405 67.45 67.167 67.241 67.218 67.395 69.238 69.604 70.004 69.885 69.381 68.161 67.993 69.095 67.841 72.421 74.416 74.024 72.809 68.984 67.545 68.224 67.42 67.709 67.157 66.941 66.736 66.701 66.501 66.443 66.343 66.346 66.28 66.277 66.315 66.445 71.096 73.033 73.708 73.401 72.551 68.751 65.947 65.968 67.446 67.34 67.016 67.096 68.303 67.862 69.066 68.072 66.782 66.401 65.225 64.656 64.871 64.652 66.288 70.426 65.07 66.663 67.863 68.025 65.542 64.099 63.847 63.658 63.438 63.307 63.255 63.294 63.237 63.171 63.221 67.11 64.261 62.074 65.981 67.791 67.159 63.094 61.792 62.024 61.955 61.417 61.105 60.895 60.772 60.728 60.621 60.714 62.86 62.505 62.796 64.907 63.32 60.31 60.092 60.097 59.919 59.733 59.667 59.543 59.445 59.327 59.215 59.056 59.975 62.065 58.765 58.503 58.376 58.212 58.314 58.377 58.674 59.257 59.983 59.759 59.601 58.836 58.352 58.115 58.033 57.618 57.1 56.939 59.205 59.754 59.916 58.423 59.922 60.776 60.45 60.079 59.689 58.344 57.204 56.437 54.813 54.731 54.773 54.727 57.957 59.019 55.941 54.954 54.777 55.347 55.034 54.807 54.526 53.411 52.561 52.495 52.417 52.381 52.242 52.054 51.974 51.749 51.567 51.434 51.316 51.152 51.001 50.902 50.752 50.573 50.539 50.838 51.048 51.173 51.131 50.903 50.346 49.793 49.349 49.279 49.123 49.078 48.929 48.748 48.596 48.45 48.411 48.326 48.259 50.349 53.436 49.827 47.796 48.133 47.22 49.681 53.835 54.013 52.513 48.996 46.742 46.52 45.259 46.262 47.382 44.757 44.706 44.428 44.653 44.026 44.609 44.005 43.956 43.937 45.124 45.372 43.365 43.352 43.357 43.347 43.33 43.295 43.278 43.203 42.968 42.903 42.807 42.751 47.166 45.538 42.88 54.514 59.081 43.053 41.772 41.656 44.098 45.928 45.437 42.864 41.26 41.158 41.101 41.005 40.914 40.88 40.828 40.739 40.651 40.53 41.187 40.798 45.163 46.075 42.228 40.194 40.165 40.157 40.143 40.258 40.372 40.499 40.951 41.164 40.766 40.698 40.558 40.597 40.613 51.41 53.573 49.789 58.84 47.144 56.829 49.197 41.235 41.034 41.131 41.253 41.283 41.323 41.329 41.352 41.388 41.426 41.328
