ncols 433
nrows 32
xllcorner    433004
yllcorner    432006
cellsize     2
NODATA_value -9999
42.371 43.238 43.2 43.236 42.956 42.797 42.636 42.531 42.289 42.275 42.491 42.644 42.782 42.966 43.17 43.271 43.385 43.602 43.759 43.788 43.631 43.431 43.363 43.213 43.02 42.877 42.661 42.505 42.419 42.326 42.424 42.641 42.743 42.926 43.052 43.27 43.427 43.54 43.692 43.838 43.711 43.55 43.443 38.398 34.46 34.422 34.339 34.434 35.997 33.692 33.649 33.665 33.651 33.62 33.784 34.11 34.773 34.794 34.664 34.527 34.488 34.291 34.326 34.667 34.601 34.593 34.757 34.524 34.421 34.424 34.78 34.978 34.686 34.656 34.646 34.837 34.721 34.729 34.807 34.792 34.669 34.472 34.259 34.303 34.113 34.085 33.96 33.826 33.699 33.725 33.658 33.611 33.578 33.507 33.469 33.473 33.58 33.7 33.749 33.772 33.83 33.781 33.799 33.781 33.856 33.927 33.928 33.943 33.8 33.74 33.821 33.778 33.803 33.842 33.826 33.775 33.789 33.751 33.708 33.654 33.612 33.58 33.57 33.548 33.494 33.471 33.348 33.254 33.239 33.146 33.09 33.086 33.05 32.995 32.878 32.855 32.918 32.915 33.173 33.205 32.586 32.583 32.639 32.596 32.571 32.539 32.525 32.606 32.577 32.564 32.559 32.514 32.504 32.425 32.835 32.575 32.456 32.475 32.402 32.457 32.561 32.596 32.6 32.593 32.577 32.595 32.537 32.522 32.521 32.557 32.574 32.596 32.679 32.601 32.705 32.815 32.867 33.025 33.064 33.086 33.118 33.162 33.144 33.127 32.975 32.926 32.735 32.58 32.37 32.159 31.727 31.46 31.019 30.583 30.323 29.956 29.664 29.408 29.184 28.997 28.826 28.663 28.563 28.507 28.4 28.26 28.11 28.227 28.065 28.047 28.135 28.221 28.359 28.629 30.635 28.864 28.714 28.164 28.627 28.624 28.976 29.511 30.506 33.605 33.626 33.248 31.528 31.672 32.788 33.259 33.983 33.631 32.284 31.558 31.482 30.014 29.653 31.526 31.784 32.836 33.661 32.898 32.206 30.418 28.463 28.032 27.936 27.868 27.929 28.109 28.007 27.904 27.898 28.088 28.049 27.996 27.978 27.848 27.842 27.807 27.71 27.657 27.65 27.537 27.509 27.446 27.432 27.366 27.378 27.486 27.429 27.354 27.36 27.31 27.883 31.511 31.547 30.817 29.306 29.122 29.023 27.66 27.398 27.466 27.433 27.375 27.416 27.515 27.514 27.575 29.673 30.477 30.299 27.578 27.975 28.261 28.605 28.516 28.182 27.978 27.838 27.598 27.405 27.337 27.328 27.359 27.322 27.322 27.409 27.398 27.496 27.527 27.463 27.478 27.393 27.306 27.246 27.041 26.907 26.767 26.482 26.416 26.394 26.333 26.343 26.376 26.366 26.378 26.508 27.054 27.143 26.418 26.37 26.342 27.029 29.949 30.17 30.389 30.664 30.828 31.016 31.031 31.289 33.377 33.611 33.762 33.938 34.089 34.261 34.505 34.68 34.869 35.005 35.14 35.31 35.486 35.621 35.778 35.73 35.496 35.314 35.17 35.067 34.888 34.724 34.544 34.431 34.264 34.045 33.88 33.77 33.721 33.852 30.523 26.465 26.37 26.361 26.361 26.342 26.811 26.751 26.335 26.309 27.143 27.393 26.394 26.413 26.412 26.485 27.854 26.67 27.68 27.807 27.305 26.737 26.218 25.775 25.425 25.433 25.422 25.71 25.406 25.433 25.462 25.423 25.382 25.138 25.183 25.217 25.38 25.364 25.42 25.428 25.351 25.15 25.238 25.043 24.985 25.14 25.084 25.039 25.019 25.006 25.02 25.021 25.02 25.151 25.261 25.152 25.048 25.076 25.037 25.089
43.602 43.767 43.664 43.349 43.205 43.012 42.879 42.681 42.501 42.392 42.227 42.428 42.565 42.734 42.919 43.087 43.199 43.323 43.502 43.671 43.782 43.713 43.563 43.364 43.225 43.142 42.955 42.712 42.578 42.466 42.293 42.441 42.563 42.718 42.833 42.982 43.222 43.323 43.441 43.644 43.761 43.811 38.657 34.21 34.277 34.923 34.359 34.409 34.829 33.811 33.697 33.691 33.698 33.705 33.677 33.799 34.219 34.698 34.862 34.843 34.791 34.864 34.876 34.88 34.67 34.345 34.324 34.226 35.041 34.62 35.375 33.88 33.783 35.09 34.296 33.863 33.932 33.89 34.098 34.393 35.782 34.758 34.909 34.794 34.905 34.758 34.44 34.155 34.106 33.974 33.701 33.661 33.526 33.487 33.484 33.548 33.618 33.64 33.711 33.763 33.838 33.82 33.817 33.789 33.849 33.92 34.886 33.874 33.848 33.796 33.782 33.793 33.79 33.799 33.768 33.769 33.726 33.742 33.72 33.698 33.624 33.564 33.566 33.537 33.501 33.44 33.363 33.212 33.211 33.138 33.102 33.033 32.957 32.958 32.894 32.906 32.836 32.916 32.963 32.709 32.654 32.665 32.647 32.61 32.573 32.547 32.552 32.496 32.49 32.525 32.583 32.689 32.5 32.511 32.637 32.751 32.691 32.33 32.36 32.387 32.388 32.426 32.458 32.534 32.566 32.556 32.516 32.502 32.465 32.485 32.537 32.499 32.576 32.617 32.647 32.729 32.794 32.943 33.013 33.027 33.031 33.076 33.015 33.017 33.007 32.895 32.853 32.65 32.408 32.205 31.838 31.442 31.071 30.715 30.347 30.039 29.757 29.366 29.205 28.986 28.754 28.571 28.446 28.379 28.259 28.193 28.147 28.061 28.045 28.047 29.417 28.246 28.345 28.486 28.913 28.695 28.563 28.09 27.477 27.683 30.369 32.183 32.391 32.52 33.097 33.079 31.962 33.662 33.335 32.852 33.268 33.423 33.409 32.806 31.295 30.81 30.263 32.103 31.928 32.026 31.008 31.346 29.794 29.515 29.077 28.259 28.036 27.927 28.246 28.028 28.253 28.03 28.255 28.24 28.097 28.089 27.904 27.986 28.016 27.932 27.921 27.863 27.755 27.652 27.625 27.57 27.576 27.489 27.466 27.499 27.572 27.497 27.448 27.364 27.298 28.052 27.939 29.827 29.654 30.99 30.131 29.555 28.732 28.823 27.651 27.622 27.396 27.46 27.366 27.372 28.697 30.268 28.822 27.463 27.449 27.367 27.755 28.283 28.718 28.744 28.386 28.039 28.06 27.553 27.355 27.284 27.295 27.312 27.35 27.366 27.358 27.352 27.402 27.472 27.524 27.59 27.633 27.58 27.251 27.016 26.675 26.486 26.411 26.354 26.323 26.332 26.348 26.311 26.34 26.429 26.503 27.105 27.086 26.439 26.352 26.969 29.281 30.072 30.29 30.503 30.664 30.848 30.603 30.27 29.183 33.291 33.583 33.798 33.973 34.164 34.339 34.477 34.631 34.819 34.965 35.107 35.304 35.525 35.665 35.762 35.615 35.519 35.362 35.187 35.05 34.886 34.7 34.547 34.304 34.125 33.945 33.777 29.929 27.415 27.631 26.856 26.421 26.355 26.382 26.311 26.351 26.319 26.795 26.429 26.651 26.37 26.421 26.452 26.433 26.809 26.696 27.538 27.579 27.252 26.608 26.257 25.908 25.268 25.409 25.611 25.742 25.418 25.415 25.467 25.393 25.334 25.192 25.172 25.23 25.422 25.391 25.478 25.443 25.287 25.29 25.174 25.072 25.049 25.11 25.089 25.013 25.039 25.02 25.027 25.011 25.074 25.132 25.21 25.205 24.993 24.984 25.029 25.091
43.686 43.851 43.728 43.569 43.377 43.206 43.092 42.917 42.785 42.61 42.464 42.238 42.378 42.56 42.677 42.848 42.938 43.184 43.355 43.508 43.645 43.808 43.778 43.582 43.39 43.252 43.09 42.903 42.787 42.621 42.494 42.317 42.364 42.475 42.727 42.873 42.985 43.166 43.242 43.442 43.661 40.738 34.742 34.285 34.311 34.47 34.404 34.652 35.98 34.595 33.694 33.696 33.69 33.7 33.71 33.774 34.149 34.199 34.154 34.406 34.627 34.291 34.371 34.171 33.943 33.737 33.769 33.73 33.605 33.534 33.532 33.463 33.418 33.409 33.409 33.367 33.481 33.486 33.494 33.531 34.395 33.877 33.942 34.014 34.35 34.589 34.754 34.832 34.618 34.292 34.079 33.717 33.574 33.509 33.523 33.514 33.554 33.57 33.661 33.691 33.747 33.734 33.816 33.773 33.841 33.884 33.819 33.789 33.799 33.782 33.766 33.737 33.673 33.704 33.669 33.645 33.646 33.688 33.695 33.671 33.589 33.558 33.507 33.466 33.445 33.414 33.281 33.211 33.146 33.096 33.072 32.884 32.901 32.921 32.888 32.805 32.772 32.836 32.815 32.741 32.648 32.68 32.645 32.628 32.59 32.548 32.543 32.498 32.504 32.475 37.081 37.218 32.849 32.657 32.547 32.502 32.426 32.324 32.367 32.226 32.268 32.429 32.311 32.363 32.434 32.474 32.424 32.423 32.424 32.468 32.545 32.568 32.618 32.633 32.666 32.636 32.661 32.746 32.866 32.919 32.941 32.993 33.018 32.978 32.953 32.973 32.901 32.699 32.495 32.125 31.86 31.498 31.074 30.715 30.297 29.984 29.758 29.388 29.199 28.927 28.65 28.475 28.315 28.207 28.212 28.184 28.157 28.089 28.061 29.668 31.075 30.907 30.096 28.484 28.543 28.64 28.482 28.03 27.538 27.771 30.98 31.89 32.564 32.132 31.654 31.564 32.096 33.62 33.692 32.738 33.096 33.425 33.066 31.94 30.789 31.567 31.259 32.434 31.872 30.873 30.075 30.588 28.833 29.382 29.339 28.937 28.293 28.213 28.591 28.459 28.461 28.349 28.281 28.292 28.133 28.181 28.189 28.063 27.956 27.968 27.93 27.903 27.815 27.756 27.693 27.644 27.599 27.582 27.524 27.559 27.448 27.653 27.615 27.567 27.379 27.304 27.405 28.912 30.441 30.974 31.516 31.793 30.046 29.114 29.736 29.402 27.626 27.199 27.341 27.344 27.356 27.306 27.455 27.658 27.548 27.583 27.613 27.731 28.051 28.405 28.98 28.789 28.382 27.918 27.756 27.512 27.333 27.293 27.305 27.36 27.334 27.335 27.303 27.31 27.361 27.377 27.66 27.684 27.431 27.224 26.871 26.65 26.485 26.348 26.34 26.311 26.248 26.262 26.319 26.362 26.456 26.515 26.565 27.232 27.298 26.435 26.402 27 29.322 30.199 30.358 30.521 30.415 29.989 26.443 27.634 31.989 33.39 33.693 33.931 34.085 34.232 34.398 34.523 34.675 34.836 34.964 35.131 35.316 35.61 35.87 35.802 35.66 35.485 35.318 35.162 34.998 34.864 34.516 34.403 34.292 34.174 29.908 27.568 27.585 26.88 27.706 26.922 26.409 26.614 26.593 26.356 26.56 27.593 26.73 26.354 26.426 26.442 26.438 26.532 26.663 26.693 27.82 27.38 26.64 26.131 25.669 25.322 25.377 25.67 25.747 25.405 25.409 25.378 25.375 25.418 25.214 25.197 25.219 25.359 25.458 25.453 25.482 25.411 25.277 25.234 25.025 25.005 25.063 24.996 24.974 24.977 24.993 25.029 25.053 25.039 25.104 25.212 25.24 25.031 24.98 24.956 25.13
43.477 43.631 43.811 43.857 43.596 43.403 43.273 43.2 43.009 42.784 42.607 42.443 42.251 42.348 42.482 42.643 42.747 42.938 43.099 43.249 43.442 43.598 43.79 43.801 43.615 43.438 43.313 43.161 43.013 42.811 42.661 42.569 42.368 42.384 42.481 42.569 42.809 42.942 43.141 43.262 43.232 35.695 34.266 34.276 34.316 34.371 34.559 34.883 35.59 34.455 33.731 33.72 33.783 33.756 33.773 33.791 33.769 33.806 33.917 33.855 33.915 33.784 33.714 33.737 33.579 33.507 33.509 33.434 33.489 33.456 33.485 33.394 33.366 33.36 33.413 33.41 33.363 33.381 33.329 33.356 33.352 33.309 33.418 33.422 33.588 34.303 35.275 35.269 35.081 34.78 34.75 34.508 33.983 33.69 33.596 33.548 33.531 33.563 33.637 33.631 33.697 33.71 33.739 33.751 33.842 33.871 33.727 33.737 33.718 33.694 33.692 33.725 33.701 33.667 33.592 33.571 33.567 33.636 33.641 33.606 33.586 33.546 33.5 33.452 33.429 33.347 33.237 33.153 33.126 33.067 33.026 32.892 32.844 32.843 32.828 32.836 32.817 32.791 32.84 32.803 32.63 32.637 32.627 32.643 32.57 32.573 32.538 32.464 32.478 35.718 38.284 38.233 38.169 37.162 32.949 32.585 32.518 32.425 32.323 32.576 32.336 32.495 32.227 32.277 32.281 32.353 32.404 32.405 32.388 32.493 32.634 32.643 32.645 32.699 32.659 32.59 32.566 32.692 32.811 32.839 32.848 32.997 33.005 32.982 33.018 32.985 32.873 32.664 32.533 32.276 31.982 31.593 31.124 30.791 30.339 30.029 29.787 29.351 29.208 28.969 28.682 28.483 28.332 28.233 28.182 28.158 28.018 28.086 28.114 30.745 32.169 32.131 30.762 30.303 31.622 29.291 28.419 28.192 27.772 27.602 30.623 31.788 31.892 31.039 31.356 31.052 31.265 32.018 32.409 32.953 33.332 33.324 32.484 32.614 32.204 31.573 31.697 31.359 29.886 28.447 27.991 28.098 28.344 28.759 28.873 28.582 28.286 28.504 28.596 28.585 28.366 28.26 28.203 28.271 28.154 28.304 28.264 28.163 28.048 27.963 27.893 27.895 27.921 27.857 27.872 27.703 27.808 27.773 27.696 27.653 27.666 27.655 27.57 27.592 27.558 27.469 27.32 27.285 31.19 30.974 32.327 31.319 31.082 30.777 32.404 31.742 29.053 27.632 27.373 27.277 27.244 27.281 27.308 27.426 27.511 27.607 27.584 27.527 27.694 27.686 28.055 28.361 28.717 28.792 28.478 27.91 27.947 27.623 27.384 27.262 27.292 27.303 27.337 27.276 27.317 27.279 27.311 27.495 27.544 27.506 27.335 27.097 26.682 26.506 26.407 26.252 26.147 26.172 26.185 26.248 26.318 26.421 26.451 26.456 26.736 27.356 27.65 26.47 26.44 27.382 29.314 30.134 30.243 29.078 26.466 26.443 26.432 27.765 32.293 33.515 33.787 33.955 34.105 34.252 34.397 34.528 34.7 34.872 35.017 35.344 35.535 35.667 35.813 35.8 35.633 35.474 35.244 35.069 34.905 34.706 34.584 34.253 26.529 27.497 26.957 27.411 26.822 26.755 27.786 26.807 27.005 26.562 26.411 26.68 26.871 27.538 26.755 26.409 26.461 26.553 26.598 26.682 27.211 27.176 26.685 26.414 25.653 25.284 25.256 25.608 25.691 25.508 25.456 25.423 25.342 25.289 25.212 25.216 25.217 25.38 25.441 25.432 25.458 25.315 25.232 25.302 25.049 25.011 25.032 24.998 24.966 24.958 24.987 25.004 25.058 25.034 25.116 25.221 25.086 25.006 24.959 25.034 25.176
43.252 43.455 43.694 43.816 43.78 43.681 43.479 43.324 43.156 42.963 42.801 42.692 42.513 42.328 42.3 42.405 42.59 42.733 42.919 43.121 43.214 43.441 43.807 43.72 43.838 43.671 43.535 43.361 43.204 43.053 42.969 42.738 42.628 42.383 42.142 42.4 42.627 42.816 42.909 43.08 37.236 34.357 34.299 34.371 34.341 34.492 35.068 35.779 34.574 36.05 33.831 33.73 33.726 33.778 33.796 33.805 33.784 33.716 33.727 33.623 33.613 33.618 33.566 33.568 33.5 33.456 33.462 33.5 33.491 33.472 33.397 33.438 33.439 33.402 33.407 33.361 33.411 33.388 33.365 33.301 33.346 33.304 33.321 33.298 33.312 33.577 36.216 36.302 34.615 34.128 34.461 34.747 34.464 34.178 33.833 33.652 33.499 33.5 33.542 33.584 33.583 33.625 33.697 33.748 33.74 33.736 33.674 33.664 33.643 33.625 33.633 33.638 33.618 33.546 33.54 33.554 33.53 33.574 33.617 33.579 33.527 33.504 33.487 33.446 33.435 33.338 33.231 33.155 33.097 32.973 32.987 32.919 32.825 32.793 32.817 32.787 32.794 32.822 32.832 32.803 32.628 32.618 32.631 32.618 32.589 32.597 32.571 32.532 32.475 36.683 38.477 38.381 38.334 37.279 37.21 36.89 33.615 32.562 32.452 32.33 32.267 32.205 32.152 32.363 32.172 32.242 32.266 32.502 32.45 32.508 32.598 32.638 32.675 32.628 32.567 32.598 32.568 32.651 32.779 32.799 32.855 32.877 32.98 32.959 33.006 32.962 32.929 32.798 32.635 32.332 32.021 31.591 31.165 30.732 30.292 30.033 29.734 29.328 29.24 28.935 28.607 28.44 28.254 28.133 28.028 27.974 27.926 28.015 29.39 31.176 31.694 32.057 32.35 31.946 31.579 31.416 28.393 28.182 28.039 27.583 27.613 29.448 30.318 30.973 32.241 33.23 32.108 30.98 30.859 31.981 32.603 32.605 32.966 32.228 32.867 32.266 30.471 30.273 28.018 28.05 28.051 28.328 28.3 28.341 28.622 28.388 28.361 28.367 28.454 28.523 28.518 28.614 28.572 28.484 28.399 28.347 28.322 28.089 28.102 28.01 28.034 27.977 27.999 28.041 27.957 27.877 27.947 27.803 27.747 27.786 27.823 27.728 27.767 27.597 27.649 27.653 27.496 27.454 28.039 29.88 32.597 31.118 31.709 32.423 32.872 34.186 31.892 29.147 27.928 27.68 27.481 27.218 27.219 27.354 27.511 27.364 27.428 27.666 27.618 28.296 28.498 27.854 28.107 28.571 28.814 28.765 28.319 28.316 28.122 27.868 27.577 27.261 27.244 27.254 27.272 27.297 27.274 27.263 27.303 27.502 27.61 27.347 27.225 26.955 26.784 26.588 26.215 25.953 26.027 26.101 26.19 26.27 26.274 26.322 26.439 26.469 27.298 27.429 27.186 26.453 26.415 27.055 29.814 26.391 26.396 26.427 26.433 27.169 27.01 28.594 33.103 33.509 33.786 33.926 34.052 34.204 34.389 34.475 34.762 35.049 35.227 35.367 35.493 35.633 35.782 35.769 35.622 35.429 35.219 35.004 34.843 28.753 26.399 26.416 26.413 27.528 26.786 27.257 27.498 26.649 27.413 26.633 27.384 26.788 26.487 26.692 26.613 26.367 26.485 26.542 26.624 26.857 27.712 27.325 26.562 26.273 25.625 25.289 25.3 25.527 25.548 25.396 25.439 25.392 25.381 25.372 25.188 25.189 25.181 25.318 25.448 25.352 25.492 25.236 25.266 25.213 25.096 24.979 24.991 24.971 24.954 24.918 24.973 24.985 25.044 25.06 25.117 25.201 25.22 25.086 24.948 24.98 25.094
43.131 43.277 43.415 43.573 43.682 43.836 43.663 43.559 43.362 43.218 43.172 42.813 42.694 42.531 42.359 42.223 42.422 42.576 42.655 42.898 43.033 43.29 43.372 43.528 43.689 43.833 43.823 43.627 43.414 43.293 43.065 42.945 42.797 42.646 42.483 42.258 42.375 42.529 42.599 39.569 34.685 34.65 34.384 34.364 34.357 34.719 36.133 34.838 34.586 35.775 34.249 33.727 33.808 33.848 33.856 33.857 33.784 33.734 33.731 33.683 33.656 33.613 33.623 33.606 33.547 33.524 33.495 33.486 33.457 33.476 33.479 33.455 33.428 33.396 33.39 33.426 33.466 33.408 33.378 33.396 33.362 33.344 33.285 33.255 33.231 33.278 33.321 33.568 33.234 35.1 35.813 36.351 34.764 34.695 34.859 33.833 33.919 33.554 33.521 33.483 33.456 33.54 33.575 33.662 33.674 33.597 33.542 33.509 33.474 33.504 33.513 33.522 33.517 33.452 33.462 33.473 33.451 33.473 33.516 33.506 33.472 33.519 33.464 33.416 33.373 33.3 33.178 33.098 33.011 32.964 32.825 32.848 32.824 32.791 32.67 32.662 32.777 32.771 32.776 32.638 32.601 32.613 32.589 32.572 32.585 32.662 32.647 32.547 32.55 38.166 38.313 38.367 38.419 38.478 38.277 38.208 36.982 36.583 32.606 32.459 32.358 32.297 32.25 32.111 32.196 32.176 32.284 32.472 32.522 32.579 32.576 32.577 32.656 32.57 32.516 32.493 32.512 32.59 32.704 32.756 32.83 32.835 32.997 32.937 32.965 32.898 32.907 32.803 32.705 32.395 31.989 31.695 31.106 30.712 30.329 30.014 29.741 29.368 29.232 28.936 28.72 28.402 28.237 28.089 28.033 27.866 27.989 27.965 28.482 33.71 33.756 33.641 32.521 32.254 30.524 28.788 28.437 29.373 29.906 27.684 27.598 28.015 31.425 33.028 33.655 33.832 33.585 33.145 31.778 31.757 32.581 33.232 32.802 33.403 33.166 32.212 30.003 29.731 28.052 28.047 28.083 28.346 28.416 28.559 28.613 28.572 28.487 28.541 28.658 28.726 28.85 28.797 28.732 28.576 28.552 28.492 28.457 28.239 28.137 28.161 28.134 28.09 28.05 28.079 28.037 28.02 28.007 27.918 27.992 27.98 27.959 27.802 27.817 27.769 27.716 27.778 27.688 27.519 27.449 27.343 28.108 31.273 33.886 33.488 34.652 34.649 33.929 32.089 34.017 30.669 28.126 27.502 27.296 27.151 27.279 27.453 27.454 27.349 27.843 28.932 28.589 27.694 27.696 28.026 28.484 28.756 28.626 28.679 28.697 28.958 28.243 27.738 27.327 27.154 27.286 27.264 27.266 27.327 27.22 27.196 27.467 27.51 27.362 27.256 26.965 26.823 26.544 26.092 25.83 25.923 26.039 26.102 26.185 26.257 26.321 26.404 26.59 26.679 26.854 27.701 29.016 26.46 26.35 27.245 26.759 26.454 26.963 27.452 27.145 26.978 27.401 27.732 33.302 33.545 33.769 33.919 34.07 34.335 34.457 34.741 34.91 35.06 35.201 35.333 35.491 35.618 35.768 35.701 35.486 35.368 34.995 26.452 26.422 26.397 26.402 26.383 26.383 26.436 26.484 26.544 26.686 26.484 26.72 26.702 27.574 26.507 26.502 26.451 26.502 26.517 26.551 27.784 27.725 27.15 26.598 26.033 25.599 25.23 25.208 25.302 25.535 25.452 25.393 25.492 25.4 25.367 25.165 25.157 25.189 25.339 25.423 25.352 25.428 25.358 25.22 25.248 25.095 25.006 25.01 24.959 24.912 24.963 24.966 24.997 25.029 25.029 25.096 25.225 25.174 25.008 24.947 24.911 25.18
42.926 43.017 43.218 43.399 43.479 43.799 43.875 43.736 43.599 43.43 43.267 43.049 42.885 42.715 42.522 42.433 42.282 42.23 42.515 42.712 42.86 42.993 43.186 43.304 43.495 43.673 43.85 43.848 43.64 43.483 43.365 43.167 42.965 42.831 42.692 42.515 42.337 42.388 38.947 34.738 34.311 34.246 34.283 34.355 34.317 34.427 35.653 34.991 34.65 36.06 34.253 33.8 33.823 33.829 33.834 33.867 33.839 33.82 33.714 33.694 33.616 33.647 33.634 33.636 33.542 33.511 33.536 33.525 33.526 33.512 33.531 33.498 33.524 33.503 33.593 35.814 35.853 35.824 34.254 33.705 33.71 34.844 33.331 33.309 33.254 33.221 33.207 33.122 33.16 33.719 37.026 36.831 35.601 35.315 36.387 34.798 34.079 34.149 34.112 33.534 33.363 33.41 33.501 33.576 34.688 33.684 33.404 33.409 33.398 33.408 33.451 33.447 33.431 33.404 33.397 33.377 33.392 33.393 33.402 33.452 33.4 33.452 33.437 33.41 33.303 33.21 33.108 33.042 32.954 32.865 32.831 32.797 32.741 32.578 32.608 32.558 32.55 32.574 32.542 32.58 32.576 32.577 32.565 32.547 32.697 32.696 32.667 32.598 33.672 38.002 38.172 38.233 38.312 38.462 38.491 38.367 38.293 34.666 32.542 32.441 32.343 32.297 32.283 32.208 32.114 32.8 32.231 32.275 32.375 32.472 32.518 32.611 32.571 32.489 32.445 32.439 32.478 32.597 32.749 32.796 32.864 32.824 32.885 32.921 32.905 32.954 32.857 32.813 32.668 32.395 32.075 31.716 31.253 30.841 30.462 30.118 29.828 29.445 29.266 29.081 28.742 28.363 28.123 28.038 27.957 27.818 27.913 27.972 32.224 34.33 35.12 31.88 32.626 31.461 29.23 28.406 28.433 30.284 30.207 28.11 27.829 27.659 31.532 33.158 34.139 34.109 34.162 33.397 33.026 31.796 32.011 32.145 32.942 31.694 33.103 31.731 28.864 28.054 28.141 28.189 28.287 28.547 28.419 28.554 28.708 28.621 28.707 28.786 28.842 28.854 29.007 28.813 28.777 28.696 28.658 28.629 28.587 28.378 28.213 28.261 28.161 28.199 28.26 28.24 28.092 28.124 28.108 28.037 28.013 28.077 28.016 28.086 27.988 27.893 27.866 27.806 27.683 27.596 27.536 27.546 27.55 30.125 33.409 34.829 35.516 34.831 35.013 34.766 34.48 33.448 28.572 28.16 27.685 27.424 27.36 27.361 27.539 27.41 27.532 27.582 27.658 27.374 27.381 27.456 27.633 28.286 28.46 28.307 28.949 29.45 28.933 28.209 28.33 27.995 27.3 27.219 27.236 27.207 27.201 27.244 27.208 27.361 27.605 27.589 27.452 27.247 27.022 26.549 25.899 25.899 25.983 25.85 25.987 26.104 26.236 26.4 26.481 26.518 26.523 27.001 29.773 29.659 26.848 27.571 27.964 26.938 26.684 26.911 26.525 26.562 27.464 27.078 27.421 29.781 33.386 33.69 33.873 34.023 34.198 34.467 34.594 34.77 34.916 35.023 35.148 35.302 35.547 35.689 35.773 35.631 28.767 26.55 27.137 26.852 26.37 26.417 26.396 26.387 26.382 26.436 26.453 26.493 26.51 26.535 26.879 26.542 26.464 26.435 26.48 26.56 26.573 27.21 27.9 27.655 26.685 26.267 25.637 25.185 25.104 25.135 25.45 25.49 25.429 25.432 25.425 25.326 25.203 25.176 25.158 25.303 25.42 25.358 25.376 25.224 25.326 25.193 25.049 25.04 25.028 24.972 24.91 24.909 24.944 25.022 25.036 25 25.047 25.218 25.178 25.007 24.928 24.94 24.958
42.715 42.853 42.992 43.215 43.311 43.609 43.61 43.826 43.729 43.561 43.45 43.286 43.13 42.953 42.739 42.627 42.466 42.32 42.29 42.449 42.631 42.782 42.946 43.13 43.28 43.464 43.609 43.81 43.88 43.714 43.532 43.337 43.169 43.071 42.916 42.73 42.562 42.45 40.912 35.311 34.366 34.725 34.645 34.383 34.354 34.446 34.498 35.12 34.749 35.759 34.736 33.809 33.807 33.874 33.901 33.908 33.874 33.79 33.736 33.716 33.693 33.652 33.656 33.591 33.635 33.696 33.67 33.654 33.673 33.623 33.668 33.811 33.759 33.855 34.504 33.973 34.414 34.852 34.152 35.776 34.202 33.723 33.734 33.29 33.227 33.201 33.233 33.174 33.157 33.134 33.588 33.758 35.782 36.057 36.712 37.928 36.337 34.905 34.55 33.705 33.687 33.344 33.386 35.63 35.494 33.473 33.337 33.328 33.365 33.384 33.367 33.375 33.313 33.307 33.316 33.281 33.312 33.325 33.324 33.333 33.325 33.355 33.418 33.391 33.26 33.162 33.078 33.05 32.969 32.897 32.82 32.804 32.741 32.507 32.565 32.506 32.507 32.537 32.534 32.53 32.537 32.53 32.538 32.559 32.692 32.682 32.653 32.66 32.627 32.571 34.167 37.972 38.134 38.202 38.343 38.346 38.299 33.304 32.538 32.451 32.384 32.282 32.307 32.245 32.264 32.26 32.152 32.229 32.388 32.425 32.43 32.446 32.578 32.476 32.337 32.36 32.404 32.444 32.621 32.763 32.856 32.85 32.831 32.844 32.844 32.849 32.855 32.773 32.591 32.319 32.126 31.804 31.361 30.839 30.31 30.104 29.747 29.44 29.246 29.025 28.533 28.308 28.221 28.001 27.968 27.934 27.846 29.038 31.145 32.649 31.469 31.919 31.387 29.744 28.501 28.5 28.263 28.095 28.021 28.058 28.009 27.743 29.659 32.323 33.053 33.527 34.676 34.626 33.622 32.304 31.75 31.929 32.372 31.891 31.289 29.08 28.395 28.307 28.287 28.368 28.386 28.59 28.733 28.802 28.824 28.763 28.929 29.077 29.267 29.043 29.116 29.083 28.945 28.831 28.803 28.724 28.666 28.577 28.525 28.374 28.391 28.271 28.476 28.382 28.429 28.238 28.226 28.182 28.129 28.094 28.086 28.17 28.11 27.932 27.918 27.872 27.803 27.909 27.806 27.802 27.544 27.985 32.942 35.071 35.593 35.513 35.341 35.275 34.892 33.435 28.482 29.818 28.803 28.394 27.796 27.362 27.219 27.217 27.496 27.224 27.361 27.383 27.596 27.587 27.763 27.813 27.489 27.693 28.101 28.945 28.975 29.003 29.23 29.185 28.453 27.864 27.305 27.143 27.212 27.246 27.212 27.195 27.201 27.387 27.478 27.446 27.415 27.022 26.95 26.601 25.967 25.634 25.886 25.847 26.094 26.223 26.285 26.394 26.441 26.41 26.387 26.415 27.333 27.129 27.406 27.228 27.447 27.153 26.639 26.38 26.386 26.521 27.575 26.942 28.736 32.174 33.414 33.709 33.874 34.153 34.307 34.42 34.555 34.731 34.899 35.036 35.268 35.404 35.555 33.873 26.543 26.365 26.371 26.625 27.554 27.153 26.391 26.403 26.366 26.413 26.449 26.481 26.516 26.533 26.554 26.547 26.483 26.497 26.488 26.511 26.568 27.577 27.757 27.412 28.947 26.956 25.555 25.191 25.105 25.112 25.196 25.408 25.418 25.477 25.492 25.372 25.184 25.16 25.128 25.295 25.375 25.374 25.221 25.35 25.246 25.161 25.054 25.008 24.941 24.946 24.892 24.889 24.947 25.019 25.048 25.015 25.088 25.137 25.175 24.98 24.954 24.913 25.072
42.495 42.633 42.773 43.045 43.156 43.292 43.399 43.58 43.77 43.839 43.633 43.576 43.299 43.122 42.999 42.859 42.686 42.475 42.31 42.291 42.442 42.592 42.699 42.926 43.082 43.322 43.483 43.562 43.765 43.85 43.742 43.558 43.406 43.237 43.063 42.899 42.775 42.64 42.446 41.011 36.854 34.989 34.506 34.385 34.43 34.46 34.543 34.835 34.739 34.674 36.08 33.957 33.88 33.919 33.959 33.892 33.927 33.884 33.792 33.774 34.589 33.77 33.82 33.849 33.975 34.183 33.987 33.866 33.677 33.652 33.727 33.935 34.117 34.173 35.044 34.697 34.195 36.528 36.344 36.527 35.181 33.958 35.209 34.23 33.437 33.226 33.178 33.118 33.166 33.125 33.1 33.093 33.035 33.726 38.368 39.422 38.405 34.937 35.944 34.518 33.798 33.642 33.351 35.464 33.856 33.23 33.294 33.29 33.318 33.32 33.293 33.305 33.238 33.261 33.222 33.234 33.263 33.244 33.262 33.267 33.262 33.263 33.299 33.273 33.258 33.028 32.903 32.968 32.891 32.862 32.804 32.785 32.631 32.525 32.416 32.408 32.461 32.524 32.495 32.5 32.481 32.471 32.501 32.557 32.705 32.713 32.661 32.723 32.733 32.667 32.541 32.566 34.03 36.952 38.18 38.246 34.497 34.532 33.453 32.488 32.412 32.35 32.327 32.348 32.362 32.34 32.301 32.579 32.24 32.38 32.358 32.415 32.441 32.344 32.328 32.256 32.293 32.379 32.496 32.643 32.776 32.836 32.864 32.833 32.772 32.739 32.78 32.688 32.467 32.333 32.129 31.871 31.535 30.859 30.461 30.11 29.827 29.515 29.282 29.088 28.622 28.292 28.231 28.133 27.992 27.939 28.636 30.755 30.442 32.432 29.275 28.333 29.202 28.914 30.848 31.588 28.854 28.314 28.247 28.378 28.125 27.936 28.615 31.857 33.135 33.939 34.129 33.707 33.228 31.567 30.848 31.069 31.199 31.754 30.021 28.267 28.181 28.498 28.579 28.61 28.753 28.637 28.759 29.017 28.951 29.033 29.188 29.197 29.241 29.262 29.224 29.199 29.078 28.946 28.945 28.779 28.788 28.75 28.758 28.623 28.657 28.551 28.496 28.547 28.505 28.309 28.293 28.314 28.251 28.177 28.292 28.667 28.489 28.131 27.957 27.882 27.861 27.862 27.824 27.88 27.795 27.656 30.833 34.248 34.877 33.628 35.118 34.852 34.254 33.245 31.827 29.892 29.173 28.893 29.015 28.018 27.831 27.572 27.308 27.104 27.08 27.434 27.521 27.438 27.713 27.582 27.429 27.325 27.762 28.273 28.41 28.7 29.125 29.639 29.596 29.314 27.819 27.301 27.077 27.153 27.177 27.216 27.239 27.232 27.296 27.398 27.358 27.268 27.462 27.328 27.023 26.46 25.793 25.856 26.015 25.934 26.074 26.145 26.217 26.269 26.252 26.329 26.414 26.944 27.155 29.13 27.116 27.19 26.696 27.602 26.791 26.348 26.349 27.001 27.57 26.882 28.726 32.278 33.577 33.854 34.013 34.164 34.3 34.403 34.579 34.755 34.977 35.093 35.069 28.555 26.862 26.509 26.372 26.392 26.387 26.655 27.321 26.821 26.364 26.401 26.44 26.461 26.517 26.547 26.559 26.502 26.494 26.507 26.496 26.532 26.548 27.07 27.689 27.423 28.428 26.46 25.579 25.264 25.127 25.133 25.159 25.323 25.355 25.433 25.442 25.379 25.134 25.151 25.125 25.29 25.488 25.394 25.366 25.289 25.154 25.291 25.059 25.027 25.078 24.942 24.892 24.913 25.008 25.042 24.998 25.025 25.054 25.124 25.089 25.017 24.949 24.938 25.001
42.307 42.44 42.6 42.776 42.879 43.115 43.251 43.385 43.689 43.689 43.777 43.746 43.519 43.347 43.159 43.184 42.879 42.751 42.566 42.419 42.23 42.396 42.509 42.675 42.937 43.065 43.174 43.353 43.527 43.713 43.858 43.784 43.608 43.411 43.267 43.138 42.982 42.804 42.569 42.374 36.388 35.34 35.153 34.462 34.469 34.518 34.538 34.888 34.741 34.69 35.212 33.992 33.918 33.936 33.994 33.998 33.917 33.849 33.794 36.709 38.522 35.573 34.406 34.549 34.052 34.36 34.403 34.109 33.685 33.612 33.665 34.281 33.852 33.797 33.719 33.959 33.607 33.569 34.167 34.8 34.637 35.432 35.219 34.43 34.042 33.528 33.245 33.193 33.125 33.258 33.075 33.114 33.083 33.038 33.904 37.033 37.528 37.724 38.449 35.93 33.874 33.53 33.427 33.378 33.324 33.13 33.197 33.296 33.333 33.337 33.312 33.234 33.201 33.232 33.225 33.229 33.237 33.184 33.17 33.196 33.165 33.169 33.219 33.243 33.15 33.052 32.974 32.95 32.914 32.916 32.848 32.753 32.531 32.488 32.441 32.398 32.434 32.44 32.447 32.443 32.448 32.471 32.509 32.486 32.52 32.661 32.702 32.753 32.759 32.712 32.646 32.678 32.644 32.557 34.257 37.111 32.578 32.888 33.737 32.544 32.481 32.396 32.429 32.422 32.38 32.357 32.333 32.291 32.214 32.274 32.369 32.303 32.309 32.239 32.261 32.262 32.323 32.314 32.385 32.517 32.662 32.783 32.887 32.854 32.76 32.72 32.689 32.641 32.441 32.264 32.082 31.832 31.455 30.949 30.5 30.21 29.974 29.479 29.337 29.147 28.644 28.185 28.171 28.111 28.118 28.063 30.657 32.959 31.668 32.216 32.725 31.747 31.903 32.794 32.84 32.942 30.353 28.488 28.245 28.238 28.187 28.069 28.213 30.849 33.133 33.457 33.189 33.195 32.597 31.081 29.137 29.181 29.419 28.271 28.083 28.137 28.481 28.671 28.802 28.939 28.891 28.794 28.95 29.134 29.214 29.441 29.36 29.474 29.264 29.251 29.337 29.329 29.222 29.107 29.041 28.996 28.921 29.135 28.872 28.839 28.72 28.68 28.524 28.56 28.543 28.435 28.456 28.396 28.332 28.365 29.015 29.393 29.197 28.792 28.239 28.135 28.03 27.929 27.933 27.851 27.907 27.709 30.787 33.363 33.891 34.608 34.775 34.483 34.032 32.247 32.348 31.92 29.975 30.707 29.908 30.071 30.427 29.76 27.964 27.381 27.334 27.274 27.428 27.427 27.461 27.626 27.371 27.217 27.417 27.94 27.84 28.604 28.754 29.26 29.364 29.679 28.604 27.849 27.387 27.226 27.057 27.13 27.207 27.178 27.214 27.195 27.191 27.26 27.443 27.54 27.486 27.405 26.843 26.286 25.966 25.747 26.048 25.893 25.938 25.98 26.041 26.181 26.271 26.314 26.557 29.184 26.894 31.354 26.784 27.284 27.642 27.104 26.378 26.407 26.387 26.98 27.58 26.802 29.351 33.329 33.572 33.841 33.971 34.131 34.278 34.45 34.623 34.78 28.995 27.372 27.214 27.465 26.656 26.392 26.373 26.345 26.498 27.137 27.328 26.822 26.512 26.504 26.511 26.505 26.483 26.53 26.493 26.534 26.498 26.547 26.539 27.524 27.7 27.497 26.607 26.221 25.61 25.276 25.188 25.178 25.103 25.302 25.397 25.459 25.446 25.398 25.175 25.121 25.116 25.301 25.381 25.357 25.238 25.167 25.169 25.235 25.054 25.09 25.048 24.953 24.913 24.891 24.997 25.068 25.073 25.033 25.073 25.086 25.174 25.003 24.933 24.952 25.008
42.542 42.169 42.376 42.607 42.723 42.838 43.057 43.151 43.353 43.498 43.672 43.752 43.778 43.594 43.406 43.262 43.085 42.899 42.749 42.599 42.453 42.294 42.324 42.529 42.698 42.881 42.936 43.182 43.342 43.487 43.623 43.816 43.802 43.623 43.487 43.312 43.156 42.996 42.735 36.408 37.948 36.236 35.191 34.54 34.521 34.552 34.598 34.744 34.803 34.611 36.449 34.125 33.96 33.991 34.073 33.992 33.951 33.957 34.021 38.005 38.002 38.574 34.526 34.621 34.286 34.553 34.141 33.95 33.652 33.648 33.632 33.65 33.699 33.545 33.382 33.351 33.343 33.317 33.361 33.805 35.686 37.471 38.06 36.907 34.545 33.993 33.67 33.242 33.251 33.801 33.267 33.761 33.159 33.038 33.045 32.982 33.003 34.412 37.757 38.56 34.244 33.75 33.595 33.288 33.184 33.195 33.167 33.221 33.395 33.355 33.324 33.284 33.217 33.171 33.16 33.212 33.205 33.175 33.192 33.151 33.166 33.177 33.187 33.203 33.147 33.108 32.988 32.93 32.954 32.878 32.8 32.591 32.499 32.503 32.444 32.349 32.421 32.394 32.426 32.412 32.426 32.429 32.431 32.447 32.459 32.507 32.513 32.696 32.762 32.77 32.706 32.72 32.706 32.591 32.971 32.552 32.559 32.628 33.249 33.109 32.512 32.529 32.501 32.475 32.456 32.49 32.824 32.348 32.32 32.303 33.191 32.483 32.298 32.352 32.268 32.276 32.301 32.318 32.351 32.401 32.552 32.7 32.835 32.819 32.77 32.696 32.661 32.584 32.512 32.306 32.068 31.757 31.41 30.892 30.53 30.19 29.958 29.568 29.386 29.08 28.601 28.317 28.209 28.189 28.14 28.03 29.445 30.975 31.65 31.362 31.79 32.692 29.07 33.356 32.905 32.753 29.982 28.098 28.01 27.918 28.182 28.041 27.958 29.046 30.674 31.549 31.299 32.843 30.824 29.914 28.382 27.731 27.879 27.882 28.358 28.469 28.72 28.896 28.813 28.886 28.959 29.126 29.086 29.174 29.354 29.454 29.597 29.569 29.491 29.423 29.487 29.441 29.305 29.506 29.282 29.237 29.173 29.076 29.039 28.886 28.813 28.792 28.78 28.685 28.618 28.586 28.624 28.73 28.612 28.516 29.284 29.765 29.725 29.507 29.045 28.281 28.299 28.228 28.105 28.141 27.989 27.921 27.895 32.055 33.012 32.737 33.939 34.42 33.051 32.032 32.002 30.765 30.004 30.952 31.236 31.164 31.154 31.566 29.065 28.005 27.733 27.381 27.413 27.295 27.456 27.456 27.43 27.264 27.276 27.675 27.707 28.583 28.699 29.226 29.142 29.366 28.74 28.368 27.905 27.569 27.379 27.24 27.067 27.085 27.173 27.186 27.188 27.171 27.132 27.312 27.444 27.585 27.459 27.159 26.653 26.17 25.961 25.686 25.834 25.827 25.802 25.817 26.047 26.169 26.204 26.749 26.37 26.98 27.256 26.788 26.747 27.331 27.259 26.767 26.391 26.387 26.471 27.034 27.417 26.712 28.506 32.383 33.667 33.848 33.993 34.146 34.299 34.535 27.86 26.509 26.559 27.172 27.361 27.442 26.426 26.35 26.371 26.416 26.746 26.894 27.329 26.757 26.48 26.569 26.515 26.539 26.494 27.016 26.747 27.338 26.85 27.245 27.817 27.534 26.579 26.069 25.666 25.313 25.175 25.141 25.092 25.323 25.418 25.484 25.474 25.383 25.143 25.198 25.133 25.299 25.348 25.222 25.216 25.098 25.143 25.16 25.064 24.997 24.991 24.989 24.888 24.862 24.984 25.053 25.059 25.034 25.092 25.19 25.164 25.008 24.938 24.992 25.105
42.691 42.575 42.378 42.343 42.484 42.662 42.821 42.978 43.162 43.264 43.412 43.601 43.783 43.743 43.595 43.445 43.307 43.157 42.964 42.79 42.644 42.459 42.316 42.378 42.5 42.635 42.768 42.98 43.133 43.309 43.442 43.588 43.709 43.793 43.69 43.524 43.357 43.106 37.843 37.867 37.229 35.253 35.247 34.774 34.634 34.586 34.605 34.959 34.825 34.634 36.064 34.76 34.004 33.997 34.061 34.051 34.022 35.663 37.02 37.987 38.922 37.711 34.996 36.148 34.688 34.091 33.985 33.946 33.68 33.636 33.605 33.602 33.631 33.359 33.403 33.536 33.254 33.229 33.496 37.584 34.94 37.106 40.089 38.044 34.381 33.424 33.597 33.87 33.547 33.609 33.146 34.268 34.008 33.494 33.089 33.07 33.004 32.956 36.155 37.054 33.855 33.802 33.771 33.212 33.309 33.246 33.224 33.251 33.43 33.398 34.184 33.256 33.177 33.137 33.119 33.173 33.163 30.563 26.878 28.706 32.654 33.211 33.144 33.177 33.095 33.044 32.826 32.965 32.966 32.875 32.814 32.531 32.46 33.033 31.672 32.578 32.396 32.39 32.383 32.403 32.364 32.388 32.396 32.401 32.41 32.439 32.446 32.483 32.532 32.649 32.716 32.746 32.704 32.634 32.609 32.577 32.59 32.606 32.476 33.609 33.04 32.557 32.532 32.533 32.453 33.062 32.63 32.394 32.375 32.345 32.322 33.258 32.419 32.343 32.205 32.224 32.264 32.3 32.402 32.31 32.41 32.501 32.659 32.698 32.7 32.663 32.623 32.57 32.475 32.302 32.12 31.855 31.444 31.007 30.557 30.145 30.009 29.638 29.425 29.205 28.714 28.319 28.25 28.174 28.179 28.098 31.281 31.076 31.879 31.048 32.485 33.117 32.553 31.784 32.894 33.214 31.738 28.67 28.193 28.179 28.243 28.016 27.796 27.785 28.18 28.321 29.127 28.589 28.657 28.013 28.034 28.189 28.03 28.277 28.659 28.77 29.657 28.973 29.006 29.434 29.149 29.277 29.365 29.682 29.765 29.637 29.674 29.703 29.726 29.75 29.862 29.661 29.329 29.307 29.168 29.289 29.346 29.167 29.079 28.984 28.815 28.827 28.853 28.709 28.758 28.831 28.818 28.774 28.732 28.958 29.359 29.442 29.421 29.516 28.821 28.484 28.497 28.433 28.251 28.208 28.26 28.295 28.219 28.804 29.295 28.689 30.382 28.979 28.728 28.53 29.598 28.52 29.834 29.779 32.022 32.373 32.369 32.276 31.208 28.446 30.117 29.954 27.725 27.406 27.344 27.309 27.138 27.275 27.519 27.418 27.811 27.997 28.177 28.513 28.343 28.42 27.77 28.135 28.385 28.469 28.008 27.499 27.451 27.217 27.081 27.112 27.131 27.192 27.152 27.128 27.106 27.317 27.475 27.595 27.483 27.236 26.793 26.511 26.039 25.726 25.782 25.606 25.722 25.831 25.871 26.053 26.112 26.259 26.478 27.332 28.989 27.362 27.244 26.681 26.529 26.489 26.377 26.383 26.573 27.059 27.634 27.857 29.24 32.439 33.711 33.863 34.004 28.638 26.394 26.417 26.351 26.428 27.001 26.851 26.684 27.444 26.686 26.386 26.392 26.418 26.707 27.5 26.993 26.678 26.467 26.451 26.44 27.332 26.87 27.366 26.812 27.225 27.953 27.237 26.629 26.208 25.678 25.41 25.28 25.233 25.214 25.294 25.445 25.492 25.437 25.342 25.127 25.165 25.135 25.232 25.291 25.244 25.165 25.045 25.009 25.239 25.042 25.02 25.037 24.957 24.905 24.904 24.992 25.071 25.045 25.025 25.048 25.21 25.057 25 24.957 24.98 25.127
42.873 42.724 42.574 42.36 42.361 42.499 42.611 42.76 42.921 43.107 43.247 43.421 43.588 43.686 43.782 43.656 43.483 43.298 43.206 43.002 42.871 42.664 42.594 42.401 42.17 42.453 42.579 42.743 42.898 43.052 43.232 43.364 43.577 43.691 43.828 43.73 43.549 40.696 35.756 35.498 36.87 36.287 35.291 34.917 34.604 34.661 34.676 34.696 34.749 34.693 36.183 34.482 34.08 34.101 34.061 34.072 34.053 36.501 37.736 39.035 41.162 37.193 36.776 35.45 34.65 34.739 34.144 34.719 33.732 33.684 33.655 33.619 33.564 33.518 33.211 33.225 33.316 33.361 34.114 39.375 36.989 38.752 40.511 39.117 38.768 33.726 33.355 33.399 33.305 33.407 33.289 33.304 33.569 33.351 33.687 33.043 33.034 32.998 32.926 32.943 33.002 33.154 33.142 33.088 33.098 33.167 33.236 33.258 33.553 33.419 33.58 33.233 33.151 33.108 33.05 33.152 33.001 27.103 27.006 26.852 28.162 32.674 33.159 33.177 33.07 33.096 33.004 32.943 32.962 32.864 32.602 32.52 32.545 30.256 27.275 32.664 32.395 32.362 32.373 32.346 32.333 32.347 32.366 32.376 32.372 32.39 32.379 32.393 32.404 32.429 32.449 32.639 32.576 32.688 32.52 32.517 32.446 32.458 32.553 32.595 34.173 32.621 32.55 32.55 32.497 32.468 32.466 32.365 32.384 32.351 32.343 32.285 32.296 32.33 32.434 32.277 32.198 32.203 32.274 32.239 32.373 32.402 32.437 32.52 32.53 32.564 32.587 32.504 32.38 32.218 32.105 31.868 31.458 30.96 30.565 30.239 30.021 29.655 29.445 29.11 28.693 28.47 28.456 28.35 28.35 29.811 32.735 31.645 28.497 28.318 31.549 31.313 29.938 29.105 33.506 32.964 31.899 28.361 28.263 28.399 28.621 29.253 29.67 28.178 28.012 28.468 28.94 28.065 28.168 28.26 28.363 28.407 28.702 28.694 28.546 28.871 30.244 29.442 29.395 29.339 29.428 29.781 29.617 29.683 29.762 29.789 29.85 29.988 29.935 29.844 30.236 29.702 29.439 29.358 29.405 29.341 29.246 29.088 29.036 29.049 29.022 29.065 29.016 28.749 28.83 28.907 28.91 28.861 28.722 28.914 29.133 28.679 28.735 28.591 28.685 28.676 28.752 28.62 28.509 28.338 28.335 28.499 28.47 28.752 29.176 28.819 28.743 28.773 29.021 28.76 28.715 28.566 28.424 28.945 30.629 32.585 33.114 33.867 34.015 32.322 32.74 30.695 29.704 28.099 27.765 28.459 27.242 27.049 27.242 27.323 27.378 27.547 27.545 28.263 28.03 27.811 27.613 27.696 27.713 27.84 28.232 28.309 27.803 27.488 27.302 27.205 27.054 27.093 27.1 27.096 27.144 27.178 27.207 27.398 27.454 27.63 27.482 27.311 26.935 26.531 26.198 25.736 25.68 25.543 25.559 25.738 25.897 25.986 26.032 26.075 27.628 30.965 31.367 27.862 27.422 27.276 27.153 26.624 26.364 26.347 26.677 27.08 27.31 27.919 32.104 33.445 33.564 27.65 27.008 26.727 26.348 26.332 26.326 26.888 27.027 26.999 27.176 27.067 26.599 26.433 26.485 26.478 26.633 27.153 26.46 26.417 26.421 26.786 26.451 26.468 26.51 26.88 27.055 27.059 26.606 26.037 25.619 25.49 25.296 25.258 25.285 25.368 25.473 25.47 25.375 25.378 25.134 25.164 25.105 25.207 25.347 25.333 25.334 25.267 25.217 25.151 25.058 25.011 25.007 25.038 24.952 24.934 24.988 25.066 25.029 25.036 25.114 25.133 25.071 25.033 24.968 25.093 25.167
43.016 43.378 42.779 42.604 42.447 42.196 42.378 42.559 42.789 42.888 43.057 43.308 43.386 43.526 43.685 43.82 43.716 43.539 43.335 43.127 43.073 42.905 42.753 42.644 42.506 42.321 42.407 42.506 42.684 42.855 43.014 43.185 43.311 43.517 43.624 43.861 43.671 36.373 35.194 36.591 37.864 36.227 35.213 35.251 34.775 34.74 34.737 34.657 34.758 34.784 36.225 35.314 34.12 34.088 34.134 34.16 34.09 34.187 37.691 38.778 40.589 38.424 37.164 36.285 34.851 34.51 34.282 36.239 33.82 33.667 33.657 33.64 33.58 33.604 33.672 33.528 33.461 34.786 34.857 35.288 35.15 39.344 41.737 42.359 41.8 39.027 37.933 35.075 33.531 33.566 33.482 33.205 33.278 34.531 33.718 33.07 32.984 32.955 32.972 32.94 32.938 33.101 32.936 32.985 33.075 33.076 33.126 33.266 33.838 34.031 33.463 33.203 33.174 33.104 33.056 33.04 33.121 33.161 33.087 28.599 32.362 33.079 33.133 33.148 33.166 33.119 33.046 32.97 32.906 32.797 32.565 32.456 32.594 28.077 32.627 33.078 32.474 32.439 32.355 32.348 32.359 32.364 32.383 32.349 32.358 32.379 32.369 32.357 32.354 32.358 32.325 32.352 32.452 32.628 32.138 32.42 32.405 32.484 32.512 32.564 33.615 33.397 32.624 32.575 32.568 32.506 32.458 32.422 32.367 32.351 32.33 32.335 32.256 32.491 32.63 32.207 32.265 32.168 32.22 32.155 32.27 32.333 32.365 32.279 32.323 32.43 32.454 32.387 32.355 32.313 32.221 31.995 31.641 31.167 30.727 30.308 30.176 29.829 29.58 29.253 29.118 28.591 28.449 28.374 28.255 30.099 32.776 32.464 28.511 28.4 28.486 28.47 28.443 30.171 31.999 32.129 31.392 28.92 28.317 28.532 28.709 30.838 30.886 28.794 28.763 28.829 29.022 28.632 28.373 28.5 28.368 28.481 28.499 28.704 28.59 28.916 29.107 29.5 29.362 29.643 29.613 29.651 29.735 29.773 29.839 30.006 29.891 29.941 29.913 29.87 29.854 29.741 29.613 29.539 29.557 29.483 29.33 29.152 29.127 29.212 29.278 29.079 28.931 28.804 28.954 28.94 28.964 28.914 28.848 28.841 28.75 28.683 28.756 28.712 28.883 28.909 28.854 28.828 28.707 28.688 28.683 28.938 29.444 29.953 29.591 29.168 29.095 28.982 28.964 28.96 28.898 28.823 28.712 28.561 28.506 29.191 31.109 31.766 34.2 33.952 33.228 31.889 31.14 28.896 30.76 31.111 28.223 27.607 27.274 27.168 27.335 27.701 27.717 27.56 27.63 27.821 28.007 27.6 27.383 27.309 27.242 27.695 28.153 28.389 28.04 27.572 27.369 27.27 27.028 27.054 27.125 27.136 27.158 27.147 27.236 27.281 27.446 27.404 27.481 27.292 26.935 26.63 25.869 25.485 25.553 25.506 25.528 25.637 25.762 25.849 25.967 26.649 30.082 27.448 26.82 27.077 27.446 27.308 26.976 26.518 26.343 26.339 26.638 26.762 26.883 26.602 27.711 26.476 26.478 26.803 26.937 26.659 26.333 26.304 26.343 27.191 27.514 26.929 27.3 27.055 26.472 26.484 26.463 26.377 26.453 26.386 26.384 26.354 26.465 26.468 26.47 26.555 26.675 26.998 26.619 26.282 25.646 25.436 25.264 25.34 25.379 25.346 25.382 25.504 25.372 25.351 25.148 25.124 25.099 25.195 25.361 25.187 25.254 25.218 25.221 25.248 25.105 25.012 25.033 24.976 24.994 24.993 25.015 25.109 25.048 25.041 25.052 25.166 25.064 25.072 25.009 25.088 25.184
43.666 43.136 42.953 42.767 42.683 42.498 42.287 42.287 42.54 42.654 42.872 43.013 43.141 43.291 43.435 43.679 43.825 43.772 43.529 43.451 43.292 43.153 43.02 42.845 42.643 42.521 42.311 42.326 42.513 42.68 42.84 42.927 43.127 43.271 43.414 43.482 36.209 36.047 35.224 36.611 35.902 35.39 35.191 35.234 34.93 34.756 34.793 34.856 35.367 34.851 34.709 35.272 34.238 34.181 34.231 34.189 34.158 36.547 39.557 38.052 38.081 35.826 34.895 35.63 34.427 34.302 34.909 35.25 33.953 33.732 33.738 33.629 33.569 33.601 33.719 33.78 34.398 34.212 34.142 34.152 34.332 39.793 42.46 42.504 41.082 38.445 37.843 40.803 34.75 35.617 33.506 33.295 33.258 33.322 33.826 33.572 33.246 33.165 32.962 32.952 33.334 32.915 32.908 32.842 32.839 32.903 33.002 33.12 33.675 33.74 33.241 33.177 33.262 33.035 33.078 33.094 33.073 33.118 32.35 34.395 33.091 32.987 33.089 33.144 33.145 33.047 32.977 32.941 32.855 32.609 32.51 32.608 30.298 27.118 32.621 28.809 29.441 33.065 32.46 32.358 32.328 32.314 32.331 32.36 32.346 32.333 32.301 32.327 32.305 32.328 32.35 32.332 32.338 32.387 32.411 32.393 32.421 32.455 32.459 32.455 32.489 33.851 32.744 32.605 32.59 32.529 32.418 32.372 32.368 32.341 32.295 32.309 32.33 32.25 32.247 32.258 32.179 32.196 32.235 32.225 32.191 32.23 32.337 32.294 32.242 32.294 32.358 32.347 32.325 32.277 32.247 31.937 31.574 31.148 30.686 30.27 30.112 29.835 29.583 29.222 28.798 28.553 28.42 28.469 30.461 31.476 31.612 29.78 28.422 28.345 28.49 28.621 30.125 28.538 32.475 32.002 28.428 28.596 28.39 28.429 28.773 29.341 29.51 28.931 29.011 28.9 28.831 28.887 28.964 28.54 28.57 28.595 28.658 29.911 30.113 29.097 29.611 29.795 30.03 30.143 30.051 29.81 29.809 29.856 29.96 30.08 29.992 30.054 30.039 29.892 29.898 29.881 29.846 29.609 29.547 29.65 29.406 29.335 29.345 29.261 29.249 29.028 28.951 28.862 29.033 29.035 29.031 29.009 28.823 28.974 28.885 28.833 28.883 28.886 29.019 29.024 29.063 28.975 28.941 29.022 28.994 29.251 29.998 30.283 29.89 29.809 29.477 29.534 29.144 28.939 28.935 28.862 28.855 28.741 28.716 28.613 28.532 30.839 32.962 32.749 32.966 32.162 32.847 31.563 31.411 31.428 29.789 29.986 28.831 27.638 27.888 28.969 28.496 27.467 27.385 29.919 29.55 27.426 27.196 27.083 27.176 27.28 27.409 27.79 28.206 28.228 27.922 27.444 27.291 27.105 27.032 27.043 27.132 27.111 27.124 27.101 27.092 27.276 27.399 27.508 27.433 27.075 26.442 26.171 25.644 25.869 25.607 25.556 25.36 25.438 25.561 25.726 26.378 26.374 27.145 27.32 26.923 27.105 27.558 27.574 26.988 26.372 26.362 26.334 27.294 27.188 26.679 27.213 26.629 26.357 26.683 27.842 26.922 26.289 26.368 26.363 26.394 27.419 27.258 26.894 27.086 27.03 26.483 26.383 26.374 26.31 26.379 26.386 26.436 26.455 26.49 26.52 26.535 27.237 26.703 26.072 25.645 25.432 25.263 25.36 25.329 25.323 25.47 25.434 25.357 25.292 25.138 25.11 25.144 25.178 25.429 25.378 25.298 25.348 25.232 25.135 25.038 25.083 25.027 25.054 25.087 25.018 25.185 25.078 25.023 25.023 25.041 25.094 25.057 25.048 25.014 25.073 25.193
43.581 43.324 43.147 43.005 42.832 42.73 42.528 42.311 42.397 42.502 42.617 42.799 43.007 43.167 43.299 43.407 43.582 43.772 43.781 43.668 43.5 43.277 43.234 43.028 42.876 42.698 42.542 42.354 42.193 42.439 42.631 42.769 42.912 43.09 43.267 40.006 36.248 35.176 35.126 35.185 35.206 35.137 35.134 35.129 35.215 34.839 34.845 34.786 34.845 34.865 34.823 36.211 34.351 34.212 34.274 34.28 34.262 37.931 40.356 40.248 37.043 34.678 34.928 35.575 35.902 34.334 34.21 35.157 33.951 33.827 33.79 33.67 33.649 33.674 33.694 33.718 33.948 34.836 34.78 34.8 38.361 41.649 41.708 40.961 39.212 35.099 38.97 42.936 42.046 38.872 37.637 35.356 34.022 33.413 33.712 33.915 33.873 33.53 35.017 35.097 33.688 33.023 32.879 32.832 32.809 32.876 32.909 32.92 32.967 33.119 33.135 33.124 33.172 33.076 33.053 33.091 33.145 33.084 34.843 34.256 33.043 33.134 33.075 33.04 33.069 33.049 33.01 32.939 32.819 32.579 32.499 32.593 30.07 27.625 32.661 27.98 29.369 30.327 31.208 33.061 32.639 32.434 32.346 32.34 32.363 32.284 32.315 32.291 32.281 32.278 32.331 32.355 32.361 32.364 32.398 32.42 32.372 32.454 32.425 32.476 32.46 32.769 33.27 32.677 32.609 32.515 32.374 32.388 32.355 32.3 32.328 32.272 32.26 32.202 32.162 32.136 32.16 32.083 32.137 32.095 32.133 32.159 32.193 32.148 32.097 32.24 32.309 32.356 32.301 32.302 32.277 32.073 31.707 31.34 30.808 30.495 30.175 29.918 29.748 29.416 28.939 28.606 29.409 32.178 32.15 32.584 31.8 29.123 28.505 28.476 28.469 30.559 33.224 32.727 31.574 31.486 28.749 28.741 28.589 28.918 28.856 29.174 29.025 28.9 28.984 29.099 28.976 28.763 28.772 28.591 28.705 28.86 28.862 29.149 29.167 29.706 30.134 30.232 30.726 30.404 30.269 30.055 29.969 30.014 30.031 30.063 30.045 30.194 30.179 29.977 29.883 29.768 29.659 29.701 29.458 29.453 29.346 29.416 29.401 29.289 29.296 29.124 29.126 29.092 29.141 29.115 29.068 29.035 28.96 29.197 29.351 28.892 29.093 29.174 29.119 29.224 29.157 29.193 29.21 29.207 29.31 29.857 30.308 30.47 30.27 30.331 30.013 29.555 29.274 29.045 29.098 28.933 28.91 28.898 28.883 28.816 28.865 28.677 29.215 29.517 31.456 31.748 33.132 31.819 31.893 31.104 31.239 31.373 30.621 32.617 33.738 34.612 34.359 29.207 30.278 32.587 32.625 30.725 27.476 27.431 27.171 27.072 27.501 27.41 27.397 27.873 28.02 28.054 27.751 27.357 27.194 27.24 27.071 27.052 27.055 27.067 27.118 27.106 27.074 27.142 27.327 27.357 27.198 26.995 26.575 26.252 25.814 25.336 25.3 25.138 25.151 25.3 25.491 25.892 26.001 26.342 27.026 27.709 26.618 27.468 27.165 26.519 27.669 26.388 26.362 26.72 27.168 27.251 27.123 26.844 26.61 26.369 26.97 27.616 26.391 26.395 26.435 26.438 26.412 27.666 27.871 26.747 27.051 26.387 26.359 26.318 26.345 26.362 27.061 26.586 26.453 26.487 27.148 27.466 26.488 25.918 25.588 25.449 25.279 25.356 25.376 25.338 25.442 25.443 25.372 25.409 25.149 25.203 25.152 25.181 25.443 25.365 25.421 25.328 25.136 25.231 25.059 25.05 25.091 25.022 25.057 24.998 25.065 25.093 25.098 25.036 25.069 25.138 25.052 25.03 25.05 25.098 25.255
43.638 43.455 43.304 43.276 43.025 42.869 42.697 42.611 42.407 42.137 42.451 42.635 42.829 42.915 43.093 43.287 43.369 43.538 43.686 43.8 43.711 43.554 43.393 43.223 43.058 42.865 42.748 42.613 42.47 42.325 42.41 42.548 42.714 42.878 40.703 39.567 37.688 35.363 35.159 36.746 36.214 35.208 35.184 35.507 35.595 34.936 34.85 34.915 34.982 34.901 34.856 36.816 34.418 34.267 34.33 34.403 34.296 36.478 39.424 39.517 37.873 34.829 35.338 34.569 36.362 34.965 34.241 34.527 33.99 33.932 33.858 33.775 33.767 33.7 33.736 33.741 33.766 34.998 34.969 34.986 39.39 41.585 42.672 41.518 39.737 36.15 38.158 42.043 37.712 38.595 39.282 38.693 37.887 36.141 35.275 34.089 33.949 36.126 37.399 38.532 35.129 34.116 33.604 32.987 32.825 32.848 32.834 32.839 32.848 32.958 32.946 33.067 33.088 33.092 33.053 33.117 33.151 33.14 33.179 33.185 33.114 33.099 33.131 33.073 32.976 32.943 32.955 32.869 32.627 32.57 32.614 32.121 27.006 32.055 28.914 27.554 29.352 30.284 31.932 32.609 34.662 38.208 35.013 33.124 32.312 32.289 32.262 32.266 32.266 32.282 32.265 32.3 32.358 32.377 32.357 32.34 32.385 32.39 32.68 32.597 32.597 33.848 34.217 32.684 32.593 32.52 32.354 32.368 32.349 32.315 32.242 32.224 32.196 32.168 32.126 32.1 32.055 33.068 32.078 32.1 32.167 32.079 32.211 32.162 32.258 32.274 32.281 32.269 32.248 32.257 32.198 32.081 31.716 31.382 30.954 30.528 30.245 30.057 29.817 29.479 29.039 28.7 31.83 33.127 32.673 32.284 30.396 28.553 28.559 28.604 28.529 32.995 34.236 33.879 29.817 28.651 28.905 28.719 28.9 31.607 32.596 29.557 29.234 29.169 29.188 28.944 28.965 28.76 28.741 28.758 29.063 28.971 29.205 29.27 29.577 29.82 30.882 30.9 31.082 30.752 30.715 30.301 30.143 30.126 30.089 30.076 30.156 30.129 30.034 29.973 29.965 29.842 29.747 29.692 29.612 29.441 29.52 29.492 29.476 29.356 29.327 29.266 29.262 29.213 29.101 29.149 29.141 29.103 29.082 29.19 29.113 29.103 29.217 29.208 29.358 29.372 29.542 29.443 29.32 29.571 29.818 29.737 30.474 30.881 30.559 30.382 30.358 29.762 29.382 29.263 29.236 29.094 29.004 29.015 28.983 28.95 28.955 29.001 28.785 28.689 29.314 29.522 31.67 31.784 32.608 33.006 32.649 33.021 32.012 33.643 34.447 34.956 34.985 34.516 34.454 33.367 32.625 31.92 27.47 27.698 27.387 27.023 27.142 27.446 27.298 27.121 27.177 27.717 28.051 27.988 27.774 27.44 27.264 27.134 27.027 27.029 27.039 27.081 27.137 27.045 27.076 27.102 27.268 27.286 27.276 27.064 26.606 26.137 25.77 25.34 25.23 25.25 25.308 25.441 25.636 25.806 26.001 26.431 27.217 27.052 26.502 27.045 27.174 27.668 27.311 26.35 26.323 26.547 27.122 27.43 26.717 26.659 26.959 26.426 26.408 26.407 26.416 26.481 26.482 27.446 26.59 27.688 27.339 26.396 26.332 26.309 26.363 26.403 27.574 26.385 26.452 26.468 27.108 28.359 26.629 26.041 25.581 25.394 25.339 25.387 25.408 25.368 25.46 25.42 25.375 25.387 25.134 25.153 25.189 25.253 25.451 25.435 25.166 25.262 25.336 25.236 25.069 25.086 25.069 25.025 25.034 25.09 25.031 25.106 25.114 25.052 25.059 25.144 25.095 25.065 25.061 25.134 25.332
43.838 43.718 43.577 43.45 43.264 43.049 42.937 42.773 42.813 42.508 42.776 42.567 42.603 42.757 42.908 42.959 43.144 43.329 43.568 43.716 43.826 43.704 43.607 43.422 43.281 43.16 42.951 42.794 42.619 42.461 42.121 42.374 42.556 40.285 39.929 37.174 35.105 35.071 35.668 37.373 36.476 35.348 35.213 36.195 35.381 35.077 35.035 35.139 35.187 34.928 34.969 36.942 34.98 34.358 34.427 34.436 34.412 36.102 38.854 38.756 35.997 34.782 35.397 34.626 35.369 35.251 34.242 34.614 34.056 33.976 33.863 33.791 33.795 33.776 33.765 33.795 33.816 34.9 34.278 34.383 37.211 41.199 42.679 39.915 38.348 35.314 36.035 37.831 35.366 38.58 38.517 38.794 38.125 38.487 37.919 37.44 37.076 37.946 38.759 36.295 34.401 34.902 33.551 33.383 33.213 32.871 32.864 32.801 32.845 32.841 32.834 32.925 32.968 33.015 33.004 33.098 33.164 33.167 33.182 33.175 33.154 33.128 33.117 33.062 33.025 33.045 32.945 32.821 32.628 32.542 32.529 28.058 30.986 32.937 28.358 29.015 30.378 30.632 32.034 32.916 37.976 40.409 41.022 38.491 32.471 32.258 32.265 32.27 32.256 32.213 32.276 32.298 32.333 32.308 32.331 32.398 32.384 32.377 36.794 40.491 39.59 34.393 33.539 32.592 32.631 32.523 32.448 32.396 32.335 32.288 32.272 32.229 32.198 32.158 32.132 32.097 32.043 32.007 31.996 32.116 32.063 32.114 32.173 32.177 32.171 32.282 32.298 32.258 32.177 32.139 32.161 32.11 31.916 31.591 31.122 30.685 30.408 30.191 29.896 29.57 29.248 29.537 31.743 32.962 31.811 31.51 28.535 28.74 28.717 28.492 28.563 29.523 32.812 33.025 30.215 28.797 28.887 29.175 29.327 31.591 32.852 30.22 29.118 29.202 29.045 28.894 28.921 28.855 28.948 29.098 29.25 29.356 29.521 29.604 29.749 30.271 31.097 31.37 31.139 30.804 30.726 30.296 30.267 30.147 30.062 30.135 30.062 30.039 29.985 30.014 30.301 30.209 29.878 29.923 29.661 29.495 29.46 29.506 29.441 29.422 29.367 29.31 29.317 29.314 29.144 29.216 29.194 29.667 29.682 29.806 29.386 29.327 29.274 29.551 29.548 29.819 29.869 29.752 29.633 29.891 29.638 29.888 30.105 30.605 31.004 30.85 30.365 30.018 29.515 29.415 29.286 29.182 29.034 29.042 29.047 28.953 29.117 29.052 29 28.927 28.866 29.03 29.902 31.027 31.404 33.176 32.656 33.112 32.195 33.266 34.578 34.175 34.573 35.151 35.024 34.399 31.558 28.112 27.521 27.456 27.558 27.135 27.022 27.042 27.256 27.157 27.306 27.475 27.418 27.459 28.114 27.816 27.523 27.286 27.299 27.201 26.998 27.037 27.095 27.062 27.087 27.084 27.019 27.146 27.284 27.418 27.345 27.219 27.048 26.529 25.887 25.41 25.386 25.142 25.218 25.366 25.539 25.849 26.008 26.465 27.313 26.87 27.301 27.263 27.556 27.231 26.402 26.285 26.462 26.714 27.334 27.617 26.661 27.007 26.446 26.501 26.428 26.439 26.451 26.407 26.398 26.33 26.374 26.366 26.367 26.356 26.35 26.592 26.553 27.054 27.106 26.439 26.51 26.757 26.543 25.994 25.532 25.413 25.325 25.282 25.432 25.339 25.455 25.371 25.403 25.291 25.174 25.162 25.162 25.252 25.417 25.473 25.347 25.325 25.167 25.282 25.058 25.135 25.098 25.066 25.051 25.112 25.031 25.061 25.071 25.08 25.094 25.182 25.072 25.065 25.118 25.244 25.332
43.694 43.815 43.786 43.605 43.451 43.298 43.142 43.061 42.882 42.662 42.484 43.194 42.382 42.49 42.697 42.8 42.955 43.192 43.358 43.478 43.593 43.757 43.772 43.642 43.452 43.331 43.132 42.95 42.805 42.729 42.553 42.242 38.826 36.067 39.282 35.506 35.062 35.91 35.706 36.615 37.081 36.764 35.221 35.231 35.14 34.964 34.938 34.893 34.952 35.242 34.968 36.451 35.073 34.443 34.502 34.519 34.474 35.056 38.421 38.49 35.849 35.584 34.825 34.514 34.476 35.256 34.625 34.146 34.045 33.944 33.94 33.939 33.879 33.845 33.852 33.831 33.821 33.866 33.977 33.946 38.229 43.474 45.839 45.692 43.02 39.22 41.284 42.487 37.925 36.578 37.598 38.014 34.901 39.049 38.987 39.289 39.053 38.713 38.964 37.555 34.966 34.021 33.659 33.598 33.468 33.203 32.911 32.855 32.806 32.838 32.812 32.802 32.817 32.903 32.98 33.003 33.12 33.057 33.177 33.199 33.194 33.127 33.058 32.983 33.004 33.002 32.893 32.759 32.652 32.634 31.407 29.403 32.92 31.047 30.26 29.862 30.977 32.017 32.803 34.967 39.808 40.261 40.433 34.948 33.125 32.431 32.232 32.251 32.186 32.229 32.268 32.266 32.304 32.351 32.357 33.088 33.203 32.967 39.691 40.438 40.447 40.555 35.864 32.704 32.598 32.541 32.488 32.432 32.363 32.288 32.251 32.241 32.206 32.15 32.133 32.063 32.043 32.03 32.04 32.049 32.071 32.115 32.152 32.128 32.121 32.142 32.262 32.274 32.166 32.116 32.074 31.979 31.811 31.505 31.186 30.862 30.579 30.342 30.132 29.898 29.722 29.363 32.708 33.147 30.426 28.987 28.836 29.035 29.219 28.725 28.586 28.543 29.514 29.692 28.75 28.946 29.165 29.177 29.276 29.313 31.349 29.234 28.935 29.037 28.914 29.047 28.987 29.071 29.192 29.345 29.406 29.717 29.655 29.713 29.855 30.221 30.957 30.949 30.81 31.293 31.073 30.365 30.264 30.137 30.124 30.111 30.063 30.063 30.044 30.08 30.125 30.02 29.913 29.725 29.472 29.593 29.645 29.56 29.544 29.472 29.359 29.357 29.422 29.386 29.362 29.354 29.419 30.093 30.089 29.59 29.54 29.415 29.487 29.624 29.813 30.046 30.082 29.923 29.801 29.822 30.312 30.05 30.069 30.093 30.815 30.686 30.091 29.824 29.572 29.519 29.423 29.338 29.347 29.145 29.044 29.095 29.094 29.126 29.053 29.052 28.953 28.904 28.865 28.911 29.798 31.024 32.201 32.815 32.8 32.894 33.136 30.835 34.506 30.683 33.353 34.498 29.159 26.9 27.155 27.06 27.09 27.015 27.024 26.99 27.04 27.024 27.058 27.2 27.275 27.205 27.704 27.674 28.101 28.207 27.972 27.581 27.361 27.161 26.98 27.007 27.003 27.032 27.09 27.064 27 27.055 27.256 27.286 27.315 27.202 26.719 26.159 25.484 25.616 25.384 25.089 25.229 25.378 25.538 25.797 26.758 30.075 30.877 30.896 27.032 27.299 26.615 26.456 26.306 26.29 26.502 26.81 26.515 26.587 27.504 27.476 26.498 26.405 26.466 26.402 26.371 26.357 26.388 26.34 26.352 26.355 26.376 26.353 26.397 27.225 26.814 26.439 26.486 26.972 26.413 25.891 25.5 25.339 25.268 25.305 25.446 25.35 25.476 25.408 25.345 25.261 25.134 25.196 25.246 25.142 25.28 25.41 25.437 25.189 25.175 25.287 25.041 25.23 25.144 25.103 25.102 25.062 25.068 25.096 25.062 25.097 25.101 25.143 25.125 25.109 25.117 25.123 25.393
43.474 43.625 43.779 43.829 43.624 43.769 43.426 43.205 43.089 42.846 42.706 42.602 42.32 42.364 42.481 42.659 42.805 42.921 43.135 43.247 43.409 43.559 43.747 43.824 43.654 43.506 43.34 43.146 43.028 42.834 42.746 42.44 36.667 35.212 35.157 35.076 36.206 36.496 36.549 36.595 36.112 36.814 36.449 35.295 35.029 35.044 35.36 35.436 35.463 35.346 34.998 36.627 35.399 34.523 34.562 34.584 34.577 34.775 38.317 38.11 36.247 35.836 35.514 34.547 34.467 34.718 34.457 34.097 34.088 34.046 34.041 34.015 33.979 33.976 33.928 33.929 33.988 33.923 34.052 39.245 44.264 46.738 47.799 48.031 45.877 40.992 46.687 46.712 45.858 37.368 35.51 36.621 37.943 39.79 36.779 38.849 36.641 38.336 38.663 36.603 35.065 33.986 33.603 33.714 33.593 33.633 33.332 33.323 33.035 32.824 32.802 32.794 32.809 32.808 32.731 32.914 32.988 33.093 33.114 33.153 33.214 33.162 33.071 33.013 32.992 32.973 32.888 32.711 32.67 32.645 32.642 32.245 32.712 32.647 32.905 31.797 32.743 32.432 33.686 38.283 40.364 40.364 39.954 32.115 31.192 32.499 32.189 32.179 32.21 32.229 32.243 32.228 32.269 32.288 32.342 28.888 32.818 33.057 40.4 40.466 40.413 40.468 40.418 32.783 32.597 32.536 32.487 32.494 32.398 32.309 32.26 32.221 32.207 32.144 32.107 32.051 32.027 32.031 32.015 32.004 32.083 32.042 32.023 32.047 32.231 32.158 32.156 32.121 32.179 32.207 32.084 31.912 31.821 31.632 31.286 30.943 30.658 30.484 30.384 30.126 29.973 29.873 32.34 33.647 29.82 29.192 29.716 30.258 29.838 29.128 28.792 28.91 28.939 28.896 29.032 28.904 29.004 29.208 29.123 29.084 29.072 29.013 29.018 29.027 29.159 29.254 29.209 29.373 29.512 29.593 29.751 29.816 29.91 30.093 30.162 30.225 30.713 30.78 31.282 30.739 30.608 30.419 30.341 30.266 30.265 30.276 30.169 30.159 30.174 30.117 30.152 30.034 29.842 29.778 29.763 29.788 29.714 29.582 29.663 29.618 29.407 29.466 29.506 29.529 29.397 29.424 29.364 29.698 30.01 29.729 29.651 29.694 29.685 29.789 30.036 30.125 30.025 29.905 30.156 30.997 30.175 30.151 30.107 30.127 30.145 30.392 29.963 29.866 29.553 29.514 29.509 29.572 29.512 29.312 29.299 29.23 29.177 29.221 29.178 29.109 29.14 29.009 28.933 28.828 28.778 28.968 31.836 31.63 32.63 33.116 32.785 33.39 33.848 33.977 34.598 33.931 29.104 28.216 28.435 27.289 27.091 26.976 26.865 26.998 27.067 26.937 27.005 27.018 27.095 27.098 27.257 27.172 27.369 27.627 27.972 28.37 27.922 27.409 27.293 27.197 27.059 26.944 26.962 27.012 27.03 27.004 27.036 27.009 27.198 27.223 27.205 27.081 26.788 25.77 25.338 25.52 25.27 25.091 25.202 25.395 25.598 25.825 27.056 28.05 27.154 26.952 26.932 26.862 26.304 26.986 26.306 26.272 26.317 27.704 27.191 26.62 27.26 26.597 26.423 26.423 26.413 26.369 26.373 26.359 26.325 26.355 26.325 26.423 26.402 26.552 26.583 26.44 26.423 26.568 26.926 26.032 25.432 25.286 25.277 25.304 25.458 25.345 25.441 25.315 25.353 25.284 25.129 25.17 25.181 25.151 25.255 25.454 25.433 25.147 25.226 25.215 25.017 25.066 25.106 25.132 25.136 25.095 25.07 25.07 25.079 25.076 25.06 25.149 25.112 25.117 25.115 25.196 25.349
43.284 43.424 43.628 43.789 43.869 43.805 43.594 43.452 43.248 43.002 42.846 42.718 42.577 42.351 42.272 42.382 42.616 42.806 42.963 43.12 43.232 43.338 43.515 43.703 43.833 43.679 43.527 43.414 43.248 43.103 42.827 36.108 35.208 35.181 35.083 35.07 36.56 35.445 36.686 36.319 36.469 35.479 35.827 35.268 35.149 35.011 34.966 36.292 36.764 35.22 35.024 36.515 35.22 34.662 34.663 34.758 34.662 35.256 38.913 39.162 39.371 36.234 35.576 34.552 34.49 34.483 34.311 34.159 34.116 34.088 34.117 34.145 34.158 34.097 34.094 34.082 34.089 34.136 34.164 34.132 38.91 46.872 46.883 48.351 47.193 47.012 45.781 48.311 47.694 40.101 38.9 45.555 48.17 42.975 40.22 38.825 36.029 36.818 35.436 34.575 34.694 34.071 33.662 33.861 33.819 33.778 33.737 33.62 33.854 33.362 32.831 32.938 32.812 32.807 32.827 32.803 32.786 32.844 32.935 32.958 33.087 33.092 33.082 33.007 32.981 32.935 32.853 32.753 32.689 32.662 32.607 32.623 32.626 32.674 32.636 32.745 32.836 32.885 37.667 40.428 40.343 40.206 33.986 31.264 31.362 32.722 32.323 32.247 32.242 32.232 32.252 32.225 32.248 32.292 32.243 32.366 32.831 39.527 40.443 40.544 40.43 40.461 36.473 34.66 32.497 32.545 32.501 32.448 32.419 32.33 32.27 32.2 32.16 32.143 32.086 32.054 32.012 32.003 32.011 32.026 31.989 32.296 32.653 32.249 32.04 32.073 31.996 32.119 32.188 32.183 32.066 31.931 31.82 31.596 31.346 30.96 30.715 30.537 30.363 30.248 30.129 29.934 29.994 30.257 29.846 29.751 29.671 30.172 29.764 29.505 28.907 29.224 29.064 29.238 29.231 29.166 29.286 29.396 29.25 29.202 29.248 29.258 29.272 29.317 29.417 29.418 29.497 29.658 29.754 29.893 30.018 30.024 30.14 30.268 30.324 30.31 30.509 30.608 30.666 30.518 30.494 30.407 30.391 30.329 30.281 30.304 30.353 30.294 30.23 30.169 30.168 30.089 29.964 29.858 29.869 29.786 29.78 29.728 29.695 29.681 29.595 29.563 29.518 29.448 29.548 29.471 29.622 29.667 29.997 29.869 29.888 29.92 30.001 29.889 29.848 30.065 31.218 30.1 30.426 30.163 30.196 30.142 30.147 30.143 30.131 30.133 30.362 29.932 29.857 29.639 29.525 29.551 29.522 29.533 29.501 29.366 29.42 29.368 29.362 29.375 29.354 29.241 29.094 29 28.826 28.651 28.509 29.735 32.167 33.004 33.63 29.511 33.205 32.179 29.884 30.786 29.984 29.942 29.295 28.18 27.863 27.151 27.321 27.057 26.861 26.944 26.958 26.948 26.892 26.953 27.047 27.112 27.076 27.048 27.118 27.428 27.89 27.923 27.82 27.44 27.199 27.169 26.938 26.95 26.98 26.986 26.988 27.002 26.959 26.941 27.059 27.163 27.235 27.087 26.423 25.861 25.603 25.198 25.407 25.077 25.217 25.382 25.665 25.858 26.362 26.879 27.086 26.479 26.805 26.923 27.218 26.916 26.323 26.302 26.317 26.664 26.686 27.397 27.268 26.688 26.379 26.379 26.377 26.343 26.369 26.355 26.324 26.318 26.381 26.384 26.433 26.426 26.451 26.556 26.608 25.985 25.498 25.288 25.278 25.312 25.481 25.367 25.366 25.372 25.354 25.318 25.123 25.266 25.219 25.249 25.368 25.478 25.277 25.174 25.266 25.334 25.107 25.071 25.213 25.124 25.138 25.106 25.097 25.108 25.089 25.121 25.109 25.218 25.159 25.118 25.172 25.144 25.354
43.053 43.221 43.395 43.541 43.74 43.877 43.768 43.599 43.375 43.214 43.04 42.924 42.76 42.531 42.424 42.341 42.379 42.564 42.695 42.876 43.022 43.198 43.434 43.5 43.694 43.825 43.766 43.637 43.416 43.277 39.084 35.234 35.139 35.111 35.061 35.078 35.08 35.156 35.162 35.536 35.346 35.225 35.114 35.111 35.038 34.99 34.952 35.015 35.114 35.037 35.037 35.493 35.089 34.703 34.75 34.729 34.743 34.875 40.764 42.704 41.317 39.676 35.806 34.728 34.635 34.501 34.339 34.191 34.097 34.193 34.261 34.274 34.211 34.227 34.235 34.198 34.261 34.774 40.735 42.779 42.804 47.725 48.132 48.965 48.303 48.053 48.492 48.323 48.2 48.3 47.882 49.211 49.335 46.551 41.648 40.32 38.054 37.685 34.48 33.92 34.393 34.07 33.732 33.783 33.889 33.828 33.767 33.802 33.649 33.592 33.458 33.628 32.882 32.75 32.784 32.765 32.785 32.731 32.739 32.788 32.888 32.978 32.973 32.878 32.851 32.83 32.885 32.774 32.742 32.684 32.672 32.661 32.633 32.682 32.788 32.876 32.936 33.068 37.601 40.349 40.349 40.366 32.196 31.2 31.531 31.572 34.248 32.218 32.326 32.255 32.238 32.283 32.267 32.265 32.274 32.338 36.725 40.465 40.46 40.445 40.433 40.436 40.406 32.586 32.486 32.477 32.473 32.439 32.375 32.338 32.276 32.21 32.149 32.147 32.106 32.065 32.034 32.029 32.014 32.036 32.048 31.986 32.011 32.448 32.194 32.051 31.944 31.93 31.973 32.043 32.032 32.142 31.891 31.6 31.42 31.139 30.88 30.57 30.378 30.312 30.196 30.122 30.015 30.236 29.919 30 29.941 29.711 29.594 29.524 29.448 29.722 29.469 29.4 29.386 29.319 29.281 29.304 29.338 29.392 29.519 29.639 29.743 29.751 29.811 29.921 29.95 29.911 30.005 30.152 30.473 30.362 30.272 30.327 30.335 30.472 30.52 30.523 30.618 30.643 30.452 30.463 30.448 30.315 30.301 30.283 30.307 30.274 30.183 30.18 30.104 30.042 30.012 30.005 29.954 30.022 29.848 29.792 29.676 29.639 29.681 29.664 29.622 29.665 29.66 29.725 29.844 29.809 29.782 29.871 29.854 29.95 29.97 29.874 29.952 30.127 30.081 30.487 30.188 30.186 30.201 30.168 30.17 30.156 30.141 30.13 30.057 29.861 29.891 29.841 29.805 29.71 29.675 29.514 29.594 29.5 29.484 29.508 29.521 29.604 29.474 29.476 29.22 29.063 29.072 28.862 28.773 28.599 30.685 32.309 32.943 33.432 34.137 33.825 32.377 31.732 31.799 32.054 31.536 29.943 30.154 28.792 28.318 27.682 27.147 26.912 26.746 26.876 26.911 26.907 27.001 26.979 26.971 27.107 27.069 27.129 27.165 27.38 28.017 28.148 27.731 27.41 27.316 27.148 26.938 26.901 26.938 26.95 26.952 26.907 26.848 26.86 26.981 27.173 27.231 27.015 26.577 26.225 25.548 25.303 25.1 25.024 25.271 25.496 25.744 26.121 26.431 27.078 27.717 26.871 27.252 27.379 26.557 26.537 26.311 26.288 26.33 26.684 26.388 27.262 26.552 26.401 26.362 26.385 26.355 26.378 26.411 26.375 26.437 26.419 26.399 26.434 26.47 27.544 26.764 25.958 25.425 25.233 25.212 25.415 25.505 25.349 25.373 25.266 25.315 25.331 25.157 25.172 25.219 25.271 25.344 25.433 25.44 25.163 25.16 25.376 25.082 25.111 25.141 25.158 25.135 25.107 25.108 25.127 25.155 25.102 25.164 25.292 25.223 25.16 25.158 25.171 25.296
42.823 43.027 43.198 43.332 43.526 43.695 43.865 43.769 43.572 43.438 43.262 43.109 42.95 42.755 42.624 42.438 42.304 42.375 42.554 42.696 42.813 42.994 43.156 43.361 43.439 43.656 43.765 43.817 43.658 43.401 36.662 36.235 35.199 35.036 35.068 35.096 35.119 35.194 35.203 35.197 35.249 35.113 35.115 35.12 35.088 35.055 35.033 34.993 35.22 35.336 35.106 36.346 35.773 34.786 34.82 34.882 34.842 37.392 39.842 42.812 39.846 41.414 37.126 37.404 35.679 34.589 34.402 34.3 34.239 34.276 34.322 34.38 36.548 35.895 35.563 42.649 42.814 44.296 46.018 45.988 45.849 47.306 48.075 47.415 47.5 46.916 46.705 46.342 42.813 44.963 49.733 49.325 49.885 44.6 38.611 49.595 48.386 38.52 36.992 34.159 34.581 34.156 33.835 33.885 33.913 33.911 33.876 33.913 33.717 33.77 33.679 33.686 34.182 33.504 32.888 32.766 32.728 32.729 32.754 32.742 32.69 32.733 32.789 32.764 32.773 32.752 32.761 32.768 32.747 32.721 32.709 32.721 32.72 32.782 32.87 32.908 33.075 33.17 38.304 40.383 40.334 35.823 31.382 31.668 32.107 33.011 31.617 31.208 31.73 32.054 31.688 31.693 32.603 32.293 34.25 32.539 38.357 40.489 40.446 40.425 40.477 40.466 32.506 31.506 32.413 32.462 32.475 32.424 32.361 32.322 32.273 32.231 32.183 32.151 32.111 32.03 32.024 32.027 32.025 32.022 32.055 32.06 32.011 31.926 32.204 32.153 32.056 31.972 31.95 31.911 31.973 31.939 31.725 31.478 31.287 31.279 31.044 30.793 30.546 30.431 30.361 30.258 30.4 30.104 29.982 30.018 30.101 29.897 29.922 29.771 29.714 29.885 29.666 29.589 29.618 29.502 29.44 29.468 29.59 29.723 29.859 29.9 30.051 30.109 30.044 30.212 30.199 30.144 30.253 30.317 30.528 30.545 30.551 30.488 30.516 30.542 30.593 30.525 30.522 30.505 30.492 30.407 30.456 30.385 30.376 30.321 30.306 30.254 30.242 30.187 30.064 29.943 29.966 29.917 29.941 29.98 29.911 29.886 29.77 29.724 29.755 29.717 29.724 29.656 29.747 29.822 29.911 29.952 30.038 29.993 30.035 30.053 30.031 30.12 30.056 30.186 30.323 30.238 30.245 30.235 30.182 30.18 30.159 30.163 30.168 30.16 30.157 30.159 30.398 30.25 30.278 29.816 29.787 29.658 29.723 29.654 29.613 29.67 29.688 29.601 29.597 29.52 29.364 29.261 29.095 29.141 29.067 28.887 28.779 28.559 30.142 32.129 33.112 33.173 32.644 31.985 32.352 30.942 31.604 32.057 33.581 32.713 31.271 30.735 29.028 27.294 26.879 26.861 26.842 26.974 27.064 26.954 26.881 27.007 27.055 27.101 27.101 27.043 27.288 27.696 28.088 28.155 27.604 27.149 27.158 27.077 26.892 26.836 26.872 26.903 26.893 26.873 26.811 26.797 27.081 27.176 27.204 27.107 26.866 26.312 25.665 25.124 25.147 25.145 25.315 25.545 25.731 26.037 26.385 27.456 27.155 26.521 26.485 27.62 27.258 26.34 26.334 26.37 26.413 26.398 26.398 26.356 26.469 27.09 26.763 26.591 26.776 26.432 26.577 26.491 26.419 26.471 26.539 28.244 26.84 26.032 25.391 25.208 25.194 25.492 25.531 25.323 25.282 25.194 25.28 25.298 25.203 25.153 25.182 25.206 25.308 25.265 25.414 25.222 25.208 25.327 25.167 25.157 25.239 25.191 25.131 25.149 25.169 25.167 25.151 25.16 25.156 25.198 25.154 25.155 25.165 25.198 25.212
42.678 42.817 42.978 43.139 43.319 43.499 43.651 43.771 43.805 43.672 43.465 43.305 43.149 42.945 42.841 42.712 42.537 42.326 42.302 42.404 42.634 42.813 42.948 43.158 43.259 43.435 43.564 43.743 43.866 37.684 35.519 36.525 35.387 35.095 35.106 35.161 35.221 35.172 35.205 35.155 35.196 35.139 35.168 37.265 35.247 35.08 35.105 35.639 35.42 36.761 36.994 36.972 38.033 35.009 34.879 35.014 34.919 34.949 40.617 42.134 43.799 42.755 39.771 35.712 35.398 34.634 34.482 34.374 34.406 34.492 35.583 39.189 40.526 41.741 44.445 45.836 46.093 46.067 46.12 46.108 44.973 45.831 45.281 40.033 39.491 45.043 45.687 46.893 43.781 48.409 51.455 46.377 44.365 45.316 51.115 50.501 49.85 39.046 35.68 34.479 34.534 34.218 33.997 34.001 33.935 33.984 33.947 33.837 33.969 33.92 33.768 33.738 33.753 33.598 33.289 33.237 32.972 32.756 32.707 32.717 32.713 32.694 32.678 32.693 32.718 32.742 32.739 32.76 32.756 32.734 32.739 32.757 32.767 32.857 32.921 32.997 33.097 33.05 33.184 38.927 40.43 38.425 34.457 32.905 32.859 32.874 32.976 32.957 31.499 33.448 31.77 31.566 31.7 31.906 34.626 33.267 40.418 40.625 40.433 40.444 40.518 40.798 32.15 32.462 32.408 32.383 32.381 32.334 32.329 32.297 32.215 32.216 32.11 32.081 32.057 32.039 32.023 32.02 32.038 31.965 31.994 32 32.031 31.96 31.886 31.867 31.945 31.964 32.012 31.893 31.851 31.839 31.683 31.482 31.226 31.101 30.946 30.845 30.741 30.7 30.617 30.531 30.532 30.364 30.256 30.199 30.185 30.015 30.298 30.099 29.876 29.697 29.754 29.698 29.793 29.65 29.606 29.693 29.785 29.931 30.055 30.08 30.167 30.216 30.3 30.239 30.268 30.434 30.373 30.405 30.534 30.58 30.581 30.599 30.673 30.593 30.59 30.507 30.531 30.523 30.47 30.463 30.479 30.435 30.364 30.321 30.284 30.27 30.262 30.133 30.024 29.954 29.91 29.955 29.956 30.029 30.027 29.958 29.875 29.839 29.949 29.797 29.811 29.792 29.911 29.999 30.012 30.157 30.23 30.135 30.083 30.16 30.353 30.207 30.151 30.166 30.26 30.269 30.214 30.195 30.221 30.188 30.158 30.159 30.189 30.203 30.182 30.12 30.367 30.673 30.413 30.753 29.84 29.719 29.929 29.818 29.719 29.74 29.678 29.636 29.606 29.512 29.427 29.256 29.24 29.465 29.292 29.063 28.948 28.857 28.724 28.588 29.006 31.438 32.714 33.019 32.169 30.46 33.198 33.69 35.201 35.026 34.341 34.579 33.074 27.932 27.809 27.066 26.906 26.862 26.825 26.861 27.081 27.13 26.992 27.034 27.117 26.932 27.044 27.17 27.23 27.673 28.058 27.92 27.439 27.123 27.098 27.043 27.043 26.778 26.796 26.868 26.849 26.789 26.839 26.96 27.06 27.151 27.145 26.832 26.539 25.896 25.45 25.025 25.149 25.221 25.325 25.483 25.719 26.11 26.377 26.861 27.431 26.914 27.338 27.464 27.14 26.639 26.986 27.611 27.269 27.609 27.694 27.485 26.645 27.562 27.464 26.625 26.651 26.475 26.484 26.463 26.533 27.81 26.996 26.038 25.51 25.202 25.307 25.448 25.526 25.377 25.254 25.159 25.198 25.184 25.149 25.134 25.173 25.174 25.247 25.438 25.436 25.38 25.382 25.326 25.127 25.189 25.362 25.204 25.17 25.157 25.177 25.207 25.174 25.175 25.15 25.181 25.14 25.207 25.183 25.186 25.241
42.494 42.656 42.78 42.925 43.133 43.211 43.358 43.609 43.762 43.821 43.695 43.557 43.338 43.189 43.042 42.832 42.717 42.464 42.356 42.245 42.501 42.58 42.718 42.911 43.076 43.192 43.388 43.6 41.245 35.998 35.134 35.343 35.083 35.101 35.12 35.207 35.185 35.238 35.236 35.178 35.173 35.124 37.311 39.102 37.573 35.175 35.388 35.435 35.202 36.846 42.772 44.085 40.313 36.642 34.994 35.076 35.055 35.167 39.294 40.685 41.219 41.418 35.746 37.768 36.255 34.761 34.556 34.496 36.375 35.537 35.623 36.846 41.063 41.703 39.607 45.593 46.21 45.999 46.016 45.93 37.622 39.491 42.429 42.277 42.098 43.776 46.665 48.218 44.041 43.492 50.384 51.597 49.954 48.928 47.279 46.799 50.382 47.554 42.721 34.764 34.525 34.182 34.054 34.104 34.051 33.991 34.055 34.103 34.102 34.039 33.929 33.796 33.859 33.686 33.537 33.63 33.461 33.401 33.009 32.734 32.724 32.686 32.706 32.734 32.716 32.75 32.753 32.776 32.772 32.757 32.761 32.808 32.819 32.878 32.936 33 33.048 33.102 33.341 39.618 40.375 40.359 40.411 38.852 34.427 32.953 32.772 32.798 32.869 31.849 31.591 31.4 31.393 33.332 34.06 39.868 40.478 40.449 40.438 40.44 40.478 36.419 32.605 32.474 32.42 32.418 32.334 32.301 32.24 32.239 32.219 32.173 32.143 32.105 32.086 32.068 32.066 32.047 32.003 31.983 31.957 31.968 32.011 31.99 31.918 31.869 32.113 31.988 32.061 31.869 31.753 31.757 31.624 31.489 31.361 31.145 31.091 31.028 30.978 30.913 30.823 30.627 30.546 30.51 30.439 30.35 30.382 30.253 30.262 30.196 30.039 29.845 29.783 29.806 29.866 29.764 29.789 29.892 29.988 30.05 30.213 30.347 30.277 30.284 30.348 30.369 30.438 30.399 30.474 30.51 30.518 30.559 30.525 30.562 30.561 30.547 30.523 30.479 30.487 30.409 30.453 30.454 30.431 30.435 30.305 30.317 30.29 30.296 30.271 30.148 30.129 30.064 30.028 30.119 30.166 30.137 30.099 30.041 30.035 29.992 30.096 30.074 29.944 29.972 30.067 30.235 30.342 30.369 30.31 30.208 30.289 30.305 30.261 30.267 30.515 30.243 30.24 30.199 30.195 30.224 30.202 30.195 30.171 30.175 30.187 30.179 30.145 30.13 30.164 30.312 30.748 30.515 30.053 30.055 30.085 30.055 30.005 29.793 29.67 29.668 29.673 29.63 29.648 29.56 29.372 29.299 29.303 29.211 29.097 29.088 29.038 28.869 28.673 29.541 28.866 31.885 32.947 31.799 34.127 35.222 35.326 35.844 34.991 35.211 34.078 31.919 27.766 27.174 27.035 27.034 26.863 26.811 26.87 27.135 26.959 27.111 27.001 26.891 26.913 26.914 27.055 27.12 27.221 27.803 28.117 27.753 27.274 27.171 27.383 27.142 26.83 26.769 26.83 26.802 26.878 26.825 26.767 26.94 26.968 27.093 27.073 26.933 26.563 25.974 25.533 25.404 25.258 25.196 25.313 25.51 25.756 26.156 26.994 29.659 30.285 28.968 26.937 26.665 26.692 26.866 26.787 27.319 26.989 28.861 28.358 27.67 26.636 26.784 27.274 27.619 29.055 29.558 27.828 27.688 26.537 25.878 25.354 25.273 25.323 25.506 25.477 25.325 25.249 25.168 25.272 25.247 25.188 25.157 25.153 25.187 25.313 25.486 25.331 25.259 25.251 25.293 25.151 25.106 25.29 25.258 25.188 25.196 25.226 25.203 25.266 25.214 25.205 25.19 25.205 25.212 25.21 25.235 25.286
42.188 42.483 42.605 42.76 42.854 43.045 43.169 43.383 43.533 43.683 43.776 43.791 43.59 43.387 43.243 43.045 42.895 42.706 42.535 42.427 42.254 42.386 42.561 42.761 42.907 43.004 43.179 40.916 38.447 37.061 35.135 35.067 35.086 35.118 35.154 35.15 35.174 35.209 35.228 35.124 35.205 37.958 39.151 37.323 35.698 36.102 35.558 35.33 35.314 35.275 41.839 39.951 39.91 37.264 35.211 35.217 35.198 35.212 38.911 39.099 38.144 38.296 36.019 37.664 35.979 34.828 34.639 34.55 34.791 36.632 34.912 38.09 40.921 41.397 34.816 36.514 35.685 35.39 35.28 34.388 34.332 37.574 39.876 41.364 41.962 43.355 45.971 46.545 40.442 42.229 49.681 42.431 43.534 44.274 42.455 45.935 43.155 41.136 43.903 34.913 34.353 34.301 34.247 34.248 34.274 34.116 34.26 34.396 34.103 34.115 34.026 34.036 33.879 34.051 33.876 33.806 33.716 33.439 33.298 33.064 33.145 32.722 32.655 32.692 32.747 32.748 32.747 32.777 32.783 32.818 32.795 32.824 32.859 32.861 32.914 32.908 32.943 33.061 33.212 40.185 40.428 40.436 40.376 40.318 40.412 36.098 32.94 33.011 32.857 32.748 31.624 31.742 32.44 33.03 33.024 40.397 40.453 40.423 40.438 40.477 40.266 32.67 32.481 32.585 32.482 32.458 32.345 32.307 32.214 32.169 32.178 32.162 32.144 32.097 32.058 32.083 32.095 32.069 32.047 32.008 31.968 31.939 31.936 31.974 31.968 31.918 31.904 31.758 31.913 31.886 31.923 31.661 31.512 31.426 31.25 31.164 31.107 31.032 31.057 31.031 30.916 30.761 30.689 30.597 30.626 30.428 30.498 30.568 30.346 30.361 30.129 30.069 29.99 29.984 29.954 29.928 29.982 29.993 30.141 30.234 30.367 30.445 30.523 30.497 30.477 30.475 30.495 30.443 30.496 30.482 30.513 30.554 30.536 30.495 30.499 30.517 30.509 30.468 30.442 30.424 30.449 30.455 30.44 30.357 30.286 30.322 30.319 30.363 30.363 30.242 30.267 30.133 30.063 30.147 30.2 30.237 30.253 30.102 30.071 30.043 30.202 30.112 30.065 30.12 30.263 30.451 30.449 30.372 30.367 30.282 30.283 30.381 30.267 30.215 30.285 30.218 30.136 30.212 30.198 30.207 30.198 30.25 30.221 30.18 30.164 30.169 30.182 30.173 30.187 30.192 31.224 31.25 30.846 30.337 30.158 30.143 30.084 29.85 29.982 29.836 29.702 29.738 29.699 29.602 29.446 29.509 29.438 29.389 29.254 29.24 29.272 28.998 28.863 28.702 28.872 29.019 31.157 32.071 34.289 34.104 35.678 35.728 35.828 34.936 34.817 31.444 30.067 27.19 28.078 28.182 27.864 27.082 26.787 26.772 26.781 26.912 27.208 27.21 27.089 27.14 27.025 27.293 27.249 27.114 27.199 27.851 28.256 27.951 27.975 27.681 27.142 26.85 26.817 26.738 26.81 26.823 26.824 26.808 26.712 26.753 26.949 26.977 27.006 26.641 26.301 25.796 26.029 25.262 25.123 25.223 25.263 25.9 25.8 29.296 30.507 30.848 30.249 30.489 28.989 26.801 27.296 27.395 27.463 28.886 28.207 27.47 26.59 26.57 26.558 26.684 27.255 27.012 26.569 26.619 26.088 25.593 25.318 25.357 25.266 25.531 25.458 25.336 25.336 25.17 25.185 25.104 25.155 25.108 25.132 25.163 25.341 25.348 25.328 25.297 25.299 25.379 25.159 25.103 25.19 25.241 25.207 25.241 25.268 25.272 25.275 25.215 25.244 25.251 25.247 25.235 25.262 25.241 25.305
42.54 42.355 42.388 42.538 44.728 44.324 43.003 43.117 43.368 43.46 43.628 43.752 43.723 43.604 43.387 43.263 43.078 42.955 42.792 42.642 42.401 42.311 42.305 42.493 42.635 42.824 42.975 38.829 37.167 35.81 35.143 35.044 35.128 35.194 35.245 35.227 35.18 35.174 35.137 35.128 38.008 39.073 38.838 35.894 35.913 35.677 35.407 35.487 40.715 36.742 37.371 36.329 37.831 35.65 35.2 35.277 35.29 35.325 36.463 37.991 37.922 38.225 36.362 35.34 35.422 34.981 34.814 34.615 36.608 36.051 34.604 35.675 38.734 39.652 35.404 36.468 35.027 34.355 34.479 35.987 34.31 34.951 41.781 38.995 40.748 43.471 44.201 44.135 41.937 38.484 48.495 40.423 37.616 46.546 46.745 42.172 45.816 43.947 36.073 35.841 34.389 34.402 34.341 34.378 34.424 34.348 34.209 34.218 34.174 34.178 34.183 34.198 34.179 34.09 33.957 33.887 33.899 33.715 33.459 33.322 33.323 33.295 32.994 32.719 32.668 32.693 32.735 32.753 32.766 32.761 32.797 32.8 32.82 32.859 32.894 32.872 32.893 32.927 33.048 33.123 35.274 40.228 40.311 40.406 40.317 40.353 36.605 34.005 33.097 33.01 32.846 31.656 34.14 33.734 38.364 40.482 40.531 40.416 40.456 40.486 35.992 30.73 30.863 31.278 32.503 32.671 32.386 32.307 32.245 32.203 32.144 32.097 32.09 32.124 32.092 32.09 32.072 32.049 32.061 32.038 31.991 31.915 31.95 31.935 31.934 31.898 31.871 31.831 32.078 32.161 31.85 31.642 31.503 31.406 31.238 31.101 31.081 31.108 31.086 31.017 30.95 30.871 30.799 30.811 30.76 30.706 30.669 30.586 30.659 30.509 30.258 30.162 30.186 30.165 30.116 30.243 30.197 30.284 30.294 30.502 30.51 30.587 30.603 30.616 30.562 30.584 30.666 30.521 30.487 30.489 30.449 30.47 30.503 30.496 30.504 30.499 30.529 30.533 30.443 30.493 30.513 30.464 30.454 30.398 30.317 30.371 30.38 30.343 30.246 30.194 30.187 30.208 30.131 30.068 30.149 30.195 30.274 30.15 30.199 30.171 30.158 30.152 30.23 30.25 30.394 30.548 30.585 30.421 30.599 30.289 30.265 31.271 30.254 30.281 30.223 30.167 30.182 30.184 30.171 30.194 30.215 30.27 30.252 30.231 30.203 30.199 30.163 30.123 30.199 30.253 30.215 31.256 31.271 31.361 30.385 30.22 30.173 29.911 29.844 29.975 29.854 29.846 29.636 29.627 29.651 29.581 29.551 29.357 29.256 29.27 29.173 29.19 29.047 28.879 28.784 28.623 28.974 31.204 32.776 34.322 35.155 35.445 34.23 32.15 34.364 32.366 28.488 28.205 30.472 27.64 27.584 27.887 27.335 26.953 26.886 26.729 26.94 27.514 27.363 27.463 27.462 27.58 27.468 27.175 27.079 27.401 28.025 28.194 28.38 28.486 27.867 27.257 27.011 26.939 26.731 26.757 26.76 26.813 26.806 26.776 26.773 26.709 26.868 26.965 26.938 26.86 26.329 25.734 25.242 25.176 27.351 28.267 26.731 25.514 25.616 29.82 26.63 27.933 26.418 26.085 26.133 26.166 26.203 26.21 26.171 26.169 26.084 26.059 26.097 26.127 26.082 26.065 26.008 25.96 25.855 25.407 25.214 25.369 25.427 25.579 25.431 25.347 25.227 25.239 25.201 25.205 25.187 25.135 25.16 25.204 25.395 25.336 25.306 25.26 25.307 25.415 25.249 25.168 25.186 25.238 25.335 25.287 25.298 25.285 25.278 25.239 25.249 25.238 25.266 25.246 25.28 25.286 25.32
42.736 42.567 42.381 42.344 45.715 43.013 42.829 43.693 43.137 43.262 43.432 43.602 43.744 43.784 43.63 43.414 43.309 43.148 42.944 42.805 42.632 42.49 38.503 40.926 42.474 38.699 36.016 35.325 35.145 35.11 35.129 35.083 35.128 35.141 35.17 35.206 35.227 35.183 35.207 37.249 39.087 39.061 35.457 35.812 35.641 35.661 35.37 35.51 42.846 42.163 39.224 35.452 35.506 35.383 35.32 35.417 35.378 35.464 35.849 37.072 36.646 36.158 35.476 35.319 35.139 35.063 34.914 34.693 35.857 37.86 34.583 35.222 36.997 38.77 34.862 34.341 34.339 34.359 34.335 38.255 34.394 34.248 41.966 39.078 43.201 41.575 38.359 39.265 42.906 51.083 46.782 46.305 43.57 42.6 45.985 42.093 43.49 37.785 38.465 34.493 34.418 34.404 34.546 34.776 34.584 34.475 34.374 34.615 34.319 34.276 34.367 34.373 34.276 34.269 34.215 34.175 34.054 33.858 33.746 33.601 33.465 33.362 33.21 33.215 32.973 32.738 32.69 32.716 32.731 32.755 32.732 32.768 32.798 32.809 32.812 32.848 32.849 32.923 32.918 32.987 33.019 33.142 34.466 39.62 40.392 40.336 40.261 36.796 36.468 38.564 33.22 32.901 34.545 37.441 40.475 40.451 40.424 40.459 40.481 38.317 31.633 31.023 31.686 30.865 30.696 31.305 33.066 34.184 32.358 32.207 32.121 32.123 32.098 32.11 32.07 32.094 32.077 32.058 32.028 32.012 31.966 31.966 31.974 31.994 31.946 31.901 31.865 31.821 31.766 31.715 32.629 31.687 31.574 31.405 31.253 31.106 31.072 31.115 31.125 31.039 30.99 30.946 30.938 30.856 30.873 30.815 30.747 30.575 30.481 30.435 30.29 30.214 30.229 30.341 30.296 30.321 30.419 30.382 30.383 30.495 30.548 30.655 30.726 30.646 30.644 30.708 30.641 30.493 30.517 30.563 30.402 30.451 30.514 30.541 30.559 30.575 30.55 30.543 30.466 30.536 30.424 30.473 30.423 30.34 30.262 30.373 30.36 30.326 30.266 30.304 30.257 30.298 30.16 30.146 30.161 30.151 30.198 30.239 30.272 30.261 30.251 30.324 30.303 30.427 30.483 30.559 30.501 30.458 30.393 30.35 30.317 30.22 30.27 30.28 30.211 30.202 30.188 30.197 30.216 30.185 30.214 30.274 30.273 30.273 30.261 30.246 30.159 30.182 30.233 30.262 30.251 30.235 31.457 31.807 31.137 30.265 32.618 30.506 29.898 29.936 29.961 29.93 29.898 29.676 29.552 29.534 29.577 29.52 29.314 29.403 29.363 29.311 29.271 28.987 29.016 28.751 28.71 28.486 30.942 33.305 34.085 34.751 34.109 33.958 32.918 31.072 30.215 28.32 27.628 27.156 26.895 26.87 27.545 27.813 27.095 26.833 26.878 26.863 27.005 27.081 27.465 27.812 27.61 27.084 27.046 27.215 27.781 27.85 27.995 28.449 29.836 28.479 27.369 27.103 26.94 26.828 26.682 26.703 26.753 26.772 26.782 26.719 26.659 26.677 26.901 27.006 26.928 26.75 26.55 25.844 27.704 28.367 26.301 25.182 25.215 25.282 25.413 25.48 25.684 25.811 25.821 25.817 25.77 25.878 25.868 25.949 25.919 25.904 25.963 26.005 25.922 25.879 25.915 25.924 25.72 25.204 25.216 25.442 25.421 25.532 25.419 25.299 25.293 25.169 25.251 25.191 25.196 25.175 25.174 25.211 25.222 25.289 25.285 25.249 25.26 25.362 25.261 25.269 25.174 25.24 25.34 25.331 25.302 25.315 25.347 25.277 25.27 25.255 25.279 25.264 25.259 25.301 25.326
42.906 42.796 42.623 42.46 42.328 42.737 42.59 42.75 42.954 43.118 43.298 43.351 45.916 43.814 43.797 43.637 43.553 43.381 43.13 42.997 42.765 36.117 36.589 35.286 40.693 35.989 35.334 35.193 35.144 35.106 35.109 35.097 35.138 35.197 35.218 35.216 35.155 35.149 35.117 35.841 38.466 35.593 35.412 35.573 35.896 35.397 35.531 35.882 41.426 38.939 38.771 35.615 35.663 35.542 35.425 35.51 35.487 35.51 35.911 36.624 36.451 35.949 35.588 35.484 35.363 35.207 35.093 34.901 35.13 35.031 34.65 34.696 34.733 35.33 35.01 34.638 34.626 34.4 34.436 36.841 35.349 34.562 43.11 42.216 43.628 44.554 48.153 47.421 38.25 39.419 46.149 43.603 43.848 44.063 38.164 38.822 42.457 44.467 45.197 34.723 34.546 34.64 34.548 34.552 34.557 34.577 34.621 34.411 34.396 34.366 34.356 34.364 34.506 34.41 34.358 34.355 34.272 34 33.915 33.847 33.755 33.614 33.39 33.39 33.229 33.343 32.911 34.831 33.225 32.684 32.717 32.716 32.729 32.768 32.789 32.84 32.836 32.832 32.84 32.92 32.96 32.947 33.069 33.157 35.208 39.907 40.388 40.422 40.34 40.356 40.473 35.206 34.589 38.961 40.471 40.445 40.419 40.44 40.504 34.761 32.784 31.158 30.982 31.06 31.706 31.065 33.884 32.455 32.613 32.373 32.256 32.196 32.175 32.076 32.052 32.011 31.953 32.274 31.926 31.954 31.936 31.95 31.951 31.983 31.947 31.911 31.847 31.824 31.791 31.718 31.605 33.004 31.687 31.418 31.289 31.279 31.149 31.159 31.14 31.127 31.072 31.088 31.067 31.099 30.964 30.903 30.856 30.73 30.645 30.608 30.474 30.433 30.417 30.402 30.454 30.515 30.573 30.569 30.571 30.467 30.619 30.616 30.649 30.682 30.618 30.735 30.663 30.624 30.601 30.525 30.437 30.499 30.468 30.562 30.602 30.621 30.579 30.516 30.464 30.47 30.371 30.436 30.417 30.357 30.31 30.407 30.435 30.38 30.319 30.327 30.284 30.269 30.167 30.104 30.158 30.251 30.215 30.304 30.291 30.369 30.326 30.323 30.403 30.514 30.562 30.556 30.489 30.439 30.477 31.253 30.268 30.294 30.284 30.251 30.184 30.187 30.21 30.223 30.199 30.175 30.239 30.243 30.279 30.276 30.23 30.281 30.27 30.264 30.227 30.218 30.277 30.281 30.267 31.474 31.307 31.284 30.675 30.79 30.089 29.965 30.926 30.302 29.943 29.827 29.544 29.564 29.641 29.509 29.506 29.501 29.539 29.499 29.264 29.081 29.035 28.838 28.851 28.628 28.572 29.042 29.06 32.646 33.818 33.881 30.553 31.892 32.202 31.719 28.624 29.362 28.801 26.877 27.008 29.446 27.48 27.938 27.391 27.058 26.892 26.844 26.992 27.482 27.61 28.222 27.071 27.211 27.423 27.724 27.499 27.631 29.794 30.906 28.104 27.913 27.1 27.087 26.886 26.793 26.661 26.714 26.692 26.719 26.721 26.718 26.655 26.773 26.894 26.958 26.934 26.747 26.9 26.739 25.841 25.455 25.255 25.079 25.095 25.205 25.297 25.387 25.505 25.605 25.669 25.642 25.691 25.742 25.719 25.747 25.776 25.845 25.894 25.884 25.879 25.927 25.688 25.344 25.3 25.477 25.557 25.559 25.42 25.226 25.263 25.157 25.256 25.202 25.195 25.16 25.165 25.213 25.251 25.424 25.322 25.242 25.372 25.395 25.281 25.301 25.28 25.257 25.347 25.327 25.326 25.298 25.328 25.328 25.235 25.271 25.276 25.296 25.271 25.322 25.366
43.124 42.918 42.802 42.681 42.5 42.284 42.306 44.36 44.686 42.853 43.323 43.182 44.015 44.451 43.612 43.805 43.968 43.636 43.391 43.231 38.892 35.746 37.759 37.16 35.36 36.139 35.571 35.171 35.139 35.135 35.164 35.183 35.162 35.199 35.171 35.147 35.144 35.159 35.117 35.156 35.204 35.173 35.749 35.728 35.374 35.532 35.607 37.083 36.903 41.686 36.372 35.713 36.108 35.582 35.618 35.608 35.591 35.636 35.721 36.393 36.547 35.933 35.656 35.574 35.496 35.378 35.215 35.083 34.897 34.828 34.855 34.846 34.913 34.921 34.922 34.895 34.93 34.877 34.548 37.95 34.479 34.476 37.18 41.845 52.515 48.334 49.405 48.816 39.838 38.288 42.769 43.035 43.372 42.967 39.128 40.379 41.821 39.238 41.901 41.71 34.905 34.606 34.62 34.646 34.618 34.659 34.656 34.531 34.485 34.417 34.391 34.34 34.362 34.463 34.398 34.396 34.361 34.203 34.107 34.025 33.94 33.853 33.638 33.618 33.431 33.265 33.165 34.304 34.123 33.038 32.673 32.668 32.7 32.73 32.769 32.773 32.784 32.815 32.845 32.801 32.835 32.888 33 33.022 33.021 33.155 35.305 40.258 40.254 40.366 40.332 40.39 40.443 40.53 40.483 40.425 40.452 40.493 38.468 31.102 31.614 32.837 31.452 31.05 31.233 33.276 33.658 31.141 30.678 32.181 32.566 32.302 32.192 32.117 32.065 32.002 29.373 28.103 32.55 31.948 31.901 31.896 31.911 31.933 31.935 31.916 31.843 31.793 31.791 31.749 31.725 31.99 32.771 31.598 31.388 31.291 31.327 31.201 31.216 31.205 31.182 31.178 31.189 31.163 31.111 30.996 30.892 30.818 30.787 30.816 30.762 30.689 30.613 30.588 30.586 30.633 30.69 30.615 30.613 30.534 30.667 30.78 30.77 30.817 30.745 30.716 30.629 30.627 30.571 30.599 30.476 30.467 30.513 30.722 30.671 30.605 30.646 30.618 30.499 30.436 30.407 30.436 30.543 30.37 30.325 30.347 30.403 30.334 30.341 30.358 30.3 30.195 30.237 30.206 30.199 30.251 30.299 30.332 30.526 30.595 30.394 30.406 30.421 30.542 30.513 30.55 30.499 30.502 30.277 30.268 30.312 30.285 30.272 30.216 30.172 30.199 30.221 30.2 30.196 30.19 30.241 30.259 30.257 30.276 30.271 30.26 30.272 30.297 30.267 30.266 30.245 30.258 30.251 30.384 31.597 31.401 31.227 31.239 31.589 30.744 32.428 30.601 29.92 29.868 29.792 29.717 29.685 29.559 29.535 29.594 29.483 29.486 29.385 29.325 29.174 28.998 28.912 28.769 28.673 28.488 28.354 28.852 30.351 32.336 32.039 31.685 33.321 32.816 29.005 29.179 28.306 26.937 28.307 28.687 27.019 26.793 27.468 28.109 27.319 28.998 28.716 26.945 28.928 30.067 29.028 29.32 27.937 28.021 27.501 26.94 26.983 27.314 27.731 27.988 28.178 27.857 27.27 26.956 26.852 26.744 26.619 26.612 26.638 26.707 26.718 26.642 26.701 26.797 26.974 26.995 27.059 26.743 26.482 26.261 25.572 25.346 25.585 25.162 25.087 25.234 25.413 25.506 25.626 25.663 25.671 25.708 25.667 25.649 25.725 25.751 25.712 24.52 24.312 25.28 25.5 25.36 25.368 25.56 25.398 25.495 25.343 25.257 25.241 25.133 25.31 25.139 25.197 25.183 25.152 25.199 25.299 25.283 25.245 25.274 25.443 25.396 25.308 25.314 25.299 25.312 25.379 25.329 25.349 25.322 25.354 25.32 25.251 25.285 25.299 25.274 25.33 25.308 25.357
43.37 43.148 43.046 42.896 42.881 43.588 45.522 47.398 45.411 42.697 43.187 42.927 43.148 43.599 43.458 43.675 43.814 43.795 43.568 43.365 37.506 36.889 36.786 37.89 38 35.918 35.18 35.12 35.165 35.182 35.22 35.197 35.185 35.19 35.179 35.16 35.153 35.152 35.046 35.108 35.194 35.242 35.635 35.384 35.487 35.587 35.617 35.651 35.694 35.726 35.867 35.788 35.85 35.762 35.701 35.739 35.651 35.709 35.794 36.085 36.344 35.908 35.773 35.707 35.557 35.443 35.286 35.16 35.079 35.02 35.053 35.062 35.049 35.055 35.103 35.407 35.517 35.268 34.606 36.219 34.521 34.606 35.326 48.256 53.141 50.289 50.103 49.234 39.686 39.144 35.866 44.812 50.946 51.19 45.864 40.874 48.454 40.261 41.559 41.777 35.108 34.784 34.791 34.655 34.672 34.723 34.673 34.575 34.669 34.56 34.417 34.471 34.447 34.478 34.504 34.48 34.426 34.343 34.293 34.211 34.077 33.959 33.831 33.626 33.608 33.506 33.419 33.223 33.158 33.129 32.976 33.064 32.662 32.636 32.717 32.741 32.741 32.802 32.794 32.774 32.858 32.865 32.938 32.968 32.992 33.06 33.11 33.124 34.437 39.551 40.298 40.415 40.543 40.459 40.454 40.408 40.449 40.481 35.103 31.566 31.549 31.43 32.55 32.896 32.794 34.27 33.458 31.565 31.763 30.843 30.629 31.039 32.505 32.529 32.13 32.018 32.057 31.697 27.617 28.369 31.859 31.879 31.912 31.89 31.883 31.899 31.875 31.854 31.8 31.769 31.719 31.669 31.549 31.647 31.53 31.319 31.291 31.266 31.247 31.155 31.177 31.24 31.258 31.246 31.226 31.186 31.123 31.036 30.991 30.971 30.92 30.848 30.771 30.736 30.77 30.782 30.667 30.612 30.604 30.569 30.708 30.762 30.798 30.719 30.66 30.708 30.696 30.586 30.553 30.536 30.558 30.544 30.559 30.738 30.69 30.68 30.646 30.659 30.611 30.481 30.461 30.411 30.396 30.387 30.358 30.373 30.428 30.5 30.483 30.392 30.25 30.236 30.246 30.321 30.254 30.342 30.308 30.269 30.374 30.441 30.546 30.422 30.494 30.551 30.575 30.475 30.32 30.597 30.346 30.336 30.348 30.309 30.234 30.236 30.222 30.209 30.196 30.187 30.185 30.181 30.227 30.212 30.256 30.277 30.296 30.291 30.268 30.243 30.255 30.263 30.291 30.266 30.25 30.285 30.268 30.946 31.313 31.679 31.374 30.733 31.281 31.807 31.292 30.224 29.96 29.787 29.762 29.68 29.486 29.526 29.615 29.519 29.417 29.343 29.274 29.233 29.336 28.992 28.825 28.677 28.556 28.347 28.131 28.842 31.379 32.214 32.17 32.361 29.819 28.237 27.578 27.197 26.98 26.93 26.996 29.655 31.068 27.56 29.186 29.109 30.321 29.297 30.283 31.6 32.109 31.837 29.731 28.21 27.58 27.041 27.041 27.392 27.393 26.997 27.409 28.106 28.121 27.761 27.325 26.941 26.824 26.753 26.576 26.585 26.605 26.63 26.634 26.645 26.704 26.723 26.886 26.98 26.988 26.851 26.56 25.589 25.136 25.39 25.258 25.182 25.28 25.398 25.53 25.591 25.679 25.662 25.642 25.607 25.625 25.661 25.113 24.113 24 24.586 25.082 25.267 25.569 25.631 25.482 25.482 25.264 25.221 25.252 25.119 25.279 25.142 25.179 25.221 25.166 25.184 25.195 25.259 25.262 25.26 25.436 25.346 25.34 25.331 25.351 25.387 25.459 25.328 25.34 25.353 25.309 25.341 25.285 25.265 25.295 25.291 25.265 25.294 25.345
43.557 43.943 43.271 43.045 42.911 42.693 45.101 46.692 48.283 43.369 59.54 42.982 42.87 43.063 43.228 43.426 43.552 43.744 43.7 36.806 36.046 38.796 36.348 35.564 36.105 35.221 35.206 35.158 35.199 35.24 35.347 35.342 35.561 35.237 35.216 35.152 35.142 35.152 35.188 35.155 35.206 35.247 35.793 36.312 35.633 35.694 35.751 35.838 38.554 38.952 37.154 36.005 36.748 36.567 35.825 35.936 35.838 35.868 35.9 36.024 36.169 36.003 35.845 35.828 35.69 35.577 35.489 35.321 35.244 35.184 35.182 35.224 35.249 35.327 36.282 36.042 35.721 35.56 34.769 36.318 35.26 35.365 35.442 42.248 48.192 45.181 47.355 41.317 39.905 37.138 48.086 46.456 45.125 45.304 52.622 48.203 44.805 50.943 44.954 40.556 35.149 34.913 34.88 34.893 34.823 34.797 34.785 34.719 34.693 34.719 34.661 34.61 34.569 34.551 34.456 34.495 34.47 34.435 34.391 34.3 34.135 34.135 34.061 33.899 33.925 33.757 33.631 33.519 33.429 33.321 33.231 33.465 32.939 32.755 32.651 32.657 32.692 32.747 32.725 32.783 32.766 32.824 32.896 32.888 32.915 32.925 32.98 32.982 33.009 33.051 34.424 39.012 40.526 40.458 40.423 40.441 40.447 40.378 31.367 30.438 31.027 31.855 31.832 31.048 31.466 32.9 32.574 32.259 30.856 31.329 32.084 30.713 30.778 31.679 32.395 32.248 32.091 31.998 31.984 31.835 29.776 28.675 31.472 31.93 31.878 31.854 31.841 31.861 31.827 31.794 31.722 31.657 31.616 31.509 31.378 31.421 31.369 31.306 31.18 31.161 31.096 31.144 31.255 31.382 31.354 31.288 31.308 31.272 31.228 31.147 31.092 31.015 30.948 30.906 30.939 30.929 30.827 30.815 30.721 30.734 30.694 30.685 30.701 30.673 30.675 30.669 30.653 30.609 30.563 30.641 30.805 30.669 30.672 30.764 30.693 30.675 30.588 30.649 30.603 30.466 30.428 30.405 30.375 30.381 30.402 30.469 30.452 30.511 30.35 30.281 30.383 30.547 30.445 30.424 30.382 30.305 30.403 30.351 30.414 30.503 30.49 30.48 30.448 30.51 30.547 30.41 30.917 30.293 30.352 30.341 30.335 30.323 30.254 30.215 30.231 30.171 30.144 30.156 30.124 30.155 30.204 30.223 30.202 30.245 30.276 30.276 30.277 30.252 30.239 30.221 30.179 30.234 30.25 30.275 30.257 30.239 30.56 31.279 31.244 31.074 31.734 31.187 30.902 32.544 30.078 30.963 29.958 29.724 29.539 29.628 29.547 29.395 29.481 29.424 29.388 29.308 29.254 29.245 29.113 28.96 28.805 28.636 28.34 28.144 28.07 27.885 28.721 28.661 29.465 29.135 28.932 27.7 27.309 30.252 30.301 29.019 30.209 31.308 29.515 29.227 32.114 31.181 31.918 32.719 33.424 32.946 29.402 27.553 26.992 27.188 27.483 27.64 27.156 26.729 26.914 27.209 27.589 28.063 28.132 27.705 27.411 27.042 26.871 26.744 26.597 26.565 26.572 26.609 26.641 26.611 26.674 26.671 26.839 26.893 26.826 26.662 25.989 25.39 25.423 25.37 25.229 25.289 25.366 25.527 25.614 25.571 25.558 25.531 25.438 25.421 25.285 24.233 23.807 24.57 24.941 25.261 25.566 25.734 25.457 25.483 25.38 25.155 25.171 25.092 25.237 25.229 25.268 25.22 25.22 25.181 25.192 25.273 25.357 25.259 25.393 25.35 25.295 25.331 25.317 25.343 25.394 25.384 25.386 25.307 25.35 25.303 25.309 25.293 25.321 25.328 25.303 25.295 25.3
