ncols 433
nrows 32
xllcorner    433128
yllcorner    433860
cellsize     2
NODATA_value -9999
71.716 71.735 71.738 71.698 71.673 71.657 71.609 71.587 71.602 71.601 71.568 71.533 71.502 74.973 72.869 71.515 72.065 72.598 74.423 79.109 80.297 80.78 79.64 77.892 71.948 72.434 72.579 71.361 71.345 71.389 71.341 71.311 71.339 71.3 71.23 71.183 71.442 72.134 71.85 71.937 71.124 71.132 71.271 72.845 73.43 73.207 71.612 71.669 71.557 70.552 70.568 71.553 72.043 71.912 72.034 71.559 70.26 69.62 67.921 67.658 67.235 66.842 67.288 67.492 66.856 66.674 66.695 66.509 66.355 69.878 72.031 73.051 72.177 70.959 66.451 66.261 65.915 65.716 64.714 64.62 64.648 64.654 64.779 65.264 65.939 65.14 67.671 70.593 71.542 70.726 69.457 65.906 65.48 65.152 64.198 64.723 65.564 66.793 66.914 66.228 63.406 63.056 62.723 62.516 63.446 63.837 63.248 63.137 62.6 62.243 61.868 62.793 63.161 61.418 61.257 62.23 61.128 62.14 66.7 67.77 66.917 65.829 60.964 60.742 60.593 61.454 60.054 60.031 59.99 60.318 60.842 60.814 63.348 65.875 66.167 65.31 61.199 60.777 60.657 62.103 62.143 62.387 61.275 60.828 60.206 60.994 59.561 59.545 59.726 61.471 61.486 61.758 62.103 61.259 61.18 61.356 61.395 59.958 59.516 59.863 60.782 59.765 59.286 59.284 59.216 59.189 59.123 59.268 58.561 58.552 58.574 59.259 58.733 58.851 61.271 62.903 64.478 63.709 62.835 59.625 59.351 60.216 59.4 61.297 60.128 59.177 60.946 60.134 59.563 59.578 59.665 60.438 59.802 59.883 59.95 62.056 63.245 62.741 61.458 62.374 62.19 61.18 65.371 65.463 65.62 65.825 65.838 66.053 66.344 66.319 66.364 67.563 66.572 66.596 66.665 66.804 66.662 65.745 61.907 62.325 64.048 65.648 65.607 65.295 65.678 64.741 65.307 61.799 61.249 61.313 60.841 65.13 65.008 64.927 64.937 64.869 64.949 64.952 64.787 64.529 64.569 64.599 64.682 64.697 64.806 64.759 63.132 59.181 59.131 63.63 64.992 65.184 65.031 64.872 64.999 65.006 64.436 64.488 64.363 64.683 64.31 64.203 64.048 65.294 63.871 59.873 60.218 58.012 61.623 63.602 65.029 64.733 63.55 59.074 57.927 57.782 57.704 57.64 57.788 57.382 57.309 57.32 57.288 57.354 60.39 60.469 58.507 62.909 64.002 63.18 57.79 57.629 58.291 57.516 57.036 56.977 58.414 59.348 60.068 58.193 56.79 56.769 56.815 56.718 56.683 57.064 58.644 59.878 57.207 56.487 58.117 60.841 59.169 58.571 56.178 55.896 56.242 56.442 55.84 56.812 58.651 60.579 63.962 67.278 68.034 64.944 58.385 58.855 58.264 56.219 54.712 54.997 57.596 58.487 54.473 54.172 55.285 63.977 64.673 62.485 61.597 54.852 53.569 54.129 52.834 52.041 51.73 51.689 51.555 51.693 51.757 51.669 51.787 51.854 51.895 51.843 51.692 51.526 51.256 51.137 54.132 53.243 55.763 54.013 56.968 52.326 50.944 50.952 53.712 54.994 55.869 55.543 53.249 49.86 49.739 49.737 51.315 49.543 49.341 49.267 49.175 49.127 49.139 50.386 49.243 48.502 48.457 48.776 48.82 48.731 48.66 47.93 47.888 47.832 47.697 47.596 47.53 47.528 47.334 47.172 46.942 47.297 52.034 53.723 54.06 52.765 51.475 47.178 46.478 46.932 49.396 50.646 46.519 46.318 46.326 46.421 46.107 46.126 46.61 46.08 45.981 46.865 49.845 46.782 46.943 46.74 46.096 45.868 45.072 44.537 44.416 44.343 44.147
71.773 71.682 71.643 71.647 71.647 71.603 71.573 71.587 71.572 71.539 71.537 71.49 73.593 71.576 72.153 71.581 71.639 71.824 73.214 79.211 80.523 80.917 80.084 76.935 72.126 72.559 72.629 71.382 71.321 71.342 71.301 71.299 71.372 71.449 72.062 71.918 71.093 71.178 71.267 72.541 75.177 75.118 72.646 71.887 73.304 73.167 70.709 70.237 70.213 69.869 70.006 71.66 72.224 71.914 71.31 70.999 69.707 67.924 67.485 67.167 67.02 67.523 66.965 66.737 66.596 66.457 66.431 66.382 66.52 69.526 71.888 72.939 72.369 71.096 65.585 65.255 64.983 64.825 64.659 64.555 64.653 65.647 64.729 64.861 64.712 64.617 67.241 70.585 71.502 70.529 66.988 65.107 64.466 63.751 63.48 63.362 64.965 66.852 65.029 64.405 63.345 62.891 62.567 62.457 63.545 63.298 62.812 62.45 61.834 61.743 61.653 61.475 61.874 61.943 61.471 62.572 60.911 65.073 66.932 67.638 66.352 61.627 61.346 61.249 60.385 60.258 60.022 59.987 60.655 61.576 62.177 60.44 63.56 65.889 66.118 64.936 61.279 61.945 62.018 60.346 60.655 63.003 62.949 61.517 60.802 59.979 59.756 61.057 61.57 61.046 60.548 59.929 60.882 61.35 61.35 61.46 61.316 59.628 59.734 60.287 59.167 59.114 59.196 59.152 59.122 59.102 59.799 58.608 58.61 58.487 58.589 58.723 58.727 58.881 62.174 64.353 65.928 64.682 62.013 58.969 59.123 60.744 59.654 60.357 61.87 59.238 59.847 59.982 59.485 59.478 60.002 60.133 59.772 59.8 59.867 60.606 60.134 60.123 60.149 61.786 62.493 60.828 60.468 60.564 61.858 61.925 61.491 61.833 62.02 61.989 62.66 65.243 65.339 65.638 65.77 65.918 66.155 65.563 61.652 62.873 65.317 68.084 67.456 67.183 67.263 67.267 67.26 66.588 61.947 60.672 61.353 65.712 66.294 66.041 66.036 66.064 66.108 65.882 65.694 65.725 65.719 65.743 65.812 65.768 65.719 65.676 64.554 59.775 59.155 63.159 64.213 64.063 64.082 64.298 64.147 64.334 63.698 63.239 63.328 63.288 60.735 60.557 59.598 59.593 61.038 58.776 59.621 57.995 57.94 59.44 63.867 65.026 64.747 63.13 59.254 57.838 57.695 57.652 57.713 57.374 57.316 57.276 57.254 57.282 58.862 58.183 59.857 63.378 64.431 63.187 57.659 57 57.505 58.01 57.148 57.021 60.534 62.824 58.829 59.452 57.746 56.974 56.618 56.961 60.08 58.531 58.411 58.532 56.84 56.556 56.485 60.106 57.882 56.375 56.507 56.059 55.961 55.888 55.861 56.583 57.612 60.714 63.807 66.036 67.019 65.564 64.588 62.643 57.32 56.588 55.042 54.536 55.788 58.496 60.331 61.961 61.761 64.315 65.441 64.179 63.795 55.89 52.978 52.301 51.875 51.687 51.542 51.574 51.698 51.69 51.673 51.825 51.862 51.795 51.674 51.57 51.313 52.238 56.731 57.649 58.693 57.757 55.588 57.636 57.448 55.029 50.839 50.579 50.452 51.383 51.625 55.257 53.948 49.695 49.737 49.732 49.904 49.671 49.983 49.3 49.136 49.123 49.902 49.063 48.566 48.485 48.478 48.866 49.301 48.182 49.416 47.912 47.809 47.711 47.637 47.577 47.531 47.44 47.317 47.118 46.705 48.138 53.036 54.66 53.701 51.939 47.142 47.507 46.712 46.533 46.584 46.348 46.353 47.507 46.703 46.256 46.324 46.271 46.141 46.046 46.045 46.101 46.787 47.136 46.998 48.709 49.712 46.986 45.338 44.747 44.448 44.616 44.322
71.698 71.69 71.66 71.591 71.611 71.602 71.552 71.547 71.528 71.51 71.474 71.509 76.048 76.609 75.102 72.242 71.756 74.015 74.844 79.133 80.307 80.836 80.163 79.243 71.804 71.889 72.69 71.443 71.321 71.346 71.293 71.254 71.403 71.455 71.539 71.374 74.435 77.322 77.571 77.664 77.659 76.916 71.386 71.431 70.21 70.089 70.016 70.028 69.905 69.726 69.829 71.774 72.698 72.627 71.891 71.707 71.312 68.317 67.339 67.217 67.191 67.989 67.219 66.89 67.029 66.577 66.452 66.824 66.883 69.04 72.071 73.8 72.162 67.458 65.64 65.641 65.829 64.857 64.709 64.695 64.553 65.525 64.789 64.594 64.693 64.92 66.338 70.332 71.25 70.651 68.656 64.573 64.294 63.523 63.432 63.339 63.434 63.967 65.986 66.317 65.24 64.871 62.643 63.999 64.461 63.81 63.531 62.707 62.909 62.074 63.865 63.499 61.357 61.301 61.218 61.543 61.314 65.561 67.662 67.49 66.389 61.187 60.815 60.974 60.334 59.994 59.991 60.016 60.906 62.441 63.055 60.592 64.821 66.351 65.614 60.738 60.499 61.715 62.028 61.486 61.965 63.414 63.51 61.84 61.261 61.425 62.225 61.409 59.992 59.971 59.446 59.285 61.409 60.248 60.041 60.918 61.27 59.159 60.077 60.185 59.276 58.965 58.98 58.967 59.029 59.52 59.023 58.533 58.547 58.55 58.69 58.734 58.783 58.87 63.18 65.091 64.843 62.05 58.976 59.021 60.931 61.261 61.211 59.783 61.171 60.881 61.193 60.017 59.34 59.381 59.641 60.034 59.718 59.754 59.804 60.834 60.034 60.103 61.027 61.246 62.361 60.602 60.333 60.51 61.326 61.828 60.462 61.337 60.445 61.989 60.528 60.381 60.385 62.566 62.068 61.753 61.767 61.811 60.996 62.997 65.36 66.109 66.386 66.464 66.4 66.362 66.734 66.142 61.301 60.907 60.857 65.361 66.34 65.407 65.41 65.367 65.514 65.297 64.772 64.753 65.144 64.802 64.726 64.689 64.538 64.588 64.171 60.049 59.101 59.432 59.86 59.599 59.976 60.804 59.905 59.842 58.2 58.98 59.601 58.269 58.348 60.588 58.185 58.146 58.662 58.212 59.696 58.082 57.984 58.444 61.911 63.939 64.875 64.375 63.305 59.606 57.765 57.642 57.632 57.269 57.237 57.233 57.192 57.292 58.281 57.602 59.985 63.527 64.322 62.6 58.741 59.017 57.435 57.378 58.056 56.955 60.152 63.103 61.935 56.762 56.848 57.005 56.673 57.326 62.064 65.19 57.321 56.862 56.751 56.564 56.418 56.325 56.299 56.205 56.065 56.656 56.03 55.932 56.116 55.798 55.67 58.557 60.267 62.819 64.481 64.984 66.47 65.761 62.886 56.723 56.056 54.451 54.775 59.424 60.607 63.413 65.253 66.711 64.809 63.612 55.53 54.376 51.811 51.708 51.584 51.474 51.562 51.73 51.631 51.626 51.798 51.87 51.737 51.677 51.511 51.246 51.792 53.68 56.894 60.061 60.371 60.781 59.366 56.582 55.345 52.05 50.685 50.489 50.343 50.223 50.223 54.739 55.379 49.696 49.715 49.701 49.952 49.804 54.587 49.76 49.139 49.122 50.232 48.772 48.532 48.468 48.376 48.457 48.18 49.034 49.706 48.27 47.687 47.63 47.56 47.544 47.521 47.397 47.318 46.969 47.625 52.435 53.49 53.93 52.577 48.252 46.588 46.51 46.73 46.345 46.32 46.305 46.276 47.906 46.542 46.259 47.747 46.557 46.249 46.219 46.213 47.003 46.672 49.917 51.055 51.778 51.626 47.468 46.738 44.874 44.424 44.342 45.097
71.674 71.666 71.625 71.585 71.551 71.552 71.514 71.527 71.513 71.503 71.469 73.888 78.139 79.751 77.79 75.732 71.841 74.789 75.257 79.072 80.258 80.87 79.992 76.882 72.5 71.637 71.633 71.323 71.3 71.362 71.285 71.323 71.731 71.822 71.408 71.086 73.699 77.436 78.379 78.725 78.049 77.023 70.956 70.583 70.248 70.186 70.188 70.066 70.594 69.967 69.889 70.816 73.139 72.6 71.422 71.263 70.55 67.733 67.149 67.041 66.905 66.848 67.134 66.726 66.516 66.482 66.362 66.249 66.216 68.579 71.952 73.14 71.952 68.221 65.793 65.68 65.413 64.953 65.152 64.758 64.541 64.617 64.644 65.665 65.671 65.507 67.491 70.575 71.537 70.591 67.495 65.673 65.764 65.418 64.904 64.918 64.981 64.781 70.033 68.614 66.652 65.803 64.637 64.706 62.479 62.504 62.336 62.17 62.048 61.887 63.184 63.844 61.716 61.807 61.356 63.151 63.828 66.68 67.818 67.167 65.93 61.051 60.773 60.489 60.383 60.027 59.998 60.059 61.374 61.075 61.434 62.988 65.55 66.43 65.111 60.527 61.334 61.995 60.86 60.161 61.439 62.315 62.633 63.468 62.96 61.747 60.205 59.331 59.373 60.481 59.601 59.246 60.591 59.182 59.172 59.21 61.64 59.96 58.95 59.042 58.929 58.872 58.754 58.743 58.796 59.172 58.532 58.506 58.445 58.661 58.712 58.741 58.918 62.376 64.594 65.12 64.18 60.193 58.888 59.304 60.85 61.169 61.352 60.974 59.72 61.368 61.881 60.001 59.356 59.556 64.874 60.569 59.714 59.618 59.759 60.173 59.999 60.006 60.065 60.611 61.197 60.486 60.787 60.395 60.968 61.799 60.603 60.259 60.871 61.876 60.577 60.294 60.322 61.789 60.683 60.323 60.286 60.286 61.026 60.604 62.524 63.576 61.619 61.591 62.313 61.751 63.092 64.484 61.693 60.684 59.82 60.348 59.811 60.398 61.289 60.806 60.755 59.301 59.915 59.629 60.939 60.583 60.635 59.776 59.28 60.501 59.291 59.242 59.869 58.546 58.846 58.453 58.44 59.962 58.619 58.287 59.689 61.193 59.991 58.212 59.332 60.553 58.153 58.133 58.148 58.204 59.631 58.018 58.761 57.956 57.948 61.944 63.949 63.775 60.569 58.252 57.943 58.138 57.297 57.187 57.23 57.177 57.142 57.319 58.419 58.624 61.492 64.059 63.97 62.426 57.279 57.73 58.619 58.678 58.278 58.241 56.835 56.95 62.525 57.838 56.662 57.74 60.133 56.92 60.236 64.092 56.457 56.419 56.687 57.381 56.467 56.332 56.319 56.43 56.081 58.142 58.687 55.925 55.866 55.8 55.487 55.494 59.01 64.293 65.133 65.928 67.894 67.429 64.023 61.368 55.856 54.4 54.405 57.076 64.166 69.726 68.242 62.525 61.81 59.948 53.723 51.744 51.578 51.522 51.525 51.684 51.679 51.62 51.677 51.786 51.809 51.68 51.568 51.255 51.112 51.527 52.123 52.617 53.552 55.175 54.518 60.32 59.739 52.517 51.617 50.79 50.538 50.388 50.2 50.074 49.953 50.685 51.385 50.183 49.944 49.889 54.82 55.581 55.699 53.67 49.321 49.989 49.633 48.693 48.496 48.478 48.382 48.3 48.185 48.2 49.771 49.415 47.911 47.568 47.544 47.482 47.377 47.405 47.373 46.891 46.699 48.094 52.208 52.675 51.475 46.7 46.606 47.175 46.476 46.464 46.488 46.5 46.521 48.06 46.887 46.617 46.927 46.574 46.278 46.848 47.028 46.327 46.119 50.646 51.977 52.606 51.768 47.564 45.746 44.927 44.558 44.456 47.925
71.645 71.598 71.584 71.576 71.526 71.521 71.511 71.481 71.476 71.488 71.425 71.461 76.978 78.633 76.537 75.561 72.078 74.744 75.206 79.712 80.521 80.891 80.071 80.025 72.211 71.763 72.04 71.398 71.279 71.335 71.283 71.338 71.953 71.471 71.277 71.104 73.433 77.354 78.805 78.904 78.951 77.038 71.434 71.114 71.308 71.006 72.578 71.148 70.931 71.988 70.808 71.074 72.082 73.04 72.213 71.381 69.863 67.401 67.222 67.1 66.912 66.815 66.613 66.523 66.455 66.381 66.274 66.169 66.198 70.219 71.825 71.946 71.808 67.5 65.644 65.263 65.048 64.759 64.7 64.454 64.499 64.985 64.69 64.681 65.018 64.644 65.104 70.554 71.431 70.338 66.064 64.229 63.757 63.227 63.352 63.696 63.346 66.386 67.56 68.029 67.453 66.52 65.495 62.723 62.25 62.019 61.947 61.74 61.665 61.519 61.45 61.663 61.484 61.447 61.21 63.162 65.796 67.332 67.729 66.685 63.395 61.113 60.516 60.215 60.058 60.037 60.005 60.727 61.185 60.68 60.202 63.708 65.941 66.216 62.475 60.045 63.502 62.762 59.853 59.691 59.67 59.993 64.747 68.113 65.284 62.332 60.05 59.31 59.221 59.657 59.506 60.31 59.475 59.109 59.069 59.127 62.544 60.468 59.022 59.052 58.974 59.152 58.771 58.623 58.512 58.575 58.478 58.501 58.478 58.662 58.787 58.793 61.445 63.915 65.102 64.558 61.739 58.875 58.983 59.01 59.374 60.897 59.759 59.66 60.38 59.789 62.06 59.514 59.348 64.679 68.29 67.684 65.605 59.659 60.818 60.768 59.953 59.978 59.966 61.106 62.276 60.272 60.135 60.206 60.223 60.799 59.961 59.98 60.324 61.601 60.12 60 59.907 61.436 60.952 60.885 60.44 60.103 61.346 60.899 60.283 60.272 60.221 60.22 60.654 60.247 60.297 60.911 60.145 60.888 60.599 60.775 59.479 61.181 60.012 59.399 59.267 59.298 59.767 59.248 58.899 58.937 59.343 59.461 58.813 58.718 58.876 58.868 59.154 58.149 57.986 58.029 57.995 59.366 59.005 58.111 57.628 59.208 59.561 57.901 58.325 60.798 57.824 57.806 57.846 57.926 59.334 58.114 59.225 59.701 58.606 57.939 61.747 58.464 57.912 58.824 57.835 57.657 57.223 57.117 57.13 57.148 57.078 57.271 57.322 57.785 62.414 64.277 63.631 62.258 57.23 57.073 57.333 57.539 57.552 57.806 58.311 57.162 59.875 61.24 56.71 56.647 60.477 58.75 56.524 57.65 56.486 56.453 56.436 56.736 58.499 59.473 56.341 56.659 57.553 56.081 55.987 55.86 55.875 55.811 55.66 55.409 58.146 64.592 66.689 66.587 67.726 68.411 67.992 63.603 55.245 54.957 54.959 61.468 58.687 68.162 70.705 69.824 56.427 52.076 51.661 51.531 51.46 51.563 51.695 51.611 51.644 51.702 51.827 51.697 51.603 51.457 51.21 54.246 53.117 52.769 52.841 52.948 52.529 57.256 60.776 60.555 54.431 51.028 51.141 51.071 50.592 50.994 50.351 50.259 49.905 49.908 49.885 50.269 54.129 55.384 56.454 57.089 56.45 53.984 50.847 50.698 48.992 48.688 48.637 48.537 48.495 48.382 48.201 48.126 48.753 49.81 48.405 47.592 47.545 47.45 47.366 47.409 47.356 47.226 47.101 46.904 47.527 48.155 47.425 46.602 46.468 46.595 46.386 46.383 46.466 47.305 46.846 46.443 46.335 46.337 46.235 46.178 46.134 46.348 46.456 47.2 46.198 46.261 51.762 53.204 52.511 51.158 47.159 46.445 47.291 51.955 49.576
71.644 71.613 71.586 71.538 71.508 71.479 71.464 71.468 71.453 71.437 71.416 72.211 73.52 73.519 73.751 73.792 71.52 71.648 72.359 77.489 81.624 80.997 81.044 78.899 72.894 71.954 72.227 71.396 71.302 71.292 71.288 71.273 71.806 71.363 71.483 71.174 74.432 77.37 78.6 78.896 78.034 75.924 71.227 70.786 70.318 70.457 70.724 70.432 72.634 74.946 71.483 70.761 72.743 72.648 71.592 71.374 70.386 67.245 67.224 67.086 66.884 66.808 66.716 66.589 67.493 66.843 67.506 67.545 66.547 69.3 67.437 67.414 67.376 67.338 65.416 65.06 64.655 64.588 64.423 64.415 64.449 65.071 64.804 64.875 64.79 64.601 67.192 70.411 71.573 70.554 66.924 64.427 63.507 63.493 63.362 63.673 63.387 64.565 65.455 66.35 67.169 66.625 66.17 65.362 64.413 62.54 61.852 61.659 61.551 61.468 61.393 61.279 61.288 61.464 61.603 63.082 66.406 67.407 67.476 66.231 60.916 61.04 60.714 60.759 59.994 59.981 60.002 60.769 60.392 60.134 62.563 64.849 66.295 65.858 62.471 61.44 63.216 62.97 60.077 59.676 59.681 59.767 64.798 68.096 64.973 60.647 60.261 60.035 60.043 59.28 59.24 59.559 60.36 60.144 59.055 61.734 64.258 65.07 64.452 62.897 58.968 58.937 58.89 58.91 58.515 58.489 58.474 58.46 58.578 59.027 58.764 58.897 62.408 64.781 65.27 63.9 59.53 59.258 60.038 59.09 58.999 59.271 59.086 59.151 59.287 60.403 59.552 60.432 60.252 67.958 68.84 68.549 67.138 61.517 60.569 61.81 61.463 62.358 59.967 61.125 61.12 60.245 59.915 59.964 60.625 60.509 59.634 59.708 59.784 60.836 59.684 59.672 59.566 61.025 59.659 59.576 59.773 59.664 60.577 60.358 60.171 60.074 60.131 60.088 60.17 59.848 59.508 59.865 59.882 62.972 62.37 60.296 59.632 61.843 61.699 58.906 58.926 59.197 59.212 58.623 58.404 58.386 58.534 58.799 58.137 58.434 58.135 58.263 58.275 57.695 57.549 57.465 57.323 58.31 57.79 57.272 57.211 58.768 58.144 57.263 57.898 60.573 57.749 57.803 57.778 57.855 59.054 58.341 58.691 58.761 58.576 58.314 58.258 57.744 57.592 57.637 57.438 57.223 57.102 57.139 57.157 57.106 57.127 57.259 57.397 59.737 62.838 64.572 63.611 61.233 57.178 57.073 57.039 57.014 57.006 57.212 57.347 58.319 56.901 57.528 58.016 56.703 58.99 57.914 56.493 56.463 57.311 56.46 56.4 56.7 63.092 65.488 57.918 56.244 57.483 56.035 56 55.939 55.791 55.718 55.744 55.323 57.164 63.694 66.582 69.504 69.416 67.583 67.59 63.828 55.447 57.555 56.05 58.511 59.814 67.394 69.648 67.326 51.804 51.624 51.512 51.403 51.625 51.681 51.601 51.617 51.756 51.728 51.642 51.622 51.263 51.151 53.741 56.192 55.165 53.25 53.381 53.507 57.831 59.003 58.062 52.393 50.999 50.897 50.819 50.653 50.536 50.404 50.565 50.857 49.887 49.78 53.307 55.33 56.1 56.81 57.059 57.753 55.879 54.945 50.255 49.407 49.867 49.275 48.767 48.552 48.475 48.356 48.298 48.645 49.405 49.992 49.134 47.612 47.495 47.402 47.359 47.418 47.38 47.32 47.206 48.01 48.205 47.656 47.266 47.109 47.253 46.734 46.238 46.084 46.414 46.283 46.216 46.084 46.042 46.039 46.037 46.024 46.075 46.213 46.115 47.137 46.935 46.792 51.628 52.798 52.436 51.135 46.869 45.949 51.158 51.68 51.377
71.597 71.572 71.542 71.539 71.49 71.47 71.445 71.449 71.453 71.428 71.403 71.373 71.342 71.352 71.637 71.74 71.388 72.049 73.569 79.036 80.532 81.02 80.167 77.306 72.754 71.658 71.915 71.394 71.275 71.291 71.252 71.224 71.936 71.212 71.176 71.177 72.169 77.255 78.16 78.154 77.892 75.375 70.881 70.685 70.157 70.052 69.913 70.22 69.908 69.553 69.383 70.04 72.902 72.8 69.385 72.288 71.41 67.291 67.068 66.919 66.834 66.804 66.651 66.605 68.404 68.659 68.892 68.113 66.593 66.081 66.052 66.002 65.889 66.104 66.435 66.278 66.118 65.024 64.352 64.39 64.458 64.577 64.837 65.672 65.413 65.407 68.344 70.661 72.572 70.466 67.201 66.248 65.64 65.327 64.401 63.433 64.03 63.706 63.543 63.175 64.415 66.884 65.834 65.575 65.498 64.606 63.34 62.779 61.827 61.412 61.306 61.246 61.27 61.189 61.06 64.286 66.849 68.1 66.993 65.664 61.183 60.499 61.389 60.06 59.994 59.983 60.07 61.135 60.101 60.361 61.125 65.659 66.343 65.289 61.532 61.098 61.794 61.598 61.199 61.909 62.937 63.293 67.573 66.448 62.19 59.996 59.2 59.508 59.814 60.142 59.223 59.205 59.177 59.703 59.574 63.509 65.055 65.661 64.654 63.742 59.27 59.051 58.827 58.665 58.502 58.42 58.437 58.506 58.919 58.659 59.403 61.512 63.842 65.133 64.582 61.287 59.195 58.982 58.909 59.154 60.084 59.994 59.228 59.176 59.21 59.508 59.354 62.113 63.488 64.485 67.888 69.023 65.597 60.414 62.187 61.707 60.829 61.318 61.684 61.232 60.964 59.945 59.751 59.816 60.529 59.812 59.563 59.936 59.794 59.882 59.451 59.504 59.494 60.137 59.429 59.513 59.551 59.495 60.118 59.407 59.344 59.25 59.208 59.213 59.135 58.714 58.619 62.452 71.195 71.341 64.189 59.797 62.364 67.578 69.861 66.27 58.624 58.271 58.854 58.027 57.804 57.76 57.984 58.047 57.554 57.491 57.37 57.427 57.639 57.345 57.196 57.161 57.029 57.955 57.541 57.159 57.088 58.213 57.195 57.111 57.237 62.087 61.895 60.948 58.438 57.931 58.568 57.373 57.319 57.259 57.201 58.253 57.97 58.541 57.771 57.444 57.622 57.122 57.008 57.064 57.082 57.106 57.148 57.289 57.34 58.851 63.199 65.328 63.139 59.368 58.551 57.529 57.066 57.038 57.094 57.228 57.285 58.045 58.873 58.512 58.533 56.962 58.66 58.259 57.003 58.151 57.054 56.436 56.393 56.34 58.769 61.573 57.112 56.145 56.45 56.373 55.959 57.312 56.225 55.657 55.519 55.651 60.209 66.288 67.84 69.107 69.318 68.108 67.739 64.559 57.464 60.345 61.375 54.887 56.917 56.465 56.676 55.546 51.478 51.479 51.525 51.616 51.675 51.572 51.682 51.783 51.666 51.653 51.419 51.155 51.01 51.244 52.115 56.205 53.657 53.726 53.489 57.362 59.832 59.172 58.695 51.275 50.962 50.832 50.7 50.569 50.418 50.07 49.877 51.604 53.262 55.338 56.079 56.951 57.34 56.64 55.75 55.142 51.822 50.74 49.434 49.847 48.821 53.021 53.588 49.609 48.561 48.535 49.396 49.949 50.445 50.804 49.559 48.578 47.901 48.604 48.61 48.621 48.633 49.461 49.436 47.343 50.588 48.626 47.193 47.264 47.299 47.397 46.241 46.106 46.095 46.084 46.081 46.005 45.997 45.994 46.021 46.009 46.121 46.212 47.557 46.912 46.386 46.22 50.768 52.372 52.501 51.644 47.391 45.855 48.261 51.031 48.822
71.567 71.533 71.505 71.531 71.481 71.436 71.436 71.43 71.433 71.412 71.419 71.379 71.335 71.46 71.487 71.527 71.358 72.836 75.125 77.802 79.796 81.029 80.161 79.554 72.958 71.688 72.077 71.299 71.19 71.233 71.21 71.157 71.193 71.678 72.864 72.884 72.719 76.894 76.996 76.877 77.034 76.696 73.023 70.825 70.164 70.084 69.884 69.79 69.684 69.521 69.423 70.003 73.005 72.936 71.229 72.209 70.962 70.967 69.641 69.05 68.755 68.833 68.396 68.516 69.469 69.331 69.12 68.888 68.124 67.882 67.048 66.148 65.791 68.318 65.542 65.296 64.873 65.084 64.416 64.346 64.415 64.402 65.386 64.672 64.437 64.769 67.951 70.377 71.285 70.714 67.19 63.972 63.49 63.268 63.122 62.994 63.624 62.909 62.858 62.822 64.88 66.722 65.566 64.922 63.228 62.487 62.367 61.991 61.883 62.539 61.565 61.222 61.14 61.058 61.002 64.7 67.131 67.554 66.56 63.523 60.685 60.925 60.754 60.031 59.962 59.972 60.05 60.369 60.606 60.242 64.138 66.065 66.019 64.911 60.068 59.887 59.817 59.827 60.086 61.59 63.898 65.321 64.622 64.062 66.15 63.973 60.192 59.506 59.165 60.223 60.197 59.238 59.169 59.051 61.547 64.616 65.615 65.605 64.078 59.887 58.959 58.7 59.562 58.961 58.479 58.473 58.467 58.618 58.749 58.777 59.137 62.749 64.479 64.76 61.321 59.341 58.838 58.809 59.007 58.884 59.133 60.395 59.766 59.359 59.27 59.37 59.767 60.147 62.759 62.812 64.798 64.721 62.549 61.891 62.779 62.275 62.295 62.264 62.319 61.1 60.339 59.649 61.595 59.958 59.639 61.265 60.647 60.017 60.624 59.873 59.302 59.421 59.355 61.082 59.419 59.359 59.394 59.495 59.851 59.305 59.217 59.171 59.113 59.201 60.062 58.711 58.466 61.613 68.168 70.013 71.684 58.649 70.138 70.136 70.749 70.167 69.225 57.946 57.819 57.622 57.388 57.438 57.469 57.653 57.227 57.161 57.061 57.102 57.399 57.074 57.013 57.002 56.988 57.681 57.814 57.372 57.969 58.523 57.154 57.146 57.925 62.415 64.027 62.247 59.513 58.598 57.853 57.592 57.396 58.173 59.676 58.288 57.27 57.543 58.715 57.452 57.452 57.127 56.928 57.08 57.078 56.99 57.158 57.67 58.36 60.853 63.611 64.467 62.879 58.859 57.565 57.447 58.008 58.439 58.907 58.927 58.965 57.747 57.586 58.629 57.658 57.891 58.608 60.632 59.978 59.751 58.586 57.559 58.383 56.888 56.229 56.484 56.427 56.164 56.065 57.231 56.178 57.417 56.108 55.623 55.54 58.334 58.174 64.351 67.302 67.945 67.985 62.052 65.976 63.468 62.322 59.488 54.646 53.222 52.594 52.101 51.475 51.386 51.409 51.578 51.626 51.547 51.566 51.648 51.746 51.596 51.58 51.463 51.276 50.952 52.705 55.185 56.188 56.434 53.63 53.623 53.556 54.888 58.682 55.046 52.046 50.976 50.919 50.717 50.568 50.404 50.211 49.821 50.645 55.076 55.89 56.689 57.239 56.583 55.811 55.281 51.841 51.258 49.559 49.373 48.98 52.955 54.496 54.813 54.432 52.64 49.002 50.375 49.14 48.667 48.586 49.701 50.876 50.011 47.57 49.324 47.683 47.356 48.002 49.679 50.261 52.437 52.636 52.005 47.272 47.452 47.75 46.333 46.214 46.08 46.07 46.068 46.084 45.998 45.993 46.024 45.998 46.011 47.131 46.526 47.188 46.47 46.226 46.346 50.18 51.738 51.352 51.089 47.661 46.666 47.656 47.012 45.996
71.513 71.502 71.491 71.469 71.471 71.439 71.42 71.418 71.405 71.411 71.377 71.346 71.327 72.551 74.219 72.125 71.329 73.661 75.09 79.14 79.826 80.978 80.239 79.109 73.5 71.577 71.807 71.284 71.192 71.242 71.215 71.16 71.811 71.732 71.73 71.109 70.997 71.632 71.029 71.579 71.622 71.437 70.97 70.538 70.282 71.204 71.03 70.649 70.631 69.631 70.297 71.925 72.68 72.378 71.887 71.616 70.888 70.971 70.76 70.343 69.66 67.491 67.195 66.958 66.354 66.253 66.191 66.062 66.259 66.245 68.057 70.624 71.366 70.816 65.922 65.128 64.769 64.485 64.316 64.298 64.348 64.337 64.433 64.907 64.412 64.622 68.127 70.272 70.476 70.538 66.814 63.95 63.711 63.218 63.065 63.133 64.694 62.961 64 64.147 65.422 67.396 66.582 65.722 64.389 61.928 61.656 61.477 61.365 61.497 61.497 62.602 62.255 61.237 61.707 65.013 66.143 66.535 65.943 61.38 60.544 60.463 61.156 60.026 59.988 59.999 60.374 60.034 60.257 60.61 65.282 66.433 65.693 63.952 60.209 59.848 59.84 59.837 59.766 59.671 60.368 59.861 62.442 62.311 63.774 62.776 60.133 61.174 59.767 59.115 59.905 60.518 60.217 58.96 63.51 64.977 65.688 64.763 63.398 59.518 58.649 58.648 58.845 58.468 58.423 58.41 58.462 58.711 58.755 58.826 59.732 63.738 65.51 64.255 61.179 59.062 58.845 58.716 58.799 59.18 59.193 59.744 59.157 59.888 59.863 59.512 60.133 60.681 62.188 62.824 63.639 63.545 63.456 63.265 62.785 62.37 62.193 62.384 62.291 62.319 63.231 63.197 65.75 64.905 62.366 62.184 62.4 62.07 61.677 62.06 59.452 60.464 59.492 60.24 59.582 59.301 61.245 61.361 59.644 60.807 59.174 59.628 59.477 59.311 59.528 58.58 58.44 62.91 64.919 64.859 69.321 68.078 68.242 69.678 71.382 70.863 69.42 58.001 57.859 57.48 57.262 57.243 57.368 57.441 57.051 57.004 57.01 56.939 57.18 56.942 56.979 56.949 56.935 57.87 58.318 58.04 58.488 58.876 57.309 57.178 60.334 62.383 62.757 61.081 57.561 57.8 57.512 58.833 59.089 58.196 62.496 62.249 60.502 57.175 57.097 57.141 57.14 57.013 57.011 56.976 56.968 56.992 57.176 57.458 57.627 61.142 63.865 64.124 61.453 57.231 57.118 57.028 56.954 56.927 58.193 56.913 57.144 58.128 58.366 58.334 58.417 57.995 57.997 59.812 60.85 61.618 57.76 56.463 57.682 58.18 56.767 56.201 56.411 57.387 57.59 56.26 57.15 61.574 63.965 63.885 63.767 58.921 65.782 65.27 61.712 65.628 64.599 57.446 57.316 57.227 55.866 53.946 53.243 52.496 51.983 51.436 51.409 51.39 51.658 51.601 51.544 51.617 51.744 51.76 51.608 51.571 51.428 54.93 57.851 51.688 52.857 57.676 58.871 58.542 56.592 51.895 52.239 51.606 52.012 52.146 51.036 50.892 50.814 50.575 50.388 50.27 50.157 49.901 49.74 53.969 56.17 56.825 56.522 55.27 51.97 50.871 49.413 49.116 49.443 49.17 48.994 52.326 54.608 55.561 55.047 53.953 49.381 48.789 48.382 48.077 48.73 50.197 50.506 49.061 47.553 47.577 47.44 47.373 47.332 49.515 50.241 52.428 53.717 52.093 47.217 47.262 46.835 46.335 46.171 46.151 46.025 46.014 46.031 45.992 45.951 45.998 46.02 45.99 46.005 46.145 46.364 46.05 46.053 46.076 46.961 46.755 45.96 46.707 46.879 45.553 45.699 45.623 44.948
71.508 71.442 71.446 71.454 71.479 71.431 71.428 71.413 71.402 71.414 71.395 71.342 71.383 72.592 75.051 71.757 71.263 73.621 74.9 78.095 79.707 80.825 80.656 79.798 75.391 72.442 71.605 71.255 71.158 71.212 71.166 71.121 71.444 72.191 72.531 72.734 72.032 72.517 71.983 71.343 71.332 71.329 71.102 72.543 73.134 73.125 73.074 71.421 70.153 70.029 69.536 69.564 70.082 68.745 69.009 67.896 67.821 67.775 68.169 66.959 66.809 66.843 66.81 66.591 66.436 66.317 66.137 66.034 65.774 65.672 65.815 70.94 71.903 71.207 66.926 65.092 64.712 64.527 64.355 64.215 64.283 64.282 64.378 64.757 64.362 64.442 65.143 68.296 69.417 69.319 65.635 63.877 63.425 63.169 63.113 64.108 64.025 64.03 63.242 64.53 65.252 67.088 67.577 67.715 65.47 63.526 61.709 61.453 61.327 61.24 61.054 60.945 60.882 61.043 61.291 61.179 61.761 62.299 62.414 61.151 60.555 60.633 60.208 59.958 59.986 60.058 60.789 60.616 60.067 62.716 65.72 66.298 65.174 61.354 60.254 59.869 59.854 59.778 59.741 59.587 59.486 59.676 61.717 60.274 61.949 62.889 59.662 63.351 60.429 59.084 59.062 59.831 59.322 61.479 64.593 65.584 65.199 64.015 59.3 58.963 59.825 58.868 58.484 58.424 58.395 58.417 58.744 59.362 60.849 60.983 62.669 64.995 65.215 63.953 59.349 59.124 58.977 58.71 58.748 58.779 58.893 58.927 59.362 60.568 59.214 60.108 60.794 59.658 59.562 59.109 60.002 59.548 60.542 60.608 60.276 60.632 60.452 61.084 61.531 61.187 63.777 64.129 64.801 64.286 64.373 63.589 62.966 61.995 62.156 63.781 64.26 64.355 64.554 62.023 59.887 59.575 61.428 61.248 60.003 60.08 59.399 60.126 59.513 60.161 59.098 58.421 58.751 61.479 68.322 68.386 62.484 66.492 69.913 70.706 71.192 71.225 69.689 60.762 58.078 59.345 59.095 57.318 59.32 57.872 57.01 56.95 56.926 56.927 57.305 57.755 57.674 57.411 57.195 57.419 58.44 58.548 58.418 59.426 59.135 58.195 59.255 59.353 62.805 59.735 59.074 57.343 57.19 57.112 59.558 62.043 63.587 63.288 62.772 61.941 57.042 57.103 57.08 56.949 56.982 57.004 56.971 56.982 57.239 57.475 57.237 61.252 63.847 63.725 59.826 57.19 57.085 57 56.921 56.857 57.335 56.94 57.012 56.777 57.125 56.63 56.574 57.051 60.474 60.998 61.012 62.925 57.623 56.395 56.424 56.659 56.222 56.228 56.224 57.275 58.102 56.375 59.903 62.158 67.141 68.057 66.876 66.516 59.682 64.623 61.514 59.881 66.048 62.872 57.918 56.807 54.484 53.017 52.212 51.495 51.433 51.35 51.519 51.58 51.518 51.548 51.632 51.721 51.61 51.497 51.55 52.554 59.093 61.285 61.41 53.074 54.391 59.266 59.586 54.019 57.276 53.905 51.609 51.826 51.784 51.867 51.909 51.621 50.902 50.39 50.362 50.304 50.216 50.105 50.908 50.976 55.39 55.115 54.435 49.968 49.316 50.1 49.503 49.033 48.966 48.933 48.887 48.806 53.133 55.913 55.499 54.531 49.498 48.272 48.126 49.434 49.478 49.002 49.132 49.494 48.977 49.71 47.914 47.364 47.245 48.878 49.797 52.141 53.2 52.585 48.592 46.994 46.668 47.077 46.215 46.157 45.981 45.957 45.984 45.975 45.976 45.946 46 46.083 46.134 46.484 46.056 46.205 47.034 46.703 46.366 47.107 46.869 47.208 48.504 46.737 45.361 46.267 45.856
71.472 71.439 71.408 71.413 71.407 71.38 71.413 71.385 71.356 71.385 71.357 71.311 71.285 71.397 71.709 71.799 71.257 71.425 72.118 77.305 79.808 80.977 81.567 79.256 74.865 72.088 71.716 71.356 71.169 71.159 71.13 71.206 73.029 71.255 72.208 71.938 72.372 77.439 77.526 77.354 77.312 77.012 73.526 71.782 73.123 73.018 73.031 71.265 70.052 69.798 69.537 69.514 69.475 68.423 68.147 67.837 67.878 67.808 67.576 67.084 66.827 66.711 66.777 66.584 66.418 66.326 66.169 66.001 65.873 66.372 67.148 70.68 71.896 71.379 69.455 65.224 64.872 64.874 64.278 64.844 64.22 64.151 64.29 65.731 64.343 64.524 65.9 64.438 64.242 64.211 65.392 65.239 64.423 63.493 63.799 63.515 62.863 63.554 64.797 66.849 65.679 66.91 67.82 68.47 65.654 63.322 62.298 62.212 61.354 61.22 61.094 61.069 61.235 60.938 64.935 62.125 60.764 61.067 60.961 60.953 60.761 60.728 60.02 59.964 59.936 60.248 60.488 60.304 60.117 63.765 66.205 65.912 62.439 59.956 60.479 60.032 60.907 60.61 59.658 59.618 59.544 61.396 62.984 63.336 62.286 60.813 59.028 59.845 59.877 61.848 59.812 58.917 59.026 63.731 65.247 65.619 64.769 61.3 58.858 58.645 58.61 59.263 58.437 58.442 58.361 58.456 58.597 59.525 59.748 62.19 64.55 65.023 64.553 60.275 58.831 58.771 58.593 58.635 58.983 59.604 59.182 59.031 59.007 59.099 59.304 60.178 60.883 61.29 60.855 59.423 58.981 59.109 59.202 59.351 59.54 59.677 59.686 59.633 59.744 59.74 63.09 60.604 62.245 63.27 63.749 63.484 62.673 62.762 63.257 64.189 64.223 64.557 64.827 64.65 63.762 62.757 63.134 63.547 63.895 62.114 61.517 61.303 63.401 62.089 62.709 60.418 59.287 59.812 61.91 59.946 58.848 64.792 67.468 70.193 70.975 70.443 68.121 65.898 61.119 61.449 61.425 61.568 61.326 61.769 57.763 57.051 57.057 57.002 60.42 60.832 59.117 58.516 57.53 59.651 58.847 57.987 57.776 59.316 58.842 59.363 59.058 57.467 57.667 57.784 58.723 57.274 57.127 57.102 59.846 63 64.973 64.029 62.362 58.481 56.989 56.973 57.004 56.868 56.964 56.951 56.925 56.952 57.537 57.232 57.215 61.965 64.202 63.956 62.222 58.323 58.236 57.963 57.902 57.877 57.407 56.905 56.912 56.802 56.763 56.566 56.691 56.663 60.684 62.112 57.488 61.688 57.22 56.602 56.375 56.395 56.64 56.158 56.245 56.123 56.715 56.235 60.241 63.954 66.918 67.756 67.395 66.753 61.569 64.906 60.935 58.334 64.596 64.26 58.51 57.888 52.855 52.163 51.455 51.371 51.302 51.476 51.53 51.454 51.539 51.65 51.666 51.492 51.525 51.274 51.13 53.196 61.228 61.747 61.697 60.233 53.993 58.656 60.195 59.511 58.505 55.503 52.342 51.824 51.376 51.177 51.922 52.172 51.354 50.459 51.753 51.968 51.842 50.641 50.043 50.282 54.293 51.824 49.454 49.564 49.138 49.07 48.953 48.928 48.916 48.846 48.952 49.527 49.867 54.225 54.639 54.168 52.603 48.3 48.174 49.424 48.073 47.647 47.603 49.583 49.498 49.572 49.099 48.239 47.616 48.966 49.699 51.288 53.061 52.765 48.452 47.204 46.831 47.594 47.496 46.513 46.101 46.036 45.999 45.977 45.98 46.003 46.062 46.088 47.097 47.883 46.141 46.091 46.085 46.153 47.525 48.162 46.005 48.091 50.327 49.702 46.193 45.56 46.418
71.404 71.405 71.356 71.397 71.361 71.372 71.338 71.358 71.314 71.313 71.284 71.297 71.3 71.299 71.329 71.543 71.25 71.559 71.723 77.196 79.497 80.766 80.671 79.912 75.591 71.691 71.63 71.469 71.146 71.151 71.194 71.233 72.447 71.921 73.418 73.056 73.654 77.511 78.506 78.631 78.372 76.959 73.404 71.727 70.862 71.004 72.423 72.358 69.744 69.634 69.679 69.471 69.67 68.89 68.2 67.714 67.848 67.729 67.254 66.922 66.809 66.594 66.571 66.426 66.422 66.311 66.159 66.262 67.171 66.998 65.585 69.1 71.57 71.765 70.583 66.167 65.252 64.889 64.357 65.117 64.394 64.107 64.105 64.27 64.251 64.978 65.986 64.722 64.234 65.017 64.059 63.748 63.202 63.04 62.979 65.98 65.544 65.492 68.099 68.907 66.36 65.998 66.482 65.715 63.33 62.682 61.526 61.734 62.027 62.281 61.211 61.059 60.922 61.17 66.245 66.511 66.237 65.873 62.19 61.536 60.972 60.343 59.985 60.012 59.914 59.994 60.048 60.33 62.499 64.894 65.831 65.687 61.515 59.918 60.279 59.766 59.757 59.736 60.017 60.12 60.711 61.172 62.738 63.123 62.704 59.614 59.423 58.958 58.937 58.93 59.15 59.134 62.985 64.78 65.805 65.006 64.049 59.315 58.99 58.892 58.519 58.686 58.347 58.318 58.383 58.741 59.705 59.474 58.885 62.468 64.844 64.999 63.844 60.191 58.912 58.577 58.703 58.534 58.634 58.9 59.008 59.581 59.725 59.04 60.09 60.143 60.583 61.332 60.119 60.636 59.354 59.034 59.216 59.301 59.259 59.309 59.281 59.4 59.463 59.376 59.358 59.328 59.28 59.314 59.855 61.619 59.927 59.805 60.378 62.542 63.607 63.98 64.329 64.513 62.979 63.098 63.162 63.467 63.629 63.97 60.699 63.266 66.092 64.954 64.907 63.362 64.401 61.385 59.293 59.798 62.982 60.443 64.77 68.611 69.347 68.068 66.662 64.307 62.928 62.598 62.03 61.926 62.345 62.637 62.911 62.56 59.014 63.501 61.343 59.831 59.373 59.029 59.149 60.678 60.819 60.599 60.514 59.467 58.495 57.801 59.055 57.91 58.193 57.66 57.505 58.286 57.957 57.776 61.874 63.354 63.94 62.898 59.442 57.55 57.04 57.142 56.865 56.898 56.918 56.895 56.882 57.067 57.156 57.162 57.764 63.246 64.068 63.535 59.649 57.192 57.34 57.229 57.021 56.917 57.026 57.16 57.111 57.772 57.597 57.489 57.405 57.696 60.092 60.993 60.959 57.548 56.289 57.121 57.086 56.343 57.277 56.461 56.033 55.954 56.816 55.799 55.642 56.482 62.211 66.132 61.42 62.344 58.53 58.631 56.706 57.065 62.081 60.167 57.78 56.647 51.529 51.403 51.309 51.299 51.524 51.533 51.447 51.569 51.661 51.609 51.459 51.303 51.133 50.942 51.06 57.309 61.087 61.928 61.948 59.011 54.105 51.975 55.043 59.192 56.614 56.82 51.45 51.347 51.155 51 51.528 52.107 50.66 50.674 52.285 52.369 52.384 52.335 51.053 52.249 49.664 49.493 49.358 49.244 48.951 48.951 48.919 48.901 48.857 48.772 48.815 49.741 49.909 53.147 52.623 49.907 48.852 47.998 47.75 48.057 47.897 47.69 47.649 48.002 49.326 49.524 49.503 48.339 48.38 47.66 48.622 49.707 52.482 53.16 52.276 48.039 47.475 47.141 47.009 46.768 47.301 46.097 46.025 45.936 45.952 45.974 46.044 46.061 47.614 46.162 46.317 46.598 47.367 47.191 46.117 46.034 47.728 50.023 51.738 51.031 50.13 45.276 46.027
71.396 71.357 71.357 71.34 71.344 71.327 71.295 71.29 71.305 71.3 71.273 71.267 71.259 71.278 71.345 71.706 71.234 73.305 74.862 77.63 79.631 80.701 80.537 79.506 75.745 71.527 72.39 71.214 71.104 71.101 71.139 71.111 71.647 71.79 72.695 71.959 75.216 77.651 78.836 79.099 78.118 77.094 73.406 72.886 70.869 70.583 72.131 72.912 69.84 69.608 70.635 70.255 69.305 68.736 68.676 67.758 67.722 67.893 67.409 67.052 66.715 66.806 66.58 66.498 66.459 67.585 67.817 67.494 66.371 65.695 65.447 69.089 71.446 71.797 70.779 66.056 64.793 64.549 64.288 64.305 64.169 64.037 63.996 64.465 64.3 65.287 64.494 64.301 63.749 63.814 66.288 64.17 63.309 63.938 64.738 68.245 68.247 65.484 65.098 63.634 63.599 63.237 65.673 65.433 63.498 62.504 61.432 61.891 61.297 61.287 61.988 62.558 62.459 64.687 66.658 67.471 66.707 63.199 60.583 60.446 60.151 60.255 60.283 59.948 59.92 59.981 59.953 60.159 59.991 61.423 63.714 64.907 60.591 59.972 60.409 59.816 59.764 59.748 59.751 59.739 60.182 59.791 59.654 61.208 61.689 61.25 61.314 60.646 58.961 58.903 58.947 59.943 64.503 66.583 65.388 64.199 59.334 58.622 58.709 58.525 58.457 58.408 58.321 58.37 59.123 59.621 59.785 60.086 61.355 64.047 65.034 64.225 59.498 59.193 58.904 59.161 58.512 58.775 59.116 58.939 58.93 60.663 59.902 59.38 60.401 59.107 60.319 59.776 59.391 59.298 60.435 58.885 58.94 60.734 61.309 59.473 59.334 59.284 59.134 59.154 59.262 59.299 59.263 59.199 59.14 59.585 59.078 59.011 58.985 58.9 59.756 59.78 59.835 58.86 59.452 59.513 59.517 58.855 61.416 63.44 60.098 60.727 64.198 63.405 64.061 63.549 64.883 65.779 62.845 59.062 63.866 59.615 58.398 64.991 66.059 65.308 63.256 62.492 61.789 61.595 61.133 61.208 61.197 62.845 60.022 59.058 59.418 58.96 58.52 60.789 58.916 59.036 59.203 60.815 61.01 61.967 63.352 60.64 57.843 57.279 57.519 58.502 58.32 57.54 58.245 57.536 57.774 61.602 62.689 63.887 63.318 62.089 57.963 57.255 57.519 56.939 56.819 56.853 56.918 56.885 56.982 57.501 57.405 57.83 58.149 62.396 63.774 62.722 58.678 57.265 57.197 57.148 56.944 56.855 56.802 56.761 56.725 56.647 56.624 56.834 57.513 58.384 56.718 57.065 56.827 57.528 56.305 56.252 57.021 56.219 56.422 57.016 56.013 55.92 55.849 56.001 55.623 55.513 55.673 60.297 57.604 55.872 55.536 55.488 55.38 59.039 58.815 58.422 56.104 52.797 51.318 51.278 51.364 51.483 51.458 51.463 51.586 51.668 51.503 51.444 51.287 51.058 50.965 50.99 51.381 52.437 54.499 56.134 57.222 51.876 51.888 51.58 54.174 58.401 57.056 53.759 51.354 51.196 51.032 50.935 50.907 52.353 51.754 51.195 50.913 53.872 55.622 56.149 57.706 56.625 51.133 50.401 50.064 49.75 48.912 48.951 48.881 48.856 48.78 48.756 49.234 48.901 48.851 49.222 48.86 50.45 50.541 49.096 47.844 47.801 47.782 47.823 48.592 48.848 49.544 49.31 48.926 47.978 47.76 47.401 47.904 49.274 52.294 53.3 52.368 48.366 46.966 47.014 46.93 46.84 46.962 47.382 46.408 45.917 45.911 45.871 45.935 47.017 46.745 46.13 46.573 46.975 47.239 46.012 45.318 45.293 48.81 51.228 52.569 52.295 51.455 50.57 45.894
71.33 71.304 71.313 71.316 71.309 71.267 71.285 71.258 71.266 71.277 71.226 71.186 71.201 71.22 71.258 71.23 71.177 72.988 74.921 77.246 79.394 80.46 80.509 79.416 77.645 71.965 72.49 71.181 71.168 71.134 71.13 71.174 71.672 71.497 71.481 71.275 75.348 78.07 78.849 79.277 78.719 75.857 73.976 72.963 72.506 72.215 71.542 71.939 71.521 71.397 71.046 71.341 68.918 68.733 68.351 67.978 68.113 67.792 67.2 68.009 67.979 68.104 67.856 68.128 66.938 66.49 65.994 65.737 65.593 65.484 65.388 65.991 71.19 71.926 70.852 66.769 65.107 65.088 64.476 64.011 63.958 63.988 63.971 64.086 63.885 64.041 64.765 63.919 66.445 69.209 69.354 65.995 63.336 63.182 64.96 67.069 67.816 64.227 62.849 62.735 63.232 63.927 65.048 65.327 64.432 62.097 61.517 61.43 61.216 61.521 61.104 60.984 60.955 64.98 67.093 67.559 66.243 62.153 60.57 60.448 60.827 61.217 60.141 59.907 59.974 60.092 59.92 59.908 60.021 59.959 59.935 59.938 59.933 60.293 60.107 60.394 60.924 59.843 59.761 59.907 60.699 59.821 59.116 59.21 59.467 61.102 61.401 61.335 61.303 58.918 58.857 60.936 64.95 66.586 64.945 63.969 58.761 58.586 58.494 58.44 58.39 58.388 58.375 58.401 58.962 58.751 59.284 59.062 63.265 65.19 65.695 61.341 58.841 58.83 59.277 59.465 58.511 58.585 58.557 58.773 58.958 61.012 61.014 60.575 59.532 59.069 58.954 58.936 58.86 58.833 59.152 60.342 58.888 62.081 62.989 62.773 62.169 60.565 59.31 59.22 59.122 59.1 59.148 59.11 59.094 59.048 58.992 58.946 58.894 58.777 58.699 58.62 58.551 58.556 58.497 58.486 58.407 58.352 58.355 58.255 58.241 58.728 58.683 58.093 58.79 59.296 60.979 64.722 63.859 60.934 59.119 58.605 57.577 57.452 57.942 59.511 57.89 57.558 58.207 57.558 59.706 60.009 58.262 58.37 63.666 64.372 63.598 62.63 61.828 60.681 58.619 59.088 58.832 59.84 60.939 61.952 63.038 58.215 57.505 58.094 57.258 57.139 57.163 58.79 59.122 58.101 59.641 62.571 63.45 63.935 63.06 61.837 57.666 57.188 57.109 56.823 56.84 56.844 56.816 56.832 56.972 57.058 57.324 57.226 58.446 57.693 58.558 58.505 57.165 57.267 57.213 57.094 56.958 56.9 56.783 56.767 56.711 56.647 56.59 56.538 57.956 58.502 56.629 56.37 56.319 56.662 57.348 56.257 56.44 56.476 56.133 56.066 56.691 55.954 55.834 55.781 55.869 56.767 55.431 55.384 55.366 57.648 58.35 57.668 56.957 55.796 58.488 56.845 51.83 51.704 51.255 51.423 51.499 51.419 51.465 51.51 51.63 51.44 51.441 51.157 51.05 51.066 51.162 51.711 53.579 53.615 54.311 54.549 52.721 51.718 51.595 51.679 54.963 57.789 53.5 51.501 51.215 51.077 51.02 50.892 52.118 51.978 54.224 51.243 50.528 54.547 57.001 57.405 57.022 53.206 50.25 49.195 49.399 49.393 49.493 48.913 48.881 48.826 48.775 48.695 49.705 48.787 49.463 49.4 50.456 52.369 53.349 53.318 49.254 48.115 48.757 48.301 47.764 48.379 49.492 48.75 47.742 47.36 47.476 47.189 47.085 47.59 51.999 53.078 52.548 48.398 47.061 47.099 46.993 46.996 47.05 47.056 47.447 46.253 45.894 45.817 46.197 47.528 47.043 47.072 47.144 46.374 45.564 45.495 45.46 45.256 46.246 49.262 51.321 52.675 52.589 51.463 50.64
71.298 71.272 71.281 71.288 71.261 71.231 71.206 71.248 71.248 71.21 71.236 71.196 71.133 71.203 71.276 71.242 71.247 71.258 74.657 77.482 79.541 80.67 80.609 80.341 77.515 71.592 72.461 71.141 71.091 71.097 71.097 71.123 72.035 71.193 71.232 71.372 76.143 77.92 78.733 78.831 78.03 77.04 74.088 71.713 70.84 70.746 70.582 71.942 70.309 70.004 70.048 70.616 69.845 68.699 70.059 70.147 69.445 69.248 68.854 67.379 67.957 66.888 66.546 66.489 65.944 65.907 66.008 65.777 65.529 65.474 66.217 68.596 70.714 72.817 71.185 66.798 65.232 64.634 64.286 64.044 63.924 63.883 63.856 63.939 63.931 63.767 63.765 67.295 69.598 70.242 69.902 68.775 63.854 64.573 64.306 63.29 63.577 62.938 63.543 64.725 64.395 62.66 62.315 62.563 61.604 61.525 61.458 61.406 61.284 61.226 60.99 60.789 60.869 66.069 67.343 66.925 65.884 61.911 61.157 60.488 60.852 60.27 59.957 59.977 60.256 59.905 60.083 59.888 59.97 59.947 60.219 60.114 59.919 59.904 59.858 60.241 61.894 61.737 61.164 60.133 61.232 61.014 59.06 59.071 60.307 58.971 59.964 61.356 60.04 58.837 59.763 64.294 65.284 65.389 64.375 60.351 59.463 58.544 58.454 58.442 58.352 58.365 58.345 58.438 59.406 59.677 59.199 61.35 64.231 64.999 64.097 59.547 58.859 59.053 58.782 58.528 59.194 59.43 58.621 58.761 58.8 59.265 60.127 59.926 59.088 60.727 59.769 58.885 58.843 58.744 58.694 59.997 59.254 59.378 62.234 62.064 62.406 61.467 61.356 61.316 61.277 60.888 59.703 58.979 58.856 58.887 58.866 58.863 58.77 58.714 58.599 58.543 58.537 58.51 58.41 58.406 58.371 58.311 58.194 58.084 58.078 58.07 58.026 57.932 57.877 57.807 58.563 59.428 57.608 57.641 57.584 57.553 57.44 57.337 57.269 57.172 57.128 57.089 56.992 56.906 56.774 56.65 56.62 57.504 61.212 62.711 62.149 58.986 58.746 59.23 58.69 58.263 58.461 59.94 59.913 60.642 60.672 59.111 58.006 57.418 58.117 57.264 57.101 57.137 58.22 58.607 61.288 63.039 63.936 63.46 62.246 58.178 58.103 57.187 57.073 56.807 56.832 56.802 56.763 56.855 57.016 57.221 57.339 58.214 57.458 60.841 58.474 57.834 57.196 57.23 57.195 57.103 56.957 56.879 56.79 56.728 56.703 56.605 56.556 56.514 56.503 56.456 56.391 56.311 56.274 56.241 56.199 57.293 56.392 57.003 56.164 56.027 55.967 56.026 55.878 55.7 55.936 57.186 55.557 55.259 57.168 58.639 59.515 59.409 58.663 58.6 57.458 52.348 51.294 51.308 51.473 51.431 51.366 51.432 51.56 51.608 51.424 51.433 51.045 51.001 51.032 51.401 51.75 52.356 54.394 55.685 54.088 52.169 51.781 51.68 52.357 52.114 51.695 53.806 52.445 51.132 51.022 50.949 50.855 50.794 52.478 51.232 54.142 54.015 50.142 51.123 56.218 56.961 56.513 50.265 49.208 51.636 49.618 49.111 49 48.824 48.778 48.734 48.69 48.651 48.804 48.635 48.771 48.005 49.496 53.331 54.18 54.039 52.602 48.659 47.758 47.699 47.737 49.083 48.06 47.801 49.375 47.427 47.36 47.18 47.134 47.39 47.915 51.975 49.256 48.074 47.314 47.439 47.652 47.337 47.086 47.015 47.027 46.963 45.84 45.805 46.837 46.8 47.36 46.394 45.931 45.665 45.634 45.533 45.446 45.213 45.407 45.243 46.256 50.898 51.658 50.793 47.185
71.305 71.26 71.266 71.237 71.249 71.213 71.186 71.219 71.206 71.188 71.203 71.186 71.16 71.129 71.174 71.425 71.106 71.157 72.151 72.101 79.198 81.559 80.905 79.866 77.876 71.768 71.76 71.177 71.062 71.115 71.055 71.06 71.139 71.108 71.364 71.432 75.726 77.44 77.399 77.435 77.538 77.017 74.046 71.494 70.936 70.619 70.822 70.644 70.054 70.039 70.073 71.558 70.25 69.096 69.773 68.351 67.946 66.976 66.769 66.592 66.465 66.346 66.293 66.231 66.069 65.983 65.987 66.903 66.966 67.184 66.931 66.022 69.482 71.909 71.197 67.789 65.314 64.865 65.189 64.342 63.9 63.851 63.827 63.856 63.887 63.871 63.766 64.697 68.958 70.045 70.308 69.208 66.992 64.348 63.181 63.134 62.696 63.301 64.761 65.243 64.888 62.43 63.404 63.382 61.762 61.461 62.228 63.062 61.046 61.188 60.917 61.041 61.958 66.467 67.53 66.924 65.69 60.593 60.65 61.201 60.611 59.982 59.891 60.012 60.103 59.864 59.883 60.766 65.398 64.997 61.008 60.703 60.059 59.942 59.63 60.235 61.489 61.722 61.703 59.783 61.153 61.422 59.032 59.109 58.961 59.029 59.332 59.643 59.478 58.9 59.691 62.753 64.564 64.568 63.815 58.647 58.504 58.75 58.81 58.406 58.305 58.367 58.408 58.769 58.866 59.062 58.96 63.369 65.195 64.643 61.984 59.402 59.046 59.101 58.643 58.532 58.574 58.939 60.259 60.511 59.395 59.092 60.312 60.749 59.089 60.376 59.092 58.848 58.761 58.655 58.593 58.618 60.004 58.83 60.436 61.121 59.85 59.11 59.404 59.419 60.995 60.599 60.487 60.721 60.284 58.735 58.686 58.7 58.672 58.61 58.523 58.457 58.415 58.425 58.344 58.298 58.171 58.083 58.018 57.991 57.938 57.957 57.904 57.828 57.754 57.641 57.572 57.601 57.603 57.564 57.461 57.394 57.406 57.312 57.212 57.109 57.036 56.957 56.812 56.754 56.711 56.69 56.659 56.588 56.577 56.93 57.344 56.737 58.627 60.062 58.44 58.297 58.862 60.149 57.928 57.666 60.186 60.097 58 57.006 57.032 58.408 57.436 57.103 57.105 57.185 62.395 63.555 65.151 62.837 61.973 57.965 57.271 57.133 56.819 56.707 56.845 56.803 56.729 56.938 57.547 57.056 57.057 57.073 60.119 62.556 61.413 58.164 57.728 58.678 58.252 57.249 56.998 56.885 56.802 56.767 56.65 56.566 56.504 56.502 56.42 56.417 56.334 56.267 56.241 56.183 56.124 56.359 56.959 56.114 57.024 56.201 55.809 55.981 55.729 55.637 55.614 55.994 55.668 57.928 57.558 58.475 59.38 58.334 58.129 57.138 53.45 51.827 51.298 51.433 51.403 51.423 51.484 51.574 51.45 51.437 51.176 50.976 50.898 51.653 51.429 51.965 52.174 52.742 56.531 53.586 53.593 51.859 51.728 51.618 51.76 51.509 52.141 51.807 51.177 51.104 50.868 50.694 50.672 50.705 51.359 50.938 53.354 51.466 50.366 49.94 50.02 51.14 50.528 49.137 53.33 54.785 54.357 51.082 49.391 48.866 48.683 48.694 48.642 48.569 48.486 48.539 48.538 47.863 48.58 51.917 54.894 54.491 53.497 51.708 47.836 47.874 48.46 48.307 47.751 47.654 47.647 47.84 50.168 47.284 47.116 47.54 47.544 47.514 47.65 47.091 47.061 47.071 47.18 47.039 46.954 46.944 46.897 46.852 46.1 45.816 45.818 47.28 46.483 45.982 45.795 45.803 45.65 45.506 45.199 45.422 45.376 45.303 45.924 46.299 50.537 48.939 45.504
71.303 71.246 71.193 71.226 71.227 71.168 71.167 71.184 71.158 71.153 71.183 71.159 71.175 71.151 71.19 71.198 71.115 71.092 71.697 71.911 79.252 80.937 80.698 80.008 78.31 72.52 71.338 71.052 71.051 71.094 71.027 71.028 71.087 71.122 71.51 71.391 71.078 71.062 71.104 71.484 72.802 72.29 72.433 71.923 70.913 70.688 70.597 70.641 70.11 71.775 70.274 70.004 71.157 68.469 68.534 68.086 67.568 67.016 66.831 66.737 66.61 66.531 66.528 67.512 67.737 67.75 66.314 65.884 65.634 65.523 65.666 65.372 69.019 71.48 71.701 70.495 65.774 64.969 64.731 64.483 63.806 63.804 63.739 63.799 64.127 64.294 63.737 64.581 67.698 70.067 70.751 69.744 68.393 64.287 63.189 63.228 63.773 64.496 64.972 65.046 64.788 62.898 62.659 63.113 62.947 61.474 61.297 61.15 60.965 60.888 60.807 61.616 65.836 66.972 67.445 66.408 62.454 60.382 60.47 60.898 60.191 59.938 59.908 60.021 60.224 59.891 59.842 61.849 65.786 65.999 64.835 59.985 59.862 59.637 59.262 59.23 61.115 60.117 60.217 60.062 59.795 59.838 59.947 59.698 59.007 59.302 60.857 59.426 58.884 58.881 59.072 58.851 60.119 62.865 60.676 58.616 58.547 58.59 59.103 58.309 58.316 58.365 58.548 58.834 59.445 58.793 61.761 64.743 65.329 63.879 59.462 59.6 60.918 58.888 58.736 58.685 58.668 58.631 59.95 61.004 61.626 61.289 60.723 60.007 59.153 58.878 58.859 58.844 58.667 58.592 58.563 58.549 58.627 60.159 58.97 60.576 59.051 58.728 58.609 58.678 58.65 58.668 58.678 58.722 60.763 60.323 58.554 58.616 58.534 58.48 58.462 58.45 58.382 58.31 58.225 58.146 58.053 57.975 57.907 57.892 57.826 57.787 57.708 57.616 57.536 57.451 57.398 57.386 57.427 57.31 57.269 57.221 57.225 57.083 57.036 56.945 56.812 56.727 56.656 56.638 56.569 56.635 56.591 56.528 56.519 56.528 56.913 59.298 60.629 61.719 58.428 58.889 58.79 59.416 59.308 57.179 56.517 59.229 58.509 57.08 56.957 56.98 58.467 58.301 57.104 60.81 63.058 63.693 63.31 61.921 57.596 57.224 56.936 56.795 56.699 56.713 56.714 56.749 56.812 56.949 57.961 57.063 57.07 57.167 61.687 63.285 63.259 62.038 57.059 57.107 57.095 57.193 57.927 57.833 57.584 56.74 56.677 56.598 56.518 56.45 56.385 56.336 56.293 56.271 56.219 56.15 56.095 55.987 56.244 57.021 55.904 56.503 55.765 55.65 55.759 55.689 55.6 55.684 55.198 56.753 57.618 57.577 57.835 57.152 53.716 51.33 51.241 51.327 51.442 51.367 51.393 51.472 51.474 51.401 51.362 51.114 50.947 50.89 51.651 51.865 52.094 52.365 55.164 57.505 56.895 53.47 52.455 52.284 51.679 51.578 51.481 51.404 52.458 52.68 51.127 50.957 50.45 50.387 50.574 51.655 52.061 51.744 50.412 50.242 50.885 49.965 49.676 49.629 49.478 48.992 53.136 54.938 54.854 53.853 49.059 48.918 48.715 48.624 48.549 48.501 48.446 48.52 48.477 48.078 47.928 48.892 53.533 54.499 54.148 52.993 48.651 48.018 47.913 47.57 47.562 47.608 48.243 48.344 50.636 49.333 47.691 47.656 47.326 49.46 49.659 49.075 48.701 47.106 47.032 47.024 46.979 46.854 46.82 46.718 46.613 45.732 45.69 46.24 46.118 46.041 45.8 45.842 45.632 45.332 45.338 45.358 45.244 45.878 45.258 45.023 44.985 45.756 45.083
71.252 71.2 71.214 71.207 71.206 71.158 71.152 71.156 71.123 71.106 71.133 71.16 71.153 71.166 71.181 71.146 71.109 71.11 74.626 75.227 79.006 80.212 80.975 79.826 78.016 71.667 71.269 71.106 71.065 71.064 70.992 71.049 71.582 71.303 71.52 71.891 75.228 72.377 71.189 71.166 71.149 71.169 71.195 72.128 72.108 71.994 70.951 70.274 70.122 73.117 73.148 73.184 72.682 68.635 68.592 68.307 67.792 67.174 66.968 68.249 68.092 68.318 67.062 66.207 65.902 65.86 65.793 65.759 65.649 65.565 65.513 65.427 66.331 70.976 71.777 70.572 65.826 64.851 64.658 64.397 63.749 63.764 63.71 64.568 63.989 64.781 64.381 63.838 64.573 69.209 70.142 69.811 69.222 64.842 63.061 64.645 64.168 63.006 64.872 64.456 63.194 62.309 62.706 61.717 62.412 62.566 61.965 61.16 60.918 60.843 60.766 63.732 65.92 67.399 67.082 66.083 61.236 60.5 60.897 60.575 59.924 59.909 59.816 60.02 60.041 60.519 59.955 64.683 66.293 66.134 61.273 59.848 59.933 59.75 59.327 60.3 61.22 61.081 59.968 59.856 59.459 60.723 59.143 59.277 59.796 59.335 59.403 60.535 64.678 64.246 62.409 58.892 59.282 58.826 58.727 58.64 58.542 59.05 58.351 58.304 58.319 58.407 58.687 58.719 58.766 58.912 64.08 65.005 64.48 61.148 58.781 58.963 59.728 60.58 60.495 58.914 58.795 59.412 60.648 61.239 62.077 61.42 61.038 59.628 58.995 58.863 58.846 58.781 58.633 58.549 58.524 58.568 60.306 60.225 59.198 59.974 59.114 58.52 58.524 58.479 58.476 58.476 58.437 58.411 58.505 60.511 61.288 59.29 58.444 58.367 58.32 58.293 58.282 58.207 58.103 58.064 57.961 57.852 57.791 57.755 57.652 57.638 57.518 57.476 57.422 57.382 57.318 57.254 57.308 57.296 57.15 57.096 56.995 56.92 56.877 56.78 56.701 56.64 56.569 56.493 56.447 56.476 56.463 56.484 56.476 56.442 56.428 58.29 59.757 60.135 58.977 59.596 59.034 58.322 59.239 57.758 56.6 56.628 57.447 58.228 56.987 56.869 56.895 58.503 58.581 58.311 61.966 62.669 62.779 61.062 57.361 57.114 56.958 56.715 56.643 56.694 56.715 56.689 56.824 56.907 56.973 57.055 57.418 61.02 62.207 63.557 62.555 59.458 57.078 57.092 57.042 56.959 57.366 58.223 57.047 56.766 57.333 57.589 56.807 56.464 56.385 56.359 56.284 56.264 56.192 56.126 56.045 55.954 55.841 56.122 56.849 55.765 56.383 55.713 55.696 55.644 55.599 55.491 54.883 54.235 55.583 55.197 55.246 53.037 51.533 51.246 51.419 51.425 51.31 51.428 51.483 51.476 51.393 51.224 50.996 50.927 51.03 51.888 52.578 52.805 52.605 55.084 57.291 54.203 51.633 51.616 51.737 53.1 52.085 51.503 51.377 51.179 51.997 51.653 51.54 50.891 53.751 54.603 54.424 54.056 51.212 50.663 50.486 50.319 50.519 50.894 49.721 49.602 49.517 49.082 50.675 53.599 55.29 54.64 50.001 49.38 48.829 48.536 48.469 48.421 49.478 48.891 48.439 48.148 47.932 48.637 52.293 54.087 54.51 53.51 51.213 47.725 47.564 47.589 47.651 47.62 47.71 47.995 48.633 49.059 47.279 47.265 50.396 53.025 52.093 49.701 49.53 47.339 47.001 47.034 46.978 46.906 46.846 46.731 46.529 45.665 45.608 46.264 46.821 46.124 45.892 45.853 45.486 45.371 45.401 45.339 45.412 45.238 45.055 44.937 44.795 44.647 44.668
71.208 71.223 71.196 71.187 71.169 71.172 71.158 71.143 71.11 71.099 71.133 71.136 71.148 71.202 71.437 71.245 71.082 71.076 74.5 75.615 78.977 80.083 80.972 79.978 78.847 71.909 71.196 71.024 71.028 71.068 71.01 71.103 71.491 71.176 71.629 71.558 77.27 78.01 76.537 75.696 75.582 75.429 72.479 73.142 70.951 72.56 72.581 72.633 71.34 71.91 71.676 72.395 75.061 70.817 70.437 70.243 69.608 69.528 69.604 69.5 69.098 66.513 66.209 66.055 65.938 65.884 65.775 65.749 65.781 67.053 67.245 65.996 66.782 70.899 72.029 71.22 66.751 64.924 64.652 65.065 63.787 63.64 63.609 63.71 63.627 63.805 63.692 63.648 63.704 68.745 69.198 69.017 68.523 64.325 64.86 65.886 63.679 62.855 62.562 62.723 62.265 62.21 61.715 61.64 62.315 61.996 61.779 61.346 61.111 60.858 60.754 63.897 66.665 67.486 66.831 63.219 60.632 60.659 60.679 60.134 59.9 59.857 59.892 59.958 60.201 60.205 61.528 65.622 66.214 65.02 59.915 60.082 60.401 59.782 59.154 59.121 59.711 59.696 60.323 59.497 59.223 58.933 58.866 58.868 58.865 60.045 58.962 63.864 65.934 65.61 64.782 63.658 58.711 58.804 59.247 58.699 58.444 58.599 58.315 58.313 58.274 58.567 58.746 58.749 58.926 62.237 64.695 64.853 63.916 58.865 58.79 58.769 58.789 60.707 60.729 60.393 60.53 60.71 60.872 61.822 62.07 60.088 58.961 59.304 60.095 58.904 58.829 58.781 58.646 58.545 58.451 58.642 58.743 58.649 58.759 59.808 58.962 58.379 58.377 58.399 58.4 58.396 58.397 58.369 58.354 58.686 62.105 63.408 61.528 58.392 58.207 58.187 58.149 58.071 57.964 57.924 57.881 57.787 57.716 57.664 57.582 57.516 57.441 57.392 57.315 57.29 57.251 57.214 57.168 57.135 57.041 56.945 56.827 56.707 56.663 56.597 56.549 56.486 56.446 56.425 56.344 56.312 56.353 56.431 56.369 56.389 56.371 57.579 58.234 59.86 58.407 59.335 59.553 57.602 57.371 56.613 56.949 56.661 56.899 58.064 58.222 57.029 57.42 56.89 57.363 57.76 57.458 58.47 61.291 58.362 56.963 57.758 56.712 56.552 56.591 56.638 56.673 56.733 56.834 56.917 56.948 57.013 57.184 61.923 63.284 62.883 62.122 58.267 57.048 58.097 59.557 57.542 56.831 56.801 56.7 56.664 56.638 56.763 56.9 56.576 57.433 56.774 56.332 56.272 56.183 56.104 55.993 55.897 55.809 55.816 56.136 56.784 55.686 55.81 55.66 55.571 55.191 54.573 54.175 53.602 53.548 52.331 52.751 51.175 51.146 51.415 51.346 51.293 51.346 51.46 51.389 51.385 51.176 50.929 50.882 51.444 51.69 52.424 55.169 53.877 56.938 56.271 53.678 52.214 51.587 51.611 51.827 51.588 52.639 51.22 50.861 51.024 52.813 51.858 51.562 50.776 54.086 56.478 56.337 55.942 54.121 53.931 51.259 51.024 51.414 51.251 49.756 49.599 49.458 49.153 49.064 50.395 55.69 55.132 52.98 48.98 48.867 48.487 48.393 48.343 48.799 48.471 48.479 47.989 47.898 48.328 49.449 53.164 54.443 54.15 52.841 47.853 47.658 47.613 47.723 47.227 47.25 48.769 47.891 47.969 48.116 47.273 51.858 54.301 53.764 52.658 48.935 47.085 46.94 46.975 46.963 46.892 46.805 46.713 46.497 45.682 45.596 45.738 47.237 46.451 45.857 45.728 45.394 45.355 45.37 45.221 45.062 45.054 44.958 44.881 44.664 44.626 44.999
71.239 71.221 71.213 71.199 71.175 71.118 71.103 71.095 71.111 71.145 71.125 71.1 71.131 71.161 71.496 71.295 71.054 71.197 73.473 72.925 77.803 80.142 80.918 80.321 77.601 71.936 71.407 70.963 70.975 71.033 70.976 71.697 71.458 71.175 71.209 72.846 77.387 78.695 78.833 78.576 77.872 73.466 71.597 71.034 70.844 72.233 72.417 72.281 70.08 69.381 69.341 71.042 76.266 71.402 70.123 68.958 68.277 67.45 69.397 70.023 69.287 66.409 66.229 66.042 65.942 65.92 67.124 67.159 67.15 66.166 67.191 66.236 66.051 70.663 71.635 71.24 69.002 64.946 64.7 64.45 64.288 63.551 63.488 63.467 63.415 63.57 63.771 63.473 63.534 67.479 66.966 66.634 65.82 64.732 65.51 66.529 64.333 62.622 62.519 62.529 62.205 62.934 61.88 62.215 62.564 61.895 61.517 61.144 61.007 60.973 60.904 65.313 67.445 67.523 66.339 62.148 60.631 60.648 60.629 60.069 59.95 59.849 59.928 59.907 59.906 59.883 63.984 66.011 65.793 62.335 60.819 60.516 61.531 60.325 59.162 59.11 59.089 59.545 60.652 60.328 59.179 58.875 58.818 58.775 58.786 58.921 59.906 65.299 67.3 65.683 64.392 60.363 58.683 58.6 58.553 58.459 58.822 58.267 58.283 58.285 58.407 58.488 59.08 58.779 59.168 64.01 65.164 64.418 61.318 60.288 58.868 58.772 58.749 58.785 59.014 59.379 60.843 60.698 60.726 61.827 60.26 58.941 58.979 58.984 59.824 59.988 58.838 58.762 58.728 58.409 58.467 58.382 58.319 59.45 59.056 59.759 58.67 58.265 58.293 58.252 58.293 58.314 58.292 58.319 58.283 59.553 61.331 63.087 63.596 59.249 58.118 58.092 57.991 57.957 57.85 57.776 57.757 57.712 57.672 57.59 57.543 57.475 57.428 57.378 57.298 57.204 57.217 57.142 57.056 57.026 56.967 56.828 56.707 56.631 56.561 56.522 56.412 56.374 56.351 56.304 56.304 56.245 56.308 56.275 56.288 56.273 56.267 56.973 58.066 60.511 59.672 57.745 57.08 58.12 56.468 56.359 56.475 57.198 57.078 56.703 57.25 58.557 57.091 58.155 62.531 60.728 56.905 58.498 57.087 56.883 56.844 56.81 56.594 56.567 56.644 56.592 56.633 56.748 56.844 56.829 56.896 56.988 60.69 62.967 63.527 62.683 58.53 57.306 58.554 58.779 58.796 56.922 56.812 56.738 56.664 56.601 56.584 56.509 56.416 56.49 59.16 60.432 59.269 56.647 56.164 56.092 55.929 55.845 55.781 55.798 55.941 56.458 56.809 56.109 55.693 55.334 54.957 54.397 53.464 53.108 52.082 51.382 51.108 51.272 51.405 51.336 51.323 51.392 51.528 51.346 51.351 51.055 50.885 50.789 51.317 52.343 52.776 52.834 56.325 56.995 57.787 52.431 51.642 51.65 51.491 51.527 51.488 51.378 51.606 52.178 50.746 50.666 51.231 52.691 51.686 50.918 55.737 56.782 56.928 56.971 56.103 55.463 51.505 50.938 52.358 52.144 50.07 49.749 51.018 49.318 48.949 51.963 54.338 55.293 54.287 49.822 48.668 48.505 48.249 48.231 48.111 48.045 48.058 48.009 47.995 47.93 47.966 52.222 54.147 54.237 53.293 49.211 47.603 49.063 48.44 47.323 47.167 47.577 47.569 47.56 48.093 51.323 53.483 55.036 54.085 52.756 47.694 47.035 46.989 46.862 46.82 46.812 46.751 46.651 46.545 45.856 45.574 45.642 46.62 47.005 45.855 45.635 45.389 45.338 45.456 46.709 46.696 46.509 44.901 44.833 44.556 44.453 44.884
71.213 71.205 71.172 71.139 71.085 71.03 71.048 71.126 71.147 71.161 71.177 71.174 71.13 71.149 71.366 71.311 71.045 71.015 71.771 72.785 78.972 80 75.865 73.677 73.284 71.484 70.919 70.944 71.016 71.046 70.94 71.99 71.339 71.2 71.382 74.77 77.925 79.304 79.589 78.79 77.75 73.034 71.883 70.982 70.754 70.474 70.384 70.41 69.756 69.469 74.093 78.576 77.391 70.344 68.816 68.267 68.138 67.267 69.326 69.888 69.553 67.814 67.128 67.439 67.378 66.835 67.217 67.642 66.016 65.617 65.545 65.428 65.719 70.352 71.839 70.053 67.074 64.906 64.732 65.449 65.27 63.568 63.467 63.384 63.329 63.404 63.933 63.65 63.389 63.5 65.417 64.666 63.409 63.136 67.435 68.012 66.878 65.171 62.645 62.675 61.904 61.716 61.64 62.698 62.465 62.049 62.333 61.402 60.988 61.001 63.105 66.131 67.287 67.154 65.886 60.579 60.988 60.637 60.258 59.89 59.886 59.881 59.984 59.974 59.963 59.929 64.269 66.144 65.375 61.359 59.492 59.354 59.403 60.138 59.49 59.17 60.538 60.283 60.027 59.08 59.472 59.073 58.76 58.695 58.715 58.724 63.381 65.785 66.744 64.968 63.655 59.092 59.188 59.398 58.464 58.42 58.354 58.313 58.314 58.267 58.578 58.66 58.982 59.481 60.552 64.862 64.671 62.968 59.385 58.867 59.925 60.274 58.702 58.708 58.693 60.828 60.8 60.633 60.95 61.023 59.167 58.912 58.973 59.003 59.184 60.091 59.914 59.971 60.138 58.79 58.516 59.032 58.446 59.1 58.608 59.599 58.59 58.176 58.172 58.127 58.175 58.226 58.231 58.214 59.277 58.599 58.633 62.258 63.34 62.03 60.97 58.038 57.876 57.882 57.799 57.704 57.689 57.615 57.582 57.532 57.481 57.448 57.374 57.311 57.246 57.203 57.06 57.024 56.969 56.939 56.85 56.757 56.625 56.568 56.483 56.413 56.33 56.305 56.239 56.225 56.226 56.201 56.216 56.191 56.197 56.192 56.338 56.92 58.93 61.255 61.485 56.119 56.044 56.087 56.91 56.551 56.405 56.508 56.84 56.743 56.693 57.053 58.666 63.182 63.84 62.717 60.625 56.836 56.768 57.138 56.915 56.573 56.557 56.616 56.651 56.615 56.645 56.776 56.933 57.28 56.921 57.156 62.538 63.506 63.149 62.071 57.609 56.906 57.276 57.894 58.36 58.236 56.764 56.684 56.64 56.594 56.549 56.457 56.371 56.407 60.215 61.463 60.506 56.113 56.656 57.18 57.041 55.864 55.85 55.8 55.979 55.903 55.872 56.476 55.555 54.037 53.491 53.569 52.981 51.922 51.381 51.089 51.274 51.379 51.286 51.288 51.368 51.518 51.237 51.289 51.018 51.017 50.925 51.36 52.17 52.757 52.873 54.894 57.831 57.203 53.668 51.965 52.051 51.537 51.484 51.534 51.735 51.302 50.864 51.936 53.424 54.481 55.549 51.763 52.232 51.69 54.848 55.614 56.114 56.487 56.076 54.564 50.375 50.738 52.322 50.708 49.981 50.693 51.09 49.458 49.117 49.099 53.114 54.96 55.046 53.114 48.735 48.485 48.233 48.136 48.057 47.988 47.89 47.851 47.763 47.7 47.656 51.146 53.488 54.932 53.962 52.958 49.058 48.087 48.353 48.567 47.733 48.58 48.171 47.667 48.17 53.002 54.541 54.835 53.644 52.213 47.114 47.026 46.931 46.863 46.808 46.7 46.611 46.54 46.466 46.305 45.525 45.461 46.419 46.757 45.824 45.534 45.301 45.254 45.264 45.317 45.321 45.359 44.945 44.971 44.444 44.341 44.282
71.176 71.149 71.108 71.007 71.126 71.135 71.174 71.137 71.157 71.165 71.167 71.16 71.105 71.144 71.308 71.32 71 70.995 71.545 71.644 73.286 71.098 71.11 70.987 70.943 70.907 70.914 70.95 71.008 70.991 70.939 71.059 71.447 71.143 71.402 74.093 77.639 78.973 79.573 79.582 77.377 71.931 71.645 72.955 71.769 70.84 70.36 70.003 71.871 69.926 75.533 75.52 71.24 68.381 68.334 68.428 68.727 68.058 67.268 66.786 68.262 67.595 66.478 66.618 66.473 65.935 66.295 66.275 65.481 65.444 66.505 65.315 65.274 67.076 68.376 65.806 65.305 64.931 66.531 64.706 63.763 63.536 63.304 63.316 63.217 63.231 63.481 63.325 64.452 64.481 64.615 64.136 65.221 66.731 68.93 69.22 68.166 64.26 62.416 61.995 61.905 61.762 62.008 61.585 61.798 61.866 61.411 61.577 61.538 61.03 63.759 66.677 67.403 66.587 65.742 60.424 60.25 60.763 60.18 59.883 59.897 59.871 60.028 60.133 59.947 60.87 65.576 67.243 65.245 60.118 59.39 59.151 59.062 59.041 59.494 61.047 62.777 61.276 59.26 58.996 58.971 59.163 60.13 58.705 58.713 60.664 64.821 65.952 65.541 63.829 59.386 59.233 58.758 58.801 59.186 58.898 58.325 58.311 58.355 58.311 58.439 59.144 59.572 58.987 59.445 63.906 64.276 60.318 58.839 58.86 58.821 58.661 59.494 60.084 58.83 60.221 58.975 60.672 61.732 59.729 58.845 58.865 58.896 58.948 59.552 59.472 59.461 60.658 61.394 63.145 61.684 60.843 59.08 59.343 58.897 59.916 60.19 58.055 57.936 58.115 58.044 58.103 58.143 59.852 58.624 58.046 58.162 60.723 62.537 62.693 62.405 61.302 57.824 57.766 57.661 57.596 57.577 57.501 57.503 57.49 57.396 57.346 57.265 57.268 57.156 57.064 56.938 56.88 56.818 56.798 56.776 56.701 56.55 56.404 56.366 56.26 56.215 56.262 56.182 56.126 56.073 56.093 56.133 56.096 56.111 56.126 56.785 57.115 58.026 60.57 60.24 56.013 56.058 56.058 56.118 56.321 56.339 56.512 56.748 57.439 57.447 59.227 62.86 64.132 64.556 63.254 62.116 58.871 56.886 56.965 56.553 56.482 56.542 56.581 56.55 56.614 56.735 56.856 56.902 57.264 57.892 60.877 63.064 63.775 62.522 59.238 56.982 56.828 56.765 56.684 57.037 57.782 56.928 56.752 56.788 56.602 56.536 56.456 56.351 56.28 59.762 60.716 59.122 56.056 56.372 55.741 58.315 55.985 58.639 59.844 58.875 55.805 55.745 55.094 54.335 53.452 52.973 52.627 51.796 51.407 51.152 51.289 51.298 51.221 51.313 51.454 51.419 51.375 51.089 54.142 51.669 56.764 53.117 52.246 52.875 54.155 56.847 58.108 54.381 53.332 52.226 52.58 51.811 51.499 51.579 54.416 50.918 50.748 50.734 54.251 55.063 56.687 56.26 52.707 51.501 50.452 50.359 51.434 51.898 55.166 55.271 51.077 50.164 50.222 49.617 49.595 49.585 50.904 49.928 49.193 49.228 49.074 49.891 54.335 54.764 53.852 48.676 48.338 48.221 48.016 47.982 47.875 47.841 48.007 47.714 47.673 47.608 47.768 52.32 54.33 54.218 53.393 49.145 47.62 49.051 48.138 47.717 47.551 48.466 47.388 51.347 53.477 54.39 53.918 52.89 48.516 46.948 46.943 46.956 46.846 46.786 46.625 46.554 46.313 46.177 46.068 45.493 45.461 45.536 46.275 47.327 45.705 45.266 45.129 44.922 44.855 44.711 45.141 44.896 45.066 44.422 44.31 44.235
71.102 71.076 71.11 71.056 71.069 71.148 71.16 71.148 71.156 71.175 71.173 71.114 71.083 71.125 71.323 71.476 71.035 70.992 71.235 71.06 71.025 70.962 70.928 70.921 70.904 70.861 70.895 70.93 70.963 70.931 70.912 71.262 71.516 71.17 71.588 75.682 77.928 79.004 79.438 78.688 77.266 74.297 73.593 73.962 72.197 70.522 70.465 69.942 71.179 73.411 73.858 74.123 68.715 68.397 68.269 68.165 67.805 67.409 67.971 68.541 68.558 66.511 66.16 66.076 65.967 65.925 66.263 66.022 65.443 65.379 65.39 65.27 65.21 65.208 66.265 66.666 65.339 64.526 64.394 64.129 64.672 63.534 63.274 63.229 63.15 63.02 63.067 63.188 64.239 64.583 63.481 62.895 65.712 68.367 69.303 70.268 69.509 67.433 65.506 62.854 61.876 61.894 63.09 61.812 61.357 61.707 61.641 60.937 61.31 60.789 65.48 66.972 67.488 66.337 62.144 60.291 60.258 60.153 59.935 59.852 59.901 59.961 60.194 60.106 60.686 63.71 65.965 65.934 62.286 59.507 59.403 59.144 59.058 59.029 60.752 63.386 64.072 65.096 60.416 58.964 58.891 58.889 58.76 58.834 59.227 58.966 61.461 64.077 64.379 60.476 58.579 58.492 58.54 58.955 59.194 58.449 58.324 58.266 58.294 58.487 58.494 58.491 58.727 59.558 59.754 59.745 62.612 58.877 58.883 58.867 58.738 58.629 58.558 58.562 59.851 60.202 59.411 61.114 61.217 59.14 58.841 58.953 58.812 58.761 59.434 59.671 58.586 59.888 63.333 64.49 64.423 59.853 58.632 59.507 58.781 59.466 57.991 57.848 61.176 63.07 58.95 58.096 59.905 58.562 58.013 58.016 57.883 58.399 61.619 63.278 63.592 62.749 58.438 57.562 57.512 57.517 57.5 57.399 57.34 57.298 57.245 57.195 57.228 57.184 57.021 56.932 56.861 56.804 56.727 56.685 56.655 56.603 56.47 56.316 56.292 56.198 56.14 56.111 56.064 56.017 55.985 56.059 56.093 56.036 56.12 56.213 56.895 58.53 56.954 56.177 57.779 57.033 56.211 56.111 56.11 56.198 56.526 57.29 56.903 56.81 58.255 62.659 63.959 64.594 63.341 61.876 58.889 56.851 58.125 56.755 56.434 56.49 56.577 56.542 56.499 56.657 56.779 56.845 56.918 56.971 57.152 62.625 63.607 62.982 61.881 58.083 58.193 57.15 56.737 56.66 56.858 57.592 57.291 57.931 56.849 56.541 56.456 56.384 56.3 56.22 56.183 56.433 56.038 56.003 56.571 57.691 56.345 55.734 58.766 59.848 58.846 55.301 55.009 53.939 53.228 53.087 52.229 51.321 51.239 51.143 51.348 51.25 51.304 51.331 51.401 51.433 51.322 51.012 54.511 58.407 60.582 60.59 55.285 53.325 53.187 55.726 57.723 55.629 52.362 52.318 51.9 52.028 51.966 51.622 51.468 51.237 51.145 51.015 55.374 56.48 57.16 57.525 56.763 55.941 51.696 50.642 50.359 50.31 50.213 50.18 51.886 50.691 50.227 49.437 49.482 49.442 49.57 49.641 49.507 49.302 49.282 49.989 49.529 53.087 54.185 54.432 53.079 48.436 48.665 48.068 47.792 47.797 47.69 47.698 47.731 48.57 47.615 47.546 50.208 53.443 53.32 52.617 48.144 49.065 47.972 47.652 51.003 51.362 51.638 48.055 49.284 52.106 53.001 53.223 48.771 47.146 47.062 47.008 46.83 46.766 46.718 46.592 46.58 46.547 45.852 45.548 45.505 45.471 45.393 45.472 45.398 45.255 45.149 44.996 44.906 44.865 44.73 44.672 44.601 44.547 44.435 44.364 44.21
71.089 71.069 71.071 71.055 71.085 71.143 71.197 71.164 71.119 71.159 71.186 71.226 71.316 71.331 71.451 71.207 70.996 70.98 70.987 70.984 70.972 70.964 70.931 70.894 70.872 70.886 70.867 70.918 70.967 70.909 70.84 71.118 71.012 71.113 71.329 76.284 77.537 77.891 77.987 78.001 75.053 72.398 71.393 71.308 70.809 70.316 70.05 69.813 69.966 71.639 71.447 69.816 68.768 68.516 68.119 67.96 67.758 67.335 66.966 67.311 67.317 66.796 66.191 66.093 65.998 66.001 67.134 66.163 65.51 65.484 66.023 65.392 66.116 66.881 65.761 64.606 64.711 64.549 64.372 63.98 65.208 63.906 63.36 63.156 63.06 63.029 62.893 62.998 63.915 63.289 63.68 62.756 62.992 66.561 68.562 71.164 70.566 68.862 67.766 63.473 63.641 62.879 63.443 63.364 61.338 62.6 61.55 60.839 60.775 61.686 66.356 67.518 66.938 65.88 61.241 61.206 60.321 60.726 59.885 59.899 59.886 60.783 59.906 59.784 62.382 65.458 66.284 65.499 60.446 60.718 59.676 59.078 59.01 60.929 63.113 64.361 64.478 65.147 63.85 59.416 58.871 58.892 58.739 58.525 58.543 58.574 59.51 59.638 62.713 59.309 58.53 58.526 58.467 58.629 58.832 58.319 58.314 58.255 58.511 58.372 58.505 58.489 58.523 58.729 60.605 59.158 60.194 59.194 58.881 58.827 58.69 58.623 58.538 58.538 58.603 60.701 60.074 61.255 60.09 59.574 59.228 59.96 58.787 58.76 58.616 58.513 60.917 63.192 64.652 65.709 65.25 63.656 59.293 59.161 58.253 58.346 58.022 60.564 63.733 64.319 63.38 60.664 58.174 58.023 57.971 58.008 58.261 58.39 59.425 62.448 62.353 63.019 61.297 58.267 57.402 57.424 57.366 57.27 57.198 57.21 57.144 57.094 57.032 56.979 56.92 56.857 56.799 56.722 56.661 56.596 56.565 56.491 56.389 56.255 56.169 56.104 56.12 56.074 56.027 55.986 55.965 55.971 56.036 55.992 56.05 56.186 59.558 60.038 58.077 56.006 56.008 56.132 56.674 56.088 56.116 56.202 56.322 57.493 57.125 57.181 62.431 63.707 64.501 63.298 61.954 58.336 56.947 56.767 57.021 56.485 56.407 56.531 56.472 56.514 56.602 56.726 56.825 56.977 56.974 58.183 61.476 63.118 63.465 62.418 58.474 56.793 57.319 58.203 57.948 57.046 56.75 56.655 56.958 56.531 56.696 57.627 56.664 56.343 56.286 56.223 56.169 56.138 56.063 55.977 55.881 55.817 55.813 56.354 59.557 58.821 56.254 54.447 53.76 52.94 52.853 52.317 51.332 51.106 51.155 51.313 51.226 51.243 51.344 51.362 51.254 51.278 50.963 51.5 57.505 61.081 60.765 60.019 58.731 56.134 55.166 55.809 59.196 59.812 56.853 54.919 52.711 51.797 51.841 51.581 51.493 51.338 51.354 51.27 55.385 57.082 57.304 56.879 55.865 53.37 51.634 50.546 50.27 50.161 50.108 50.154 50.138 49.703 53.04 50.882 49.473 49.467 49.779 49.704 50.29 49.612 48.987 48.967 48.62 49.382 53.571 54.431 53.719 49.736 48.186 48.049 47.785 47.699 47.658 47.505 48.392 48.96 48.079 47.585 48.434 49.379 47.992 47.479 48.508 50.831 52.47 52.854 53.173 53.297 52.23 47.658 47.464 47.107 47.19 52.148 48.323 47.511 46.992 46.918 46.871 46.84 46.741 46.678 46.659 46.242 45.827 45.536 45.53 45.403 45.438 45.334 45.259 45.178 45.17 45.115 45.001 44.882 44.842 44.724 44.637 44.517 44.46 44.361 44.288
71.066 71.065 71.047 71.076 71.065 71.135 71.184 71.205 71.354 71.312 71.493 71.564 71.46 71.207 71.198 71.033 70.985 70.974 70.934 70.988 70.938 70.906 70.906 70.875 70.855 70.822 70.819 70.907 70.933 70.876 70.817 71.162 71.184 71.412 72.233 71.444 72.559 72.942 73.228 74.135 75.603 71.447 71.535 71.266 70.593 70.227 70.014 69.771 69.518 69.276 69.166 69.56 68.747 68.532 68.204 67.809 67.529 67.238 66.973 66.914 66.854 66.936 66.802 66.64 66.479 66.769 66.362 65.678 65.583 65.834 65.745 66.885 65.559 64.822 64.756 64.435 64.306 66.99 68.731 64.264 64.146 63.964 63.489 63.112 62.942 62.937 62.791 62.789 62.847 62.797 63.02 62.615 63.798 63.582 66.98 68.959 70.101 69.322 67.972 63.286 63.831 63.582 63.501 62.286 61.362 64.54 62.353 62.118 61.233 65.034 66.722 67.674 66.613 65.227 60.872 60.904 60.447 60.145 59.905 59.872 59.929 60.137 59.756 59.757 62.449 65.772 66.801 65.219 60.072 59.606 59.559 59.07 60.398 61.693 63.282 64.485 64.457 63.558 62.047 60.39 58.986 58.927 58.775 58.569 59.084 62.066 59.633 58.714 59.289 58.669 58.607 58.501 58.454 58.998 58.373 58.262 58.298 58.296 58.561 58.432 58.434 58.515 58.487 62.958 64.685 63.793 59.569 59.881 59.918 58.806 58.667 58.548 58.586 58.58 58.593 59.138 60.167 59.662 59.384 60.289 60.128 60.362 60.479 60.04 58.863 59.477 62.933 64.564 65.83 67.131 64.945 63.666 61.741 58.661 58.089 57.867 60.019 63.793 64.935 65.524 64.628 63.413 58.948 57.98 57.82 57.832 59.919 60.69 58.735 60.669 60.719 62.046 61.909 58.363 57.305 57.319 57.23 57.154 57.081 57.021 56.916 56.905 56.874 56.821 56.845 56.773 56.748 56.653 56.578 56.568 56.473 56.406 56.325 56.238 56.187 56.148 56.068 56.085 55.983 55.897 55.936 55.917 55.887 55.873 57.172 59.134 58.902 57.54 56.477 55.988 56.014 55.973 55.965 56.743 56.168 56.23 56.849 56.958 57.869 62.446 63.596 64.362 63.216 62.334 58.265 57.59 57.84 57.153 56.448 56.375 56.415 56.446 56.455 56.488 56.631 56.74 56.868 57.317 56.943 58.058 62.65 63.622 62.822 60.79 59.124 56.902 56.692 56.857 56.96 57.723 57.782 57.364 56.525 56.51 56.498 56.452 56.341 57.113 57.974 58.705 56.891 56.026 55.945 55.878 55.862 58.557 58.956 59.087 59.203 57.309 54.339 53.758 53.6 55.246 52.293 51.635 51.087 51.206 51.289 51.203 51.279 51.344 51.392 51.292 51.055 50.9 50.792 50.795 53.527 58.416 58.713 56.596 56.174 56.624 55.289 55.442 54.535 57.702 60.532 60.412 58.424 57.274 57.239 53.175 51.555 51.418 51.16 51.031 52.154 56.431 56.186 55.327 52.165 50.499 51.868 51.572 50.105 50.079 50.09 49.854 52.047 54.195 55.416 54.824 50.861 49.917 49.386 49.166 49.633 50.371 48.881 48.705 48.523 48.484 52.509 54.506 54.169 53.289 48.042 47.987 47.793 47.825 47.522 47.434 47.43 47.471 47.469 47.457 47.491 47.513 47.491 48.051 48.405 51.178 52.738 53.721 53.856 53.473 52.846 49.4 47.506 47.133 48.005 47.967 47.285 47.916 46.874 46.906 46.869 47.315 47.304 46.143 45.901 45.755 45.622 45.577 45.557 45.486 45.437 45.375 45.359 45.26 45.097 45.118 45.048 44.979 44.843 44.753 44.658 44.529 44.44 44.365 44.307
71.109 71.072 71.042 71.09 71.127 71.323 71.481 71.54 71.495 71.479 71.199 71.171 70.99 71.011 71.058 71.006 71.057 71.01 71.01 70.97 70.902 70.883 70.875 70.819 70.837 70.831 70.793 70.874 70.956 70.849 70.846 71.244 70.991 70.997 71.025 71.427 71.409 71.318 71.182 71.669 71.515 71.376 73.821 73.901 72.027 71.154 69.877 69.65 69.438 69.254 69.295 69.335 68.607 68.438 68.188 67.71 67.415 67.131 67.02 66.924 66.802 66.741 66.647 66.658 67.06 66.299 65.816 65.75 66.397 65.746 65.344 65.158 64.854 64.504 64.352 64.393 68.74 70.018 69.963 65.355 64.118 64.014 63.963 64.404 63.016 62.83 62.797 62.708 62.697 62.788 62.69 62.62 62.604 63.407 64.752 66.748 68.652 67.84 63.412 62.4 61.872 61.77 61.899 61.312 61.222 62.169 62.112 62.768 61.559 65.53 66.845 67.709 66.222 62.332 61.186 61.55 60.385 59.935 59.95 59.891 60.131 60.816 59.854 59.909 63.573 65.919 65.836 62.15 59.261 59.11 58.917 58.873 58.828 59.815 62.447 62.334 61.143 59.691 60.945 61.361 60.578 60.356 60.509 59.166 59.355 64.066 63.034 62.173 59.558 58.937 58.872 58.507 58.383 58.313 58.245 58.308 58.249 58.324 58.405 58.982 58.504 58.659 59.625 64.536 65.935 64.369 60.514 59.132 58.824 59.59 59.886 58.914 58.551 58.502 58.511 58.783 60.364 58.911 59.003 59.202 59.104 60.198 60.395 58.922 60.121 59.191 59.285 64.076 65.213 64.492 63.084 60.627 58.161 58.67 58.017 58.121 58.209 59.113 63.806 65.568 65.309 64.214 62.062 57.926 57.751 57.752 59.654 60.05 59.977 59.963 60.053 61.111 60.499 57.222 57.181 57.17 57.149 57.04 56.969 56.895 56.789 56.71 56.722 56.711 56.723 56.647 56.626 56.523 56.445 56.41 56.351 56.328 56.288 56.258 56.2 56.171 56.078 56.035 55.958 55.896 55.924 55.894 55.82 55.892 59.626 59.286 56.803 55.672 55.764 55.856 55.917 55.931 55.934 55.961 56.93 56.793 56.936 57.771 62.031 63.658 64.526 63.701 62.3 58.925 57.173 56.815 56.636 56.393 56.343 56.417 56.404 56.409 56.387 56.522 56.6 56.617 56.772 57.919 56.976 62.045 63.038 63.343 62.164 59.83 57.703 57.164 56.616 56.522 56.392 56.347 57.966 57.916 56.554 56.443 56.401 56.367 56.274 56.215 58.484 59.462 59.079 58.303 58.078 58.186 59.275 58.692 59.486 57.128 56.252 55.207 53.95 53.412 52.864 54.902 51.33 51.052 51.164 51.216 51.187 51.241 51.412 51.401 51.231 51.097 50.778 50.74 51.015 51.519 52.233 53.738 53.463 54.918 58.186 57.851 58.047 53.709 52.075 52.171 54.402 57.65 58.315 59.662 60.138 59.013 57.824 54.925 51.287 52.39 52.146 54.58 51.123 51.627 51.37 50.581 50.419 50.637 50.021 49.908 50.134 49.685 51.341 55.108 56.013 55.588 54.416 49.663 49.117 49.13 51.024 50.869 48.838 48.76 48.654 48.627 52.058 53.757 54.727 53.776 49.134 47.884 47.803 47.927 47.42 47.339 47.325 47.422 47.34 47.295 47.361 47.403 47.648 49.59 48.558 48.288 52.594 53.127 53.12 52.719 49.523 48.455 47.614 47.337 47.006 47.133 47.019 46.267 47.177 46.569 46.368 46.372 46.012 45.79 45.729 45.728 45.689 45.666 45.605 45.56 45.486 45.379 45.328 45.268 45.156 45.12 45.11 44.959 44.891 44.821 44.814 44.667 44.613 44.56 44.422
71.122 71.147 71.277 71.396 71.492 71.456 71.375 71.369 71.082 71.094 71.072 71.078 71.023 71.041 71.053 71.017 71.021 70.969 70.939 70.913 70.855 70.904 70.907 70.914 70.892 70.863 70.819 70.924 70.867 70.835 70.898 71.494 70.929 70.847 70.83 70.992 70.903 70.872 70.974 71.179 72.708 70.968 71.313 71.321 71.571 70.93 69.91 69.627 69.433 69.458 69.664 69.005 68.546 68.399 68.174 67.835 67.426 67.082 66.944 66.833 66.733 66.699 66.591 66.48 66.42 66.263 66.206 65.791 65.518 65.479 65.576 65.044 64.93 64.745 64.401 66.314 69.392 70.356 70.777 69.615 65.262 64.011 64.928 64.086 63.205 62.836 62.724 62.672 62.583 62.603 62.79 63.21 63.241 62.492 62.559 63.736 66.445 63.641 62.859 62.637 63.908 64.9 62.319 61.388 61.293 61.17 62.203 62.857 63.862 65.932 67.477 67.15 66.028 63.505 61.317 60.433 61.488 59.934 59.971 59.885 59.998 59.887 60.382 61.271 65.197 66.397 65.64 61.106 59.155 58.96 58.882 58.775 58.727 58.694 59.587 60.779 59.774 58.969 59.771 59.309 58.808 58.807 60.335 60.13 63.781 64.696 65.095 64.181 62.53 58.995 59.608 58.625 58.584 58.301 58.271 58.241 58.226 58.448 58.413 59.75 58.9 58.732 63.76 65.43 65.062 61.137 59.314 60.859 59.072 58.792 58.931 58.999 60.049 59.377 58.724 59.814 59.532 58.59 58.466 58.474 58.48 58.545 59.026 59.654 59.255 58.37 58.231 62.114 63.951 63.234 59.725 58.704 59.552 58.086 57.813 58.249 57.75 58.211 60.081 64.114 64.329 63.195 61.197 59.711 57.94 58.224 59.118 58.463 58.065 57.254 58.28 60.655 60.3 57.093 57.08 57.041 56.964 56.845 56.756 56.707 56.629 56.622 56.624 56.608 56.578 56.53 56.503 56.417 56.347 56.371 56.291 56.257 56.195 56.143 56.137 56.041 56.153 56.042 55.948 55.919 55.875 55.837 55.73 58.593 60.138 59.756 55.535 56.024 56.246 55.577 55.762 55.905 55.913 55.961 56.173 57.006 56.863 61.07 63.226 64.227 63.469 62.395 58.38 56.785 57.297 57.352 56.509 56.319 56.353 56.355 56.384 56.404 56.501 57.545 56.613 56.549 56.547 56.698 58.029 61.18 62.581 62.877 62.012 59.27 59.06 59.072 58.039 56.85 56.335 56.275 56.311 56.275 56.58 57.755 56.52 57.718 57.817 56.157 56.981 57.843 58.894 59.217 59.728 60.279 59.867 60.081 57.356 55.547 54.717 54.113 53.187 52.355 51.666 51.228 51.04 51.157 51.189 51.176 51.283 51.432 51.237 51.263 50.967 50.742 50.692 52.085 52.903 52.504 52.805 53.226 57.503 60.186 61.613 56.629 60.028 55.875 52.017 51.753 51.603 51.541 51.578 52.816 54.755 55.113 54.779 53.431 51.309 51.164 51.652 50.938 50.972 50.37 50.358 50.146 50.021 49.991 49.935 49.866 50.176 50.517 49.703 54.597 57.254 55.891 54.962 50.836 49.424 49.678 49.254 48.988 48.944 48.805 48.584 48.786 50.906 52.826 54.113 54.323 52.418 47.987 47.769 47.674 47.397 47.295 47.234 47.233 47.221 47.214 47.229 47.297 49.397 49.045 47.666 48.056 51.974 52.384 49.445 48.519 47.216 47.065 46.701 46.892 47.656 47.273 46.137 46.06 46.029 45.871 45.88 45.856 45.862 45.821 45.799 45.751 45.682 45.673 45.616 45.552 45.442 45.437 45.407 45.358 45.338 45.207 45.099 45.146 45.056 44.981 44.902 44.742 44.607 44.581 44.66
71.38 71.484 71.491 71.275 71.397 71.085 71.05 71.046 71.043 71.043 71.071 71.043 71.038 71.003 71.048 70.995 70.962 70.946 70.904 70.89 71.378 71.976 70.948 70.899 70.872 70.833 70.783 70.838 70.798 70.842 70.909 71.594 70.844 70.842 71.288 76.544 76.699 76.609 76.453 72.366 70.761 70.643 70.514 70.353 70.294 70.057 69.878 69.721 69.478 70.749 71.271 69.486 68.559 68.328 67.997 67.609 67.25 67.052 66.919 66.833 66.727 66.692 66.523 66.41 66.246 65.884 65.757 65.688 67.023 67.451 67.291 65.095 64.953 64.626 64.329 66.527 68.595 70.039 70.858 70.336 69.295 65.033 63.781 63.417 63.986 62.861 62.632 62.549 62.493 62.417 62.448 63.08 62.691 62.3 62.278 62.152 62.234 62.17 62.63 62.648 64.013 67.122 66.827 65.697 64.706 61.318 61.136 62.47 62.521 66.609 67.142 66.735 65.642 61.157 61.455 64.238 64.777 59.987 59.898 59.89 60.127 59.883 59.875 62.949 65.729 66.075 64.756 60.203 60.57 59.241 58.867 58.773 58.709 58.682 58.778 60.051 58.841 59.089 60.255 58.933 59.276 58.706 58.705 61.963 64.35 65.291 64.843 63.611 59.086 58.488 58.635 58.403 58.322 58.226 58.157 58.243 59.001 58.579 58.552 58.514 58.803 60.024 64.725 65.49 63.995 60.093 58.869 58.826 58.863 58.852 58.902 60.686 61.656 60.589 59.66 60.428 59.098 58.502 58.384 58.316 58.366 58.423 58.374 58.375 58.623 59.358 59.166 58.286 62.238 59.654 58.161 58.086 58.317 57.698 57.676 57.713 57.691 57.992 57.757 61.904 63.094 58.661 59.833 58.326 58.637 58.263 57.37 57.151 57.123 57.133 58.44 61.331 60.251 57.052 56.894 56.873 56.775 56.691 56.584 56.556 56.522 56.504 56.52 56.512 56.434 56.424 56.371 56.343 56.286 56.302 56.239 56.198 56.14 56.126 56.122 56.136 56.12 55.972 55.944 55.901 55.888 55.781 56.323 59.484 59.313 55.92 55.534 57.812 56.731 55.584 57.091 56.243 55.96 56.21 56.284 57.645 56.393 56.985 61.837 62.858 62.502 58.97 57.185 56.546 57.216 56.529 56.283 56.282 56.36 56.299 56.313 56.422 57.129 56.984 56.689 59.027 61.178 57.55 56.688 56.944 58.311 62.168 60.042 59.283 57.123 56.739 56.893 58.323 57.86 56.326 56.296 56.541 56.305 56.48 57.873 58.075 58.146 58.157 59.063 60.104 57.97 59.661 59.92 60.972 60.506 58.384 56.214 54.875 54.281 52.318 51.68 51.382 51.054 51.044 51.137 51.132 51.167 51.291 51.414 51.285 51.172 50.804 50.724 50.625 51.252 52.384 53.399 53.039 53.832 56.806 61 62.233 62.131 54.551 59.177 57.412 52.031 51.648 51.544 51.448 51.383 51.364 51.367 52.271 52.888 52.629 50.679 50.736 50.727 50.432 50.222 50.231 50.03 50.018 49.968 49.927 49.823 49.722 49.666 49.921 49.755 54.104 55.146 55.99 55.76 54.781 49.667 48.974 48.851 48.765 48.771 49.993 48.56 48.183 48.106 48.172 53.684 54.032 53.406 48.354 47.569 47.51 47.31 47.191 47.109 47.075 47.094 47.275 47.777 47.979 49.254 48.072 48.316 47.17 47.086 47.564 47.129 47.11 47.45 46.529 46.27 46.166 46.498 46.012 45.969 45.964 45.938 45.936 45.911 45.91 45.873 45.82 45.779 45.712 45.63 45.597 45.593 45.596 45.633 45.566 45.52 45.456 45.401 45.258 45.286 45.77 45.213 47.897 48.023 44.851 44.69 44.88 44.544
71.338 71.251 71.164 71.099 71.052 71.102 71.009 71.076 71.069 71.065 71.017 70.999 70.982 70.975 70.93 70.886 70.945 71.078 71.943 78.911 79.512 81.3 72.707 70.871 70.782 70.723 70.774 70.811 70.819 70.737 70.842 71.683 70.829 70.782 73.975 76.69 77.795 78.172 76.18 72.163 70.714 70.594 70.43 70.208 70.094 69.901 69.777 69.535 69.359 70.865 71.177 69.41 68.512 68.27 67.839 67.445 67.153 67.013 66.877 66.784 66.732 66.659 66.455 66.298 66.134 65.863 65.725 65.504 67.048 65.45 65.174 65.054 64.978 64.833 64.781 64.453 65.622 68.324 70.415 70.722 70.092 68.249 64.068 63.674 63.5 63.338 63.54 62.936 62.491 62.366 62.282 62.295 62.325 63.092 62.135 62.168 62.073 62.461 62.41 64.61 66.378 67.835 67.835 67.472 66.992 65.86 61.231 61.712 61.929 65.737 66.354 66.324 62.006 60.538 60.235 61.329 60.496 59.97 59.865 60.446 60.108 59.804 60.003 63.802 65.971 65.889 62.104 59.468 59.28 59.454 60.103 59.283 58.819 58.709 59.487 59.843 59.257 58.676 58.673 58.718 58.806 58.721 61.356 62.551 64.961 65.468 64.136 63.359 58.583 58.467 58.393 58.47 58.24 58.2 58.174 58.258 58.615 58.623 58.857 58.617 58.65 63.42 65.497 64.956 62.304 59.993 59.089 58.923 58.857 58.866 58.866 59.345 61.271 61.542 60.99 59.583 59.339 58.334 58.304 58.246 58.197 58.196 58.17 58.15 58.12 58.115 58.03 58.589 59.197 58.906 58.165 57.962 57.879 57.592 57.59 57.642 57.635 58.188 57.824 58.668 59.162 58.411 57.478 57.683 57.316 57.173 57.065 59.385 57.791 57.028 57.679 60.907 59.96 56.97 56.825 56.702 56.615 56.523 56.476 56.468 56.436 56.406 56.426 56.398 56.342 56.307 56.266 56.244 56.197 56.2 56.19 56.188 56.151 56.101 56.055 56.046 56.086 55.974 55.979 55.935 55.776 55.728 57.467 56.659 55.671 55.61 56.226 59.16 59.065 56.327 57.471 56.192 56.256 57.441 58.958 61.424 60.545 57.763 57.324 61.706 58.155 56.543 57.276 56.378 56.402 56.246 56.198 56.244 56.295 56.323 56.387 57.171 57.021 56.728 56.672 60.323 62.414 62.049 57.99 56.867 57.466 56.853 56.8 56.878 56.588 56.486 56.713 56.778 58.076 58.228 56.564 56.181 56.146 56.114 56.039 56.426 58.976 59.397 62.229 64.587 64.522 63.225 60.348 60.214 59.21 55.499 54.78 54.16 53.424 51.621 51.125 51.043 51.144 51.163 51.091 51.128 51.252 51.342 51.144 51.091 50.889 50.658 50.655 54.084 55.144 52.802 53.863 54.665 54.897 56.147 61.975 62.818 62.373 59.594 54.07 53.166 52.968 51.764 51.71 51.456 51.335 51.301 51.509 52.047 52.597 51.792 51.012 50.372 54.621 55.333 51.514 50.97 49.974 49.895 49.858 49.801 49.764 49.671 49.554 49.59 49.543 49.297 53.962 55.284 55.682 54.91 52.694 49.449 48.849 48.735 50.264 50.431 48.602 48.084 48.09 48.065 51.615 49.515 48.286 47.597 47.529 47.465 47.473 47.074 47.074 46.981 49.147 52.763 53.059 50.698 47.777 47.861 47.219 47.142 47.142 46.963 46.98 46.604 46.549 46.165 46.05 45.959 45.999 46.014 45.998 45.982 46.018 45.941 45.911 45.862 45.786 45.773 45.75 45.728 45.71 45.698 45.715 45.694 46.257 46.412 45.645 45.636 45.933 45.744 45.854 45.912 45.593 48.811 47.698 45.355 44.834 44.684 44.597
71.161 71.133 71.049 71.059 71.093 71.003 71.06 71.078 71.072 71.025 70.978 70.968 70.99 71.219 71.351 76.396 74.07 80.891 81.386 81.314 81.38 81.334 73.537 70.793 70.746 70.688 70.698 70.754 70.818 70.712 70.889 72.647 70.825 70.841 74.748 77.476 78.288 77.55 76.325 70.836 70.627 70.499 70.346 70.076 70.047 69.865 69.658 69.51 69.333 70.734 71.236 69.447 68.485 68.217 67.702 67.271 67.099 66.944 66.85 66.747 66.684 66.562 66.335 66.198 66.022 65.943 65.892 65.666 65.563 65.267 65.182 65.07 64.993 64.862 65.541 64.577 64.319 65.283 69.534 70.605 70.13 69.24 63.829 64.428 64.756 63.563 63.359 64.671 63.035 62.308 62.217 62.151 62.106 62.783 62.107 62.053 62.001 62.561 61.573 65.089 66.685 67.407 68.203 68.03 67.955 66.832 61.873 62.201 62.466 63.198 63.726 62.035 60.966 60.326 60.205 61.112 59.917 59.891 59.861 60.208 59.828 59.855 62.377 64.934 66.01 65.467 60.398 59.374 59.124 58.904 60.822 60.812 59.132 60.146 59.245 59.454 59.405 59.154 58.655 58.668 58.721 59.012 61.234 64.307 65.473 64.768 63.817 59.303 59.402 58.646 58.474 58.409 58.182 58.143 58.161 58.308 58.373 58.567 58.66 58.617 62.285 65.147 65.265 63.884 61.639 59.501 58.995 59.119 59.351 58.903 58.825 58.791 58.697 60.943 60.74 62.172 61.403 58.282 58.172 58.138 58.099 58.172 58.127 59.14 63.321 63.422 61.607 61.491 58 57.865 57.966 57.895 57.549 57.57 57.553 57.632 57.562 57.663 57.989 58.184 57.898 57.555 57.341 57.35 57.32 57.118 56.959 57.376 57.092 56.815 57.063 60.682 57.899 56.753 56.685 56.544 56.5 56.45 56.401 56.368 56.341 56.32 56.279 56.267 56.277 56.19 56.176 56.145 56.102 56.112 56.136 56.15 56.096 56.085 56.04 56.078 56.033 56.018 55.919 55.801 56.799 57.244 55.947 55.247 55.607 56.584 55.919 56.595 55.858 55.983 56.475 56.167 56.258 59.979 60.981 63.203 62.426 60.669 57.318 56.895 57.547 56.441 57.148 56.253 56.18 56.205 56.21 56.254 56.237 56.343 56.436 57.232 57.041 57.024 60.439 62.573 62.934 62.297 61.508 56.902 56.31 56.778 56.669 56.797 56.526 56.314 56.367 57.185 56.743 56.989 58.219 56.551 56.113 56.008 55.951 56.461 57.434 60.703 64.15 65.501 65.496 64.347 58.997 56.646 55.297 54.649 57.492 57.111 52.404 51.197 50.935 51.029 51.108 51.083 51.114 51.323 51.189 51.189 51.091 50.73 50.746 50.665 51.181 55.252 55.128 53.652 55.606 54.286 57.615 56.621 61.137 61.814 62.488 58.674 56.199 60.015 53.113 51.857 51.773 51.594 51.414 51.258 51.033 50.977 51.169 50.806 50.894 54.884 56.207 55.764 54.949 51.383 50.267 49.774 49.982 49.709 49.632 49.605 49.49 49.427 49.416 49.092 49.151 54.395 55.251 55.211 54.454 50.635 48.84 48.661 48.965 50.068 49.731 49.183 49.038 48.494 47.957 47.789 47.701 48.398 47.571 47.345 47.472 47.622 49.805 47.579 50.961 53.006 53.651 52.131 47.569 47.113 47.182 47.284 47.244 46.332 46.205 46.085 46.076 46.094 46.059 46.046 46.097 46.053 46.026 45.99 45.967 45.919 45.903 45.856 45.864 45.812 45.895 46.799 47.611 46.206 45.786 45.801 46.095 46.481 45.704 45.689 45.694 45.765 47.241 47.646 48.417 49.327 47.054 45.811 44.877 44.706 44.533
71.073 71.073 71.097 71.075 71.071 70.996 71.022 71.033 71.035 71.075 71.104 71.224 73.831 78.602 78.41 78.302 78.367 81.347 81.28 81.319 81.338 81.086 72.59 70.798 70.683 70.616 70.721 70.785 70.731 70.774 74.878 75.19 71.597 71.064 75.542 77.598 78.301 77.273 76.23 71.351 71.691 71.44 71.313 71.21 71.071 70.877 74.316 72.687 69.412 72.811 73.417 69.919 68.402 68.058 67.642 67.289 67.095 66.971 66.887 66.788 66.668 66.556 66.386 66.256 66.144 66.002 65.978 65.823 65.643 65.733 65.183 65.086 64.962 65.75 65.046 64.419 64.312 64.613 65.244 69.643 69.187 64.621 65.188 64.347 63.364 63.097 62.801 62.831 62.598 62.188 62.199 62.062 61.973 61.979 62.188 62.519 62.663 61.85 61.437 61.772 62.706 66.134 66.62 67.033 67.266 66.064 61.447 62.091 61.143 60.559 60.737 60.857 61.27 61.206 60.03 60.17 59.914 59.875 59.906 59.864 59.722 59.916 59.869 62.486 64.856 64.93 60.114 59.32 62.611 62.417 59.952 59.934 59.26 59.393 59.009 59.575 60.022 59.344 58.661 58.632 58.699 61.199 63.621 64.963 65.033 64.181 60.29 59.442 58.724 58.636 59.223 58.224 58.19 58.165 58.734 58.518 58.441 58.537 58.645 58.821 60.061 63.191 64.675 61.094 59.18 58.962 59.061 60.002 59.753 59.234 58.972 58.812 58.746 59.67 61.621 62.953 62.428 58.575 58.166 58.39 58.11 58.154 58.128 58.388 64.162 64.584 64.245 62.411 58.821 58.185 57.736 57.599 57.53 57.486 57.52 57.51 57.55 57.546 57.631 57.655 58.169 62.626 62.906 62.912 62.743 57.302 56.948 56.86 56.741 56.609 58.166 60.737 59.976 56.603 56.437 56.401 56.346 56.304 56.316 56.278 56.277 56.236 56.207 56.149 56.124 56.124 56.137 56.112 56.065 56.067 56.09 56.083 56.085 56.055 56.011 56.062 56.082 56.013 55.87 57.193 59.128 58.963 55.609 55.186 55.244 55.193 56.587 55.677 55.602 55.665 56.264 56.287 58.273 60.919 63.914 64.19 62.975 61.778 58.289 57.193 56.541 56.263 56.33 56.169 56.116 56.153 56.226 56.178 56.192 56.346 56.434 56.543 57.104 60.481 62.326 63.113 62.651 61.551 56.792 56.247 56.223 56.188 56.182 57.496 56.352 56.336 56.459 58.346 57.944 57.12 57.419 58.564 58.982 56.022 57.372 56.265 56.768 61.457 64.286 64.759 64.838 64.486 61.01 55.714 54.507 53.686 52.892 52.824 51.062 50.92 51.071 51.068 51.142 51.157 51.301 51.195 51.206 50.999 50.684 50.589 50.842 51.627 52.297 54.117 53.319 53.825 53.666 53.624 53.078 58.626 54.104 57.588 61.049 60.982 60.478 58.466 54.491 51.657 51.53 51.263 51.315 52.417 51.306 51.78 50.889 50.85 50.858 52.333 55.787 56.28 55.451 51.609 50.161 49.998 50.467 49.615 49.474 49.403 49.319 49.703 49.245 49.036 49.501 51.635 54.891 55.654 55.128 54.253 50.16 48.582 48.627 48.407 47.594 49.774 49.458 49.354 50.485 49.043 48.996 48.626 48.513 47.88 54.112 54.291 55.375 48.692 46.798 51.52 52.059 51.203 48.187 47.274 47.115 46.559 46.246 46.082 46.063 46.139 46.139 46.124 46.106 46.059 46.014 45.993 46.037 46.077 46.086 46.072 46.03 46.029 46.032 47.237 47.759 46.669 47.046 46.597 46.108 46.699 46.616 45.845 47.47 46.288 46.918 51.009 48.638 47.663 48.807 48.723 46.491 45.52 44.673 44.505 44.345
71.07 71.097 71.01 71.032 71.04 71.025 71.065 71.247 71.33 72.593 75.619 78.364 78.265 78.317 78.291 78.31 78.866 81.297 81.29 81.313 81.328 81.294 72.338 70.768 70.648 70.564 70.701 70.723 70.718 70.648 73.594 75.198 70.828 71.326 76.34 77.524 77.93 78.989 74.091 72.19 71.032 70.726 70.667 72.489 71.164 75.389 78.264 75.963 71.685 77.708 76.067 70.226 68.399 68.02 67.6 67.288 67.084 66.999 66.911 66.825 66.68 66.554 66.414 66.321 66.23 66.074 65.973 65.889 65.739 65.7 65.336 65.181 65.258 64.768 64.873 64.379 64.319 64.254 64.091 65.82 65.089 64.951 66.375 63.797 63.479 64.216 63.404 63.949 63.216 62.288 62.071 62.034 61.91 61.807 61.801 61.963 61.993 61.616 61.483 61.333 61.262 62.12 63.34 65.896 66.589 63.661 61.352 61.61 62.194 60.689 61.054 61.037 61.046 60.42 60.053 59.881 59.901 59.882 59.873 60.019 59.616 59.68 59.617 59.693 60.563 61.028 59.545 59.31 63.396 64.864 62.505 60.665 60.359 60.516 59.048 59.175 59.852 59.844 60.035 59.025 58.802 62.09 64.46 65.475 64.906 61.187 59.003 58.656 58.713 58.538 58.249 58.181 58.2 58.19 58.624 58.637 58.581 58.564 61.951 58.784 58.622 59.201 62.524 59.25 58.734 58.891 59.015 59.898 58.886 59.73 59.255 59.141 60.178 59.113 61.113 62.022 61.922 59.77 59.64 59.605 59.134 58.964 59.058 60.106 64.188 65.595 64.79 62.277 59.097 58.917 58.503 61.465 58.199 57.471 57.455 57.461 57.467 57.494 57.424 57.386 57.817 62.406 64.183 64.446 63.104 57.767 56.946 56.772 56.616 56.654 58.229 60.589 60.246 56.383 56.263 56.233 56.23 56.14 56.172 56.13 56.116 56.101 56.102 56.067 56.01 56.031 56.017 55.998 55.987 56.029 56.069 56.069 56.043 56.001 56.032 56.127 56.069 55.862 57.074 59.069 59.071 56.189 56.225 55.505 55.23 55.274 56.008 56.49 56.008 56.003 56.602 56.564 60.463 62.559 63.767 63.654 61.913 60.817 56.289 56.711 56.407 56.16 56.092 56.067 56.098 56.157 56.132 56.155 56.244 56.812 56.377 56.603 60.754 62.407 63.022 62.508 61.503 57.691 56.237 56.16 56.142 56.129 56.096 56.059 56.327 58.151 58.936 56.505 56.523 57.549 58.229 59.126 60.134 59.831 59.437 58.262 57.082 58.343 62.192 63.835 64.264 63.707 57.689 54.441 53.437 52.656 51.586 50.987 50.935 51.052 51.052 51.084 51.213 51.31 51.169 51.097 50.88 50.718 50.968 52.205 53.83 54.235 54.529 53.4 55.018 53.544 52.945 52.705 53.706 55.507 52.581 53.707 57.876 55.149 58.515 59.85 54.606 51.453 51.466 52.367 51.518 52.849 53.006 50.883 50.928 50.948 50.516 50.374 54.402 56.568 56.172 55.291 50.361 50.267 49.942 49.832 49.913 49.29 49.199 49.487 49.462 49.508 49.118 49.193 53.235 56.393 55.579 54.779 52.997 48.621 48.809 48.108 47.552 47.944 51.198 52.951 52.448 47.497 47.296 47.282 48.248 52.869 54.119 54.484 50.845 46.577 46.568 46.526 48.46 47.675 47.057 46.514 46.165 46.146 46.155 46.173 46.171 46.166 46.126 46.042 46.061 46.123 46.113 46.106 47.829 49.153 46.168 46.134 46.506 46.092 46.247 45.876 46.017 45.775 45.814 47.471 46.656 45.993 49.253 50.502 51.19 51.587 51.794 51.566 50.043 48.186 48.575 46.281 46.914 45.442 44.462 44.37 44.187
